-24.069198608398 -68.891067504883 -191.898345947266 2.082766532898
12.460062026978 -67.629631042480 -200.244262695313 1.537150382996
97.699401855469 -69.375556945801 -194.506439208984 2.255906581879
-114.912239074707 -68.226623535156 -198.386932373047 2.027498006821
20.069396972656 -73.028182983398 -199.182205200195 1.784507393837
-16.489770889282 -68.703727722168 -196.105316162109 1.577219486237
-18.907115936279 -69.035758972168 -199.273132324219 1.075020074844
99.776901245117 -68.919952392578 -200.705718994141 3.485845088959
6.734354019165 -71.585472106934 -200.013412475586 2.720212936401
-23.141542434692 -67.999740600586 -196.996444702148 1.410211086273
-122.570343017578 -72.092063903809 -203.169281005859 1.898963689804
-135.397430419922 -69.275962829590 -203.256713867188 2.861939191818
-115.293365478516 -64.828956604004 -204.920288085938 1.847907304764
-143.399093627930 -71.837471008301 -203.357452392578 1.298234820366
16.328895568848 -69.424682617188 -198.499771118164 1.410057902336
92.606857299805 -71.204193115234 -203.043869018555 2.408056735992
-167.121749877930 -64.639244079590 -201.173660278320 1.050479888916
98.795715332031 -69.642639160156 -203.380340576172 2.854391336441
-22.876552581787 -73.041053771973 -206.682617187500 3.484435319901
93.360473632813 -67.783050537109 -211.693069458008 0.506514906883
86.810119628906 -71.149757385254 -212.705444335938 1.755841493607
10.902794837952 -71.253761291504 -206.752319335938 1.403967738152
18.513454437256 -68.923141479492 -212.776916503906 2.105477571487
11.608441352844 -66.770133972168 -208.556106567383 1.369359850883
-12.182792663574 -69.503448486328 -223.043975830078 3.038113832474
-95.728507995605 -70.842079162598 -218.826995849609 2.495705842972
-11.705487251282 -71.397369384766 -212.964599609375 2.264201164246
87.776885986328 -69.883697509766 -217.495086669922 1.832328677177
-94.844963073730 -71.067893981934 -217.913513183594 2.088043928146
-102.447189331055 -66.635948181152 -221.326416015625 1.735788464546
-95.752822875977 -69.547370910645 -219.704177856445 2.638068199158
86.916625976563 -71.125549316406 -223.185745239258 1.484175920486
-136.629776000977 -69.066787719727 -225.144790649414 2.091538429260
-133.803222656250 -72.468627929688 -226.786666870117 1.563097238541
-117.989273071289 -68.623512268066 -224.899765014648 2.446517467499
-114.429779052734 -66.187934875488 -223.240005493164 1.979942440987
-134.689529418945 -67.218170166016 -227.170318603516 1.957323551178
-113.073272705078 -75.228004455566 -227.739624023438 2.491052389145
-113.559410095215 -68.549400329590 -228.161895751953 1.529830217361
-8.204834938049 -72.341163635254 -225.380310058594 1.053845524788
-17.270509719849 -71.383583068848 -223.843444824219 2.024692773819
-2.326179981232 -67.159729003906 -231.127731323242 0.446608901024
-11.492677688599 -66.342613220215 -227.616500854492 1.575322747231
14.015628814697 -69.840461730957 -234.342880249023 1.300519824028
-20.202537536621 -67.407402038574 -229.725128173828 3.806146860123
-168.161254882813 -67.034645080566 -222.066787719727 1.761544704437
-5.480285167694 -69.013618469238 -234.176147460938 1.196116447449
79.462387084961 -66.651641845703 -232.319915771484 4.959746360779
9.589252471924 -70.843681335449 -234.480941772461 1.679499149323
-7.271911144257 -68.299766540527 -235.467193603516 2.014606952667
-158.252532958984 -66.174797058105 -236.332183837891 1.957020163536
-143.643508911133 -67.137222290039 -230.332504272461 1.328475594521
61.215732574463 -68.018707275391 -236.953018188477 1.324672222137
-7.034334182739 -69.946670532227 -234.840423583984 1.375198364258
7.947625160217 -71.162292480469 -231.550079345703 1.923975944519
68.074417114258 -71.554466247559 -231.440170288086 0.759510815144
75.587570190430 -69.758705139160 -235.476470947266 2.548224210739
69.628150939941 -70.318641662598 -242.522857666016 2.547509670258
-2.963036060333 -71.776313781738 -236.475387573242 1.263457894325
56.659336090088 -67.587432861328 -238.986251831055 1.544072389603
-20.427211761475 -71.385627746582 -240.403823852539 1.685196876526
-16.673555374146 -66.606002807617 -240.992492675781 3.037055015564
6.828008174896 -68.891387939453 -240.133850097656 1.995492219925
63.384860992432 -72.379859924316 -239.054489135742 1.810264348984
64.041557312012 -67.748367309570 -241.733398437500 1.575949788094
48.183261871338 -69.248275756836 -247.140853881836 1.358309030533
59.710582733154 -72.205459594727 -243.869201660156 2.381157875061
-16.996597290039 -73.075286865234 -250.384811401367 2.747531175613
-85.076339721680 -65.787940979004 -254.381774902344 2.975283145905
-78.323394775391 -66.406326293945 -253.191635131836 3.696965694427
42.813262939453 -71.731094360352 -248.814361572266 0.854671418667
-150.599243164063 -69.257034301758 -250.567306518555 2.084464788437
34.521514892578 -68.788803100586 -257.160522460938 2.214127063751
-93.523948669434 -71.783905029297 -252.170715332031 1.008620738983
-157.730987548828 -64.387985229492 -254.462814331055 3.064018726349
-141.793289184570 -62.095947265625 -253.126724243164 3.497198343277
43.697174072266 -68.715995788574 -254.495834350586 1.952051997185
-126.482604980469 -64.316864013672 -257.809967041016 1.367506504059
-118.372947692871 -68.422073364258 -255.411544799805 1.967171311378
-93.857849121094 -64.342361450195 -257.202972412109 2.548669099808
-15.149506568909 -65.557708740234 -250.974670410156 3.186121702194
30.383001327515 -68.447273254395 -258.104919433594 1.486698508263
23.448778152466 -66.158187866211 -260.279998779297 2.143245220184
-160.474105834961 -63.570346832275 -260.041717529297 4.465517044067
-116.291099548340 -70.623588562012 -262.787872314453 1.384849905968
-15.448077201843 -68.135330200195 -262.583221435547 2.816964149475
-134.344406127930 -67.668067932129 -265.336822509766 1.873171091080
-15.710364341736 -67.054878234863 -270.920227050781 3.930753946304
-166.491867065430 -66.827323913574 -272.276031494141 4.454455852509
-8.955641746521 -69.047767639160 -280.169219970703 2.320851325989
-162.588439941406 -67.594612121582 -287.594787597656 1.931794643402
-165.518356323242 -69.272834777832 -277.696960449219 2.049310207367
-144.308746337891 -67.620971679688 -285.106536865234 1.963510632515
-171.882583618164 -69.226417541504 -284.429901123047 4.647237777710
12.310772895813 -70.200851440430 -288.816619873047 2.972549915314
-104.885803222656 -68.544090270996 -286.689331054688 1.513367652893
-88.894363403320 -63.599815368652 -286.140716552734 6.047702312469
-169.480834960938 -64.577247619629 -284.275054931641 5.623661041260
-93.749427795410 -71.441497802734 -284.265869140625 4.638364791870
-155.455032348633 -67.743125915527 -288.316528320313 2.351488113403
-77.252647399902 -68.423484802246 -293.923034667969 3.370946645737
-72.381195068359 -66.969009399414 -289.022552490234 3.605938673019
-84.304512023926 -68.540466308594 -291.583343505859 2.755232095718
-5.449864864349 -65.368759155273 -289.593658447266 2.775411367416
-89.781044006348 -67.525634765625 -288.856658935547 2.726974725723
-100.778839111328 -68.855766296387 -291.111358642578 1.020513653755
-118.455291748047 -67.692291259766 -292.723480224609 1.154775023460
-118.367553710938 -64.734298706055 -292.804595947266 3.428338289261
-135.965774536133 -66.692237854004 -292.142913818359 2.172784090042
-144.660736083984 -67.334556579590 -300.704895019531 2.610220432281
-146.157272338867 -68.339759826660 -311.663604736328 1.211306452751
23.852642059326 -71.170524597168 -15.959774017334 2.400012016296
32.282596588135 -72.385131835938 -17.283882141113 1.114826440811
29.296384811401 -74.969451904297 -19.169588088989 2.551407098770
44.101852416992 -71.081375122070 -21.491752624512 1.120335459709
24.783536911011 -72.608451843262 -32.496738433838 2.798019170761
-75.104652404785 -70.131095886230 -47.290657043457 2.161687850952
89.409309387207 -68.036834716797 -66.595237731934 1.899661302567
-17.926887512207 -69.870635986328 -68.087532043457 1.717318654060
102.304733276367 -71.035865783691 -74.096466064453 2.490336656570
94.731399536133 -75.757484436035 -76.859558105469 2.322868347168
68.148300170898 -73.218513488770 -79.550613403320 2.503142356873
69.863731384277 -74.984817504883 -83.716064453125 1.380670666695
-45.074588775635 -74.462844848633 -82.919403076172 1.460593819618
60.768455505371 -75.012100219727 -83.447021484375 4.324690818787
-94.851135253906 -71.272972106934 -88.469413757324 2.958069562912
-49.613838195801 -68.953605651855 -85.600250244141 1.937695980072
-56.338317871094 -77.692749023438 -88.042785644531 3.253964424133
100.508209228516 -76.945144653320 -98.858230590820 3.014647960663
58.760749816895 -74.618843078613 -93.288192749023 1.299244880676
65.450340270996 -70.884056091309 -92.001701354980 2.122918844223
-96.176162719727 -65.438583374023 -96.950149536133 1.449674010277
107.408607482910 -73.141708374023 -94.326911926270 3.090027332306
43.623336791992 -70.054824829102 -99.800811767578 0.931036829948
100.944625854492 -71.337913513184 -99.284149169922 1.544816493988
106.247055053711 -69.420722961426 -107.153518676758 1.041193246841
100.771621704102 -71.800010681152 -105.716827392578 3.076899528503
73.375961303711 -73.624443054199 -101.779441833496 2.687817573547
86.780136108398 -73.411308288574 -107.678047180176 4.822552204132
49.471466064453 -70.905769348145 -112.093292236328 2.830261945724
110.149345397949 -69.401138305664 -104.772178649902 0.959102630615
45.685539245605 -73.757743835449 -106.353652954102 3.010992050171
40.078121185303 -69.426994323730 -102.384689331055 2.105005979538
112.219963073730 -71.794692993164 -111.585098266602 1.527182579041
-79.065208435059 -67.774421691895 -109.799926757813 2.257366895676
45.554813385010 -70.238151550293 -113.726043701172 1.999873280525
34.188919067383 -72.860832214355 -115.902168273926 1.747210621834
104.944038391113 -69.117408752441 -111.234397888184 2.196780920029
38.878429412842 -68.252891540527 -112.285179138184 2.897321224213
-88.615119934082 -69.836662292480 -112.987609863281 2.537460565567
-96.116882324219 -67.283729553223 -114.832862854004 3.505497932434
103.464523315430 -74.297737121582 -120.358169555664 2.917919635773
-95.361343383789 -71.369049072266 -118.734107971191 1.910338878632
38.372665405273 -72.815177917480 -122.127311706543 2.311974525452
36.381694793701 -70.499786376953 -121.566337585449 1.447496175766
-84.022911071777 -69.618446350098 -124.335121154785 2.406090974808
31.750865936279 -68.727363586426 -135.429763793945 1.383984923363
110.223785400391 -72.298103332520 -132.444244384766 0.693172931671
-53.291400909424 -69.617492675781 -136.331115722656 2.317469358444
-88.876403808594 -68.622810363770 -131.709701538086 1.022608876228
37.293411254883 -73.761894226074 -132.511154174805 2.249197244644
-89.733078002930 -65.493392944336 -135.883743286133 1.659341335297
-89.585563659668 -71.635704040527 -139.729812622070 4.228994369507
-50.325817108154 -71.049621582031 -137.118759155273 2.285453557968
-71.513648986816 -67.873115539551 -139.661544799805 1.547106862068
-51.333854675293 -68.983802795410 -133.732620239258 2.571348667145
114.777755737305 -68.267707824707 -138.729461669922 2.301515102386
-73.888778686523 -71.115394592285 -136.986694335938 2.458827972412
35.893600463867 -70.861244201660 -132.089309692383 2.043354272842
-79.356048583984 -68.529411315918 -140.246002197266 1.157990336418
-73.976127624512 -69.403205871582 -135.908996582031 1.727221846581
-92.044433593750 -67.513679504395 -140.157012939453 1.250420093536
-54.561901092529 -67.514373779297 -147.269546508789 1.589854478836
30.765104293823 -66.381805419922 -146.476638793945 2.448849439621
26.822885513306 -68.364044189453 -150.228118896484 0.815120398998
18.483152389526 -65.572662353516 -144.948974609375 1.114693403244
112.132797241211 -70.022735595703 -147.499221801758 2.343260288239
-94.223922729492 -67.711868286133 -152.493652343750 1.186402678490
12.270423889160 -71.367897033691 -153.077072143555 1.287150740623
-72.654685974121 -68.736831665039 -153.467269897461 1.766000747681
22.766792297363 -69.051452636719 -150.467163085938 2.271811246872
-49.892677307129 -68.357009887695 -155.694152832031 2.117824792862
8.849873542786 -68.472785949707 -153.861068725586 1.543335795403
14.344589233398 -72.042930603027 -159.105667114258 1.581178307533
16.997394561768 -73.769042968750 -164.646789550781 1.661134004593
-49.690376281738 -71.119728088379 -162.879714965820 2.249953508377
-39.910213470459 -68.469757080078 -155.177795410156 1.447816133499
-47.140235900879 -69.588172912598 -161.349685668945 1.362869381905
-104.507324218750 -69.159500122070 -171.919937133789 2.035136222839
20.904329299927 -70.429870605469 -174.769210815430 1.758849620819
-35.607978820801 -68.756202697754 -176.334335327148 1.433238983154
14.570582389832 -72.869964599609 -179.038925170898 1.506011366844
-144.481292724609 -68.344062805176 -175.481719970703 2.122442245483
-33.053665161133 -66.174583435059 -173.159271240234 1.336412072182
-155.898284912109 -72.650581359863 -177.571258544922 3.370808601379
22.567956924438 -65.121757507324 -182.459808349609 3.465612888336
-33.754699707031 -70.065658569336 -171.886825561523 2.891110658646
-108.529220581055 -66.885238647461 -177.611434936523 1.806128859520
-108.033592224121 -72.398063659668 -183.555816650391 3.991676092148
-30.883596420288 -64.562126159668 -185.551879882813 4.604762554169
-24.521499633789 -72.773002624512 -182.284896850586 1.693081736565
13.054873466492 -68.056846618652 -189.932907104492 2.765846014023
16.011201858521 -66.501022338867 -197.865921020508 2.675976037979
12.947511672974 -68.922790527344 -187.628631591797 3.392443656921
-143.780242919922 -67.099800109863 -187.201797485352 1.665842652321
20.654600143433 -65.681465148926 -190.600891113281 2.456707239151
6.580521106720 -68.637374877930 -197.377593994141 1.529344320297
-138.051208496094 -66.544952392578 -194.190429687500 3.685229301453
-115.304054260254 -67.762428283691 -195.327957153320 1.421905755997
13.905055999756 -67.154808044434 -201.842788696289 2.322503089905
-117.329689025879 -66.993217468262 -196.680023193359 2.001190185547
-108.699958801270 -63.603961944580 -192.048767089844 3.155512571335
-166.327865600586 -68.996742248535 -199.748046875000 2.529495954514
-25.296514511108 -67.511299133301 -200.454742431641 0.876516520977
11.920037269592 -67.263908386230 -200.895248413086 1.731347322464
-144.002304077148 -68.013175964355 -203.721557617188 2.463192701340
-136.825408935547 -69.579093933105 -206.197769165039 4.011504650116
-21.132610321045 -66.753158569336 -207.749435424805 2.383481264114
-12.928835868835 -69.535873413086 -205.099197387695 1.025856018066
-15.807046890259 -69.032539367676 -206.475097656250 2.120606660843
-141.848587036133 -70.941551208496 -204.279174804688 2.178218841553
-17.598194122314 -68.603210449219 -213.423095703125 2.597919702530
-11.559097290039 -71.861228942871 -214.899246215820 2.594932079315
16.513582229614 -66.054252624512 -211.670104980469 2.861892700195
-15.927968978882 -71.589126586914 -212.076965332031 0.487873107195
9.446436882019 -68.748558044434 -210.730041503906 0.638033807278
-11.462267875671 -69.149452209473 -216.169052124023 1.556147933006
-22.038173675537 -65.791999816895 -212.427444458008 5.648318290710
11.558732032776 -72.599571228027 -221.768493652344 2.355747222900
-2.683320999146 -72.976768493652 -220.480606079102 2.316312551498
10.127385139465 -64.979667663574 -221.817306518555 1.388399124146
-7.170801162720 -70.045944213867 -227.513793945313 1.631156563759
-159.908721923828 -67.912498474121 -225.049041748047 0.818376481533
79.739906311035 -70.904487609863 -221.245285034180 2.943074941635
-136.353576660156 -65.628814697266 -224.201553344727 2.019170284271
-136.132263183594 -69.102096557617 -223.054687500000 2.642050504684
-9.517989158630 -68.846305847168 -225.836120605469 2.583214998245
7.406134128571 -67.892074584961 -234.516510009766 1.145618081093
-158.027664184570 -66.913650512695 -229.304519653320 0.761471986771
86.970489501953 -67.443382263184 -221.128723144531 2.344818592072
-3.255378007889 -67.010368347168 -226.355148315430 1.400015115738
-0.465077996254 -68.898666381836 -223.640106201172 2.004460334778
72.884239196777 -71.048477172852 -230.475509643555 0.694133520126
-0.516170024872 -65.863006591797 -235.475875854492 1.147481441498
-15.838940620422 -69.917518615723 -227.747604370117 1.735339879990
-127.644248962402 -65.791488647461 -234.234481811523 1.154552221298
-5.423466205597 -67.677177429199 -237.512741088867 0.908703386784
1.342049002647 -65.950065612793 -232.599060058594 1.157062649727
64.877311706543 -66.461936950684 -239.276306152344 1.701676726341
-159.412002563477 -68.280258178711 -238.058013916016 3.028886556625
-13.689820289612 -67.220184326172 -245.277908325195 2.254172086716
-170.268096923828 -69.220306396484 -238.596405029297 2.997970819473
8.686980247498 -65.280677795410 -242.742584228516 2.725553750992
-165.748886108398 -67.752357482910 -238.767501831055 1.388445377350
-161.978973388672 -68.239120483398 -245.916320800781 1.380655527115
55.828109741211 -68.026031494141 -246.235427856445 1.161977291107
61.075824737549 -69.483253479004 -243.714447021484 2.000838518143
54.951828002930 -68.628746032715 -245.490570068359 0.401614993811
50.517375946045 -67.922180175781 -249.906784057617 0.691564381123
-156.645462036133 -67.711708068848 -243.882614135742 3.219943761826
-157.728622436523 -64.598800659180 -248.250061035156 3.535850763321
-14.593781471252 -70.422515869141 -250.072219848633 1.569164991379
-152.604644775391 -66.547637939453 -246.595596313477 2.308743953705
18.399246215820 -69.183113098145 -252.028610229492 2.611833810806
-171.000198364258 -71.261070251465 -250.938995361328 3.972177028656
-168.841766357422 -65.217430114746 -248.097991943359 3.775254487991
-83.381072998047 -68.678039550781 -249.178985595703 1.764941096306
-170.751831054688 -66.222091674805 -259.604309082031 3.771940946579
-86.682205200195 -66.724121093750 -256.961120605469 3.364825963974
41.267761230469 -67.044494628906 -254.147155761719 0.214936941862
20.958040237427 -70.954826354980 -257.165527343750 3.412477493286
-160.009490966797 -67.396743774414 -261.743957519531 3.234849929810
-102.121307373047 -61.630867004395 -259.696228027344 1.140236139297
37.963325500488 -68.027259826660 -256.690948486328 1.483752846718
-106.184974670410 -73.073257446289 -259.330627441406 0.802710831165
-155.435791015625 -62.441585540771 -264.750823974609 1.852720737457
-106.510681152344 -65.951225280762 -258.640319824219 1.328021407127
-169.181930541992 -68.508346557617 -259.509826660156 2.161006450653
-114.463386535645 -67.877960205078 -263.478668212891 3.106017589569
-154.660202026367 -68.644607543945 -265.705108642578 2.532405614853
-159.915817260742 -65.082679748535 -263.418334960938 3.480407238007
-167.403976440430 -65.949333190918 -263.600891113281 2.826366901398
-165.411621093750 -64.957054138184 -262.141326904297 2.226805686951
-167.082962036133 -66.557426452637 -265.575317382813 3.617139101028
-167.067352294922 -67.207641601563 -262.568298339844 1.802777051926
24.423154830933 -68.802696228027 -266.161254882813 2.280055999756
-151.207870483398 -69.877105712891 -263.673126220703 2.470762252808
-151.265594482422 -65.872604370117 -284.140655517578 1.837395787239
23.299352645874 -68.219863891602 -277.312103271484 1.865102052689
-13.090270996094 -68.855651855469 -275.172088623047 1.722428083420
-127.287185668945 -65.192153930664 -284.455078125000 3.476477861404
-137.852264404297 -67.306976318359 -286.125152587891 2.798578977585
-135.970596313477 -65.344223022461 -288.531677246094 2.479659795761
-128.355010986328 -66.981094360352 -285.992828369141 3.108675241470
-115.879638671875 -65.265983581543 -290.022064208984 1.046663761139
-106.810745239258 -63.224040985107 -285.689025878906 4.781627178192
7.749357223511 -69.772903442383 -293.294799804688 2.092942476273
-86.533164978027 -67.258041381836 -290.259643554688 1.280233979225
-150.640335083008 -66.893295288086 -288.311737060547 1.661891341209
-103.253837585449 -66.641441345215 -290.948791503906 2.704008579254
-130.795043945313 -63.883338928223 -291.910064697266 4.005409240723
8.071596145630 -69.555473327637 -289.011840820313 2.523764610291
-113.547180175781 -61.467185974121 -289.159240722656 4.584332942963
1.350550055504 -67.221618652344 -293.935150146484 2.795460700989
-144.732772827148 -65.841903686523 -288.780975341797 2.940719842911
-154.551208496094 -66.629165649414 -295.899841308594 2.548303604126
-159.706253051758 -65.343391418457 -314.040313720703 5.530512332916
-156.900238037109 -65.004325866699 -311.736541748047 4.624130249023
47.890445709229 -74.400329589844 -25.625207901001 2.143676280975
23.287849426270 -72.143539428711 -36.286952972412 0.484728664160
30.783096313477 -73.050987243652 -37.470569610596 2.402376413345
-45.005882263184 -73.287841796875 -47.925201416016 2.981726646423
-12.896838188171 -69.327003479004 -62.775028228760 2.861259222031
94.056472778320 -72.669403076172 -69.614311218262 1.310808658600
68.423286437988 -67.362289428711 -70.567008972168 1.827085256577
-24.497789382935 -70.721565246582 -74.919616699219 0.805609643459
-98.421707153320 -73.937477111816 -86.540214538574 2.864652156830
-42.859394073486 -70.561492919922 -82.963706970215 1.887613773346
61.192890167236 -70.338874816895 -82.430526733398 1.203382849693
61.825107574463 -73.302642822266 -87.004875183105 1.678486824036
53.088928222656 -68.674095153809 -88.481460571289 1.886655807495
-59.317558288574 -69.110191345215 -90.583175659180 0.685715258121
66.416099548340 -67.204193115234 -90.249763488770 2.119548082352
43.196384429932 -73.710258483887 -98.833435058594 2.169591426849
68.023292541504 -72.344863891602 -95.738906860352 3.364230155945
-62.714550018311 -68.253822326660 -96.257728576660 3.981911659241
49.699748992920 -72.511100769043 -94.140197753906 2.221799373627
45.209720611572 -72.151847839355 -99.314544677734 1.863409638405
102.860015869141 -68.101074218750 -101.706787109375 1.762734770775
-66.970718383789 -69.834548950195 -99.107299804688 1.399255990982
110.112487792969 -70.237915039063 -101.600547790527 2.248942136765
-79.521492004395 -71.794624328613 -101.305061340332 2.087031126022
53.979106903076 -72.963195800781 -105.959495544434 1.563368797302
47.522399902344 -68.759788513184 -101.565536499023 1.077483057976
91.334037780762 -68.887748718262 -104.914405822754 2.328854560852
83.979759216309 -69.042015075684 -107.699707031250 2.043467283249
54.295269012451 -70.309906005859 -105.469657897949 1.609075427055
-76.849311828613 -70.156265258789 -111.237915039063 0.848371148109
-77.383949279785 -68.703559875488 -115.062263488770 1.101041793823
-80.973907470703 -70.560981750488 -118.484024047852 1.629406452179
-93.790046691895 -73.904777526855 -118.594879150391 2.540414571762
104.336334228516 -65.461967468262 -117.594467163086 3.172012805939
-88.988883972168 -71.587074279785 -119.120056152344 2.602426290512
-77.269821166992 -65.808105468750 -121.314407348633 1.890210390091
108.977661132813 -69.182754516602 -117.219833374023 3.437585592270
-62.147945404053 -62.235885620117 -118.122581481934 1.112668156624
113.051116943359 -73.331428527832 -132.713897705078 2.818145036697
109.403541564941 -71.433639526367 -130.639175415039 1.110433220863
106.660453796387 -71.138328552246 -126.998397827148 2.507103204727
-94.135269165039 -69.319755554199 -137.796920776367 2.650522470474
-47.739276885986 -68.947410583496 -142.072601318359 1.050662040710
-79.858612060547 -66.817672729492 -144.536865234375 4.955319404602
-70.070732116699 -68.743614196777 -149.122894287109 1.577983260155
-70.995361328125 -67.400215148926 -148.049591064453 0.902469933033
-55.875144958496 -68.265304565430 -143.836456298828 0.769624650478
-47.684234619141 -72.522842407227 -146.336380004883 2.015970468521
15.662087440491 -69.279869079590 -147.026046752930 1.833328604698
-94.843368530273 -65.802680969238 -142.823867797852 1.275367498398
-46.437965393066 -67.504371643066 -147.519042968750 1.325004100800
-52.866737365723 -63.094017028809 -147.786941528320 5.034960269928
-42.864124298096 -66.990142822266 -155.105163574219 0.722338736057
26.710069656372 -71.017852783203 -162.609344482422 2.684399366379
-50.789508819580 -69.088729858398 -151.227630615234 1.690936207771
-101.158508300781 -64.635604858398 -149.345718383789 1.062364339828
-46.104175567627 -65.899185180664 -157.025650024414 4.329486370087
24.972476959229 -71.083351135254 -148.879104614258 1.736560344696
-99.373817443848 -72.993026733398 -163.083694458008 4.241732597351
21.924711227417 -70.960220336914 -158.355026245117 3.256985425949
-108.500450134277 -65.496849060059 -169.712692260742 1.896366000175
-101.893493652344 -68.523178100586 -163.632553100586 1.520981073380
21.375698089600 -68.662330627441 -165.587265014648 2.396383523941
25.358385086060 -67.137962341309 -168.493103027344 2.144569873810
-109.194343566895 -70.075935363770 -173.605682373047 0.624790728092
-142.958984375000 -65.848373413086 -174.302764892578 1.324833154678
-20.770093917847 -68.511222839355 -189.815811157227 2.801137924194
-28.317516326904 -67.454521179199 -182.048629760742 0.870552003384
-116.263473510742 -68.872276306152 -186.904083251953 2.349252462387
-144.696243286133 -63.302261352539 -186.693222045898 1.743569970131
-104.291397094727 -65.271842956543 -181.542312622070 1.231670975685
-158.958618164063 -67.568939208984 -190.210723876953 4.092036724091
-132.217056274414 -71.459022521973 -195.154083251953 1.720295786858
-134.190109252930 -69.274894714355 -196.054229736328 1.228177189827
-20.758333206177 -66.450851440430 -189.822723388672 2.143982410431
-121.301361083984 -67.990715026855 -197.910964965820 1.359274744987
-117.966567993164 -64.240219116211 -198.843826293945 1.836225748062
-27.885200500488 -69.859352111816 -195.006561279297 1.647416114807
-155.289001464844 -64.968765258789 -197.567474365234 2.006465911865
-133.239624023438 -69.012557983398 -204.730453491211 1.737679839134
-125.925155639648 -65.215568542480 -204.369003295898 1.768225312233
17.123617172241 -69.982444763184 -202.522583007813 1.724131345749
-162.987411499023 -66.556991577148 -202.870010375977 2.360920906067
10.164888381958 -66.812973022461 -215.879821777344 1.679319381714
12.869094848633 -68.797042846680 -215.344253540039 0.453659027815
-18.023347854614 -64.346191406250 -209.428634643555 4.141255855560
-6.105599880219 -67.797462463379 -216.922119140625 1.396511793137
-171.050186157227 -64.384094238281 -209.943283081055 5.509048461914
-160.123382568359 -63.631786346436 -212.611434936523 3.885082483292
-95.786239624023 -66.924835205078 -218.545440673828 1.444235324860
-99.731964111328 -68.515129089355 -222.874771118164 1.143949389458
-162.074874877930 -67.089912414551 -224.911117553711 1.742016434669
-107.569030761719 -65.282783508301 -219.303848266602 2.399677038193
-13.123400688171 -66.109992980957 -214.683349609375 0.723255991936
-128.554580688477 -68.447036743164 -222.282989501953 2.152195453644
-143.236938476563 -67.405418395996 -223.932693481445 1.677936553955
-4.227358818054 -68.971519470215 -221.908477783203 2.788788795471
-135.417785644531 -65.243598937988 -224.654098510742 2.114739894867
-124.878013610840 -70.680007934570 -223.244476318359 2.626348257065
-115.473663330078 -68.868324279785 -224.807464599609 1.968527197838
-0.781391978264 -62.874164581299 -228.642822265625 5.067531108856
-108.410049438477 -65.364791870117 -230.713973999023 1.635588526726
-161.536865234375 -61.659317016602 -222.617568969727 3.449620246887
-147.797149658203 -65.784240722656 -226.615493774414 2.085414409637
-166.537307739258 -66.034065246582 -224.896972656250 3.134133577347
-9.071459770203 -66.920440673828 -227.241470336914 2.774711847305
-9.577891349792 -67.458206176758 -233.134506225586 1.599574565887
77.312805175781 -70.043022155762 -226.551376342773 1.716015934944
-1.278192043304 -69.274940490723 -230.139419555664 1.506653070450
-144.169021606445 -66.308166503906 -236.070098876953 2.363420248032
-15.381978034973 -65.815307617188 -229.681076049805 3.447106838226
72.933486938477 -68.145797729492 -229.056335449219 2.649197101593
73.504699707031 -68.156661987305 -234.112136840820 1.239524245262
-135.742660522461 -65.240081787109 -232.368408203125 1.692710280418
-158.549301147461 -68.972946166992 -228.284011840820 2.119118452072
-115.362152099609 -65.408538818359 -232.953704833984 1.102010607719
-125.887237548828 -62.540428161621 -235.559875488281 2.622926950455
-164.875534057617 -65.133331298828 -234.633819580078 2.638882398605
-161.288314819336 -66.744812011719 -235.519592285156 2.065808296204
-147.894409179688 -62.978775024414 -233.977218627930 1.775292873383
-13.935376167297 -66.253585815430 -235.861434936523 3.631229162216
-6.411439895630 -66.535102844238 -241.039382934570 0.699629604816
-161.935745239258 -64.813110351563 -240.459884643555 2.080953359604
4.263329029083 -68.111801147461 -238.838607788086 1.361056804657
1.649678945541 -67.992858886719 -237.283294677734 1.024340987206
-161.298843383789 -66.011428833008 -238.640411376953 0.460731655359
15.541948318481 -70.948219299316 -243.009704589844 2.511935710907
49.524749755859 -69.668434143066 -246.273712158203 1.387976288795
49.330398559570 -69.634315490723 -245.306625366211 1.878335952759
-17.251399993896 -68.024482727051 -247.485076904297 3.539533138275
46.928947448730 -66.189407348633 -250.000396728516 0.566464781761
-162.801300048828 -63.042697906494 -249.864990234375 5.247440814972
-160.438858032227 -66.352012634277 -247.294342041016 1.717359304428
-161.853408813477 -69.456993103027 -249.423568725586 1.440257430077
53.413764953613 -67.154228210449 -249.607772827148 2.530015945435
-93.586013793945 -65.311340332031 -252.916931152344 2.326470613480
-126.275260925293 -65.407485961914 -254.347854614258 0.950440049171
-107.282096862793 -70.230720520020 -253.808029174805 2.462647914886
25.132696151733 -70.653861999512 -258.253906250000 2.027474880219
39.927486419678 -65.350509643555 -251.953979492188 1.731903314590
-102.216529846191 -63.862068176270 -254.969238281250 4.555958747864
-95.047828674316 -62.508258819580 -251.683135986328 3.579223155975
43.989509582520 -70.872131347656 -255.407440185547 2.697484016418
40.779216766357 -65.619911193848 -257.502014160156 1.748769164085
-156.407073974609 -70.498390197754 -257.847473144531 0.541905641556
28.967916488647 -67.022285461426 -260.004394531250 1.412723183632
-144.450637817383 -68.723541259766 -264.226379394531 0.894656002522
-115.011413574219 -65.653907775879 -262.412719726563 1.088733196259
-138.573516845703 -64.910110473633 -262.401428222656 2.886355876923
29.710390090942 -66.667106628418 -263.515380859375 1.697764873505
-127.754661560059 -64.820037841797 -263.425964355469 1.855254530907
-12.784132957458 -65.623474121094 -258.626586914063 2.150946378708
19.918355941772 -69.803657531738 -271.786315917969 3.833161115646
-7.318356990814 -70.731094360352 -265.951141357422 3.493904352188
18.043470382690 -68.554054260254 -280.604248046875 2.127927303314
-155.025695800781 -67.305793762207 -282.256927490234 2.257544279099
-12.671019554138 -65.188446044922 -281.119720458984 3.466801881790
-154.887313842773 -68.902198791504 -282.351623535156 2.905679941177
-125.575531005859 -67.308959960938 -284.943572998047 2.287368297577
-162.299316406250 -71.078216552734 -286.097961425781 2.268833398819
-116.538093566895 -65.583175659180 -287.011779785156 2.528185367584
-106.265960693359 -65.973365783691 -289.545501708984 2.043468236923
-8.739602088928 -64.902351379395 -285.756896972656 4.527211666107
-110.137619018555 -66.951202392578 -289.194488525391 2.301108598709
-118.274131774902 -63.549507141113 -285.069763183594 5.313855648041
-122.093315124512 -62.661678314209 -291.446411132813 4.211496829987
-139.879928588867 -65.255638122559 -289.611297607422 1.181208133698
-128.059341430664 -63.265533447266 -291.317810058594 2.734218835831
-159.548217773438 -69.718879699707 -289.686187744141 1.318507790565
-148.688049316406 -63.593414306641 -292.497985839844 2.316062211990
-158.398956298828 -62.911365509033 -301.415008544922 6.388932704926
-156.124496459961 -63.410415649414 -310.706756591797 5.623090267181
-160.220794677734 -63.737789154053 -300.716339111328 7.297674179077
-143.723434448242 -66.046524047852 -310.373992919922 1.959109663963
-151.548736572266 -66.219032287598 -313.557983398438 1.595918893814
35.669853210449 -72.793029785156 -9.548371315002 2.087324857712
46.991542816162 -75.758789062500 -17.130634307861 3.604157924652
24.293624877930 -68.666191101074 -23.957134246826 3.535890579224
50.571945190430 -72.441421508789 -28.033767700195 2.067909955978
28.253971099854 -73.860488891602 -34.890605926514 1.577863216400
32.956554412842 -72.757652282715 -35.139480590820 3.321839809418
-57.658046722412 -66.771385192871 -47.366245269775 2.953959941864
79.846473693848 -67.539970397949 -61.897956848145 1.301822900772
81.073028564453 -71.993614196777 -67.662399291992 2.067721128464
-90.402198791504 -70.942932128906 -62.201435089111 1.193428754807
-12.643926620483 -68.069259643555 -61.676124572754 2.204220771790
-92.551605224609 -71.674484252930 -69.939392089844 2.972120046616
96.373054504395 -72.935676574707 -69.598533630371 2.723397970200
-13.774671554565 -67.466094970703 -68.167732238770 0.520735025406
67.507041931152 -73.143974304199 -79.532600402832 2.680727005005
-42.085186004639 -74.008796691895 -79.428848266602 2.186272859573
-27.320978164673 -73.609642028809 -76.018882751465 1.691006660461
56.072456359863 -67.205871582031 -86.762451171875 1.297628402710
-44.266921997070 -79.715896606445 -84.666809082031 2.485584735870
64.725814819336 -63.348388671875 -87.498916625977 1.076574325562
52.687988281250 -74.250946044922 -90.382164001465 0.899516582489
53.454380035400 -70.317947387695 -94.259658813477 2.365825414658
59.357967376709 -74.667304992676 -91.501831054688 1.232413887978
56.624996185303 -67.360076904297 -96.280456542969 2.260545730591
99.508483886719 -67.581512451172 -98.490234375000 1.592141270638
105.745216369629 -66.459312438965 -99.393882751465 1.677204847336
59.517959594727 -72.537963867188 -100.575828552246 2.783102512360
106.672416687012 -66.474555969238 -100.298774719238 1.786548376083
-77.182998657227 -68.842468261719 -99.063537597656 1.595782518387
-72.950370788574 -68.722358703613 -101.847946166992 1.619010329247
100.071693420410 -67.292427062988 -99.239677429199 2.075131654739
52.963550567627 -70.557380676270 -101.393875122070 0.988842010498
70.161949157715 -71.471481323242 -99.344474792480 1.319443583488
-72.800018310547 -69.154113769531 -107.200767517090 2.009724140167
-85.452621459961 -67.702568054199 -106.942459106445 2.264517307281
88.864814758301 -72.798660278320 -105.125297546387 3.975314617157
39.900978088379 -70.923393249512 -104.748893737793 1.185758233070
104.556510925293 -66.833503723145 -106.586357116699 0.528389930725
46.182987213135 -71.731445312500 -114.027328491211 1.713603138924
109.807479858398 -70.301017761230 -104.386772155762 1.491443157196
-79.043464660645 -68.409606933594 -110.837936401367 1.085607171059
104.215782165527 -65.989387512207 -109.297332763672 2.911340236664
-84.696884155273 -66.311340332031 -120.905204772949 1.025317072868
-59.045490264893 -70.831756591797 -128.443527221680 1.805577397346
-56.351108551025 -67.724136352539 -124.741409301758 1.125835180283
-72.975242614746 -69.807144165039 -129.768630981445 2.485878944397
-51.471954345703 -69.886222839355 -130.883987426758 0.311749845743
-84.568138122559 -69.902175903320 -132.675598144531 2.124223470688
-78.018646240234 -65.459602355957 -132.753555297852 1.741831302643
-81.107742309570 -68.490463256836 -130.714859008789 1.576354622841
-60.825614929199 -72.642265319824 -141.476669311523 2.780158519745
-72.200813293457 -68.019851684570 -140.462280273438 0.580149173737
-60.590358734131 -71.555221557617 -135.031097412109 2.821831941605
-59.199134826660 -68.594131469727 -141.731643676758 1.583308100700
16.133296966553 -65.335975646973 -144.051177978516 2.022536516190
-91.614707946777 -68.534667968750 -141.925903320313 2.714963436127
-48.343856811523 -71.852767944336 -146.686157226563 1.954547286034
-97.162216186523 -66.169036865234 -149.385589599609 1.701385259628
-101.571617126465 -65.706756591797 -148.861633300781 1.850213170052
18.406961441040 -70.293869018555 -154.117752075195 2.184835195541
13.282567024231 -69.619102478027 -158.446563720703 0.994531571865
-96.628280639648 -69.362274169922 -159.459564208984 1.127377986908
-104.243659973145 -67.944290161133 -153.866928100586 3.388985633850
-101.223510742188 -66.415359497070 -168.046569824219 0.895264506340
21.187873840332 -67.479492187500 -170.192642211914 2.156620740891
-111.410102844238 -67.147651672363 -172.381835937500 3.004879236221
21.833065032959 -68.332061767578 -166.788543701172 1.811945199966
-148.545043945313 -67.253974914551 -176.020629882813 0.569983184338
16.896884918213 -67.750350952148 -176.727447509766 1.726903438568
23.150365829468 -68.524116516113 -186.246917724609 1.553862214088
-153.336547851563 -65.632301330566 -186.060394287109 1.274235010147
20.471229553223 -68.743309020996 -176.739776611328 0.462696492672
18.171491622925 -62.561923980713 -180.637847900391 4.139780998230
-144.690856933594 -70.391868591309 -184.382354736328 3.567072153091
-152.899887084961 -64.576057434082 -188.696380615234 1.997271895409
18.890640258789 -67.797691345215 -188.661972045898 2.025255441666
17.427017211914 -69.351524353027 -190.172485351563 1.850202679634
-143.245147705078 -68.694351196289 -193.378112792969 1.143750071526
-110.135276794434 -67.314819335938 -197.444091796875 1.353941798210
22.776550292969 -68.088890075684 -198.864654541016 2.182021856308
-125.936820983887 -66.728507995605 -194.477142333984 2.292358875275
9.542155265808 -69.500068664551 -200.242156982422 2.115432739258
-131.253585815430 -62.162342071533 -193.942749023438 3.124230146408
-160.482864379883 -64.625541687012 -190.138900756836 5.898459911346
-162.604049682617 -66.053489685059 -196.253295898438 3.660427570343
-159.898666381836 -67.649932861328 -194.646011352539 1.485990405083
-21.355834960938 -67.188110351563 -204.753860473633 2.455460786819
-168.758132934570 -68.675041198730 -199.129013061523 3.926378965378
-27.549533843994 -64.428436279297 -192.770309448242 3.988473653793
-16.591424942017 -68.639633178711 -196.119522094727 1.535402536392
8.695690155029 -63.195564270020 -195.886367797852 5.079686641693
-158.982940673828 -66.507675170898 -203.447418212891 3.149279356003
-109.286598205566 -65.633575439453 -201.997344970703 2.040554523468
-18.647520065308 -64.384414672852 -201.790298461914 4.532543659210
-161.315658569336 -62.547542572021 -201.186981201172 2.396870613098
15.576069831848 -67.606513977051 -201.871963500977 2.021506547928
-170.006622314453 -64.461593627930 -204.524215698242 3.838200569153
-121.927848815918 -68.935600280762 -202.580978393555 2.107271432877
-116.607849121094 -64.095115661621 -207.015594482422 3.711082220078
-124.178573608398 -65.769325256348 -203.992980957031 1.352878093719
-16.000070571899 -66.391838073730 -203.806350708008 2.093192577362
-18.559869766235 -67.420639038086 -204.698852539063 1.472401380539
-165.550125122070 -65.625854492188 -210.312026977539 2.570823192596
-161.332626342773 -64.393196105957 -212.000946044922 3.011095762253
-166.143829345703 -66.485466003418 -219.139160156250 2.047470569611
-142.629852294922 -68.241760253906 -213.870193481445 3.214138746262
-146.107391357422 -66.247283935547 -223.570037841797 1.577394843102
-4.255737781525 -65.329116821289 -220.221435546875 3.130657196045
-10.848476409912 -70.298492431641 -217.251235961914 1.114292860031
-101.291946411133 -64.865081787109 -220.702072143555 3.278748989105
-8.157079696655 -65.262901306152 -232.402557373047 1.739100575447
-168.436965942383 -63.567478179932 -228.569732666016 1.882342457771
-108.151824951172 -64.106292724609 -232.141815185547 3.359722375870
0.081588000059 -66.807006835938 -226.949432373047 2.156748533249
1.484665989876 -65.691902160645 -230.168426513672 2.998990297318
-113.180915832520 -66.640205383301 -232.904739379883 1.378380179405
-2.816344022751 -67.400398254395 -229.089691162109 2.062303781509
-119.103782653809 -63.370937347412 -234.052001953125 1.504935145378
-9.093261718750 -63.856731414795 -233.356658935547 3.148092031479
-3.572290897369 -65.512611389160 -235.155487060547 1.143102765083
-2.967087984085 -66.130943298340 -237.954284667969 1.185849785805
70.297241210938 -64.168731689453 -236.976791381836 3.888034105301
-12.149032592773 -69.250511169434 -237.902282714844 0.653016567230
5.984816074371 -67.128608703613 -237.554168701172 1.670466065407
9.772987365723 -65.633773803711 -239.434188842773 0.460373759270
4.056879997253 -67.136421203613 -239.162521362305 1.442378282547
1.173627972603 -67.835586547852 -241.440200805664 1.491330385208
62.819110870361 -62.923088073730 -239.033859252930 3.684324264526
67.597488403320 -63.979103088379 -240.744155883789 4.637170791626
6.927216053009 -66.105072021484 -247.222259521484 1.534193158150
52.657970428467 -67.580894470215 -242.725494384766 2.902580022812
54.183334350586 -70.207031250000 -241.243377685547 1.633667707443
45.566082000732 -63.438117980957 -249.769607543945 2.170461416245
39.882335662842 -64.348533630371 -251.684738159180 1.485544323921
39.244281768799 -65.219390869141 -256.822906494141 2.671899318695
-133.372146606445 -61.732749938965 -257.521484375000 2.762478351593
-11.829480171204 -65.684471130371 -250.241027832031 1.248365283012
26.885496139526 -65.012962341309 -258.400421142578 1.378689646721
43.615207672119 -65.594627380371 -248.519058227539 1.991325736046
25.899192810059 -68.529998779297 -254.294204711914 2.090544223785
-104.429389953613 -67.042129516602 -258.627990722656 3.407689332962
29.756031036377 -66.988349914551 -256.652587890625 2.391696453094
-148.703826904297 -67.128898620605 -260.629058837891 1.276392102242
-117.915649414063 -66.852645874023 -256.653533935547 2.545628309250
-110.380722045898 -65.312164306641 -257.711914062500 1.780112266541
-5.089793205261 -67.895591735840 -259.305419921875 1.807468652725
-151.998321533203 -66.566513061523 -257.012573242188 2.359847307205
33.738685607910 -65.847885131836 -262.229919433594 1.355626106262
-111.296752929688 -64.257087707520 -256.444458007813 2.900073289871
24.625385284424 -69.296020507813 -259.624938964844 1.997978210449
-136.545578002930 -66.841697692871 -262.514648437500 2.129480123520
-118.101493835449 -64.394355773926 -263.801269531250 1.918532013893
-111.134208679199 -64.726577758789 -261.113006591797 2.538445472717
-116.601287841797 -69.363906860352 -261.344848632813 2.707523584366
-141.583862304688 -66.739257812500 -257.572296142578 2.640233755112
27.449661254883 -66.498046875000 -260.563171386719 1.200862050056
-118.973800659180 -64.034149169922 -262.768463134766 1.909415721893
-145.954208374023 -66.678115844727 -263.206481933594 2.444463014603
-6.706211090088 -63.765544891357 -270.941284179688 4.136936187744
-152.502319335938 -67.107223510742 -280.835113525391 2.394017696381
-10.091607093811 -66.004295349121 -286.470184326172 4.186672210693
-7.092760086060 -63.292411804199 -283.089233398438 3.963913202286
-136.103332519531 -64.492736816406 -287.429718017578 3.370585203171
-129.347213745117 -65.071098327637 -290.205078125000 2.166372537613
-137.500335693359 -64.556434631348 -293.692596435547 4.218865871429
-128.389022827148 -63.561660766602 -291.519805908203 2.879314899445
-156.682662963867 -65.038948059082 -294.117767333984 1.639520645142
-158.012695312500 -64.769660949707 -299.829071044922 5.062350273132
-149.738815307617 -67.526802062988 -300.705902099609 2.576678276062
-151.660263061523 -65.118499755859 -303.006744384766 1.114053606987
-146.951263427734 -64.426345825195 -298.782897949219 3.148394584656
-151.369445800781 -63.611888885498 -303.872528076172 1.743267893791
-148.188446044922 -62.090030670166 -314.457855224609 4.677950382233
19.432865142822 -73.712982177734 -27.904422760010 2.098024845123
49.291652679443 -73.585655212402 -36.429290771484 2.873390197754
25.378435134888 -76.107200622559 -38.245853424072 4.985972404480
32.374977111816 -71.638702392578 -43.006954193115 1.811024785042
-42.691654205322 -64.691986083984 -47.896903991699 2.244400978088
-76.689231872559 -67.498817443848 -50.429122924805 2.715515613556
80.188926696777 -69.098518371582 -62.156791687012 1.332000851631
74.357910156250 -70.491653442383 -62.965290069580 2.957917690277
71.338233947754 -71.442604064941 -66.927253723145 2.738084554672
-99.603309631348 -68.629707336426 -72.545959472656 5.219803810120
98.994529724121 -72.985420227051 -76.627700805664 1.139083743095
-30.857032775879 -69.969383239746 -82.775932312012 5.217850685120
62.770065307617 -68.124473571777 -77.090782165527 3.983589649200
-43.567310333252 -65.916534423828 -82.691520690918 1.657525777817
-54.332481384277 -66.618652343750 -82.625625610352 1.609167575836
50.384151458740 -70.212867736816 -91.028976440430 2.863108634949
101.907234191895 -68.936126708984 -91.227401733398 1.638714194298
63.642856597900 -67.084205627441 -94.329841613770 0.805392622948
56.334594726563 -67.721130371094 -93.455162048340 1.414169311523
48.186073303223 -66.532752990723 -101.919876098633 1.637509822845
56.137741088867 -65.627304077148 -100.896064758301 1.735491752625
102.644912719727 -67.393287658691 -98.621925354004 1.037747383118
69.255294799805 -68.244674682617 -106.922882080078 3.167467594147
49.640033721924 -68.544288635254 -106.285057067871 1.974856257439
76.064804077148 -73.317123413086 -107.725509643555 4.810641288757
95.104606628418 -65.687782287598 -108.573791503906 2.185393095016
-75.755355834961 -66.346122741699 -101.485504150391 1.310455441475
-87.384834289551 -68.547225952148 -110.094650268555 1.174854874611
-82.805213928223 -68.703422546387 -112.693527221680 2.125609874725
-60.788375854492 -66.989006042480 -118.631095886230 2.500540494919
-57.861045837402 -71.091476440430 -126.074951171875 1.498874187469
-95.277046203613 -67.253837585449 -121.579673767090 1.946995139122
-75.746376037598 -69.110946655273 -119.403076171875 1.660394191742
-77.443168640137 -70.836708068848 -132.317108154297 1.688235402107
-61.559131622314 -65.452796936035 -128.266616821289 0.733638644218
-89.272712707520 -64.150451660156 -130.199371337891 2.757403612137
-90.484146118164 -66.865440368652 -129.930923461914 1.390696644783
-48.913455963135 -71.068618774414 -135.439178466797 0.548927843571
-52.217224121094 -68.183311462402 -136.691146850586 2.032316684723
-78.040168762207 -68.968673706055 -138.425125122070 1.434919953346
-54.741275787354 -69.103317260742 -141.585479736328 2.028704404831
-75.189071655273 -70.130073547363 -143.803146362305 2.072591781616
20.393314361572 -65.724861145020 -139.092300415039 1.152656078339
-58.255985260010 -71.105857849121 -144.878967285156 2.246149063110
-55.802680969238 -64.600708007813 -145.544113159180 2.609164476395
8.332820892334 -70.454627990723 -155.503799438477 1.518948554993
15.913787841797 -66.014038085938 -151.400772094727 0.920987069607
-143.272613525391 -66.799613952637 -173.762512207031 0.937308490276
-111.309364318848 -65.701164245605 -177.853744506836 2.231182336807
-110.690452575684 -63.240318298340 -189.412384033203 2.467922210693
-153.595291137695 -67.700241088867 -191.030654907227 2.043561220169
-114.041099548340 -65.653945922852 -185.449020385742 3.043018817902
-153.116424560547 -62.359203338623 -195.713897705078 1.882496118546
-115.197731018066 -64.787536621094 -198.249481201172 1.498379707336
-151.362609863281 -63.588195800781 -199.878921508789 2.440918922424
-151.660781860352 -65.869201660156 -205.835800170898 1.042308926582
-154.053100585938 -69.303024291992 -207.561508178711 2.918975353241
-149.029754638672 -65.239891052246 -223.472625732422 2.574493169785
-151.519470214844 -68.094436645508 -224.895187377930 2.475221872330
-106.259277343750 -63.570030212402 -225.774047851563 2.144285202026
-103.084480285645 -65.489639282227 -222.239135742188 2.968123674393
-124.520111083984 -61.366550445557 -230.114532470703 2.924096345901
