26.344453811646 -72.596443176270 -143.521667480469 1.611452579498
111.530670166016 -75.065849304199 -144.983169555664 1.324873566628
116.022132873535 -68.857246398926 -138.969711303711 3.530229330063
31.387357711792 -71.955047607422 -142.446136474609 1.588593363762
-47.526161193848 -72.630989074707 -140.309219360352 1.341339111328
107.335845947266 -70.326225280762 -153.993469238281 2.176621913910
-74.931297302246 -70.923851013184 -142.845504760742 1.037274599075
-57.989799499512 -71.249015808105 -142.275405883789 1.767688155174
32.196002960205 -68.049240112305 -148.345108032227 0.989023387432
-76.976707458496 -72.266250610352 -145.943176269531 2.079541206360
-70.114814758301 -70.917137145996 -150.093521118164 1.882573843002
115.413482666016 -75.965339660645 -151.526031494141 1.665521860123
-64.197433471680 -70.330856323242 -155.007888793945 2.864962577820
-38.842601776123 -68.616691589355 -152.387588500977 3.501563787460
26.279609680176 -70.298286437988 -146.864318847656 1.688935995102
-72.638542175293 -71.437332153320 -145.862533569336 1.394660234451
12.908056259155 -71.195701599121 -150.526046752930 2.710830211639
32.267673492432 -71.100540161133 -157.912536621094 1.371482491493
31.505115509033 -69.552864074707 -151.175399780273 1.136131286621
15.641120910645 -75.755187988281 -155.010208129883 3.719275712967
-49.464199066162 -72.504707336426 -153.348480224609 1.708409786224
25.207490921021 -72.943588256836 -154.092254638672 0.784081757069
-45.707054138184 -70.302406311035 -150.287231445313 1.918287515640
5.156098842621 -71.692115783691 -154.752395629883 2.098387956619
20.948272705078 -70.895988464355 -150.823623657227 3.081765651703
-68.516151428223 -70.228866577148 -157.271667480469 1.923941254616
-46.218231201172 -68.336883544922 -154.190139770508 2.487275362015
-67.765693664551 -70.428497314453 -153.637054443359 0.622150242329
18.493885040283 -70.369750976563 -159.308135986328 2.596421718597
24.687889099121 -70.870353698730 -151.000396728516 1.864429473877
2.787832975388 -71.300361633301 -165.195449829102 1.154199123383
21.737358093262 -71.413208007813 -154.461761474609 1.080904722214
30.969053268433 -71.149353027344 -168.155563354492 3.563066244125
-47.066619873047 -72.196815490723 -163.355102539063 0.830729305744
-36.589218139648 -76.953704833984 -163.547851562500 2.312070608139
-40.572212219238 -71.746322631836 -161.031539916992 2.830476522446
28.140054702759 -71.848579406738 -159.655670166016 2.157935380936
-44.075927734375 -69.261703491211 -166.913024902344 3.778169155121
-39.577907562256 -69.488311767578 -166.560943603516 0.799560666084
21.565874099731 -70.097839355469 -166.631927490234 1.702463984489
-39.797370910645 -71.284835815430 -175.402282714844 3.044121980667
28.078088760376 -67.979804992676 -171.013122558594 2.786305904388
111.904228210449 -69.018867492676 -166.787918090820 1.968472480774
-33.427833557129 -70.767410278320 -172.275634765625 2.164231300354
102.853805541992 -69.567787170410 -175.034896850586 3.257097482681
-34.553272247314 -70.376991271973 -177.654525756836 2.326180696487
-37.469261169434 -73.502388000488 -181.666503906250 1.366093397141
21.158796310425 -73.874183654785 -177.935333251953 1.502854704857
105.774497985840 -72.034797668457 -183.866256713867 1.332617759705
-31.542558670044 -69.166793823242 -183.157150268555 1.028815150261
-35.170612335205 -70.206871032715 -177.730743408203 2.104053020477
-23.337450027466 -74.027717590332 -187.247985839844 1.118467926979
-149.180892944336 -70.358451843262 -187.839767456055 1.216753125191
12.871678352356 -70.729934692383 -184.145050048828 2.525153875351
104.824508666992 -70.160293579102 -192.933776855469 2.711435079575
-159.149032592773 -69.265228271484 -191.861740112305 2.506416797638
-23.110332489014 -67.697761535645 -189.853057861328 0.519399344921
-115.890670776367 -71.473777770996 -196.675491333008 1.750238418579
-131.032470703125 -71.173553466797 -194.731552124023 0.914729595184
-108.162017822266 -70.390144348145 -199.202270507813 1.456238746643
-113.926925659180 -69.052696228027 -199.544845581055 2.547505855560
-12.565411567688 -71.368370056152 -196.866775512695 1.225898027420
19.884220123291 -69.651679992676 -196.963150024414 1.489351987839
-16.083612442017 -66.891563415527 -202.282379150391 3.600707292557
-127.062553405762 -69.683189392090 -204.740173339844 2.294785022736
-21.131900787354 -66.836860656738 -203.349929809570 3.230060577393
-129.658981323242 -68.575477600098 -202.061614990234 2.537181138992
-15.689244270325 -70.601478576660 -200.720520019531 1.730791687965
-146.375595092773 -68.428314208984 -201.759216308594 2.609106540680
91.499649047852 -67.430847167969 -208.102584838867 3.705279588699
-164.781616210938 -64.799888610840 -200.164947509766 2.790705919266
-3.231580018997 -71.877632141113 -218.483108520508 1.774421930313
11.088224411011 -71.617630004883 -210.673858642578 1.685764789581
9.862796783447 -72.438072204590 -217.804000854492 3.186664581299
82.211959838867 -70.793457031250 -218.288955688477 0.742160379887
8.113102912903 -71.376525878906 -213.813354492188 3.023951530457
12.214494705200 -69.523208618164 -215.529586791992 1.284693002701
-16.280500411987 -73.374786376953 -216.408645629883 2.272544622421
-90.874328613281 -70.080101013184 -214.069213867188 0.866736710072
-98.425598144531 -69.725631713867 -216.114288330078 1.889596104622
-0.441870987415 -69.205833435059 -219.762313842773 1.644203424454
-166.960830688477 -70.889625549316 -220.738845825195 2.813379049301
14.697205543518 -68.331916809082 -220.409042358398 1.555334448814
-145.098678588867 -68.579048156738 -220.238067626953 1.844750285149
12.449913024902 -70.530761718750 -225.747283935547 1.636909365654
-135.161834716797 -70.564834594727 -223.992324829102 1.608475565910
-116.463127136230 -70.270530700684 -226.526077270508 1.793666124344
16.307800292969 -69.553413391113 -221.710113525391 2.108436346054
77.931045532227 -70.731590270996 -222.901153564453 1.846868753433
6.254757881165 -70.185905456543 -224.195159912109 2.273530960083
-110.446090698242 -68.598258972168 -230.289581298828 2.087989807129
71.821365356445 -71.465797424316 -229.284683227539 1.791296482086
83.452095031738 -71.676300048828 -231.102539062500 2.286530494690
-125.822120666504 -68.911033630371 -234.301345825195 2.625620365143
-117.600425720215 -69.268539428711 -229.763183593750 1.880810499191
-10.550580024719 -66.894958496094 -228.306030273438 2.501744747162
71.410850524902 -71.208480834961 -232.871490478516 1.066354036331
64.055351257324 -71.021171569824 -234.594741821289 1.990415215492
72.739303588867 -70.055458068848 -230.971893310547 1.645102739334
-135.844619750977 -65.811943054199 -233.150680541992 1.587415814400
69.584449768066 -71.569152832031 -233.825942993164 1.686369776726
65.571189880371 -68.264144897461 -236.704681396484 1.969455122948
-166.691757202148 -67.530265808105 -229.273406982422 1.599177479744
0.715348005295 -76.181884765625 -241.723663330078 1.966944456100
18.691356658936 -71.258178710938 -240.396194458008 1.143581151962
-6.684947013855 -67.302719116211 -241.245285034180 0.954840660095
15.130392074585 -65.178977966309 -240.069763183594 2.610375404358
65.574218750000 -71.316909790039 -239.573364257813 1.401954054832
8.220580101013 -68.119087219238 -244.135711669922 1.956683039665
-11.577592849731 -63.929790496826 -241.261108398438 3.008709192276
-1.161506056786 -66.823669433594 -238.089187622070 1.480112314224
64.246841430664 -70.929656982422 -243.859695434570 2.422664165497
2.353521108627 -70.384605407715 -243.289199829102 0.581807374954
-7.706274032593 -70.532112121582 -243.752487182617 2.568163871765
13.557029724121 -72.289291381836 -243.775833129883 1.923320889473
-168.176773071289 -70.317512512207 -239.902511596680 0.983518540859
55.265895843506 -70.472480773926 -248.577911376953 1.260599493980
49.185440063477 -64.586624145508 -252.007293701172 3.078170537949
57.486705780029 -70.955902099609 -244.164352416992 1.656135916710
-12.921140670776 -67.989990234375 -248.431076049805 1.144753336906
56.448509216309 -70.003654479980 -247.015960693359 1.568886756897
-74.683204650879 -68.723396301270 -249.688018798828 2.127507925034
49.995956420898 -70.486824035645 -249.920883178711 1.361506342888
-89.575233459473 -68.854583740234 -252.145660400391 3.150142192841
-124.099891662598 -69.808906555176 -255.938446044922 2.732295989990
-133.238220214844 -68.686042785645 -252.081344604492 3.663216114044
45.288887023926 -71.541976928711 -253.093826293945 0.443522959948
-133.423492431641 -71.204109191895 -252.365280151367 2.160657405853
-110.053031921387 -67.092063903809 -254.476074218750 2.518479347229
-116.957885742188 -66.536247253418 -256.752593994141 2.428254127502
-84.615394592285 -69.432548522949 -254.391677856445 0.928316593170
-111.903465270996 -67.067390441895 -258.504791259766 0.690109014511
-125.057052612305 -71.802520751953 -261.709655761719 1.309901952744
-147.513534545898 -65.878105163574 -266.546020507813 1.666101574898
-16.296918869019 -67.977371215820 -266.103546142578 3.427925109863
-172.333786010742 -70.195449829102 -263.181274414063 4.127241611481
-15.689621925354 -68.599716186523 -274.280731201172 1.756889939308
-160.003540039063 -65.076919555664 -266.058532714844 2.958305358887
-153.802001953125 -68.411277770996 -272.332641601563 3.464863777161
-171.086685180664 -67.931579589844 -276.221069335938 4.078329563141
-15.418854713440 -69.101539611816 -279.852569580078 4.506971359253
-131.443038940430 -70.450515747070 -282.350982666016 2.776968717575
-159.315017700195 -67.630058288574 -285.047241210938 2.273017883301
-145.171020507813 -67.148971557617 -279.941955566406 0.942764937878
-136.112350463867 -70.933883666992 -279.646972656250 3.923887014389
-9.426921844482 -63.343467712402 -284.954925537109 5.650102615356
-127.142280578613 -71.583839416504 -282.680877685547 2.058031320572
-142.301879882813 -66.016105651855 -284.599395751953 1.479745268822
-117.036956787109 -71.035285949707 -285.092041015625 2.150733470917
-80.301147460938 -66.531394958496 -287.761444091797 3.745414495468
-62.020492553711 -69.178039550781 -287.031005859375 2.207312822342
-8.335351943970 -69.848014831543 -288.443206787109 1.990641951561
-55.214031219482 -67.432846069336 -285.735626220703 3.227676868439
-58.531909942627 -66.244865417480 -288.589263916016 3.569170475006
-71.751770019531 -66.679298400879 -290.137237548828 4.191825389862
-89.452713012695 -67.292884826660 -293.403472900391 2.333106994629
-96.369384765625 -66.019363403320 -288.506103515625 4.023867607117
-161.705001831055 -66.866317749023 -290.243591308594 2.364350080490
-162.503280639648 -68.616378784180 -292.510528564453 3.167125940323
-126.055000305176 -70.689086914063 -293.137908935547 1.136079311371
-146.085525512695 -67.976997375488 -293.960479736328 2.115689992905
-154.614929199219 -69.818382263184 -302.638916015625 2.724503517151
-152.144531250000 -69.762535095215 -311.078430175781 2.504928588867
49.979507446289 -72.253517150879 -15.882241249084 3.250663280487
18.597579956055 -74.870941162109 -30.702835083008 3.410759210587
43.765602111816 -69.970970153809 -35.798351287842 3.039773941040
-14.098725318909 -75.458831787109 -66.921318054199 3.774667263031
83.228775024414 -71.178230285645 -66.750740051270 2.025398492813
90.104293823242 -69.076011657715 -67.637870788574 0.662144243717
79.301353454590 -75.954216003418 -67.128082275391 4.422998428345
74.095901489258 -74.016845703125 -70.791069030762 2.096397161484
92.485725402832 -75.133941650391 -76.736557006836 2.197644948959
-94.752761840820 -68.728744506836 -69.753273010254 2.292607784271
69.106636047363 -73.262954711914 -76.892120361328 3.086436271667
-35.287181854248 -73.049049377441 -77.634765625000 2.305527687073
100.078979492188 -72.509155273438 -87.716445922852 2.298647403717
62.588424682617 -69.711776733398 -91.752647399902 1.610782384872
108.146553039551 -76.819839477539 -95.659286499023 6.025099754333
102.519752502441 -75.746139526367 -100.339294433594 2.113168239594
73.272277832031 -71.949508666992 -102.166030883789 1.844399571419
-79.232658386230 -70.115837097168 -101.219657897949 0.543818056583
55.257343292236 -71.842864990234 -105.542846679688 2.049905061722
108.003112792969 -69.570419311523 -107.921218872070 1.137349367142
47.856037139893 -72.343849182129 -113.628463745117 1.210363268852
80.788673400879 -70.902458190918 -107.007568359375 2.925240039825
42.483867645264 -71.373039245605 -108.596832275391 1.887748837471
105.151504516602 -71.766448974609 -105.126472473145 0.544849157333
48.397426605225 -71.188804626465 -109.002296447754 1.599055171013
108.032440185547 -76.683197021484 -111.915802001953 1.717920660973
110.914657592773 -74.807670593262 -113.340202331543 2.297145366669
-78.673591613770 -69.021530151367 -113.848686218262 0.784528434277
-82.278038024902 -69.096382141113 -119.002311706543 2.163077354431
44.576183319092 -74.379302978516 -121.270133972168 1.611311554909
114.441696166992 -73.292503356934 -123.327056884766 1.886097192764
114.301605224609 -71.389839172363 -125.580764770508 1.180760383606
-86.683479309082 -69.740089416504 -126.571975708008 1.190678596497
106.552330017090 -73.379066467285 -127.708686828613 3.514087438583
-58.873840332031 -74.803459167480 -131.806182861328 3.136692523956
-85.623794555664 -70.923286437988 -126.920196533203 1.300708174706
-71.994331359863 -70.844154357910 -126.931472778320 3.418276786804
-58.624706268311 -67.030174255371 -126.643775939941 0.822058796883
32.148033142090 -70.787620544434 -131.180831909180 2.068917036057
42.849956512451 -69.541488647461 -135.818969726563 4.265631675720
-72.700790405273 -70.135894775391 -136.371520996094 1.810797452927
29.253932952881 -69.196472167969 -131.888931274414 2.526853322983
112.053726196289 -71.225914001465 -144.869308471680 2.324811220169
-39.870502471924 -70.440704345703 -148.431823730469 1.836089134216
30.682729721069 -71.536384582520 -149.845596313477 2.084046125412
114.218849182129 -69.546661376953 -149.651336669922 2.007197856903
35.926860809326 -71.409362792969 -143.798690795898 2.551194190979
110.781455993652 -70.055625915527 -142.729217529297 1.800594806671
-52.038780212402 -70.539291381836 -149.397201538086 2.091083526611
-70.982566833496 -67.680824279785 -150.712142944336 2.590471982956
-54.857364654541 -70.696617126465 -152.526367187500 2.717427015305
-41.982776641846 -73.399803161621 -165.133529663086 2.682718515396
4.920307159424 -71.707839965820 -156.552703857422 1.902869820595
110.087432861328 -71.183403015137 -155.428771972656 2.098262310028
109.155036926270 -70.728096008301 -161.519439697266 1.301097631454
10.254785537720 -69.821708679199 -158.160400390625 1.820025324821
3.467438936234 -70.355453491211 -161.952713012695 1.500647544861
19.465696334839 -69.775039672852 -156.072952270508 3.757625102997
25.890186309814 -69.225547790527 -156.545852661133 2.674404144287
108.849594116211 -70.298324584961 -167.509307861328 1.464661955833
109.642639160156 -73.710784912109 -169.668090820313 1.982330679893
23.959890365601 -67.558807373047 -175.223587036133 2.563445806503
25.113447189331 -72.371063232422 -164.749908447266 2.546887874603
112.391494750977 -68.905158996582 -163.885345458984 2.312808275223
-29.123090744019 -68.692039489746 -177.414123535156 1.419425606728
110.299926757813 -70.890449523926 -169.665313720703 0.683537423611
17.624086380005 -70.721374511719 -168.411193847656 0.582341253757
21.720270156860 -70.132133483887 -168.573440551758 2.024319410324
108.571968078613 -70.742126464844 -174.737548828125 1.946325778961
26.811113357544 -69.373100280762 -171.272247314453 2.501351118088
112.205917358398 -69.691062927246 -185.613998413086 3.605263471603
-38.296459197998 -69.109855651855 -177.835617065430 3.524840831757
25.175069808960 -69.795539855957 -171.986480712891 1.539089679718
107.401977539063 -70.185653686523 -185.717102050781 1.298076987267
23.075286865234 -71.001228332520 -179.442764282227 0.839054584503
-151.963973999023 -67.558616638184 -185.251800537109 3.039723157883
-28.350133895874 -66.627075195313 -189.533767700195 1.590596437454
24.505882263184 -67.859733581543 -185.740203857422 1.502973198891
-113.939498901367 -70.448493957520 -191.138076782227 2.367420434952
-111.010902404785 -66.695350646973 -190.559127807617 1.644526362419
23.639650344849 -70.344978332520 -189.405929565430 0.393820017576
11.584279060364 -67.965705871582 -185.718521118164 4.897472381592
-27.035320281982 -66.981140136719 -190.442977905273 1.765293240547
-29.801355361938 -73.269561767578 -189.510375976563 1.593099951744
-28.129350662231 -69.895530700684 -187.447204589844 1.793321728706
14.778697967529 -67.948623657227 -180.709640502930 2.977499723434
-151.057495117188 -68.722137451172 -193.885147094727 2.272176504135
-145.531234741211 -68.480758666992 -191.716430664063 2.815621376038
-144.647491455078 -71.572891235352 -197.259552001953 1.063630104065
-23.081823348999 -68.555480957031 -191.686431884766 1.677514076233
13.393440246582 -67.368385314941 -200.275848388672 2.372264385223
98.665924072266 -69.241615295410 -195.098175048828 1.946874380112
-113.964576721191 -67.756042480469 -197.575836181641 1.731408596039
21.000955581665 -72.777282714844 -199.254165649414 1.520063519478
-15.530080795288 -68.388099670410 -195.943740844727 2.139250993729
-17.968843460083 -68.722015380859 -199.094894409180 1.610300898552
100.703125000000 -68.800712585449 -201.311859130859 2.883013486862
7.663043975830 -71.314537048340 -199.999893188477 2.457163572311
-22.186456680298 -67.674987792969 -196.792190551758 1.410322904587
-121.660308837891 -71.617851257324 -202.300369262695 0.848179101944
-134.483169555664 -68.781181335449 -202.308227539063 1.708790898323
-114.383422851563 -64.369728088379 -204.112792968750 2.189953804016
-142.489425659180 -71.329925537109 -202.351364135742 0.659108281136
17.270835876465 -69.166496276855 -198.553665161133 1.094827413559
93.514129638672 -71.077644348145 -203.598388671875 2.972870588303
-166.185531616211 -64.089370727539 -200.024139404297 2.528552770615
99.703117370605 -69.526718139648 -203.978622436523 2.773057699203
-21.993595123291 -72.734451293945 -206.470596313477 3.395076990128
94.216041564941 -67.673561096191 -212.258651733398 1.032219171524
87.653739929199 -71.031517028809 -213.221527099609 1.301744341850
11.787372589111 -71.001899719238 -206.766784667969 1.588463664055
19.361768722534 -68.694625854492 -212.845825195313 2.416338682175
12.488273620605 -66.522735595703 -208.583450317383 1.998187899590
-11.402565956116 -69.244102478027 -222.908752441406 2.943672657013
-94.920608520508 -70.439933776855 -218.137359619141 2.012766122818
-10.861680030823 -71.120330810547 -212.829284667969 1.728618741035
88.590858459473 -69.775794982910 -218.019775390625 1.539202570915
-94.031402587891 -70.665504455566 -217.229324340820 1.309121370316
-101.648902893066 -66.227523803711 -220.600082397461 2.021110534668
-94.948638916016 -69.146797180176 -219.016754150391 2.690268993378
87.691009521484 -71.026679992676 -223.702331542969 2.270292758942
-135.859848022461 -68.610084533691 -224.188018798828 1.956895709038
-133.049652099609 -72.019493103027 -225.842269897461 1.194218277931
-117.217437744141 -68.196495056152 -224.066986083984 2.033802986145
-113.643150329590 -65.763641357422 -222.435272216797 3.182396411896
-133.930068969727 -66.768318176270 -226.229736328125 1.068674325943
-112.330924987793 -74.814117431641 -226.927108764648 2.501502037048
-112.809120178223 -68.135520935059 -227.358459472656 1.339620471001
-7.444697856903 -72.092521667480 -225.266082763672 1.552184581757
-16.498466491699 -71.117462158203 -223.671112060547 1.775192260742
-1.595859050751 -66.931121826172 -231.061752319336 1.214484333992
-10.737621307373 -66.092758178711 -227.491546630859 1.353300094604
14.720012664795 -69.644149780273 -234.379882812500 1.634328842163
-19.462924957275 -67.147323608398 -229.540603637695 3.244016170502
-167.366958618164 -66.521331787109 -220.905487060547 2.352005720139
-4.773017883301 -68.785491943359 -234.085845947266 1.683650135994
80.183731079102 -66.557449340820 -232.795272827148 5.491901874542
10.291216850281 -70.640472412109 -234.486846923828 1.410614013672
-6.571990966797 -68.071098327637 -235.366333007813 1.956562519073
-157.551406860352 -65.703628540039 -235.237609863281 1.080936312675
-142.904602050781 -66.678680419922 -229.332824707031 1.395855188370
61.904685974121 -67.903495788574 -237.305175781250 1.576763629913
-6.332920074463 -69.717239379883 -234.738128662109 0.747871041298
8.668491363525 -70.951057434082 -231.544616699219 1.943960785866
68.793983459473 -71.440238952637 -231.831283569336 1.362959623337
76.283157348633 -69.664024353027 -235.920440673828 2.471293449402
70.276397705078 -70.227218627930 -242.926239013672 3.086251258850
-2.275460004807 -71.556457519531 -236.396591186523 1.239359736443
57.335647583008 -67.468582153320 -239.309051513672 1.371639490128
-19.764570236206 -71.144721984863 -240.210235595703 1.791339755058
-16.007223129272 -66.372261047363 -240.832504272461 2.355795860291
7.495800018311 -68.694068908691 -240.124954223633 1.560467839241
64.052871704102 -72.271987915039 -239.412902832031 1.747114300728
64.699272155762 -67.646469116211 -242.104629516602 1.511079668999
48.803199768066 -69.130638122559 -247.404418945313 1.194744467735
60.347133636475 -72.100463867188 -244.203552246094 2.591973066330
-16.402727127075 -72.858200073242 -250.210556030273 2.230761528015
-84.495613098145 -65.468124389648 -253.771011352539 3.431908130646
-77.735946655273 -66.095252990723 -252.624374389648 4.383624076843
43.418277740479 -71.607833862305 -249.037811279297 1.389298677444
-149.997344970703 -68.824287414551 -249.517288208008 2.134126186371
35.076271057129 -68.667419433594 -257.334411621094 1.797485470772
-92.938026428223 -71.446365356445 -251.493133544922 1.691208720207
-157.146850585938 -63.950851440430 -253.374557495117 2.005336284637
-141.197021484375 -61.682144165039 -252.148025512695 4.453609466553
44.269447326660 -68.604576110840 -254.730560302734 1.565821051598
-125.921211242676 -63.936382293701 -256.928253173828 1.259684801102
-117.802482604980 -68.050300598145 -254.575881958008 1.685530900955
-93.293251037598 -64.013511657715 -256.536773681641 2.206215381622
-14.547515869141 -65.344711303711 -250.826446533203 3.068205356598
30.932159423828 -68.320930480957 -258.252075195313 2.050359487534
23.987392425537 -66.024627685547 -260.385498046875 1.838275432587
-159.925476074219 -63.138996124268 -258.936706542969 4.674266815186
-115.772972106934 -70.268684387207 -261.961761474609 2.062332630157
-14.926955223083 -67.943092346191 -262.428009033203 2.786701202393
-133.837966918945 -67.288650512695 -264.396789550781 1.877130985260
-15.242614746094 -66.877487182617 -270.765075683594 3.876862764359
-166.029205322266 -66.408638000488 -271.124969482422 3.338912010193
-8.552388191223 -68.898216247559 -280.054809570313 2.116160869598
-162.228347778320 -67.210281372070 -286.467742919922 1.248212218285
-165.095474243164 -68.865638732910 -276.547698974609 1.720384836197
-143.932693481445 -67.261634826660 -284.100280761719 1.220613718033
-171.503982543945 -68.821258544922 -283.238525390625 5.137071609497
12.654516220093 -70.101516723633 -288.840423583984 2.841047763824
-104.522605895996 -68.251388549805 -285.941833496094 1.433695077896
-88.519981384277 -63.331974029541 -285.507995605469 6.105739593506
-169.093811035156 -64.175697326660 -283.108123779297 6.490715980530
-93.375114440918 -71.162353515625 -283.586669921875 5.317672252655
-155.100128173828 -67.371643066406 -287.236328125000 2.414642333984
-76.937721252441 -68.188697814941 -293.358184814453 2.901978254318
-72.031646728516 -66.733131408691 -288.492675781250 3.802002668381
-83.974143981934 -68.290000915527 -290.971740722656 2.365401029587
-5.103090763092 -65.242149353027 -289.508972167969 2.935335636139
-89.430892944336 -67.261322021484 -288.210815429688 3.341267585754
-100.445472717285 -68.577796936035 -290.390319824219 1.218506336212
-118.130302429199 -67.388694763184 -291.887756347656 0.858744382858
-118.038352966309 -64.431007385254 -291.974884033203 2.831866979599
-135.634933471680 -66.359275817871 -291.193328857422 1.214884877205
-144.387313842773 -67.003211975098 -299.696472167969 3.508150815964
-145.957885742188 -68.026054382324 -310.643188476563 1.334223031998
25.998296737671 -70.590301513672 -16.064437866211 2.433990240097
34.417350769043 -71.820953369141 -17.441982269287 1.816462993622
31.414596557617 -74.403892517090 -19.303152084351 2.074205875397
46.210609436035 -70.544013977051 -21.730251312256 2.907541036606
26.817543029785 -72.060005187988 -32.604518890381 1.290881276131
-73.162132263184 -69.448242187500 -46.742633819580 0.933751940727
91.223739624023 -67.655303955078 -67.137657165527 2.522222280502
-16.122768402100 -69.318298339844 -67.917312622070 1.039743185043
104.064460754395 -70.688911437988 -74.718399047852 2.773792028427
96.465454101563 -75.403335571289 -77.422683715820 2.401315689087
69.869262695313 -72.826324462891 -79.942703247070 1.329635977745
71.554290771484 -74.603019714355 -84.116142272949 1.195327043533
-43.375251770020 -73.893760681152 -82.560997009277 1.336025357246
62.460956573486 -74.615104675293 -83.786956787109 3.751216173172
-93.182205200195 -70.633583068848 -87.787841796875 3.600281000137
-47.923274993896 -68.382102966309 -85.221923828125 2.340921401978
-54.677768707275 -77.114830017090 -87.603881835938 3.369965791702
102.094802856445 -76.640609741211 -99.456825256348 3.254006862640
60.388874053955 -74.236625671387 -93.615356445313 1.180089235306
67.092811584473 -70.510299682617 -92.379966735840 2.853058815002
-94.553909301758 -64.812599182129 -96.270370483398 2.379081487656
109.031105041504 -72.840042114258 -94.978210449219 3.416269779205
45.216083526611 -69.660064697266 -100.036201477051 2.453905582428
102.537391662598 -71.034873962402 -99.895942687988 1.258147835732
107.790756225586 -69.140670776367 -107.803695678711 0.753490805626
102.321128845215 -71.508476257324 -106.326477050781 1.981031417847
74.949203491211 -73.281394958496 -102.204803466797 2.088587284088
88.314414978027 -73.100730895996 -108.192237854004 5.207624912262
50.981452941895 -70.542968750000 -112.365470886230 3.310020685196
111.708732604980 -69.123031616211 -105.448234558105 0.926345467567
47.228981018066 -73.378303527832 -106.595695495605 2.634891748428
41.654876708984 -69.031234741211 -102.597747802734 2.131206274033
113.730422973633 -71.532409667969 -112.270263671875 2.039307832718
-77.532035827637 -67.199615478516 -109.228607177734 1.843008756638
47.055168151855 -69.872001647949 -113.973533630371 1.187303543091
35.670944213867 -72.480293273926 -116.069671630859 1.376601696014
106.461273193359 -68.842720031738 -111.876426696777 0.715123772621
40.391651153564 -67.873321533203 -112.492240905762 1.867896914482
-87.106109619141 -69.252250671387 -112.349319458008 1.489578008652
-94.615806579590 -66.690574645996 -114.149658203125 4.424166202545
104.913177490234 -74.037345886230 -120.980667114258 2.057731628418
-93.892623901367 -70.784240722656 -118.048286437988 1.674616932869
39.813514709473 -72.452796936035 -122.322395324707 1.909692287445
37.830017089844 -70.133171081543 -121.752548217773 1.872339129448
-82.588668823242 -69.062232971191 -123.727310180664 2.226509571075
33.110492706299 -68.378639221191 -135.588317871094 2.483601570129
111.595588684082 -72.070777893066 -133.114807128906 2.055557250977
-51.937179565430 -69.132926940918 -135.926071166992 1.976321458817
-87.489204406738 -68.072250366211 -131.071487426758 0.746694624424
38.664127349854 -73.416770935059 -132.697113037109 1.680776357651
-88.368431091309 -64.949096679688 -135.245529174805 1.824053525925
-88.256202697754 -71.098670959473 -139.081176757813 3.440512657166
-48.979171752930 -70.571281433105 -136.730667114258 1.314707517624
-70.178222656250 -67.365188598633 -139.139236450195 2.767510175705
-49.961483001709 -68.497650146484 -133.341751098633 1.710743069649
116.114379882813 -68.059257507324 -139.437377929688 3.822713613510
-72.540809631348 -70.598716735840 -136.442794799805 2.130061864853
37.271789550781 -70.513099670410 -132.271392822266 1.720043063164
-78.025352478027 -68.009880065918 -139.670669555664 0.790483057499
-72.618286132813 -68.884422302246 -135.367691040039 0.970294177532
-90.711219787598 -66.973464965820 -139.499694824219 0.695519089699
-53.276584625244 -67.047782897949 -146.859741210938 2.117522716522
32.055492401123 -66.051719665527 -146.632736206055 2.931776046753
28.085386276245 -68.034446716309 -150.354431152344 1.395547151566
19.785223007202 -65.219924926758 -145.025451660156 1.297468662262
113.408691406250 -69.826065063477 -148.186233520508 1.439563870430
-92.972534179688 -67.190719604492 -151.821273803711 1.258071541786
13.509610176086 -71.019981384277 -153.101623535156 1.625874280930
-71.411880493164 -68.252334594727 -152.935516357422 1.301092147827
24.026702880859 -68.715736389160 -150.565399169922 1.512981772423
-48.664512634277 -67.913391113281 -155.313430786133 3.035959005356
10.088602066040 -68.120780944824 -153.868331909180 0.897410571575
15.542791366577 -71.709403991699 -159.142547607422 1.424160599709
18.156133651733 -73.449943542480 -164.697891235352 1.212348341942
-48.514148712158 -70.689582824707 -162.495086669922 1.004408478737
-38.679050445557 -68.041328430176 -154.862854003906 2.376929759979
-45.951496124268 -69.159347534180 -160.984771728516 0.267703354359
-103.386436462402 -68.657287597656 -171.176498413086 1.316508531570
22.001422882080 -70.135635375977 -174.852035522461 2.532682895660
-34.517230987549 -68.373466491699 -176.046798706055 0.486925333738
15.635682106018 -72.573295593262 -179.075317382813 2.033720731735
-143.381713867188 -67.783744812012 -174.475570678711 0.988533496857
-31.937843322754 -65.790168762207 -172.893432617188 1.196765661240
-154.819152832031 -72.075614929199 -176.481689453125 2.555085897446
23.622688293457 -64.844306945801 -182.563217163086 4.524354934692
-32.636692047119 -69.677772521973 -171.609237670898 2.516255855560
-107.442214965820 -66.386947631836 -176.845474243164 2.004410266876
-106.994735717773 -71.911437988281 -182.782836914063 2.816262006760
-29.847162246704 -64.203910827637 -185.303070068359 4.211419582367
-23.476791381836 -72.419067382813 -182.063064575195 1.477963805199
14.055715560913 -67.777679443359 -189.967880249023 1.780911684036
16.962030410767 -66.241172790527 -197.923110961914 2.700334072113
13.962200164795 -68.639236450195 -187.661361694336 3.278743267059
-142.756149291992 -66.562080383301 -186.202285766602 0.743215143681
21.654661178589 -65.415817260742 -190.690429687500 3.241577863693
7.531369209290 -68.361373901367 -197.368545532227 0.879133701324
-137.072555541992 -66.029289245605 -193.229644775391 2.449163675308
-114.335411071777 -67.285621643066 -194.515197753906 2.059294462204
14.828595161438 -66.898826599121 -201.884750366211 2.269965648651
-116.368705749512 -66.515609741211 -195.855270385742 1.498152613640
-107.703117370605 -63.131835937500 -191.287384033203 3.602843523026
-165.389236450195 -68.445526123047 -198.595779418945 1.955897450447
-24.363458633423 -67.189399719238 -200.237060546875 1.756360769272
12.849712371826 -67.002983093262 -200.923934936523 2.339319229126
-143.088882446289 -67.505332946777 -202.718521118164 1.365787982941
-135.931030273438 -69.087387084961 -205.239212036133 3.607501745224
-20.246654510498 -66.451347351074 -207.560501098633 1.667656779289
-12.030017852783 -69.242462158203 -204.959396362305 0.747211158276
-14.916449546814 -68.736999511719 -206.317169189453 1.713704705238
-140.943603515625 -70.438209533691 -203.284957885742 2.281359434128
-16.752798080444 -68.317497253418 -213.253967285156 2.193592786789
-10.728827476501 -71.587974548340 -214.763992309570 2.781345844269
17.373861312866 -65.820480346680 -211.731109619141 2.620686531067
-15.078503608704 -71.303634643555 -211.913406372070 0.553082525730
10.308773040771 -68.501632690430 -210.739410400391 0.501002550125
-10.636041641235 -68.878684997559 -216.039398193359 1.307771444321
-21.181579589844 -65.497291564941 -212.234176635742 5.466888427734
12.341869354248 -72.376266479492 -221.784469604492 1.661506175995
-1.891942977905 -72.728073120117 -220.401809692383 1.836364269257
10.922460556030 -64.754158020020 -221.837844848633 1.629330635071
-6.421110153198 -69.802879333496 -227.410583496094 1.139815688133
-159.135742187500 -67.417991638184 -223.940582275391 1.133866906166
80.527633666992 -70.790458679199 -221.714920043945 2.081154346466
-135.571884155273 -65.170845031738 -223.252960205078 2.979718923569
-135.348587036133 -68.642372131348 -222.101196289063 2.021505832672
-8.755227088928 -68.596382141113 -225.719650268555 2.900760650635
8.112649917603 -67.685401916504 -234.513412475586 1.813321948051
-157.281265258789 -66.429969787598 -228.210235595703 2.107311248779
87.764373779297 -67.340835571289 -221.652496337891 3.233874082565
-2.493247985840 -66.771522521973 -226.283416748047 1.667317628860
0.311906009912 -68.659355163574 -223.583404541016 2.096357345581
73.610877990723 -70.940261840820 -230.899353027344 0.901973128319
0.187444999814 -65.645294189453 -235.424148559570 0.627415776253
-15.090386390686 -69.660865783691 -227.587341308594 1.662401914597
-126.929351806641 -65.365966796875 -233.342910766602 0.887916803360
-4.736112117767 -67.455245971680 -237.425201416016 1.550330638885
2.064498901367 -65.730087280273 -232.559524536133 1.292968153954
65.553321838379 -66.356903076172 -239.655471801758 1.667745947838
-158.725646972656 -67.810363769531 -236.951858520508 2.327268838882
-13.052872657776 -66.999107360840 -245.136413574219 2.472250699997
-169.586532592773 -68.733848571777 -237.416763305664 2.700225353241
9.343278884888 -65.091140747070 -242.752578735352 2.436412096024
-165.066223144531 -67.273521423340 -237.620437622070 0.770783782005
-161.344421386719 -67.779464721680 -244.793106079102 1.963218808174
56.455814361572 -67.919105529785 -246.551757812500 1.732515335083
61.717731475830 -69.380187988281 -244.062835693359 2.655950546265
55.583511352539 -68.519027709961 -245.800033569336 0.552015960217
51.121101379395 -67.813385009766 -250.188140869141 1.338936090469
-155.996749877930 -67.256958007813 -242.795639038086 3.391368150711
-157.103759765625 -64.150299072266 -247.161560058594 4.515150070190
-13.993644714355 -70.208747863770 -249.918731689453 1.562893152237
-151.972091674805 -66.104385375977 -245.537414550781 1.745181441307
18.987670898438 -69.026268005371 -252.095367431641 2.547294139862
-170.403488159180 -70.796012878418 -249.750473022461 4.220520973206
-168.216629028320 -64.750679016113 -246.934936523438 3.049293756485
-82.770629882813 -68.351425170898 -248.574218750000 1.661747217178
-170.204315185547 -65.773315429688 -258.426513671875 4.582108497620
-86.119995117188 -66.406425476074 -256.337982177734 3.320021390915
41.845077514648 -66.928512573242 -254.368896484375 0.517610013485
21.509605407715 -70.811523437500 -257.245788574219 3.099601745605
-159.478271484375 -66.969245910645 -260.634918212891 2.963766574860
-101.568641662598 -61.293231964111 -258.980346679688 1.960070729256
38.522327423096 -67.910591125488 -256.889007568359 1.951780080795
-105.648162841797 -72.728355407715 -258.566864013672 0.657878339291
-154.916595458984 -62.027004241943 -263.681091308594 0.834432303905
-105.957870483398 -65.604545593262 -257.887512207031 1.255471110344
-168.637512207031 -68.061927795410 -258.338195800781 2.308809280396
-113.945465087891 -67.527275085449 -262.669647216797 2.524742126465
-154.157287597656 -68.233009338379 -264.629028320313 2.327134370804
-159.391952514648 -64.658416748047 -262.314147949219 3.702184200287
-166.882537841797 -65.513290405273 -262.445617675781 2.471055746078
-164.878982543945 -64.521560668945 -261.001068115234 3.056268692017
-166.575546264648 -66.125518798828 -264.421020507813 2.546361923218
-166.541107177734 -66.770248413086 -261.412963867188 2.030257463455
24.918622970581 -68.681472778320 -266.268157958984 2.261481761932
-150.693588256836 -69.467369079590 -262.617645263672 1.818086385727
-150.880172729492 -65.500259399414 -283.091674804688 1.020974993706
23.722068786621 -68.117233276367 -277.412445068359 2.217208385468
-12.653579711914 -68.690269470215 -275.030822753906 2.004692316055
-126.903320312500 -64.859146118164 -283.565795898438 4.220863342285
-137.482589721680 -66.959945678711 -285.162139892578 3.112457513809
-135.613723754883 -65.004646301270 -287.584625244141 2.917057514191
-127.984146118164 -66.649177551270 -285.093170166016 3.406435728073
-115.532951354980 -64.961616516113 -289.207885742188 1.765379548073
-106.432357788086 -62.926406860352 -284.938629150391 5.544994354248
8.064290046692 -69.674392700195 -293.289123535156 1.958031296730
-86.191940307617 -67.001548767090 -289.635681152344 1.836617588997
-150.284149169922 -66.529594421387 -287.264923095703 1.124996185303
-102.915786743164 -66.359184265137 -290.215484619141 2.363328933716
-130.458282470703 -63.558315277100 -290.999816894531 3.240590572357
8.415183067322 -69.449638366699 -289.008819580078 2.840957641602
-113.188758850098 -61.165019989014 -288.367492675781 5.330182075500
1.665493011475 -67.113945007324 -293.891876220703 2.540063619614
-144.378143310547 -65.488616943359 -287.775115966797 2.787337303162
-154.244674682617 -66.273033142090 -294.827484130859 1.936936616898
-159.517456054688 -65.012138366699 -312.935852050781 5.274483680725
-156.695724487305 -64.673393249512 -310.651306152344 4.998457908630
49.966461181641 -73.876655578613 -25.882530212402 2.250609159470
25.297582626343 -71.599609375000 -36.385620117188 1.348792076111
32.783374786377 -72.521347045898 -37.617057800293 1.636922359467
-43.073329925537 -72.654808044434 -47.570232391357 4.080922126770
-11.056843757629 -68.773078918457 -62.639167785645 1.694799304008
95.843406677246 -72.300910949707 -70.178833007813 1.873786091805
70.213027954102 -66.954109191895 -70.971908569336 2.143198966980
-22.740045547485 -70.171112060547 -74.704246520996 1.395785808563
-96.744224548340 -73.288772583008 -85.830184936523 1.064821958542
-41.154140472412 -69.996086120605 -82.627113342285 1.672967910767
62.899600982666 -69.940719604492 -82.781890869141 1.490319728851
63.496807098389 -72.913871765137 -87.354858398438 1.764201760292
54.758499145508 -68.273918151855 -88.782203674316 1.414566516876
-57.659961700439 -68.532127380371 -90.140327453613 1.428224205971
68.076026916504 -66.828804016113 -90.641235351563 2.135720968246
44.789669036865 -73.313026428223 -99.059295654297 1.865802884102
69.638648986816 -71.982109069824 -96.131401062012 2.328113794327
-61.093013763428 -67.680656433105 -95.793876647949 3.902755498886
51.325832366943 -72.115791320801 -94.411346435547 1.482419133186
46.802280426025 -71.758758544922 -99.556571960449 0.589230298996
104.441917419434 -67.805580139160 -102.337142944336 1.573095440865
-65.370460510254 -69.259719848633 -98.612350463867 0.818318247795
111.691490173340 -69.953941345215 -102.274887084961 2.374953031540
-77.938606262207 -71.203514099121 -100.723526000977 1.019257187843
55.526237487793 -72.596443176270 -106.257812500000 1.984404683113
49.105468750000 -68.374557495117 -101.829032897949 0.626045405865
92.893745422363 -68.579490661621 -105.467079162598 2.895322322845
85.520973205566 -68.726966857910 -108.203437805176 2.205413818359
55.849884033203 -69.942779541016 -105.774963378906 1.935088992119
-75.329528808594 -69.587669372559 -110.676818847656 1.624816894531
-75.887100219727 -68.141105651855 -114.500221252441 2.192664623260
-79.502578735352 -69.998977661133 -117.894760131836 1.854589343071
-92.324516296387 -73.322250366211 -117.914772033691 1.952716350555
105.817413330078 -65.197952270508 -118.239067077637 3.623414039612
-87.523208618164 -71.013282775879 -118.475929260254 2.191497325897
-75.809654235840 -65.257286071777 -120.758300781250 2.567991971970
110.455139160156 -68.925544738770 -117.888252258301 2.709747791290
-60.661304473877 -61.703681945801 -117.673042297363 1.444180369377
114.419418334961 -73.109169006348 -133.401229858398 2.945719718933
110.788688659668 -71.201683044434 -131.305953979492 0.537873804569
108.070205688477 -70.895278930664 -127.647682189941 1.466422677040
-92.789306640625 -68.771835327148 -137.122512817383 2.414710760117
-46.422061920166 -68.482330322266 -141.705352783203 2.393088817596
-78.553520202637 -66.305183410645 -143.961242675781 3.777476787567
-68.799278259277 -68.255340576172 -148.608291625977 1.840032100677
-69.714637756348 -66.908485412598 -147.531387329102 1.567410707474
-54.568305969238 -67.790298461914 -143.416656494141 1.212887644768
-46.400943756104 -72.065650939941 -145.962814331055 1.526001214981
16.944545745850 -68.926368713379 -147.077011108398 1.751771926880
-93.524978637695 -65.262832641602 -142.151153564453 1.818197011948
-45.154472351074 -67.051376342773 -147.162933349609 2.212545156479
-51.577789306641 -62.631130218506 -147.396453857422 5.604230403900
-41.630035400391 -66.556808471680 -154.773422241211 1.571325302124
27.886466979980 -70.710731506348 -162.729736328125 1.785059571266
-49.532970428467 -68.635475158691 -150.839752197266 1.330992698669
-99.881210327148 -64.097488403320 -148.633270263672 0.520825624466
-44.880954742432 -65.464134216309 -156.674468994141 3.511708498001
26.239574432373 -70.748283386230 -148.988204956055 1.046462297440
-98.200790405273 -72.482925415039 -162.367324829102 3.964194536209
23.129436492920 -70.637573242188 -158.444000244141 2.305569648743
-107.359001159668 -64.984146118164 -168.949676513672 0.848451256752
-100.716857910156 -68.010025024414 -162.907760620117 2.303074598312
22.536314010620 -68.352043151855 -165.676681518555 1.490467548370
26.502145767212 -66.839439392090 -168.611557006836 2.846039533615
-108.085960388184 -69.569229125977 -172.829544067383 0.970735192299
-141.847640991211 -65.288368225098 -173.311294555664 2.272812366486
-19.768417358398 -68.177154541016 -189.626449584961 3.104488372803
-27.262624740601 -67.094039916992 -181.811523437500 1.630758523941
-115.240905761719 -68.378486633301 -186.083145141602 1.437835812569
-143.662673950195 -62.762138366699 -185.694671630859 2.600261926651
-103.227882385254 -64.787605285645 -180.807235717773 2.584594964981
-157.954833984375 -67.012184143066 -189.110000610352 4.385677814484
-131.252807617188 -70.954536437988 -194.222763061523 1.296583414078
-133.228256225586 -68.768875122070 -195.113876342773 2.068857669830
-19.753396987915 -66.116828918457 -189.637237548828 3.171959400177
-120.350021362305 -67.508941650391 -197.058105468750 2.395052194595
-117.015449523926 -63.765552520752 -198.019882202148 0.952321410179
-26.919834136963 -69.523284912109 -194.767593383789 1.369828701019
-154.329757690430 -64.431419372559 -196.495620727539 1.153439402580
-132.334716796875 -68.523963928223 -203.796676635742 0.570627272129
-125.011947631836 -64.738143920898 -203.490554809570 2.138921022415
18.038051605225 -69.732902526855 -202.580596923828 1.704658746719
-162.065567016602 -66.016899108887 -201.744232177734 1.692121982574
10.996271133423 -66.576644897461 -215.897384643555 1.686572909355
13.700771331787 -68.564102172852 -215.376037597656 0.959760487080
-17.144702911377 -64.052490234375 -209.264633178711 4.333300113678
-5.282309055328 -67.536735534668 -216.830337524414 1.817937612534
-170.171447753906 -63.843921661377 -208.768051147461 4.772437095642
-159.261322021484 -63.114166259766 -211.509735107422 4.203706264496
-94.970184326172 -66.522087097168 -217.862640380859 1.572216391563
-98.946990966797 -68.113922119141 -222.162887573242 1.055709719658
-161.299621582031 -66.591651916504 -223.789855957031 1.550113320351
-106.755081176758 -64.862380981445 -218.546218872070 3.446919918060
-12.282438278198 -65.833824157715 -214.548355102539 0.334099054337
-127.764915466309 -67.998153686523 -221.380783081055 3.260184288025
-142.456176757813 -66.935813903809 -222.935348510742 2.473040819168
-3.438957929611 -68.722953796387 -221.826812744141 2.466318368912
-134.638488769531 -64.787963867188 -223.712387084961 3.192147254944
-124.098373413086 -70.238822937012 -222.362442016602 3.728277444839
-114.701667785645 -68.445205688477 -223.990859985352 1.905339479446
-0.027804000303 -62.643516540527 -228.595016479492 5.359928607941
-107.671638488770 -64.963920593262 -229.950363159180 1.724601984024
-160.737747192383 -61.157737731934 -221.509933471680 4.317867755890
-147.031402587891 -65.312179565430 -225.590942382813 2.611242532730
-165.760162353516 -65.528564453125 -223.748168945313 3.039160013199
-8.314908027649 -66.673812866211 -227.131469726563 3.247441053391
-8.861146926880 -67.221549987793 -233.020019531250 1.272664427757
78.066894531250 -69.934783935547 -227.006423950195 1.646161675453
-0.544757008553 -69.046211242676 -230.076507568359 1.421003341675
-143.466690063477 -65.859283447266 -235.068344116211 2.515740156174
-14.639633178711 -65.562950134277 -229.531356811523 3.484903573990
73.674163818359 -68.035072326660 -229.485885620117 3.248078107834
74.211921691895 -68.056121826172 -234.545318603516 1.598106384277
-135.014358520508 -64.798049926758 -231.424377441406 1.245379090309
-157.799453735352 -68.486549377441 -227.182510375977 2.930290222168
-114.638458251953 -65.000526428223 -232.144012451172 1.244564652443
-125.175918579102 -62.120178222656 -234.685867309570 2.617127180099
-164.161346435547 -64.648345947266 -233.497436523438 3.384755849838
-160.582656860352 -66.267242431641 -234.403930664063 3.191445827484
-147.172821044922 -62.520046234131 -232.957031250000 1.271391987801
-13.234623908997 -66.014877319336 -235.720306396484 3.378415822983
-5.745543956757 -66.318038940430 -240.947341918945 1.292637944221
-161.259628295898 -64.343544006348 -239.343368530273 1.920872569084
4.940993785858 -67.907966613770 -238.814239501953 1.949538707733
2.337877988815 -67.781951904297 -237.241912841797 1.190236210823
-160.612640380859 -65.539558410645 -237.525955200195 1.839475274086
16.187225341797 -70.770240783691 -243.054550170898 2.891114950180
50.149711608887 -69.551383972168 -246.545379638672 1.439408779144
49.961814880371 -69.515174865723 -245.577087402344 1.708378314972
-16.630250930786 -67.801689147949 -247.318511962891 3.227589368820
47.534915924072 -66.074989318848 -250.261230468750 0.913639485836
-162.184494018555 -62.588958740234 -248.745803833008 5.199879646301
-159.810424804688 -65.897377014160 -246.184738159180 2.625568389893
-161.244003295898 -69.003959655762 -248.298843383789 1.792899131775
54.020629882813 -67.049568176270 -249.909683227539 1.869665861130
-92.994644165039 -64.975082397461 -252.250839233398 3.039269447327
-125.692741394043 -65.020996093750 -253.465560913086 0.611973464489
-106.704193115234 -69.873939514160 -253.042373657227 2.586073160172
25.677450180054 -70.519302368164 -258.362304687500 1.503890156746
40.522052764893 -65.228347778320 -252.170043945313 1.753210186958
-101.636192321777 -63.515621185303 -254.248733520508 5.071276187897
-94.443763732910 -62.167385101318 -251.012573242188 4.103294849396
44.552288055420 -70.762847900391 -255.640106201172 2.822328090668
41.336654663086 -65.509284973145 -257.723083496094 1.207339406013
-155.855163574219 -70.069580078125 -256.756622314453 1.119980692863
29.506837844849 -66.897140502930 -260.144775390625 1.091440200806
-143.938323974609 -68.325752258301 -263.217651367188 1.962344646454
-114.482864379883 -65.300399780273 -261.604187011719 0.918223619461
-138.043151855469 -64.518486022949 -261.438598632813 2.737032890320
30.226654052734 -66.549591064453 -263.661254882813 2.136023759842
-127.231178283691 -64.447784423828 -262.534759521484 2.373982906342
-12.232886314392 -65.428314208984 -258.493682861328 2.126466751099
20.375141143799 -69.685447692871 -271.861480712891 3.367936134338
-6.823853015900 -70.558166503906 -265.844787597656 3.338012218475
18.444011688232 -68.448951721191 -280.669128417969 2.029676437378
-154.630035400391 -66.923919677734 -281.180511474609 2.614392042160
-12.267769813538 -65.034645080566 -280.987823486328 3.286779403687
-154.494857788086 -68.520713806152 -281.273162841797 2.522514820099
