-70.009033203125 -70.141387939453 -155.393585205078 2.744030952454
-74.464614868164 -74.380508422852 -161.543884277344 2.945020198822
19.892518997192 -78.193641662598 -162.804397583008 2.163377523422
-61.779315948486 -71.102760314941 -167.108856201172 1.396203279495
-34.542518615723 -72.460632324219 -162.479705810547 1.716960430145
6.074058055878 -75.798706054688 -163.061889648438 1.203823447227
106.983749389648 -75.232307434082 -160.400054931641 1.270118713379
6.047470092773 -77.318649291992 -166.589797973633 2.700937032700
-34.583202362061 -74.027282714844 -165.678070068359 0.975178539753
-3.596079111099 -70.716033935547 -165.456649780273 3.516841411591
105.913543701172 -74.225860595703 -166.810501098633 0.851883709431
-43.082225799561 -71.112892150879 -165.667480468750 2.980994939804
27.560514450073 -72.522575378418 -171.618499755859 2.157616376877
111.229545593262 -79.786621093750 -171.143829345703 3.267940759659
-58.818233489990 -70.275802612305 -176.436569213867 3.303349733353
-29.907938003540 -76.038330078125 -174.634262084961 3.039327144623
101.287826538086 -76.838981628418 -172.925521850586 4.690252780914
27.442857742310 -73.357666015625 -169.123947143555 2.038653612137
105.888832092285 -78.545265197754 -173.943588256836 3.907058477402
-38.463012695313 -70.534873962402 -178.209014892578 3.081011056900
106.692726135254 -79.180412292480 -179.459518432617 2.167513370514
-63.455532073975 -70.635185241699 -177.897827148438 5.067353248596
-27.213893890381 -77.291358947754 -178.829849243164 1.947997927666
-147.853271484375 -66.436035156250 -184.656814575195 2.560827732086
-55.725688934326 -72.170387268066 -180.947052001953 2.526172876358
-148.632843017578 -71.116226196289 -187.375396728516 1.176206707954
-35.580184936523 -71.509254455566 -185.060440063477 1.877215027809
25.212753295898 -78.355102539063 -181.255508422852 1.697323560715
104.870033264160 -77.284973144531 -182.075759887695 0.182559236884
-35.590763092041 -73.629501342773 -183.930572509766 1.722036123276
9.481438636780 -75.020721435547 -190.423858642578 1.970668435097
15.944679260254 -74.087516784668 -203.123214721680 2.527704715729
-149.642181396484 -71.283798217773 -190.859848022461 1.422803997993
103.549949645996 -78.530746459961 -194.357971191406 2.692059278488
-22.740709304810 -71.427200317383 -193.098144531250 2.557405948639
99.788925170898 -77.391044616699 -187.089340209961 3.969349145889
11.432483673096 -72.234512329102 -189.053329467773 1.229906558990
-138.213714599609 -70.516380310059 -204.716964721680 3.336296558380
-140.155105590820 -70.517883300781 -200.916366577148 1.094881176949
98.818000793457 -78.809654235840 -200.191650390625 2.060694456100
-13.362385749817 -77.323005676270 -200.285354614258 2.196482181549
-17.724639892578 -74.542488098145 -202.856063842773 3.306864500046
9.201329231262 -76.148307800293 -207.012573242188 1.917758584023
-151.269256591797 -68.922714233398 -207.026336669922 2.453770160675
-147.537338256836 -71.850433349609 -209.177307128906 2.611571073532
98.813323974609 -72.401229858398 -203.431854248047 1.563009262085
-83.453323364258 -71.634796142578 -208.664184570313 3.429330348969
-37.408500671387 -73.780403137207 -201.722885131836 2.234906673431
17.510723114014 -76.879783630371 -212.919830322266 2.438819885254
-26.465520858765 -73.842323303223 -211.088806152344 1.588590979576
-77.774848937988 -70.625915527344 -208.298263549805 2.671873569489
89.703285217285 -76.147460937500 -208.613525390625 3.582133293152
-81.596206665039 -69.782844543457 -212.833770751953 3.055424928665
-148.508773803711 -70.788116455078 -219.734695434570 2.090091943741
-81.156517028809 -70.844100952148 -213.711776733398 2.232695102692
-14.412179946899 -69.235198974609 -209.702896118164 1.310213804245
-21.784837722778 -71.054756164551 -218.811325073242 1.811305642128
17.260128021240 -74.273254394531 -212.854553222656 0.535745739937
-6.691932201385 -75.104850769043 -219.309448242188 2.728156328201
-89.495536804199 -74.881347656250 -219.413940429688 1.988236427307
91.380561828613 -75.347000122070 -212.511062622070 0.953313291073
-99.555320739746 -70.677871704102 -216.293716430664 1.792534470558
-153.308502197266 -69.529777526855 -225.222961425781 1.865089893341
-26.290428161621 -72.278213500977 -223.616271972656 1.611195087433
16.539625167847 -74.794700622559 -215.605957031250 1.617855787277
-103.173706054688 -71.574188232422 -220.676330566406 1.536015629768
6.282159805298 -71.113281250000 -218.497222900391 3.053032636642
-26.875293731689 -73.363685607910 -215.575317382813 1.864770650864
81.750312805176 -74.201423645020 -223.171035766602 1.764114022255
-146.436248779297 -69.733352661133 -220.236404418945 2.602188587189
9.241383552551 -72.764587402344 -225.408645629883 2.206052303314
-10.661683082581 -76.466514587402 -225.541625976563 0.871352910995
16.476688385010 -68.614044189453 -222.029373168945 1.900057196617
82.436111450195 -76.594284057617 -221.266067504883 1.326762080193
-14.732704162598 -75.619453430176 -228.395675659180 1.743517875671
-131.651199340820 -71.805801391602 -227.496734619141 1.504912018776
-14.971371650696 -73.654006958008 -224.318283081055 1.099512338638
15.670619964600 -74.538650512695 -230.703857421875 1.191069364548
-127.828559875488 -72.770530700684 -228.150054931641 1.380322933197
-152.575607299805 -67.134170532227 -230.673843383789 2.505276679993
-143.422729492188 -69.390289306641 -229.942245483398 3.356488943100
-131.915878295898 -68.866790771484 -228.827789306641 3.403540849686
-14.220631599426 -71.507019042969 -225.057952880859 2.574654817581
70.739532470703 -75.094749450684 -227.256240844727 3.412273168564
-144.198684692383 -66.925476074219 -237.315139770508 2.445646524429
69.651847839355 -76.449745178223 -227.849975585938 4.171129226685
-21.603395462036 -76.348556518555 -229.572235107422 2.665453672409
-143.387176513672 -73.521827697754 -230.397384643555 1.904773473740
76.103797912598 -80.165168762207 -227.909164428711 4.354154109955
8.565984725952 -77.608978271484 -233.129714965820 1.727036237717
-142.700225830078 -74.340866088867 -236.338256835938 2.043591737747
-151.049682617188 -69.179450988770 -234.995864868164 1.245070695877
15.841685295105 -70.966812133789 -231.017822265625 1.663350343704
-3.768126964569 -75.863014221191 -237.446380615234 2.506029605865
-28.694219589233 -72.434463500977 -237.172317504883 2.508335828781
-2.574103116989 -69.758590698242 -237.317535400391 1.188825130463
-161.807952880859 -71.792709350586 -238.945312500000 3.031043291092
7.002552986145 -72.682838439941 -243.180130004883 1.177747249603
-165.699081420898 -70.186584472656 -240.014663696289 1.967921733856
-13.844596862793 -74.425292968750 -237.527618408203 1.991818666458
60.487350463867 -75.811546325684 -238.357620239258 3.016871929169
-14.081422805786 -72.394271850586 -237.950637817383 0.933701097965
-25.830816268921 -72.187431335449 -244.315170288086 3.062622785568
-25.981145858765 -72.462287902832 -241.718765258789 1.280964136124
-13.891675949097 -75.399833679199 -240.720489501953 1.991912126541
-147.375076293945 -70.469062805176 -232.096328735352 3.270215988159
7.114479064941 -73.065444946289 -241.968231201172 1.759576201439
63.268470764160 -74.584129333496 -242.802505493164 1.756693601608
13.788997650146 -71.800476074219 -244.701110839844 1.920094966888
-166.887252807617 -67.997787475586 -242.842819213867 2.594387054443
-51.452579498291 -71.306091308594 -240.980499267578 2.985857725143
2.872498035431 -80.167877197266 -247.852630615234 0.812558054924
16.028316497803 -73.955482482910 -243.803070068359 2.991925001144
-55.114559173584 -71.452033996582 -247.424102783203 1.318344950676
-3.671237945557 -69.595451354980 -248.006896972656 3.897504091263
19.891099929810 -78.649978637695 -247.494857788086 2.057997703552
-169.970046997070 -67.625846862793 -250.070388793945 3.771337270737
-68.550476074219 -74.929634094238 -248.530487060547 2.198166608810
-52.466236114502 -71.075729370117 -247.606246948242 3.670142412186
-81.960823059082 -70.502799987793 -251.814010620117 1.818455338478
-161.924667358398 -70.411087036133 -248.211639404297 2.295163154602
-151.496856689453 -64.077835083008 -250.670928955078 2.550225973129
-61.039955139160 -73.658172607422 -249.968307495117 1.421617269516
-69.648811340332 -71.546890258789 -250.333419799805 2.059078454971
-154.420211791992 -67.778251647949 -253.882705688477 2.315044879913
-152.886688232422 -70.387710571289 -253.484008789063 1.086877226830
-76.637184143066 -68.452232360840 -254.849090576172 3.327344417572
-94.217536926270 -68.653900146484 -255.857940673828 1.151877641678
-165.132873535156 -64.896949768066 -253.522857666016 4.217511653900
-157.605575561523 -69.654479980469 -260.969177246094 2.115015983582
-135.634155273438 -71.409942626953 -259.309661865234 2.051060438156
-84.011657714844 -71.267303466797 -251.903396606445 0.854222178459
-162.944091796875 -66.661621093750 -254.225738525391 4.115368843079
-142.616897583008 -68.101463317871 -257.986358642578 2.510394334793
-86.178886413574 -70.370399475098 -251.833618164063 2.005299806595
-97.439117431641 -68.722206115723 -261.029022216797 1.462862372398
-145.899795532227 -70.568893432617 -257.138397216797 1.321961879730
-94.313049316406 -70.649475097656 -256.775756835938 1.300291419029
-153.372833251953 -67.997215270996 -257.238525390625 2.016226530075
-103.143585205078 -70.270790100098 -256.338806152344 1.436413645744
-169.446105957031 -68.440238952637 -260.231201171875 1.564511299133
-162.258636474609 -70.610496520996 -264.738739013672 1.889011025429
-127.296012878418 -72.879722595215 -257.587432861328 3.155630350113
-152.470275878906 -69.639701843262 -260.667114257813 2.624866485596
-112.559051513672 -67.809318542480 -262.786956787109 2.976246595383
-15.116141319275 -71.671646118164 -261.828460693359 1.621386528015
-142.348724365234 -69.455917358398 -262.160522460938 1.288734555244
-126.616836547852 -69.478195190430 -261.114440917969 1.623527407646
-154.897415161133 -67.881385803223 -263.929229736328 1.475899577141
22.822668075562 -74.551727294922 -270.391723632813 2.399563550949
-149.304397583008 -71.618240356445 -279.880889892578 3.827045202255
-168.989334106445 -69.244705200195 -281.530456542969 5.066140651703
-8.816576004028 -73.042411804199 -279.332611083984 2.253852128983
-146.430450439453 -69.425071716309 -281.709533691406 2.402701377869
-10.090247154236 -71.472923278809 -283.082122802734 1.424787044525
12.256725311279 -73.788932800293 -285.789642333984 1.956384301186
-137.127502441406 -68.259880065918 -287.092163085938 1.666009545326
-68.855773925781 -73.083343505859 -287.425445556641 2.829540014267
-33.898696899414 -74.455490112305 -288.205688476563 2.104405403137
-113.420394897461 -70.147903442383 -285.312103271484 2.326529026031
-95.871879577637 -74.208694458008 -290.984680175781 1.239793777466
-90.095771789551 -71.078681945801 -292.094573974609 1.504842519760
-50.319774627686 -73.118316650391 -292.200103759766 2.715863943100
-116.532608032227 -74.097801208496 -289.540130615234 2.077674865723
-114.209205627441 -71.379737854004 -291.192291259766 1.988331079483
-33.530651092529 -69.952590942383 -289.337646484375 2.234577417374
-115.781204223633 -70.605453491211 -293.954772949219 2.201046705246
-127.452911376953 -65.931884765625 -291.252502441406 1.901711821556
-144.874526977539 -71.342926025391 -294.799896240234 1.121515989304
6.656628131866 -73.065658569336 -291.283721923828 2.593635082245
16.107812881470 -75.209205627441 -292.994659423828 0.636769294739
-160.334381103516 -69.009841918945 -294.197021484375 2.602514743805
-158.748229980469 -72.534614562988 -302.031188964844 2.816524982452
-147.271682739258 -70.600990295410 -311.733917236328 1.264952778816
-152.202575683594 -68.017227172852 -312.126037597656 1.643933415413
-152.828475952148 -70.647010803223 -314.854461669922 3.175660610199
25.924167633057 -77.852882385254 -14.486254692078 5.495278835297
28.000000000000 -73.209518432617 -17.808328628540 1.206319451332
18.653572082520 -74.963836669922 -23.908773422241 3.823167324066
26.352329254150 -72.832885742188 -38.819656372070 2.198982477188
-60.609764099121 -71.656738281250 -50.113189697266 1.785948395729
-67.711952209473 -71.981803894043 -50.616176605225 2.675195932388
-41.437602996826 -75.861335754395 -50.508098602295 3.134942531586
-86.737663269043 -68.184234619141 -63.546112060547 3.890875577927
78.790580749512 -79.010055541992 -73.307067871094 5.067509651184
-17.752914428711 -71.891906738281 -71.035278320313 1.384263157845
86.662261962891 -77.319664001465 -65.414710998535 3.640121221542
97.017112731934 -76.402336120605 -75.914085388184 3.214647531509
-94.817718505859 -69.831703186035 -77.035171508789 2.392927646637
65.344635009766 -75.754737854004 -79.658119201660 5.735004425049
-43.357044219971 -76.690559387207 -85.867134094238 2.041752099991
98.638580322266 -75.746292114258 -81.012634277344 0.683212935925
-57.776996612549 -71.325187683105 -88.997406005859 2.860476016998
48.818531036377 -75.774017333984 -89.957504272461 3.787855148315
68.608215332031 -80.989364624023 -89.986709594727 6.708426952362
53.353507995605 -74.699974060059 -95.653686523438 1.057829856873
50.641380310059 -77.126586914063 -97.955116271973 1.953801274300
72.168495178223 -79.051223754883 -94.865348815918 4.060219764709
44.413150787354 -75.037216186523 -104.659782409668 1.995000004768
98.266113281250 -77.311058044434 -99.731773376465 2.581198215485
103.719200134277 -80.643150329590 -105.349090576172 5.412614822388
77.946418762207 -73.486732482910 -102.559745788574 2.805135965347
89.674224853516 -77.658096313477 -102.494651794434 3.825148820877
98.674301147461 -76.943428039551 -94.087791442871 4.041368007660
107.382308959961 -77.463264465332 -102.580314636230 1.212328553200
37.507362365723 -75.096214294434 -105.631240844727 3.460639953613
110.611045837402 -74.375961303711 -117.456947326660 2.494098186493
111.771774291992 -78.250801086426 -117.696640014648 2.736901521683
29.450462341309 -73.411315917969 -123.097702026367 2.607801437378
42.760871887207 -76.403488159180 -118.326286315918 1.251072525978
113.388214111328 -77.399353027344 -128.992523193359 2.176264762878
34.371883392334 -74.509208679199 -126.173088073730 1.952533245087
113.088172912598 -80.475265502930 -126.541618347168 4.169574737549
106.800796508789 -77.810279846191 -121.296409606934 3.402960777283
24.626880645752 -75.450042724609 -135.173690795898 2.764915227890
-49.721450805664 -73.129539489746 -134.398803710938 1.462934494019
-53.827835083008 -71.042648315430 -135.443191528320 2.087074518204
109.561408996582 -76.250839233398 -133.801177978516 2.407487154007
-70.983535766602 -75.768875122070 -140.992126464844 2.024379730225
-74.515487670898 -72.755294799805 -140.883621215820 1.562785983086
-60.628219604492 -72.983482360840 -141.596832275391 2.436464548111
30.249467849731 -74.796264648438 -143.168228149414 2.979532003403
114.465133666992 -78.687263488770 -144.681457519531 3.718672037125
-70.931121826172 -69.088180541992 -147.595336914063 0.981694459915
-49.623809814453 -72.448211669922 -142.886138916016 3.205055475235
31.798461914063 -75.402244567871 -150.761657714844 1.332953453064
-69.728073120117 -73.312622070313 -148.319381713867 1.467477798462
112.317733764648 -75.963737487793 -140.092254638672 1.722681760788
110.364257812500 -75.020172119141 -156.342666625977 2.122968912125
114.708496093750 -78.050407409668 -151.719375610352 0.922493577003
-39.973861694336 -75.373916625977 -153.277008056641 2.110902547836
-66.135307312012 -72.260467529297 -164.772216796875 1.513072252274
-70.579147338867 -69.080093383789 -157.645843505859 3.444233417511
28.523771286011 -75.778869628906 -145.937637329102 3.112197399139
-3.573568105698 -75.742599487305 -161.941757202148 1.775673627853
107.687057495117 -76.296104431152 -160.426986694336 0.859500765800
110.295593261719 -75.146041870117 -151.801559448242 1.361307978630
110.699241638184 -78.993560791016 -157.175109863281 1.996516466141
-65.097923278809 -69.597167968750 -160.489883422852 3.243051290512
-46.764785766602 -74.595031738281 -165.488891601563 1.707069396973
-3.693171977997 -73.031257629395 -164.893646240234 3.116576194763
-30.532997131348 -73.254516601563 -174.998916625977 2.659824371338
104.594024658203 -75.732780456543 -166.060440063477 2.949003219604
-35.856876373291 -75.922470092773 -160.208480834961 1.315844058990
108.062561035156 -75.161216735840 -167.154724121094 1.953712582588
-43.069690704346 -73.254203796387 -173.835128784180 1.179478883743
107.316055297852 -74.515075683594 -167.427841186523 1.058009862900
-152.682312011719 -70.808898925781 -181.257873535156 2.100377321243
-28.091747283936 -69.407501220703 -176.820144653320 2.179913520813
-21.494840621948 -73.284011840820 -183.343444824219 1.275939941406
23.546728134155 -77.386367797852 -176.709289550781 1.647648692131
13.864519119263 -73.767608642578 -182.820236206055 2.164866924286
26.422252655029 -74.815551757813 -182.592376708984 1.706435203552
102.949447631836 -80.153015136719 -182.570602416992 2.415053606033
-152.878372192383 -66.982727050781 -186.079971313477 2.146276950836
-20.953083038330 -75.407714843750 -184.843292236328 1.779432296753
100.897392272949 -77.237113952637 -177.443588256836 5.008743286133
102.084442138672 -73.257301330566 -188.506439208984 2.481244087219
106.880981445313 -77.639976501465 -176.597442626953 3.194617748260
97.886123657227 -77.864173889160 -192.616668701172 4.493831157684
-152.366271972656 -70.195137023926 -197.727951049805 1.688870906830
98.969863891602 -76.933349609375 -204.359313964844 1.687095046043
-29.252346038818 -70.767951965332 -197.204559326172 3.272026062012
96.415763854980 -75.880348205566 -194.662139892578 3.476906776428
-122.482185363770 -73.508575439453 -201.047363281250 1.510560393333
-31.015848159790 -77.268859863281 -190.212524414063 2.120606899261
-142.864868164063 -65.944725036621 -199.392181396484 0.943093121052
94.226135253906 -76.161064147949 -197.512573242188 3.597149848938
7.544433116913 -74.540458679199 -198.779846191406 3.128924369812
22.756147384644 -72.975357055664 -192.128509521484 2.105769634247
-149.105895996094 -70.073738098145 -204.086608886719 1.482889056206
-139.936035156250 -69.158744812012 -203.138641357422 1.798077344894
-11.052206993103 -72.872238159180 -206.584838867188 1.346850872040
-125.385093688965 -70.081497192383 -204.712097167969 2.026906490326
-144.987823486328 -72.141883850098 -200.858047485352 1.656602263451
2.858714103699 -73.932037353516 -199.331237792969 6.125462532043
-25.357082366943 -75.053924560547 -201.106323242188 0.858052849770
19.539873123169 -76.844093322754 -201.906982421875 0.986481785774
5.618646144867 -74.937675476074 -211.543457031250 2.206222295761
84.460388183594 -73.314498901367 -207.526397705078 5.271080493927
-19.311635971069 -70.494361877441 -211.859527587891 2.566824197769
90.343040466309 -73.718536376953 -207.873504638672 2.978683471680
95.960189819336 -77.837402343750 -205.889038085938 2.355845689774
-149.889434814453 -70.534278869629 -215.728622436523 2.443632602692
94.440322875977 -77.619255065918 -210.468154907227 1.178903102875
3.995006084442 -72.737380981445 -207.023559570313 2.506675958633
2.569958925247 -75.644493103027 -214.159805297852 4.480263233185
-33.978507995605 -72.253082275391 -207.057327270508 0.957497060299
-90.355514526367 -70.516593933105 -213.736526489258 1.115257143974
-27.252231597900 -74.172531127930 -210.868438720703 1.788037538528
84.177879333496 -74.895286560059 -215.866973876953 1.659827709198
88.340827941895 -74.832626342773 -215.937911987305 1.410414099693
-32.798694610596 -71.845695495605 -212.294265747070 2.757795572281
-85.225990295410 -68.259445190430 -218.950546264648 3.492245435715
-2.026472091675 -75.364601135254 -218.490371704102 1.945702195168
81.118698120117 -72.136505126953 -212.135467529297 5.003582000732
-152.866592407227 -73.047004699707 -223.130966186523 2.542849779129
-166.686416625977 -67.478996276855 -215.687637329102 2.951344013214
-162.884262084961 -71.500373840332 -223.629364013672 1.507313013077
-22.274446487427 -73.662765502930 -226.832748413086 1.670886516571
-154.809997558594 -72.135009765625 -224.048873901367 1.729367256165
-6.637918949127 -74.343009948730 -224.287231445313 2.449213981628
5.601596832275 -74.589553833008 -218.088333129883 1.528537869453
-167.966171264648 -68.768013000488 -226.967086791992 1.743815183640
-159.612930297852 -69.459396362305 -228.731750488281 2.560286521912
78.356033325195 -78.445083618164 -230.429046630859 3.030559301376
-0.563955008984 -72.208755493164 -226.391067504883 0.399899810553
-158.237182617188 -64.574050903320 -227.476684570313 2.856514453888
-143.363769531250 -71.119995117188 -225.576843261719 1.437564849854
-20.046054840088 -71.900695800781 -223.857192993164 2.467730522156
-1.390337944031 -77.487724304199 -222.232833862305 2.120372772217
79.232330322266 -73.018966674805 -224.577087402344 1.036038994789
-162.014175415039 -67.400856018066 -229.257843017578 3.506538391113
-144.706161499023 -67.202583312988 -232.076919555664 1.625852823257
-125.844749450684 -68.379043579102 -231.934036254883 1.934904813766
77.885932922363 -76.745330810547 -225.656875610352 1.815562605858
-116.417434692383 -70.118820190430 -230.111511230469 1.024856686592
-147.180877685547 -69.333854675293 -230.542510986328 1.725803375244
-151.232543945313 -67.960670471191 -232.714614868164 2.824506521225
-149.792800903320 -70.045372009277 -232.625915527344 3.510332584381
-156.613433837891 -69.665725708008 -230.459335327148 1.075562953949
-165.861267089844 -69.351631164551 -230.475555419922 1.084089636803
-134.426559448242 -69.842597961426 -236.479553222656 0.829048216343
-134.042007446289 -70.846023559570 -234.277999877930 1.657046794891
-154.007461547852 -72.803070068359 -234.248443603516 1.795604109764
-145.995910644531 -65.928459167480 -238.079559326172 3.818230867386
-152.334167480469 -69.689369201660 -236.645782470703 1.350215315819
74.089332580566 -77.170761108398 -231.446609497070 2.932229042053
66.720779418945 -70.237884521484 -235.040649414063 1.001423001289
-157.669586181641 -67.672500610352 -236.757354736328 1.540299057961
71.080352783203 -70.781654357910 -232.290267944336 0.730085074902
-20.446035385132 -71.306304931641 -236.611831665039 2.250014781952
10.683873176575 -74.707321166992 -236.743209838867 1.234517216682
6.201281070709 -74.173622131348 -235.718933105469 2.420626401901
-155.114456176758 -69.207206726074 -244.023941040039 1.709921598434
13.944562911987 -72.990684509277 -240.717788696289 1.991921424866
60.285789489746 -73.581489562988 -237.126419067383 1.787440657616
12.786721229553 -71.130943298340 -237.566925048828 1.251027464867
4.701863765717 -73.760231018066 -241.289703369141 1.028431415558
-7.112091064453 -70.959114074707 -240.183654785156 1.007728934288
-21.735509872437 -71.196083068848 -242.830566406250 2.687945842743
-2.358686923981 -73.031860351563 -241.762939453125 1.066764712334
3.152520895004 -75.863197326660 -244.745880126953 1.628720641136
56.740230560303 -75.630165100098 -240.775161743164 1.467527389526
-56.120857238770 -75.002990722656 -245.130798339844 2.339058160782
19.031164169312 -72.580497741699 -246.924468994141 0.914309799671
-60.206695556641 -72.545341491699 -242.215545654297 3.280397891998
-10.460756301880 -73.015930175781 -247.783020019531 1.354898095131
-66.556953430176 -68.063255310059 -250.746902465820 4.541232585907
-86.534934997559 -69.277290344238 -253.819763183594 0.860046029091
-83.175010681152 -71.863891601563 -252.790878295898 1.349359273911
-10.360643386841 -72.157264709473 -254.686233520508 2.540201902390
-124.341285705566 -69.645294189453 -260.137329101563 1.998803377151
-14.681139945984 -73.573211669922 -252.933578491211 1.731178283691
-117.494964599609 -70.052665710449 -256.727630615234 2.315707206726
-116.944610595703 -68.725318908691 -259.648895263672 1.324950456619
-104.055747985840 -70.191543579102 -257.423126220703 1.825243711472
-144.306854248047 -68.357177734375 -263.138153076172 1.924801588058
-145.411239624023 -68.705505371094 -268.554138183594 2.739843130112
-169.093048095703 -68.695121765137 -265.171783447266 3.288447856903
18.963890075684 -76.760452270508 -279.899688720703 2.102921485901
-58.262317657471 -69.457878112793 -285.797546386719 1.684026360512
-67.487632751465 -70.096313476563 -284.211120605469 3.566342115402
-42.473155975342 -73.429153442383 -284.140747070313 2.990642070770
-28.341924667358 -73.009811401367 -286.588745117188 0.759695172310
-96.600372314453 -72.174949645996 -290.056488037109 1.101714372635
-31.073545455933 -70.105407714844 -285.846832275391 2.852348566055
-4.397723197937 -72.714591979980 -286.039916992188 0.792155981064
-167.599365234375 -68.532867431641 -290.869964599609 4.023706436157
-16.212959289551 -74.446678161621 -285.880371093750 3.331269025803
6.048367023468 -74.105705261230 -287.702087402344 1.139118671417
13.698184967041 -77.477256774902 -283.303619384766 2.695010185242
-57.291267395020 -73.609443664551 -288.042846679688 1.179798841476
-33.483448028564 -72.332313537598 -291.645080566406 2.131360530853
13.997864723206 -71.238739013672 -292.736938476563 1.266645908356
-71.113800048828 -69.569030761719 -293.472808837891 3.745285272598
-40.470767974854 -69.245338439941 -289.374084472656 2.059571027756
-18.089359283447 -70.325180053711 -289.986297607422 1.989236354828
14.720107078552 -75.335289001465 -290.694305419922 1.125789999962
-11.847025871277 -74.073059082031 -294.163940429688 2.647486925125
3.722218990326 -71.670593261719 -293.575714111328 1.669754862785
13.926519393921 -75.056564331055 -290.273254394531 0.878156244755
-135.080078125000 -68.311241149902 -295.549774169922 3.101622104645
-145.182357788086 -71.312530517578 -300.470703125000 1.297845244408
-151.052795410156 -69.165161132813 -314.583343505859 1.940462470055
40.404392242432 -74.576965332031 -13.102596282959 2.220203399658
27.481594085693 -74.691421508789 -11.337732315063 2.732644081116
36.657199859619 -75.170356750488 -14.843607902527 2.863089561462
19.467374801636 -71.466659545898 -18.307834625244 2.512399435043
42.436092376709 -73.135910034180 -21.738882064819 1.932303309441
23.042322158813 -72.856521606445 -23.529399871826 0.782425045967
21.234670639038 -74.853744506836 -27.081478118896 2.380904197693
22.355808258057 -75.362670898438 -37.854541778564 3.683616876602
37.001289367676 -76.996315002441 -30.232084274292 6.637616157532
23.764904022217 -78.030525207520 -35.897804260254 5.815916061401
40.660488128662 -73.731201171875 -37.049655914307 4.139323711395
29.426454544067 -75.231658935547 -38.918605804443 3.574436903000
36.289882659912 -76.243034362793 -35.369319915771 3.441639661789
28.552434921265 -73.832733154297 -39.453952789307 2.407431840897
41.188575744629 -74.961799621582 -40.556076049805 1.923298001289
31.301565170288 -74.263298034668 -38.469581604004 2.724938392639
-43.260295867920 -71.076858520508 -48.456329345703 3.433135509491
-32.295047760010 -68.169906616211 -50.734386444092 1.740174770355
-91.628585815430 -69.978630065918 -55.432815551758 4.992952823639
-91.269721984863 -72.265769958496 -66.206268310547 1.877998948097
75.623741149902 -78.041877746582 -65.634056091309 6.839468002319
82.142845153809 -75.490905761719 -71.372817993164 0.771874427795
-21.750528335571 -71.159507751465 -73.506912231445 1.817581415176
-90.384193420410 -71.472007751465 -72.353302001953 1.001823902130
-27.281072616577 -72.245544433594 -76.743652343750 1.171799302101
-51.737579345703 -73.273094177246 -85.191299438477 2.207903862000
63.946811676025 -71.460151672363 -85.242736816406 0.864561438560
50.738708496094 -73.767158508301 -92.373588562012 2.555200099945
97.519981384277 -74.153877258301 -90.074256896973 0.529155552387
67.443336486816 -76.633369445801 -95.552040100098 3.234158754349
-70.241775512695 -73.085723876953 -91.446701049805 5.119404792786
-64.075736999512 -69.962799072266 -98.212005615234 2.121760845184
42.854835510254 -74.956489562988 -96.613090515137 2.334321498871
75.509002685547 -73.882644653320 -98.715347290039 1.239084720612
52.430774688721 -81.633605957031 -104.130767822266 2.548939943314
99.309104919434 -75.512329101563 -95.210449218750 3.634108304977
-97.080696105957 -72.474670410156 -107.912910461426 2.142995595932
38.013591766357 -74.531494140625 -109.898513793945 1.811772108078
105.153701782227 -76.753746032715 -107.232749938965 2.125294685364
46.667034149170 -74.350593566895 -110.380393981934 2.170312881470
99.603454589844 -76.716041564941 -108.287414550781 5.080570220947
-87.220031738281 -71.101066589355 -115.847373962402 1.980976104736
33.925521850586 -77.294921875000 -111.137893676758 4.120236873627
104.849388122559 -74.733383178711 -115.274078369141 1.468376040459
102.966560363770 -73.229438781738 -114.280395507813 1.281151175499
103.698127746582 -76.166465759277 -113.598030090332 2.325025320053
108.720474243164 -74.955276489258 -112.998908996582 2.077414751053
38.029861450195 -75.936668395996 -109.382469177246 1.624517202377
30.326837539673 -71.641860961914 -116.567390441895 1.931420087814
39.124305725098 -73.881256103516 -113.312294006348 1.240917921066
105.001617431641 -77.070587158203 -120.246337890625 4.075944900513
38.423355102539 -72.572692871094 -122.409896850586 1.977770447731
107.419349670410 -74.925155639648 -130.584793090820 3.651389360428
109.291908264160 -74.559982299805 -129.452224731445 1.947474122047
31.869140625000 -71.865844726563 -119.853050231934 2.595732927322
-79.685340881348 -71.046287536621 -125.793418884277 2.169309616089
112.265403747559 -73.404739379883 -132.604431152344 2.481410503387
-56.077995300293 -71.809455871582 -137.590118408203 2.006022453308
33.819751739502 -74.726150512695 -133.954360961914 3.087586164474
-74.974540710449 -71.592605590820 -135.729660034180 2.219472408295
25.166887283325 -75.882026672363 -130.980072021484 3.502537250519
-81.238082885742 -71.568771362305 -143.167236328125 3.838880538940
-47.038562774658 -74.810852050781 -141.946884155273 2.401159524918
-75.674125671387 -71.918434143066 -138.478317260742 1.337003231049
108.504333496094 -74.887466430664 -135.452987670898 2.808192253113
115.548736572266 -74.075424194336 -139.923751831055 1.426572084427
116.375633239746 -78.868309020996 -144.734573364258 5.293851852417
-78.947319030762 -70.181739807129 -143.962677001953 2.545673131943
6.474606990814 -69.400825500488 -150.247024536133 2.209140300751
-53.658168792725 -72.306938171387 -149.425445556641 2.011360406876
-52.398578643799 -72.592689514160 -155.324142456055 1.504039764404
105.350685119629 -75.804916381836 -160.105514526367 2.589890480042
-43.106975555420 -73.724212646484 -149.192031860352 1.763302922249
12.473125457764 -71.210426330566 -157.079818725586 1.148452758789
20.722269058228 -75.078117370605 -156.922744750977 1.632054805756
113.209289550781 -74.991828918457 -162.985748291016 1.452604413033
28.306562423706 -73.075653076172 -164.967544555664 1.798494815826
-2.438179969788 -74.180480957031 -163.037185668945 1.042763710022
30.272718429565 -74.475364685059 -160.020355224609 2.635244607925
-69.299415588379 -69.646369934082 -157.856918334961 2.680756330490
-67.316299438477 -70.946166992188 -159.284790039063 2.220807552338
-70.328979492188 -69.841560363770 -165.823806762695 3.798948526382
113.242019653320 -72.345794677734 -159.770751953125 2.583373785019
-46.088932037354 -71.948638916016 -162.935791015625 1.584776282310
16.240007400513 -73.480827331543 -164.857910156250 1.922842025757
-65.378646850586 -70.239532470703 -169.756347656250 3.420706272125
-64.466087341309 -69.542106628418 -171.499389648438 4.321826457977
-42.865917205811 -72.723457336426 -160.169006347656 2.089261054993
-35.074993133545 -74.102325439453 -168.456954956055 2.431582212448
113.463813781738 -77.652679443359 -169.647323608398 1.875518679619
-38.298542022705 -67.341735839844 -179.611785888672 5.216021060944
12.273315429688 -74.152709960938 -172.516036987305 5.225764751434
109.293251037598 -78.022239685059 -182.695007324219 2.519080877304
-149.027893066406 -70.792251586914 -176.930496215820 2.731008291245
-147.298156738281 -68.932022094727 -174.403366088867 2.045450210571
-149.943450927734 -67.296691894531 -180.795501708984 1.381717920303
-143.770217895508 -70.502464294434 -183.573898315430 2.722682237625
-33.136260986328 -70.629989624023 -185.282058715820 1.298592567444
-24.415287017822 -72.235107421875 -185.426818847656 1.135776758194
22.080524444580 -69.747474670410 -190.319885253906 2.294774293900
-142.681152343750 -68.333541870117 -187.503845214844 1.775204062462
-148.529937744141 -69.279724121094 -189.396530151367 2.730368852615
-22.542770385742 -69.665176391602 -186.129699707031 1.473896026611
9.758248329163 -73.317604064941 -181.924377441406 4.043083190918
-150.537536621094 -68.811264038086 -195.112319946289 1.881505727768
-32.871253967285 -72.580177307129 -187.750091552734 2.053189754486
98.812599182129 -75.194358825684 -186.842926025391 3.808663129807
104.996803283691 -74.335021972656 -188.245635986328 1.069367170334
23.032659530640 -68.968025207520 -192.664321899414 1.743627905846
-14.782836914063 -72.554275512695 -188.103332519531 3.732382297516
-29.009710311890 -73.832824707031 -193.114059448242 1.638820767403
-156.493423461914 -69.670379638672 -200.058166503906 2.378400564194
-133.802612304688 -70.139831542969 -197.567092895508 1.464040279388
-126.296447753906 -66.828552246094 -195.664733886719 2.585375547409
-125.806884765625 -67.806823730469 -198.250427246094 3.408086299896
-23.580865859985 -68.005035400391 -195.830200195313 1.861038565636
11.388794898987 -74.896865844727 -191.824432373047 0.447937786579
91.386825561523 -78.349372863770 -199.803237915039 5.118168830872
-151.135848999023 -65.205818176270 -196.283996582031 2.155470132828
-146.140090942383 -66.464866638184 -199.551589965820 2.142651319504
-151.999114990234 -68.115234375000 -201.025085449219 2.563330650330
-156.019393920898 -66.387977600098 -198.369857788086 2.974807262421
-25.913768768311 -71.460052490234 -199.354583740234 2.278003931046
-11.887009620667 -70.880249023438 -194.988891601563 2.386874675751
-147.376571655273 -64.987998962402 -202.959503173828 2.901137828827
-19.586112976074 -71.312606811523 -200.856811523438 2.459975957870
-162.504180908203 -67.675071716309 -201.628494262695 2.667702913284
-135.471221923828 -68.864570617676 -200.134796142578 3.084627389908
14.579074859619 -74.663421630859 -206.417327880859 2.841149330139
-162.294021606445 -65.193626403809 -205.067703247070 2.730340719223
-147.207336425781 -70.092994689941 -207.340820312500 1.919836163521
7.146625995636 -70.880195617676 -202.274871826172 2.612877130508
-155.148056030273 -66.031715393066 -203.565246582031 2.820217132568
-25.705093383789 -71.322959899902 -201.590118408203 3.213423252106
96.169258117676 -75.639328002930 -197.958114624023 2.626536846161
-159.478393554688 -69.222160339355 -213.453384399414 1.940851926804
-165.605545043945 -71.168144226074 -208.717269897461 2.904392957687
-77.880882263184 -68.484107971191 -208.548446655273 3.746800899506
88.198791503906 -74.060668945313 -207.762512207031 4.180659294128
-4.789152145386 -71.098602294922 -217.998657226563 2.178242921829
-155.499237060547 -67.253196716309 -213.823318481445 2.009238719940
-88.621757507324 -70.196228027344 -213.823562622070 1.948681592941
-10.434384346008 -74.724525451660 -210.974777221680 2.486309766769
14.590292930603 -72.546188354492 -219.345611572266 0.444011479616
-145.879592895508 -69.239318847656 -220.933731079102 2.595717906952
-4.664844989777 -76.060836791992 -220.533645629883 1.542423009872
-20.403799057007 -72.834335327148 -218.002105712891 1.258325457573
-15.536772727966 -68.909225463867 -220.155319213867 1.899193167686
89.226684570313 -74.683280944824 -217.881652832031 1.576302409172
-21.725954055786 -70.585815429688 -216.593460083008 2.110673904419
-32.733253479004 -70.995559692383 -217.013412475586 2.729969263077
-108.397804260254 -65.321784973145 -225.306777954102 1.650147080421
-17.055410385132 -70.326766967773 -222.970199584961 0.822995126247
91.445404052734 -72.778686523438 -217.752075195313 1.606573939323
76.471328735352 -75.121437072754 -219.399810791016 4.737258911133
6.171164989471 -73.718772888184 -218.889724731445 2.027314186096
-12.074002265930 -69.930007934570 -225.117431640625 2.381033182144
77.622245788574 -74.921165466309 -220.962402343750 2.877746105194
-123.368568420410 -72.218032836914 -225.907028198242 1.224784612656
-20.948101043701 -69.939598083496 -223.004531860352 3.540776491165
-98.065681457520 -69.112495422363 -224.115814208984 0.801772892475
-103.440162658691 -69.684906005859 -224.717514038086 1.925314664841
-132.503417968750 -70.734840393066 -229.497955322266 2.961007833481
80.332847595215 -74.509094238281 -222.566772460938 1.185685396194
-124.101768493652 -69.605041503906 -228.024551391602 2.820979833603
3.824537038803 -71.812232971191 -228.383941650391 1.759595155716
80.288795471191 -73.048492431641 -223.371231079102 1.997540950775
-16.647384643555 -72.872268676758 -230.353805541992 0.916939973831
-14.488094329834 -72.658523559570 -227.219161987305 0.674606978893
-2.890700101852 -77.107376098633 -229.627197265625 1.953407645226
9.311956405640 -74.365943908691 -227.011108398438 2.214232444763
87.898612976074 -75.815933227539 -225.377059936523 2.233525991440
9.101717948914 -71.080902099609 -230.999145507813 2.500607967377
4.649603843689 -72.133522033691 -229.078186035156 2.374687194824
-9.918082237244 -72.577934265137 -231.018753051758 2.290433406830
-7.670804977417 -72.929710388184 -229.886169433594 1.995331764221
17.889328002930 -71.555961608887 -232.266723632813 1.880126595497
-13.271338462830 -69.538124084473 -233.024459838867 1.920407533646
70.181396484375 -74.592842102051 -238.849838256836 2.468919038773
-9.914514541626 -70.523269653320 -238.598922729492 2.576778173447
18.130916595459 -73.740699768066 -235.289306640625 1.330427050591
-163.609985351563 -66.632400512695 -241.495285034180 2.640249967575
-6.363640785217 -70.016334533691 -236.827987670898 1.250480413437
-8.927100181580 -72.773796081543 -239.988632202148 1.474066734314
-168.368301391602 -68.274055480957 -251.889907836914 2.529281854630
-11.586020469666 -70.357048034668 -244.213912963867 1.111864328384
14.850406646729 -70.065925598145 -245.075897216797 2.425948143005
-148.380661010742 -70.113471984863 -252.753494262695 2.610411167145
-73.993652343750 -69.600334167480 -250.728942871094 1.983806967735
-62.412017822266 -71.363769531250 -247.254882812500 1.562878370285
51.592643737793 -71.409317016602 -246.073059082031 2.369222879410
-75.431320190430 -69.778755187988 -247.149917602539 1.948003411293
16.096408843994 -73.229995727539 -249.102874755859 2.309255361557
-73.829345703125 -70.562126159668 -251.626678466797 1.911868691444
-16.110284805298 -70.157775878906 -245.781387329102 3.471190929413
-146.272430419922 -70.921234130859 -253.660827636719 2.018723487854
45.909130096436 -70.156990051270 -249.303817749023 1.837570786476
-80.804450988770 -72.099617004395 -256.105072021484 1.446080446243
-103.400283813477 -66.554756164551 -255.556808471680 2.868830442429
-100.107116699219 -71.033592224121 -255.121551513672 1.833794832230
-120.575988769531 -67.080497741699 -253.694641113281 4.420504570007
-106.485321044922 -66.921440124512 -257.702117919922 1.956276178360
-106.532981872559 -68.984611511230 -258.696533203125 2.740034818649
20.906459808350 -70.224891662598 -258.072631835938 3.090245723724
-129.961776733398 -66.334365844727 -265.830718994141 3.213121414185
-14.503273963928 -72.443550109863 -275.413177490234 3.333344697952
-148.188247680664 -65.637390136719 -284.211730957031 2.501452684402
-169.322799682617 -69.049842834473 -286.626708984375 1.409410715103
-125.588729858398 -69.551033020020 -284.858093261719 0.722188949585
-114.722602844238 -65.885086059570 -287.483245849609 2.883382558823
-76.128814697266 -65.799751281738 -284.827484130859 3.156009197235
-58.190505981445 -70.919120788574 -286.892303466797 1.644837379456
-42.561637878418 -69.661819458008 -286.137390136719 2.926507472992
-16.101314544678 -74.299896240234 -289.686279296875 2.171207904816
-14.436681747437 -69.056266784668 -291.575714111328 3.054157495499
-39.136096954346 -72.567878723145 -290.248291015625 2.179690122604
-35.101474761963 -70.653457641602 -288.797790527344 1.152833580971
-19.656814575195 -68.293998718262 -288.641571044922 3.572728157043
-72.492782592773 -68.875732421875 -293.322998046875 4.232336044312
-56.257625579834 -69.609512329102 -291.259185791016 2.429222822189
-18.304046630859 -67.887687683105 -291.369171142578 3.692744493484
-14.537204742432 -72.887626647949 -289.586578369141 1.002743244171
-4.446472167969 -70.803558349609 -292.161041259766 3.389792442322
1.791867971420 -68.547401428223 -291.921142578125 2.083470344543
-92.893554687500 -69.415382385254 -293.442352294922 3.050819635391
-140.529251098633 -69.711753845215 -295.873199462891 3.568835258484
-117.076728820801 -69.641441345215 -293.320495605469 2.201776504517
-154.260025024414 -66.601066589355 -295.887573242188 2.554066419601
-152.692153930664 -68.426628112793 -300.477020263672 1.073211312294
-147.401275634766 -66.331428527832 -300.944274902344 2.588129997253
41.921649932861 -71.812843322754 -20.386253356934 1.719670176506
17.247739791870 -76.038414001465 -22.868335723877 5.817345142365
46.996948242188 -71.398574829102 -24.162923812866 2.675172567368
44.562488555908 -74.794700622559 -34.220710754395 1.489919781685
85.334983825684 -74.516288757324 -68.967735290527 1.916966676712
93.280891418457 -76.476699829102 -72.643486022949 3.353620290756
99.002883911133 -74.561126708984 -76.789276123047 0.503269314766
96.106231689453 -75.376075744629 -82.172523498535 1.894517183304
54.545902252197 -74.723625183105 -88.475486755371 2.306962728500
43.319995880127 -78.528083801270 -90.378997802734 7.329267501831
61.217079162598 -72.868553161621 -89.782783508301 2.152028560638
-67.227531433105 -68.274612426758 -93.337219238281 3.844968795776
68.673812866211 -73.595565795898 -86.770729064941 1.845654964447
98.915924072266 -68.761627197266 -97.568153381348 1.177573561668
72.465858459473 -74.871276855469 -100.043022155762 3.599282026291
92.277465820313 -73.591133117676 -101.312683105469 1.446362137794
-86.575668334961 -71.018814086914 -103.863540649414 3.256350994110
43.096527099609 -72.438423156738 -97.325500488281 1.921688675880
-88.524932861328 -71.399536132813 -102.701408386230 4.335269927979
49.149528503418 -74.841911315918 -109.523139953613 1.316459178925
35.616794586182 -78.200576782227 -102.935676574707 4.989432334900
100.120765686035 -73.897193908691 -101.973945617676 3.588218688965
35.179420471191 -72.924201965332 -105.253479003906 5.130051136017
40.641506195068 -74.233718872070 -117.816062927246 3.332483530045
40.778461456299 -73.028053283691 -112.306610107422 1.720444917679
108.120292663574 -73.666435241699 -111.022583007813 1.357813477516
-83.293495178223 -73.937248229980 -121.951019287109 3.720611095428
110.232681274414 -78.001525878906 -122.656272888184 3.382279872894
38.205753326416 -69.692787170410 -124.024543762207 2.623330116272
38.622497558594 -72.411697387695 -119.519538879395 2.410032987595
33.053668975830 -73.371078491211 -120.227729797363 1.720339536667
-57.694503784180 -74.673942565918 -129.763793945313 2.120248556137
28.279415130615 -71.968917846680 -122.852394104004 2.286410331726
-79.163795471191 -68.414024353027 -138.179199218750 1.338025927544
-57.277019500732 -73.817733764648 -132.805648803711 1.140195250511
-81.293388366699 -68.004096984863 -135.263793945313 1.846717596054
33.722309112549 -71.108558654785 -130.089965820313 1.675399899483
-61.504779815674 -71.580406188965 -133.839080810547 2.562509775162
33.275020599365 -72.178047180176 -132.738052368164 1.924448966980
-73.757133483887 -68.390594482422 -139.951660156250 1.402698636055
-61.014755249023 -68.168991088867 -140.967346191406 1.007876873016
23.838748931885 -73.298889160156 -142.103897094727 1.006654143333
108.982147216797 -77.231369018555 -141.850143432617 2.666322231293
113.460037231445 -71.050094604492 -135.798538208008 1.864835500717
28.869705200195 -72.734519958496 -140.933425903320 1.873233914375
-50.070594787598 -72.048027038574 -140.361846923828 1.836460232735
105.048309326172 -72.496528625488 -150.979888916016 4.933577537537
-77.386856079102 -69.895523071289 -143.456588745117 1.594562530518
-60.468025207520 -70.504493713379 -142.546890258789 0.899264633656
29.861804962158 -68.892555236816 -146.846298217773 1.135639429092
-79.393447875977 -71.228759765625 -146.583465576172 3.398163318634
-72.428703308105 -70.031517028809 -150.607147216797 0.748493909836
112.977439880371 -78.251594543457 -148.307022094727 1.768741369247
-66.406166076660 -69.587272644043 -155.407333374023 1.260839700699
-41.082317352295 -68.283462524414 -152.296875000000 2.762730360031
23.879499435425 -71.027999877930 -145.465530395508 1.814312338829
-75.044105529785 -70.473220825195 -146.423171997070 0.516916871071
10.569448471069 -71.728088378906 -149.385284423828 2.986607313156
30.070005416870 -72.024574279785 -156.385620117188 2.157132148743
29.201213836670 -70.407821655273 -149.677627563477 2.330143213272
13.311755180359 -76.370834350586 -153.777435302734 3.995804786682
-51.748161315918 -71.997856140137 -153.437698364258 0.619001507759
22.905063629150 -73.715042114258 -152.691894531250 1.591930866241
-48.014907836914 -69.834342956543 -150.320068359375 1.570032954216
2.895117998123 -72.127708435059 -153.760940551758 4.075532913208
18.617940902710 -71.567893981934 -149.525207519531 2.605811834335
-70.676910400391 -69.430664062500 -157.757354736328 3.130025386810
-48.414993286133 -67.893127441406 -154.248031616211 3.104963541031
-70.001960754395 -69.612632751465 -154.107040405273 2.048688888550
16.341085433960 -71.070938110352 -158.060821533203 1.547522425652
22.360208511353 -71.607460021973 -149.627731323242 1.854398369789
0.740741014481 -71.783050537109 -164.251846313477 1.153666257858
19.469743728638 -72.128906250000 -153.142654418945 2.394714593887
28.973377227783 -72.136955261230 -166.651718139648 1.642797708511
-49.148391723633 -71.814582824707 -163.396774291992 2.216403484344
-38.752590179443 -76.750740051270 -163.342819213867 2.808233261108
-42.694370269775 -71.455383300781 -160.948135375977 1.368752360344
25.965379714966 -72.716743469238 -158.204467773438 1.406655907631
-46.037944793701 -68.960731506348 -166.917938232422 3.852267265320
-41.552322387695 -69.260978698730 -166.474609375000 2.516017198563
19.561405181885 -70.912681579590 -165.324005126953 1.963614344597
-41.627914428711 -71.127418518066 -175.303848266602 3.270701169968
26.194379806519 -68.942634582520 -169.591598510742 1.531472563744
109.890411376953 -71.374282836914 -163.690994262695 2.062399148941
-35.313446044922 -70.692436218262 -172.055328369141 1.442826747894
100.996604919434 -71.837913513184 -172.111755371094 5.154557228088
-36.325504302979 -70.327926635742 -177.458511352539 1.594051241875
-39.214977264404 -73.436645507813 -181.502502441406 2.685611009598
19.312854766846 -74.775985717773 -176.602584838867 1.757202267647
104.048355102539 -74.428131103516 -180.863159179688 2.151283264160
-33.186283111572 -69.215278625488 -182.909667968750 1.859612822533
-36.938198089600 -70.147956848145 -177.548355102539 1.944773554802
-24.986764907837 -74.249336242676 -186.797271728516 1.682738423347
-150.712234497070 -68.441726684570 -189.922500610352 1.733763694763
11.205352783203 -71.543075561523 -183.001007080078 3.623558521271
103.310089111328 -72.613647460938 -189.962539672852 1.524080038071
-160.578689575195 -67.212532043457 -194.150680541992 2.154534578323
-24.599382400513 -67.946189880371 -189.448043823242 1.045024394989
-117.278038024902 -70.197937011719 -198.084808349609 2.934829473495
-132.447891235352 -69.623535156250 -196.445037841797 0.908374786377
-109.483474731445 -69.267311096191 -200.465927124023 1.836252927780
-115.216636657715 -67.834754943848 -200.933868408203 3.114656686783
-13.982631683350 -71.854469299316 -196.220855712891 1.412157893181
18.487300872803 -70.691734313965 -195.685272216797 1.418724417686
