45.443176269531 -78.032485961914 -107.652565002441 2.959967851639
40.105659484863 -78.905815124512 -105.248130798340 0.853133201599
36.648200988770 -78.440917968750 -105.588989257813 3.162949085236
-91.897682189941 -74.005058288574 -108.215560913086 2.393130064011
35.498550415039 -77.059616088867 -118.404281616211 1.819392204285
-85.169357299805 -77.256767272949 -109.610511779785 1.454322457314
41.073802947998 -79.477348327637 -126.534416198730 1.845298051834
33.090805053711 -78.833679199219 -122.535957336426 2.019680261612
33.619609832764 -72.799690246582 -122.691337585449 1.051854014397
43.418872833252 -77.034828186035 -119.544853210449 0.677401006222
40.219196319580 -79.986236572266 -128.730178833008 3.521868705750
-52.494285583496 -72.097198486328 -136.299118041992 1.676034212112
36.602615356445 -80.621658325195 -135.878997802734 1.844331264496
35.632404327393 -77.334915161133 -144.263183593750 1.767544269562
-54.443553924561 -74.325515747070 -143.010421752930 2.579166650772
-46.525268554688 -76.781005859375 -141.420227050781 2.174366235733
34.575088500977 -77.250442504883 -144.069656372070 1.173403501511
110.595581054688 -75.391624450684 -142.406829833984 1.637445569038
112.655052185059 -76.101654052734 -145.577835083008 2.638721227646
26.235134124756 -78.654693603516 -143.762298583984 0.919482588768
-41.295589447021 -78.498870849609 -150.263397216797 0.520119607449
114.393051147461 -82.693634033203 -154.573303222656 5.633829116821
-39.050659179688 -75.232429504395 -154.006118774414 1.213192105293
-68.264236450195 -75.985816955566 -161.478897094727 1.148555636406
110.293060302734 -81.209442138672 -159.482177734375 3.557256937027
22.406021118164 -77.762397766113 -165.833953857422 2.399093866348
0.249836996198 -78.008247375488 -163.915237426758 0.852379083633
111.557960510254 -78.532493591309 -155.573638916016 1.888011693954
-64.502105712891 -75.790969848633 -166.271530151367 1.279648423195
-38.283123016357 -76.814918518066 -164.299865722656 3.014577865601
111.883903503418 -78.527969360352 -165.848709106445 2.358167171478
28.178026199341 -74.127014160156 -159.565261840820 2.172516345978
-62.821968078613 -71.653305053711 -166.263153076172 2.516777038574
111.743637084961 -78.677963256836 -167.502532958984 1.007317900658
-65.477920532227 -77.727310180664 -169.630020141602 2.774290561676
-50.455184936523 -78.272323608398 -181.501342773438 1.636057734489
105.973045349121 -77.263908386230 -172.644226074219 2.662682294846
-60.043239593506 -74.681167602539 -171.929595947266 1.372047781944
111.615943908691 -77.541786193848 -177.498718261719 1.036893129349
-60.967315673828 -75.722717285156 -176.203506469727 2.419496774673
-15.248997688293 -74.898567199707 -178.433517456055 3.359771728516
-11.500228881836 -80.318679809570 -181.994979858398 3.659471035004
107.522178649902 -79.471382141113 -170.122848510742 3.096546411514
20.853958129883 -77.840873718262 -172.795135498047 1.642245769501
29.438291549683 -74.347793579102 -170.977035522461 2.537206172943
-57.410011291504 -75.280838012695 -178.074905395508 2.005194187164
18.005056381226 -75.731369018555 -183.019073486328 1.488813519478
-57.947017669678 -76.190963745117 -176.592758178711 1.108434081078
-52.057460784912 -74.844757080078 -191.680496215820 2.099605798721
12.272459983826 -75.209976196289 -185.025070190430 0.864310860634
-57.295158386230 -73.122795104980 -181.124496459961 1.533692955971
106.582656860352 -76.409866333008 -188.092239379883 2.217672586441
24.430717468262 -78.676246643066 -182.505508422852 2.520978450775
-33.971813201904 -74.485992431641 -189.371231079102 2.164199829102
-42.980918884277 -77.402946472168 -191.916931152344 1.175286531448
10.908512115479 -77.754936218262 -193.822113037109 2.655620574951
-19.290149688721 -77.442520141602 -190.492584228516 0.837395846844
-49.040199279785 -77.123420715332 -195.607452392578 0.964251935482
102.367446899414 -80.554077148438 -184.794967651367 4.205230236053
12.053899765015 -78.885108947754 -191.635162353516 3.033036231995
-133.917098999023 -78.621627807617 -199.895355224609 2.810487270355
-46.097187042236 -77.859191894531 -195.467681884766 0.371341735125
95.438125610352 -77.242446899414 -200.018371582031 2.332165002823
-149.093276977539 -80.178604125977 -202.990921020508 3.097896814346
18.040309906006 -77.028938293457 -198.712127685547 1.766248822212
-42.944343566895 -73.804496765137 -206.460662841797 4.089652061462
-31.366718292236 -78.235092163086 -206.740219116211 0.772799849510
-37.448383331299 -76.586975097656 -204.086685180664 2.037137985229
-44.971168518066 -79.738899230957 -198.434890747070 1.463581323624
99.928314208984 -77.776573181152 -204.497329711914 1.602041840553
-20.789712905884 -78.676780700684 -202.357254028320 0.352101475000
-150.521697998047 -74.887451171875 -203.590270996094 1.955639481544
15.700579643250 -78.167495727539 -204.475845336914 1.670116901398
-77.049819946289 -79.313598632813 -207.892272949219 2.737086534500
-146.796051025391 -73.416076660156 -213.025512695313 1.418502688408
94.687568664551 -78.569602966309 -213.114425659180 3.333726644516
-33.100418090820 -75.006484985352 -208.108108520508 1.885504961014
-29.181600570679 -76.356422424316 -213.486251831055 1.857482075691
8.627396583557 -77.343139648438 -211.566543579102 1.014118790627
-71.777915954590 -78.478553771973 -210.686752319336 1.927116274834
-28.470029830933 -81.118026733398 -208.728988647461 1.642452239990
-7.051786899567 -77.120079040527 -216.939315795898 1.949209213257
-72.451133728027 -77.073982238770 -215.138839721680 2.104797363281
-14.597249984741 -76.542884826660 -218.397613525391 1.390690803528
7.699339866638 -71.157196044922 -213.364120483398 2.688085317612
14.156584739685 -78.625137329102 -221.506332397461 1.783285379410
-150.291168212891 -75.837158203125 -217.913009643555 1.665344715118
-8.623130798340 -76.200965881348 -215.482940673828 1.939265966415
-99.060813903809 -71.929969787598 -221.159820556641 1.573036789894
-22.107648849487 -75.577209472656 -220.737426757813 1.810135364532
89.673622131348 -81.180480957031 -213.096145629883 3.706408739090
7.584931850433 -75.370758056641 -226.705215454102 0.437965661287
18.891635894775 -76.008445739746 -217.566116333008 2.678861856461
80.493736267090 -78.097587585449 -218.124023437500 3.531376838684
0.858950018883 -78.637199401855 -229.584335327148 0.730384588242
85.452613830566 -77.727760314941 -218.208755493164 1.370266556740
-19.529283523560 -73.641273498535 -224.390731811523 2.284006118774
15.552485466003 -74.923118591309 -220.122131347656 2.745508670807
-147.594131469727 -76.125381469727 -221.586654663086 0.813284039497
-23.446561813354 -77.377700805664 -226.406097412109 2.176105260849
1.486418962479 -75.379905700684 -230.264602661133 2.103617906570
-156.070968627930 -78.592056274414 -227.398147583008 2.928469419479
-137.256149291992 -76.199928283691 -228.992660522461 2.233488082886
4.809905052185 -76.246353149414 -225.550567626953 2.301837205887
-4.186643123627 -74.282287597656 -229.045837402344 1.831580638885
-136.908187866211 -72.348266601563 -230.944732666016 0.383482575417
-146.817932128906 -75.239486694336 -240.116973876953 0.402301400900
-148.244354248047 -74.822311401367 -236.816680908203 2.139318943024
-32.568527221680 -76.706413269043 -238.501693725586 2.293001413345
-144.248580932617 -76.348899841309 -243.615142822266 2.741966724396
17.274339675903 -77.138351440430 -242.590911865234 2.288410663605
5.003733158112 -76.103698730469 -244.936843872070 0.791783154011
-150.696289062500 -70.927841186523 -238.032379150391 2.558520317078
-149.581542968750 -74.462173461914 -244.857315063477 0.567599177361
-46.688331604004 -77.004852294922 -245.073913574219 1.525740146637
-31.762145996094 -76.657211303711 -246.699951171875 3.865947723389
4.343720912933 -77.076202392578 -245.147415161133 0.554632961750
-37.655422210693 -77.063903808594 -246.334030151367 2.403485059738
22.073987960815 -76.872116088867 -247.877685546875 2.037553071976
-5.853479862213 -78.377128601074 -252.135543823242 2.376390218735
-147.027984619141 -75.086402893066 -253.679290771484 2.200801849365
-9.197326660156 -79.943496704102 -253.225692749023 2.289413690567
-148.084747314453 -73.201042175293 -249.872131347656 3.139469861984
-66.656288146973 -76.768577575684 -250.769409179688 2.521603345871
-148.464004516602 -81.202606201172 -260.396606445313 0.948892951012
-127.113220214844 -74.326263427734 -259.438751220703 2.137536287308
-151.654449462891 -72.915290832520 -259.550201416016 2.021883249283
-11.853113174438 -73.768508911133 -267.533538818359 3.068578481674
-146.322723388672 -78.703849792480 -270.480316162109 0.935524463654
-149.974517822266 -74.732345581055 -268.734313964844 1.222522020340
-11.357466697693 -76.891357421875 -271.419921875000 1.692123651505
-145.720611572266 -74.775360107422 -271.438385009766 3.295474052429
-5.573634147644 -75.367591857910 -278.677093505859 1.194022536278
-46.241371154785 -74.897567749023 -286.075653076172 2.249782800674
-134.713592529297 -72.688537597656 -289.314758300781 0.935561478138
-134.791503906250 -73.493324279785 -286.833068847656 1.136802911758
-124.723434448242 -72.140495300293 -284.631652832031 1.678206205368
-52.729137420654 -74.478744506836 -287.391540527344 1.739798665047
-113.587280273438 -72.676918029785 -286.525512695313 1.487017869949
15.827788352966 -75.583564758301 -292.267761230469 1.095195531845
-58.461921691895 -73.707527160645 -289.618194580078 1.766804814339
-141.510498046875 -73.572418212891 -293.013580322266 1.706835389137
-63.044425964355 -73.932975769043 -291.238189697266 1.531002521515
-144.208618164063 -77.871894836426 -293.513061523438 2.480740547180
-117.167228698730 -72.632644653320 -291.494934082031 2.572497606277
-46.768226623535 -76.601112365723 -291.353454589844 2.085619926453
-34.461132049561 -75.472351074219 -292.201049804688 3.563481807709
-136.423370361328 -71.404907226563 -295.023986816406 1.310099601746
-13.002249717712 -72.380798339844 -286.653686523438 2.082138061523
2.994466066360 -75.583755493164 -289.797912597656 1.273300886154
6.344102859497 -74.807678222656 -291.939514160156 1.947814822197
14.945399284363 -76.611656188965 -295.687011718750 1.972087144852
-149.967758178711 -76.588363647461 -298.131042480469 0.496346205473
-146.410247802734 -72.373344421387 -296.619934082031 0.795878648758
-67.958305358887 -75.922782897949 -62.223205566406 2.145478010178
88.021385192871 -78.974990844727 -74.392494201660 3.957584857941
78.506584167480 -78.822799682617 -77.788070678711 3.848334074020
-27.523588180542 -78.722389221191 -77.602455139160 3.135964393616
83.866081237793 -76.841690063477 -76.370361328125 2.830033063889
-37.170707702637 -78.445388793945 -80.960922241211 1.027978777885
84.570213317871 -76.100128173828 -81.552009582520 1.955695629120
94.654464721680 -75.957290649414 -81.656341552734 1.804519653320
-64.955619812012 -70.488334655762 -95.663040161133 1.934201598167
73.671134948730 -78.162315368652 -94.859703063965 2.654278516769
80.090377807617 -76.582603454590 -98.263664245605 3.179532051086
94.526062011719 -79.890602111816 -95.659820556641 4.122768402100
55.044754028320 -78.708831787109 -98.446250915527 2.478257894516
-70.755485534668 -75.821212768555 -102.338623046875 2.756306886673
-74.573196411133 -72.119888305664 -102.244132995605 2.353598356247
49.715881347656 -79.042175292969 -105.267784118652 2.316943407059
-89.303382873535 -77.396743774414 -104.455192565918 3.861833810806
46.078689575195 -75.624092102051 -118.485122680664 2.588603019714
110.429725646973 -77.305595397949 -120.034835815430 0.893891155720
112.415664672852 -79.319816589355 -131.909179687500 2.512238740921
23.027698516846 -75.427253723145 -138.574951171875 2.729737281799
110.100204467773 -78.891166687012 -127.605072021484 2.349775314331
27.736904144287 -75.529762268066 -134.784027099609 2.073593139648
113.110671997070 -74.117164611816 -131.811523437500 1.991538643837
37.567920684814 -75.804565429688 -135.491424560547 2.315078496933
-54.427894592285 -76.215179443359 -142.789947509766 2.063922643661
35.454238891602 -78.646492004395 -144.777694702148 1.596974253654
109.018676757813 -76.145210266113 -137.021484375000 2.769606828690
-48.004741668701 -74.902099609375 -145.121246337891 1.735350012779
31.938703536987 -76.200820922852 -150.191513061523 2.142752647400
-56.557247161865 -72.114646911621 -141.344039916992 1.557952165604
-56.862289428711 -76.089981079102 -146.801055908203 0.991606593132
-51.879497528076 -77.924377441406 -150.823486328125 2.328320980072
-64.802078247070 -77.681518554688 -156.960083007813 1.891874194145
112.975921630859 -80.335067749023 -148.732406616211 3.089612960815
-50.322113037109 -79.915794372559 -156.304946899414 3.059128522873
22.281303405762 -79.829986572266 -156.661636352539 2.749869346619
108.480094909668 -78.137763977051 -160.994094848633 2.697216749191
-66.155426025391 -75.187385559082 -156.442398071289 0.703455626965
-45.369396209717 -76.778030395508 -157.652023315430 0.951329290867
8.537033081055 -74.350738525391 -155.588226318359 1.241753220558
-68.007087707520 -75.447624206543 -157.877670288086 1.012781858444
-63.047351837158 -77.187164306641 -160.726379394531 1.635921955109
-0.471166998148 -76.423469543457 -163.169387817383 1.971662878990
-43.016941070557 -73.623153686523 -168.477416992188 0.864175558090
29.639106750488 -74.807662963867 -167.012664794922 2.295195817947
-62.830814361572 -73.119430541992 -168.084609985352 1.013193607330
-56.732181549072 -76.872261047363 -168.299804687500 1.650716662407
16.672668457031 -78.485572814941 -161.368209838867 4.723057746887
-30.826713562012 -75.354888916016 -169.800903320313 2.112632751465
-29.542634963989 -77.956825256348 -167.834304809570 1.528034329414
15.690185546875 -77.301887512207 -175.544769287109 2.581070184708
-42.402812957764 -77.736640930176 -173.865142822266 2.031024456024
-11.325008392334 -76.834693908691 -173.557312011719 0.259635597467
-63.503536224365 -73.137321472168 -172.905853271484 2.658139467239
-6.656317234039 -73.993804931641 -173.782180786133 1.684065818787
-22.479352951050 -76.223724365234 -180.650878906250 1.482576608658
22.844020843506 -74.468551635742 -183.666412353516 3.186112642288
-39.090946197510 -76.511650085449 -173.153793334961 1.471136927605
19.734842300415 -73.655899047852 -177.671829223633 2.057209491730
-22.980030059814 -72.641052246094 -185.474533081055 1.323978543282
-32.396217346191 -77.505332946777 -180.457534790039 1.496355533600
-147.915908813477 -72.705825805664 -190.703948974609 1.884033560753
-19.773027420044 -78.743362426758 -185.779678344727 1.761749744415
-142.320846557617 -73.349998474121 -189.866210937500 2.159706592560
-152.301681518555 -74.032279968262 -188.180343627930 2.863299608231
-48.840583801270 -74.060180664063 -188.744247436523 2.727943897247
98.189559936523 -76.599647521973 -195.592239379883 2.835750818253
-144.941223144531 -75.130744934082 -192.553009033203 0.993445158005
-149.150939941406 -73.435554504395 -197.051330566406 3.164464235306
21.821973800659 -75.116081237793 -197.895660400391 1.890626788139
-137.468429565430 -74.049530029297 -197.826629638672 1.527106642723
15.642564773560 -73.536766052246 -199.612274169922 1.428710579872
-139.383895874023 -75.487869262695 -199.799697875977 0.716384887695
12.986002922058 -73.536529541016 -198.029846191406 1.544942378998
-134.086685180664 -71.863143920898 -198.973297119141 2.133816003799
6.050531864166 -73.968040466309 -205.124313354492 2.178172111511
-150.968414306641 -73.874137878418 -204.951492309570 1.380824804306
94.326568603516 -76.803359985352 -206.241027832031 1.404991507530
-16.175859451294 -77.543441772461 -206.757949829102 1.547694683075
-30.528259277344 -74.577217102051 -208.865905761719 0.569604396820
-11.268432617188 -72.881637573242 -206.385742187500 1.338874340057
-147.211502075195 -76.748313903809 -212.141799926758 0.853140890598
-35.591407775879 -75.379341125488 -205.318984985352 0.403644800186
-83.154167175293 -76.631729125977 -207.303955078125 4.128211498260
-26.961118698120 -76.598831176758 -209.949523925781 1.127630949020
16.089368820190 -76.146804809570 -212.793991088867 2.111148834229
-147.141754150391 -72.908340454102 -215.088485717773 0.979543447495
-90.112831115723 -75.709182739258 -217.991775512695 1.287235379219
-29.676773071289 -74.227470397949 -217.679779052734 2.078753471375
-26.727954864502 -74.722915649414 -220.547332763672 2.412124395370
-11.006978988647 -76.738197326660 -211.970748901367 1.301492214203
-27.539653778076 -74.702117919922 -210.839294433594 1.817060470581
-82.946228027344 -74.686431884766 -220.412918090820 2.221347332001
-88.530418395996 -78.055213928223 -219.788833618164 3.024358987808
-23.501117706299 -74.962120056152 -221.516921997070 1.324251294136
-2.224258899689 -80.469551086426 -224.412109375000 2.193683624268
-153.554473876953 -74.973800659180 -218.098663330078 3.045172691345
-2.551873922348 -77.035751342773 -221.120300292969 1.812088727951
86.168205261230 -79.326644897461 -226.743469238281 4.083743095398
-140.865844726563 -76.108169555664 -224.800262451172 2.184000730515
-6.476395130157 -76.338897705078 -223.225006103516 1.647885084152
-140.412490844727 -75.222717285156 -227.032211303711 2.123226881027
-147.319412231445 -81.240409851074 -226.935485839844 0.811417818069
-6.345527172089 -74.312629699707 -229.843078613281 2.443307161331
19.135080337524 -76.334571838379 -218.384353637695 2.165069103241
-139.940322875977 -72.689895629883 -230.281021118164 0.989366054535
-16.991147994995 -76.277847290039 -229.335311889648 2.944319486618
74.476394653320 -77.111877441406 -227.166137695313 3.738699197769
75.595726013184 -76.357582092285 -233.663803100586 2.420607328415
9.392901420593 -76.916725158691 -231.448806762695 1.640546679497
-31.148456573486 -76.443435668945 -237.622726440430 1.764721870422
-21.734430313110 -80.430442810059 -242.388488769531 1.173519134521
3.901001930237 -73.999015808105 -244.044815063477 1.968091845512
-47.320632934570 -71.878395080566 -243.727142333984 2.559518575668
-22.016986846924 -73.968910217285 -243.772216796875 3.024701356888
9.228408813477 -73.657646179199 -241.691497802734 1.040593504906
-63.440750122070 -74.965476989746 -246.342437744141 1.125012397766
-34.174880981445 -77.864410400391 -244.689544677734 1.923108696938
-40.475589752197 -73.421516418457 -246.134872436523 1.594277739525
-148.942825317383 -72.349372863770 -246.930831909180 1.232610225677
-45.879859924316 -77.014663696289 -248.717773437500 2.811058044434
-53.078437805176 -70.390144348145 -248.553726196289 3.743244409561
-66.309669494629 -74.596435546875 -250.497634887695 2.783708333969
-10.807049751282 -77.831779479980 -248.931915283203 2.892500162125
-79.964233398438 -75.036529541016 -254.940994262695 1.235786437988
-156.045135498047 -78.384307861328 -255.685760498047 3.775973320007
-141.215499877930 -73.445610046387 -255.751007080078 1.401667475700
-123.187095642090 -74.807571411133 -260.581146240234 2.244182586670
-156.557388305664 -70.341827392578 -261.553771972656 2.099384784698
19.795337677002 -79.797882080078 -266.056640625000 0.898709952831
-13.816756248474 -76.764732360840 -269.424133300781 1.749796271324
-153.224578857422 -75.705299377441 -273.930816650391 3.005786895752
-152.011917114258 -78.257888793945 -279.037933349609 1.580925464630
-145.247253417969 -76.369644165039 -286.104125976563 1.442369937897
-58.270481109619 -70.980072021484 -283.074676513672 2.145780801773
-38.600379943848 -71.366691589355 -286.707489013672 1.959380507469
-21.381608963013 -72.588264465332 -289.097412109375 3.556623220444
-10.642563819885 -72.538017272949 -282.902160644531 1.997206926346
-65.889434814453 -76.206047058105 -286.861877441406 2.879253625870
-80.272338867188 -76.277145385742 -287.356018066406 0.842799246311
-2.812351942062 -75.798492431641 -285.464538574219 1.597997069359
5.157602787018 -75.914718627930 -291.401672363281 1.793771028519
-138.169967651367 -72.334091186523 -288.666320800781 2.797003984451
-79.452728271484 -71.964996337891 -288.083007812500 1.886899948120
-147.254547119141 -72.635848999023 -288.862152099609 3.074857234955
-94.418975830078 -78.837577819824 -287.691650390625 3.917418003082
-78.568534851074 -73.528953552246 -288.061340332031 2.819058418274
-85.002922058105 -71.767944335938 -294.589630126953 3.134654521942
-61.739841461182 -73.736221313477 -292.162384033203 2.958855390549
-28.776771545410 -70.245742797852 -294.663543701172 4.182135105133
-6.504230022430 -74.360466003418 -292.043884277344 1.433801651001
-152.032455444336 -68.367431640625 -298.120819091797 1.731634616852
-149.983627319336 -71.645156860352 -301.275482177734 2.561992883682
-144.732940673828 -72.738059997559 -304.418762207031 1.541384220123
-156.588729858398 -72.678100585938 -306.684753417969 1.371604919434
-57.032276153564 -73.746749877930 -56.465053558350 1.504408597946
-47.249919891357 -75.049438476563 -53.858753204346 1.508181214333
-39.413398742676 -76.680633544922 -55.316986083984 2.713066816330
-76.837066650391 -77.236671447754 -61.813312530518 2.089062452316
-29.156196594238 -75.122779846191 -64.541175842285 2.999483108521
-33.124305725098 -75.588058471680 -80.357238769531 2.458955526352
74.743927001953 -79.780433654785 -82.576301574707 5.015582084656
75.132202148438 -78.008567810059 -81.219558715820 3.463964700699
73.442344665527 -76.022628784180 -84.530601501465 2.309777498245
98.425659179688 -75.069297790527 -90.776565551758 1.889258503914
70.213386535645 -78.815475463867 -90.131340026855 4.246828079224
50.083042144775 -78.473388671875 -91.325920104980 4.944374561310
49.943222045898 -80.876602172852 -101.346160888672 2.415009021759
-67.039527893066 -74.524856567383 -101.967590332031 2.175738096237
-73.296783447266 -70.022857666016 -102.856132507324 3.029496431351
44.805587768555 -77.704788208008 -104.014190673828 1.189324140549
-82.426185607910 -79.463073730469 -110.326416015625 2.244921922684
-93.337837219238 -73.315971374512 -112.136054992676 1.317693352699
50.907844543457 -76.424537658691 -108.066535949707 1.318847417831
107.330703735352 -76.288368225098 -114.102302551270 2.130890369415
32.625503540039 -78.074790954590 -124.007583618164 2.351476192474
43.805259704590 -77.522926330566 -119.512351989746 0.865521728992
40.967933654785 -76.046264648438 -124.921272277832 1.902477145195
29.723827362061 -77.523399353027 -124.289001464844 1.857404708862
108.924118041992 -77.166297912598 -120.898635864258 1.957021236420
39.179969787598 -78.150749206543 -131.014221191406 1.399500966072
32.653003692627 -73.292602539063 -132.400558471680 1.705243945122
-45.608989715576 -74.562301635742 -143.877197265625 1.670699954033
-71.229080200195 -76.703063964844 -145.218643188477 1.478296160698
-53.838760375977 -73.820068359375 -147.739883422852 1.929122328758
-73.196411132813 -77.443084716797 -146.893218994141 1.533542156219
-39.960903167725 -74.310531616211 -148.263916015625 2.111442089081
107.112922668457 -76.407897949219 -154.669982910156 3.814345598221
-71.934631347656 -76.221908569336 -156.663742065430 3.568368434906
23.573183059692 -78.899307250977 -148.491806030273 2.671736001968
30.317447662354 -77.974418640137 -151.881393432617 1.637268900871
112.514862060547 -79.041183471680 -161.825790405273 2.312383413315
9.211487770081 -77.450553894043 -160.083114624023 1.754824638367
32.321773529053 -74.297172546387 -156.164260864258 2.152646780014
-64.037506103516 -76.001663208008 -160.020538330078 0.873814344406
-41.901679992676 -76.390426635742 -172.336929321289 2.204838275909
20.246376037598 -75.045288085938 -164.034805297852 1.512827754021
-64.772651672363 -73.760345458984 -160.458160400391 1.103742122650
-69.432395935059 -74.919723510742 -166.239212036133 3.421089410782
111.279777526855 -78.179443359375 -166.788482666016 1.515769958496
-7.998037815094 -76.131835937500 -167.374282836914 2.230057954788
-64.098632812500 -73.928886413574 -174.651565551758 2.362163782120
-32.259010314941 -76.323860168457 -169.292312622070 1.864986538887
-54.978565216064 -73.661544799805 -173.436798095703 2.766943216324
29.265233993530 -75.408943176270 -173.324676513672 2.570208311081
110.665275573730 -74.993400573730 -173.477096557617 0.974777519703
102.346031188965 -75.740814208984 -184.160797119141 2.900542736053
105.672500610352 -76.472450256348 -189.951705932617 1.576962471008
106.805702209473 -74.876068115234 -177.621948242188 1.702371597290
-52.394886016846 -73.821884155273 -191.056488037109 2.241946458817
-49.450450897217 -72.165679931641 -183.657821655273 2.695405483246
26.495243072510 -75.968132019043 -184.094985961914 0.688932299614
-48.958621978760 -73.322753906250 -187.764160156250 2.417698621750
-20.622501373291 -75.600570678711 -185.008331298828 1.614189505577
-51.092945098877 -76.512573242188 -192.323974609375 1.017047405243
-151.326751708984 -72.980270385742 -193.770111083984 2.194732904434
101.142250061035 -77.686630249023 -193.547088623047 2.006476879120
-44.842082977295 -72.431701660156 -194.678222656250 3.116474628448
-14.583501815796 -76.456901550293 -199.161773681641 2.038746118546
-140.237854003906 -73.939277648926 -195.370269775391 2.053660869598
-43.344940185547 -72.617179870605 -198.436584472656 2.790848255157
101.910736083984 -75.732192993164 -197.710983276367 2.123991250992
106.805961608887 -75.087821960449 -186.284225463867 2.503128528595
-44.614017486572 -74.538261413574 -197.158004760742 2.203942298889
-23.384904861450 -79.954376220703 -198.772598266602 3.126415252686
-148.173156738281 -77.527046203613 -200.747558593750 2.880811214447
-25.221029281616 -75.357589721680 -197.608840942383 1.256585836411
-157.624679565430 -74.348922729492 -198.797912597656 2.926307916641
-152.999008178711 -78.922859191895 -204.948181152344 1.533959984779
-143.421707153320 -75.528297424316 -202.712921142578 1.930462360382
-38.620395660400 -75.263107299805 -200.583480834961 1.647935390472
101.007331848145 -76.870788574219 -202.318923950195 2.578808784485
-41.164760589600 -72.913040161133 -200.442138671875 2.269466400146
-143.497146606445 -76.925262451172 -205.822799682617 1.105950713158
-37.991657257080 -71.618247985840 -206.469482421875 1.926513671875
-20.970554351807 -78.738731384277 -210.685714721680 3.551610231400
96.826896667480 -77.836601257324 -205.863983154297 2.208319187164
91.110778808594 -76.945533752441 -213.914016723633 1.099518775940
-34.593376159668 -73.209365844727 -217.867767333984 3.255655527115
-87.673881530762 -75.079139709473 -211.784362792969 1.264104962349
-75.884140014648 -74.790412902832 -212.496337890625 1.578062653542
-18.859107971191 -74.963607788086 -214.482894897461 2.213173866272
-150.048965454102 -74.433868408203 -206.728607177734 1.124672293663
90.011878967285 -76.015884399414 -214.102676391602 1.730308055878
88.760337829590 -74.220878601074 -218.837844848633 2.305355310440
90.005615234375 -75.957359313965 -220.724044799805 1.525600075722
-102.473472595215 -73.837753295898 -221.042663574219 1.067650675774
-153.268081665039 -75.717086791992 -222.888778686523 2.839791059494
-20.191638946533 -73.566711425781 -223.356384277344 2.523353338242
79.747070312500 -73.529731750488 -226.656646728516 2.349673986435
-149.861465454102 -76.655578613281 -224.872177124023 0.821897029877
-28.245277404785 -75.765357971191 -219.729629516602 2.552234888077
-133.672775268555 -72.031715393066 -232.130630493164 1.625112533569
-12.057705879211 -77.022399902344 -230.742630004883 1.435494899750
17.276327133179 -74.471633911133 -226.738235473633 0.978317975998
19.459842681885 -75.927131652832 -233.425567626953 1.751354098320
-155.053329467773 -76.266296386719 -235.145446777344 3.822341680527
-126.063407897949 -70.451965332031 -233.577438354492 1.537796139717
-8.416723251343 -74.053459167480 -235.939285278320 2.184080839157
-0.140425994992 -74.120307922363 -237.937240600586 1.113781571388
68.984054565430 -75.298797607422 -233.566513061523 1.856835603714
70.462860107422 -72.962936401367 -238.601455688477 2.453177690506
-0.584994971752 -73.411621093750 -240.974792480469 0.973124861717
16.208999633789 -71.643241882324 -240.383346557617 1.665122747421
-30.352455139160 -68.820320129395 -241.296844482422 6.127597808838
-33.977371215820 -79.841506958008 -242.284927368164 0.469594657421
-47.094299316406 -73.679306030273 -239.467422485352 1.147725820541
-39.473979949951 -72.416099548340 -241.690872192383 2.771184206009
-17.699306488037 -75.717178344727 -243.484420776367 1.354657173157
-52.649173736572 -72.516670227051 -244.603622436523 2.392902851105
1.630686044693 -74.949241638184 -245.817703247070 2.007228374481
-68.426651000977 -74.568267822266 -244.963699340820 1.809843778610
20.460796356201 -75.615112304688 -247.816528320313 1.695344328880
-144.384353637695 -75.283203125000 -245.970260620117 2.393160104752
-72.923355102539 -76.044746398926 -252.487533569336 1.502475261688
15.072977066040 -76.277801513672 -249.893218994141 2.040985584259
-161.573135375977 -71.849914550781 -250.325225830078 3.141554355621
14.804821014404 -77.895156860352 -253.518585205078 2.628423452377
-80.178039550781 -70.007804870605 -251.534118652344 1.913703680038
-75.436653137207 -74.363204956055 -251.651519775391 0.771993339062
19.377300262451 -76.143554687500 -255.753906250000 1.192172050476
-89.431739807129 -72.925590515137 -253.035949707031 0.852713584900
-125.925956726074 -70.702201843262 -255.969253540039 3.388289690018
-133.826812744141 -75.255661010742 -260.416564941406 1.492832422256
-135.347473144531 -75.325935363770 -255.656921386719 1.810316443443
-147.370315551758 -73.502662658691 -261.799194335938 2.448024034500
-144.584228515625 -70.706314086914 -255.965774536133 2.117836475372
-135.092941284180 -71.456863403320 -262.609527587891 1.549531340599
-161.920303344727 -70.228851318359 -261.656005859375 1.734411478043
-127.291450500488 -72.158645629883 -267.045135498047 2.905093431473
-135.578613281250 -69.583358764648 -263.441802978516 1.128024220467
-163.956604003906 -70.160751342773 -268.271209716797 2.904558658600
-156.978973388672 -70.426551818848 -265.021545410156 2.261184215546
-149.595870971680 -71.223937988281 -266.404785156250 1.962922692299
-148.316970825195 -73.127731323242 -266.532714843750 2.197141408920
16.405303955078 -76.876106262207 -279.263702392578 2.074154138565
-166.397003173828 -72.360443115234 -267.986450195313 2.424456834793
-152.186157226563 -73.361206054688 -274.355499267578 1.557732462883
-6.091010093689 -81.025962829590 -273.831420898438 2.164453268051
-157.531433105469 -70.620582580566 -273.443664550781 2.738695621490
11.884906768799 -77.900062561035 -282.670654296875 1.479449868202
-152.552444458008 -72.114654541016 -282.735961914063 2.132949590683
-164.797500610352 -73.089218139648 -288.658050537109 2.079165697098
-155.179855346680 -74.191757202148 -281.185241699219 3.500356197357
-165.375747680664 -70.740974426270 -288.633056640625 2.287283658981
1.054203033447 -76.568161010742 -288.165008544922 2.171267032623
7.010653018951 -78.424659729004 -283.754425048828 0.665773451328
-102.279342651367 -71.467163085938 -291.653778076172 1.801753401756
-154.270309448242 -76.360198974609 -288.612030029297 2.269017219543
-148.563720703125 -70.708801269531 -286.790863037109 2.000808238983
-107.598640441895 -71.882171630859 -291.500457763672 2.311877727509
-152.528793334961 -74.326606750488 -292.768890380859 1.515641927719
-148.783966064453 -75.084419250488 -290.265258789063 1.212388277054
-72.448272705078 -75.465736389160 -293.325744628906 3.253683090210
-166.093017578125 -73.834968566895 -290.385681152344 2.630920648575
-123.389236450195 -70.028480529785 -292.246704101563 0.429426521063
-43.501304626465 -76.857231140137 -288.683990478516 1.552032589912
-153.674133300781 -72.100326538086 -289.373107910156 2.495787858963
-133.408401489258 -68.524154663086 -294.298461914063 2.742186546326
-18.892930984497 -71.918846130371 -294.530273437500 2.952997446060
-128.284576416016 -70.056678771973 -294.251159667969 1.636836528778
5.532848834991 -74.963050842285 -295.062347412109 2.110550165176
15.089151382446 -72.360916137695 -293.227081298828 2.360058069229
-133.848754882813 -69.982170104980 -292.610137939453 1.458786010742
-145.975799560547 -73.569664001465 -298.055969238281 1.247140049934
-156.479934692383 -73.943382263184 -314.763824462891 2.284537076950
-72.281867980957 -70.939163208008 -53.223018646240 2.631325244904
-22.425729751587 -70.744018554688 -64.646919250488 4.810283184052
-20.497774124146 -77.233963012695 -65.922920227051 1.831881403923
72.393569946289 -74.485084533691 -77.722923278809 1.626640915871
90.778465270996 -76.277473449707 -76.434326171875 1.046007871628
-37.236854553223 -74.671569824219 -79.834625244141 2.176775455475
75.051948547363 -75.798980712891 -80.205665588379 1.181053876877
89.226295471191 -79.693382263184 -82.955810546875 2.499423027039
67.708892822266 -76.149566650391 -84.220817565918 3.333423852921
72.448150634766 -75.486099243164 -89.482727050781 2.435259103775
-50.031299591064 -76.162864685059 -87.205848693848 0.461187720299
-92.083824157715 -76.368782043457 -89.351661682129 3.248165369034
58.456623077393 -77.862617492676 -94.595413208008 4.131428718567
49.842361450195 -77.281860351563 -99.768463134766 0.827362716198
93.539169311523 -74.022026062012 -99.881484985352 1.136937379837
-92.405830383301 -70.370582580566 -102.674514770508 3.320850133896
81.707046508789 -73.226226806641 -99.901557922363 2.281357526779
72.835487365723 -76.474731445313 -100.780487060547 4.696640014648
91.418922424316 -77.925361633301 -99.038818359375 3.568733692169
82.959487915039 -75.874877929688 -98.735313415527 0.968375921249
82.727645874023 -78.785964965820 -99.311279296875 3.658218145370
-85.616073608398 -75.905342102051 -103.401496887207 4.596922397614
42.245029449463 -74.385223388672 -107.570579528809 1.293023467064
105.207977294922 -77.205558776855 -111.517860412598 3.345837593079
107.833183288574 -76.855125427246 -111.525985717773 1.733103632927
47.863895416260 -77.919128417969 -119.590362548828 1.932500004768
110.889678955078 -78.456382751465 -121.858009338379 3.085213184357
116.375755310059 -78.826667785645 -135.715774536133 3.559475421906
-51.657119750977 -72.437805175781 -132.210311889648 0.945139825344
27.111700057983 -74.831108093262 -135.353927612305 1.258078336716
40.339756011963 -77.784446716309 -134.434906005859 3.229372978210
24.881996154785 -72.677444458008 -143.592025756836 1.568626642227
112.699623107910 -78.671844482422 -139.203659057617 0.970074176788
111.519340515137 -76.981201171875 -132.616851806641 2.189005374908
-73.857330322266 -73.880607604980 -149.262542724609 2.782991647720
-44.196434020996 -73.683067321777 -143.837081909180 0.593440234661
-71.459754943848 -72.158233642578 -152.325729370117 1.211759090424
19.466960906982 -73.691436767578 -150.565872192383 3.228864908218
112.303199768066 -74.162178039551 -150.265457153320 1.598345994949
-53.899986267090 -75.215614318848 -151.945404052734 2.473797082901
-71.494781494141 -72.613624572754 -152.035507202148 1.610235214233
-39.203739166260 -77.232147216797 -153.471466064453 2.236435890198
32.158340454102 -70.610733032227 -154.083450317383 2.009578227997
109.798126220703 -73.357238769531 -152.047500610352 1.617572426796
115.135292053223 -75.046203613281 -161.444732666016 1.096767067909
-68.466033935547 -70.959785461426 -156.080459594727 1.616150021553
-72.925308227539 -75.242050170898 -162.198120117188 2.977438688278
21.454753875732 -77.994422912598 -164.254592895508 2.078316450119
-60.324768066406 -71.816139221191 -167.865478515625 1.973736524582
-33.036518096924 -72.873153686523 -163.466567993164 0.743478059769
7.608623027802 -75.754478454590 -164.393356323242 1.803901672363
108.524436950684 -74.058258056641 -162.577468872070 1.430484414101
7.569445133209 -77.270828247070 -167.922698974609 3.956626415253
-33.086498260498 -74.436729431152 -166.666305541992 1.881794571877
-2.137691020966 -70.778099060059 -166.700973510742 2.833804845810
107.389183044434 -73.056999206543 -168.977539062500 2.261956214905
-41.617286682129 -71.617942810059 -166.581008911133 1.258979320526
28.984340667725 -72.228172302246 -173.126083374023 1.284705758095
112.730628967285 -78.553077697754 -173.361816406250 2.479177713394
-57.451614379883 -70.945968627930 -177.216735839844 2.119730234146
-28.464382171631 -76.385551452637 -175.663757324219 1.900939583778
102.741859436035 -75.715309143066 -175.056594848633 3.685408592224
28.897018432617 -73.067207336426 -170.631607055664 2.217717409134
107.352996826172 -77.368743896484 -176.115219116211 2.897548198700
-37.110374450684 -70.974632263184 -179.160186767578 2.633793592453
108.117584228516 -77.988899230957 -181.638427734375 2.611512660980
-62.096706390381 -71.355812072754 -178.639450073242 4.121484279633
-25.791799545288 -77.603752136230 -179.883239746094 1.321998357773
-146.590042114258 -68.097038269043 -184.685287475586 2.338828563690
-54.376018524170 -72.800872802734 -181.755203247070 1.227357506752
-147.339904785156 -72.782760620117 -187.402709960938 1.456603407860
-34.274463653564 -71.909233093262 -186.036682128906 0.789295971394
26.621261596680 -78.076324462891 -182.749862670898 0.478592157364
106.251831054688 -76.111236572266 -184.237075805664 1.983039975166
-34.251770019531 -74.030677795410 -184.909240722656 0.417977333069
10.777063369751 -74.908897399902 -191.782012939453 0.398012727499
17.122510910034 -73.889556884766 -204.534057617188 1.654235005379
-148.376541137695 -72.957908630371 -190.878753662109 1.723397374153
104.842666625977 -77.358551025391 -196.509231567383 1.703590273857
-21.504697799683 -71.674430847168 -194.181701660156 2.302142143250
101.130302429199 -76.268951416016 -189.207977294922 2.040339469910
12.708182334900 -72.102439880371 -190.424652099609 1.046063542366
-137.074218750000 -72.047363281250 -204.830352783203 3.682701349258
-138.983474731445 -72.074745178223 -201.013595581055 0.983226895332
100.065299987793 -77.684288024902 -202.303314208984 2.804519176483
-12.121550559998 -77.456863403320 -201.454223632813 1.574389457703
-16.536161422729 -74.722724914551 -203.985000610352 2.443928718567
10.370258331299 -76.021728515625 -208.369110107422 1.490425467491
-150.165740966797 -70.597869873047 -207.028259277344 2.902822017670
-146.419433593750 -73.481201171875 -209.213882446289 2.709903478622
99.961524963379 -71.272842407227 -205.535873413086 2.183830022812
-82.339805603027 -72.546791076660 -209.238113403320 2.176245450974
-36.217117309570 -74.182861328125 -202.685836791992 3.356720447540
18.637413024902 -76.653541564941 -214.346725463867 1.548284411430
-25.353202819824 -74.111877441406 -212.143280029297 1.987338781357
-76.670127868652 -71.474624633789 -208.918670654297 1.274104952812
90.850860595703 -75.115524291992 -210.645309448242 1.970446705818
-80.538681030273 -70.669631958008 -213.420959472656 2.639632463455
-147.491394042969 -72.418518066406 -219.761505126953 1.314615607262
-80.094497680664 -71.724937438965 -214.303863525391 1.296873331070
-13.341072082520 -69.371238708496 -210.853164672852 1.656334877014
-20.769124984741 -71.263648986816 -219.901550292969 2.420812845230
18.358156204224 -74.050056457520 -214.276290893555 1.666212320328
-5.636458873749 -75.143539428711 -220.530990600586 2.164987802505
-88.435325622559 -75.849411010742 -219.940597534180 2.391752958298
92.486251831055 -74.292106628418 -214.555847167969 1.678773283958
-98.515060424805 -71.762474060059 -216.731185913086 0.298585474491
-152.350860595703 -71.208244323730 -225.207824707031 1.811613559723
-25.300918579102 -72.532447814941 -224.669952392578 1.041621327400
17.620456695557 -74.576606750488 -217.022155761719 2.278312921524
-102.159851074219 -72.694633483887 -221.084335327148 0.956682562828
7.298417091370 -71.007453918457 -219.822982788086 2.309700489044
-25.805997848511 -73.633049011230 -216.625656127930 1.385197162628
82.754539489746 -73.243247985840 -225.133316040039 1.686807870865
-145.435104370117 -71.340019226074 -220.279342651367 1.003304362297
10.217804908752 -72.618019104004 -226.760894775391 2.224074840546
-9.642908096313 -76.542976379395 -226.731231689453 1.469553351402
17.434240341187 -68.390144348145 -223.437591552734 1.838270068169
83.483108520508 -75.630310058594 -223.236968994141 0.667945027351
-13.747008323669 -75.738601684570 -229.550048828125 2.186624765396
-130.689270019531 -73.238571166992 -227.665863037109 1.315846443176
-13.973440170288 -73.780334472656 -225.468490600586 1.610836863518
16.621820449829 -74.314102172852 -232.111923217773 1.847333073616
-126.861663818359 -74.159629821777 -228.352355957031 2.600495815277
-151.690704345703 -68.798698425293 -230.661865234375 1.293642044067
-142.507278442383 -70.952720642090 -230.009704589844 2.702032327652
-130.998062133789 -70.301284790039 -228.991226196289 3.406186103821
-13.253067970276 -71.624267578125 -226.211929321289 1.953282952309
71.720535278320 -74.255729675293 -229.127059936523 1.232466816902
-143.372741699219 -68.488853454590 -237.372955322266 0.689330875874
70.643173217773 -75.622200012207 -229.713226318359 2.262304544449
-20.618734359741 -76.543518066406 -230.669769287109 1.953503012657
-142.429214477539 -75.083106994629 -230.469970703125 0.630046784878
77.135658264160 -79.264907836914 -229.830871582031 4.160571575165
9.531936645508 -77.461387634277 -234.481674194336 0.958202898502
-141.783065795898 -75.888000488281 -236.417343139648 2.992566347122
-150.178298950195 -70.822082519531 -234.998916625977 2.470540523529
16.750171661377 -70.740242004395 -232.423141479492 1.409860253334
-2.856812953949 -75.849349975586 -238.692687988281 2.032371759415
-27.816614151001 -72.701103210449 -238.205535888672 1.589554071426
-1.730288982391 -69.732048034668 -238.566726684570 2.517445802689
-160.939392089844 -73.551689147949 -238.861022949219 3.126608610153
7.828970909119 -72.542312622070 -244.512863159180 1.209434390068
-164.857131958008 -71.988197326660 -239.895828247070 2.066168785095
-12.949103355408 -74.524734497070 -238.687713623047 1.316841125488
61.384132385254 -75.075630187988 -240.142868041992 1.897726893425
-13.212239265442 -72.496047973633 -239.106353759766 1.130019903183
-25.016271591187 -72.414276123047 -245.371856689453 3.659128665924
-25.141689300537 -72.693588256836 -242.774597167969 1.505691170692
-13.012072563171 -75.496307373047 -241.881210327148 3.036408901215
-146.465225219727 -72.073471069336 -232.131835937500 2.707239389420
7.955358982086 -72.924934387207 -243.302398681641 0.609889924526
64.113868713379 -73.812301635742 -244.609497070313 3.132027387619
14.592075347900 -71.582191467285 -246.089691162109 1.871468901634
-166.093490600586 -69.809837341309 -242.711364746094 1.793040037155
-50.617389678955 -71.824172973633 -241.821319580078 1.857416987419
3.744014024734 -80.068214416504 -249.159301757813 1.578659176826
16.862890243530 -73.712890625000 -245.212982177734 2.108335733414
-54.331512451172 -72.004295349121 -248.234146118164 2.040872812271
-2.918952941895 -69.569747924805 -249.246322631836 4.883257865906
20.746929168701 -78.359756469727 -248.942520141602 2.171856641769
-169.240875244141 -69.464767456055 -249.912368774414 3.520037889481
-67.736404418945 -75.631294250488 -249.231857299805 1.945791482925
-51.689201354980 -71.598091125488 -248.438064575195 3.040470361710
-81.222671508789 -71.351753234863 -252.397583007813 2.374503135681
-161.149429321289 -72.161506652832 -248.124435424805 2.553249597549
-150.814346313477 -65.708969116211 -250.663711547852 2.840500354767
-60.252956390381 -74.274070739746 -250.731140136719 2.559399366379
-68.887718200684 -72.259162902832 -251.021545410156 2.335818290710
-153.722885131836 -69.438514709473 -253.855178833008 1.062162280083
-152.156906127930 -72.031021118164 -253.472396850586 1.298018813133
-75.948051452637 -69.238296508789 -255.474822998047 3.648164749146
-93.532890319824 -69.636207580566 -256.336395263672 1.884476542473
-164.463790893555 -66.678031921387 -253.402114868164 3.468981504440
-156.946426391602 -71.342765808105 -260.916839599609 2.066656827927
-134.943542480469 -72.853271484375 -259.443756103516 1.770176172256
-83.265480041504 -72.139129638672 -252.470657348633 1.075002312660
-162.261352539063 -68.417266845703 -254.125381469727 2.546288967133
-141.951583862305 -69.624809265137 -258.058074951172 2.850428819656
-85.441970825195 -71.266685485840 -252.381652832031 1.548821330070
-96.796836853027 -69.735115051270 -261.480316162109 2.474521636963
-145.199371337891 -72.129837036133 -257.185485839844 1.736610174179
-93.613723754883 -71.631736755371 -257.255676269531 2.492817640305
-152.701354980469 -69.642105102539 -257.219909667969 2.548125267029
-102.443977355957 -71.352668762207 -256.744232177734 1.398434877396
-168.793228149414 -70.262306213379 -260.078155517578 0.988955974579
-161.619995117188 -72.346900939941 -264.648376464844 2.360344648361
-126.575263977051 -74.231208801270 -257.793273925781 2.460783720016
-151.809280395508 -71.270668029785 -260.657867431641 3.142706632614
-111.940292358398 -68.990119934082 -263.110321044922 3.325779676437
-14.455569267273 -71.759437561035 -262.973815917969 1.353609919548
-141.703323364258 -70.971672058105 -262.235931396484 1.965913891792
-125.963935852051 -70.818481445313 -261.321868896484 0.367826044559
-154.283294677734 -69.536201477051 -263.897460937500 1.987004876137
23.439878463745 -74.204261779785 -271.858367919922 2.599349498749
-148.782928466797 -73.192901611328 -279.899810791016 2.989148378372
-168.506423950195 -71.038703918457 -281.381439208984 4.355832576752
-8.288308143616 -73.040596008301 -280.531768798828 2.112991571426
-145.949234008789 -70.965644836426 -281.749969482422 1.394903779030
-9.610958099365 -71.481475830078 -284.268646240234 2.165406942368
12.737051963806 -73.543579101563 -287.166229248047 1.353635907173
-136.705490112305 -69.690322875977 -287.209045410156 1.413089990616
-68.389152526855 -73.746772766113 -288.120666503906 2.378543138504
-33.426666259766 -74.725601196289 -289.195770263672 1.836377739906
-112.964569091797 -71.314025878906 -285.630157470703 1.780568242073
-95.419891357422 -75.171478271484 -291.454467773438 1.628845810890
-89.688774108887 -71.975639343262 -292.609130859375 2.209117650986
-49.894691467285 -73.568542480469 -293.050720214844 3.668831825256
-116.067695617676 -75.294067382813 -289.836517333984 2.097716808319
-113.788894653320 -72.548316955566 -291.504974365234 1.842630267143
-33.118671417236 -70.217636108398 -290.325500488281 2.551841020584
-115.392631530762 -71.788757324219 -294.253265380859 2.520331144333
-127.092910766602 -67.249412536621 -291.447692871094 2.241354942322
-144.481918334961 -72.851852416992 -294.855133056641 1.804328680038
7.083233833313 -72.877311706543 -292.612274169922 3.006498575211
16.543159484863 -74.912796020508 -294.404937744141 1.505536198616
-159.961364746094 -70.693099975586 -294.119873046875 1.550846338272
-158.401657104492 -74.191429138184 -301.971191406250 2.932055234909
-147.029449462891 -72.118682861328 -311.767578125000 1.355510234833
-151.992126464844 -69.590003967285 -312.115295410156 2.144769191742
-152.611389160156 -72.223724365234 -314.841430664063 2.557579517365
28.728075027466 -77.745315551758 -15.991992950439 4.266204833984
30.723716735840 -73.075378417969 -19.325935363770 2.223111391068
21.346626281738 -74.927940368652 -25.349805831909 1.744974017143
28.895456314087 -72.694686889648 -40.322242736816 1.058864235878
-58.166183471680 -72.482635498047 -50.884483337402 3.778687000275
-65.268257141113 -72.886863708496 -51.328250885010 1.929712772369
-38.952064514160 -76.471336364746 -51.445125579834 3.981486082077
-84.443328857422 -69.289215087891 -64.093681335449 3.295130014420
81.108100891113 -78.245796203613 -75.255531311035 3.737715959549
-15.486674308777 -72.214241027832 -72.165618896484 2.189189910889
89.026359558105 -76.475631713867 -67.427513122559 2.792904615402
99.281700134277 -75.430854797363 -78.012306213379 1.748675107956
-92.617431640625 -71.012786865234 -77.516395568848 2.570065498352
67.573608398438 -75.134796142578 -81.489753723145 3.733755826950
-41.159080505371 -77.284065246582 -86.787750244141 1.429360866547
100.852813720703 -74.751167297363 -83.123504638672 3.334443330765
