# This PCD file was generated using the MATLAB® pcwrite function
# from Computer Vision Toolbox®.
# .PCD v.7 - Point Cloud Data file format
VERSION .7
FIELDS x y z
SIZE 4 4 4
TYPE F F F
COUNT 1 1 1
WIDTH 1416
HEIGHT 1
VIEWPOINT 0 0 0 1 0 0 0
POINTS 1416
DATA ascii
-164.127609 -76.940056 -285.519501
-154.597031 -77.620956 -277.886536
-164.690598 -74.591621 -285.650360
1.683063 -81.358978 -282.985138
7.580151 -82.965797 -278.400208
-101.571930 -75.881050 -287.925812
-153.623276 -80.263512 -285.149811
-147.899170 -74.541328 -283.629486
-106.895164 -76.254059 -287.804810
-151.824493 -78.509209 -289.408325
-148.111450 -79.128044 -286.820557
-71.751831 -80.153954 -289.012268
-165.409653 -77.786713 -287.210297
-122.664429 -74.358543 -288.840820
-42.865391 -81.417648 -283.973816
-152.991028 -76.064377 -286.173889
-132.651199 -72.928909 -291.094086
-18.164541 -77.007057 -289.852020
-127.538368 -74.485512 -290.893036
6.244915 -80.223038 -289.921082
15.798197 -77.565689 -288.150330
-133.118973 -74.273773 -289.321289
-145.211090 -78.129341 -294.660583
-155.540085 -79.504837 -311.425079
-74.096199 -60.339855 -49.697067
-24.121773 -61.167122 -60.562157
-22.223217 -67.736443 -61.401264
70.803871 -66.293076 -72.331718
89.161888 -68.108162 -70.729881
-38.796913 -65.966896 -75.630798
73.479660 -67.778152 -74.696465
87.656342 -71.923416 -77.037384
66.177345 -68.340508 -78.761543
70.976288 -68.041618 -84.002663
-51.522186 -67.849297 -83.032188
-93.550095 -67.943398 -85.622124
57.024288 -70.656464 -89.107033
48.469261 -70.355667 -94.400826
92.185333 -67.367523 -94.241325
-93.691589 -62.804436 -99.302460
80.359596 -66.504822 -94.441917
71.476624 -69.750328 -95.209663
90.030624 -71.196663 -93.175270
81.582146 -69.081131 -93.095779
81.337242 -72.021576 -93.487808
-86.931129 -68.414238 -99.601112
40.974155 -67.917244 -102.454430
103.955399 -71.354774 -105.522682
106.582787 -71.021065 -105.524269
46.696487 -72.242874 -114.162506
109.737823 -73.295364 -115.699257
115.367668 -74.580177 -129.444290
-52.647144 -66.989670 -128.197647
26.133049 -70.043098 -130.317551
39.330894 -73.009872 -129.067245
24.004873 -68.405571 -138.699997
111.729752 -74.626213 -132.975098
110.490997 -72.512405 -126.522606
-74.674698 -69.384995 -145.366180
-45.072216 -69.017181 -139.638977
-72.233551 -67.875458 -148.506287
18.657370 -69.829865 -145.654205
111.480110 -70.828232 -144.305176
-54.699310 -71.005943 -147.739365
-72.274651 -68.311218 -148.188049
-40.001347 -73.202293 -148.972534
31.405277 -67.054474 -149.221176
108.999390 -70.123703 -146.162231
114.424446 -72.439430 -155.373764
-69.192436 -66.936363 -152.296585
-73.614845 -71.573318 -158.177872
20.761507 -75.007912 -159.018661
-60.932747 -68.589851 -163.913101
-33.700127 -69.525436 -159.156494
6.932677 -72.699707 -159.451706
107.832596 -71.486671 -156.639603
6.920858 -74.437584 -162.877609
-33.726547 -71.289383 -162.250595
-2.755681 -67.823051 -162.178238
106.771751 -70.888542 -163.102493
-42.239010 -68.420601 -162.438538
28.422363 -69.863144 -168.155945
112.122971 -76.684204 -167.069168
-57.955139 -68.334221 -173.268677
-29.022425 -73.834740 -171.054474
102.171600 -73.901299 -169.050690
28.303127 -70.541008 -165.614243
106.782684 -75.646004 -169.951248
-37.595104 -68.606667 -174.982910
107.601578 -76.621300 -175.415070
-62.587513 -68.806465 -174.713333
-26.313427 -75.335045 -175.158279
-146.988846 -65.441063 -181.881638
-54.843979 -70.492630 -177.645844
-147.740753 -70.285889 -184.303375
-34.692810 -69.994202 -181.754425
26.122776 -76.298538 -177.413376
105.775833 -74.902046 -178.148270
-34.696022 -72.039604 -180.494064
10.396247 -73.619583 -186.802216
16.882847 -73.452248 -199.522858
-148.741684 -70.676041 -187.772415
104.488419 -76.920395 -190.330887
-21.836306 -70.354172 -189.757187
100.706261 -75.345932 -183.154984
12.331340 -70.743782 -185.605103
-137.286621 -70.722946 -201.628738
-139.236282 -70.495834 -197.839172
99.770584 -77.586441 -196.144608
-12.415027 -76.643478 -196.543488
-16.784504 -74.050140 -199.291458
10.157655 -75.784561 -203.288330
-150.344330 -69.339218 -204.058044
-146.594162 -72.377998 -206.014465
99.743256 -71.393478 -199.779617
-82.513115 -71.825111 -205.394562
-36.474121 -73.312492 -198.245453
18.483253 -76.844704 -209.122482
-25.510511 -73.908310 -207.568405
-76.840195 -70.768242 -205.081787
90.662056 -75.500076 -204.733841
-80.655502 -70.228935 -209.668381
-147.547424 -71.983192 -216.619461
-80.208961 -71.340950 -210.477402
-13.481739 -69.166061 -206.450806
-20.825937 -71.587280 -215.441406
18.220425 -74.240425 -209.220963
-5.713345 -75.588600 -215.656448
-88.516670 -75.766899 -215.931442
92.344116 -74.937141 -208.670670
-98.602654 -71.424385 -213.099503
-152.340927 -71.093735 -222.184814
-25.315281 -73.130547 -220.168854
17.508368 -74.936493 -211.935684
-102.207245 -72.610481 -217.424255
7.240278 -71.492203 -215.071152
-25.912687 -73.713387 -212.076859
82.731987 -74.506943 -219.399658
-145.478714 -70.952034 -217.182297
10.222242 -73.558723 -221.860031
-9.663095 -77.356575 -221.798676
17.430801 -69.170357 -218.733521
83.424721 -76.772591 -217.347336
-13.731751 -76.709229 -224.707855
-130.668381 -73.404312 -224.270660
-13.988453 -74.493591 -220.761948
16.671207 -75.630058 -227.021637
-126.839882 -74.389809 -224.855072
-151.607239 -69.040520 -227.773560
-142.445618 -71.202759 -226.884857
-130.943787 -70.555672 -225.783585
-13.246068 -72.393555 -221.633148
71.734436 -75.706703 -223.441757
-143.216873 -69.207970 -234.399033
70.654358 -77.101372 -223.951569
-20.596395 -77.543297 -225.849457
-142.389893 -75.354462 -227.080414
77.123589 -80.782410 -223.765839
9.586218 -78.880043 -229.263962
-141.686157 -76.540451 -232.957047
-150.062378 -71.345001 -231.956177
16.826384 -72.084099 -227.558243
-2.746392 -77.466507 -233.704803
-27.688667 -74.146416 -233.693069
-1.580993 -71.360367 -233.956070
-160.799759 -74.251602 -235.754654
8.021930 -74.600121 -239.605988
-164.695953 -72.734123 -236.929810
-12.829225 -76.084747 -233.894943
61.509998 -77.165794 -234.495880
-13.074547 -74.085335 -234.444717
-24.810825 -74.333290 -240.831940
-24.965555 -74.445808 -238.223709
-12.864798 -77.257431 -237.020630
-146.388184 -72.433067 -228.974670
8.132978 -74.905586 -238.372299
64.295105 -76.205750 -239.003616
14.807517 -73.782333 -241.166367
-165.888077 -70.732323 -239.891678
-50.443634 -73.367134 -237.607468
3.936881 -82.382538 -243.808578
17.054842 -75.866203 -240.130951
-54.090797 -73.933556 -244.036209
-2.655491 -71.871819 -244.636749
20.947433 -80.764091 -243.514313
-168.956741 -70.828186 -247.134171
-67.507980 -77.537605 -244.948166
-51.443859 -73.556763 -244.236557
-80.931511 -73.388962 -248.527740
-160.902603 -73.453232 -245.089508
-150.498962 -67.236671 -247.920685
-60.000313 -76.322830 -246.448547
-68.618057 -74.279610 -246.961395
-153.398056 -71.144760 -250.900040
-151.853333 -73.716805 -250.335876
-75.610825 -71.507019 -251.675156
-93.187798 -71.855255 -252.702667
-164.124741 -68.297699 -250.741547
-156.559174 -73.476013 -257.861176
-134.583542 -75.019386 -256.053436
-82.978577 -74.167328 -248.572968
-161.926270 -70.092438 -251.328430
-141.584427 -71.667900 -254.953079
-85.150085 -73.278160 -248.563583
-96.397713 -72.262444 -257.865417
-144.857697 -74.093040 -253.958527
-93.272041 -73.904793 -253.493927
-152.342346 -71.568336 -254.233582
-102.105179 -73.541611 -253.098251
-168.406815 -72.274429 -257.223053
-161.199509 -74.688271 -261.572327
-126.242447 -76.338715 -254.226837
-151.424683 -73.417870 -257.550903
-111.517838 -71.533478 -259.705658
-14.060381 -74.863579 -258.322876
-141.300858 -73.279663 -259.033752
-125.571350 -73.161407 -257.958527
-153.852814 -71.878769 -260.921295
23.910025 -78.093048 -266.617218
-148.207642 -76.579994 -276.597107
-167.899719 -74.408241 -278.429321
-7.716254 -77.297180 -275.694916
-145.339905 -74.491905 -278.554047
-8.988991 -75.971542 -279.537750
13.374358 -78.345886 -282.052673
-136.030716 -73.621544 -283.981415
-67.736778 -78.130829 -283.882904
-32.772083 -79.382431 -284.509613
-112.319054 -75.281395 -282.041809
-94.739525 -79.605545 -287.415833
-88.975578 -76.523636 -288.708588
-49.190411 -78.376198 -288.610931
-115.403648 -79.502975 -286.020172
-113.089279 -76.882599 -287.834869
-32.422459 -74.957504 -285.920502
-114.658806 -76.290237 -290.643372
-126.357964 -71.512405 -288.261047
-143.746475 -77.217873 -291.495697
7.782994 -77.994614 -287.591827
17.247744 -80.195961 -289.147339
-159.218277 -74.925369 -291.069336
-157.598648 -78.925972 -298.664459
-146.110016 -77.548721 -308.447479
-151.051971 -75.018112 -309.009888
-151.659683 -77.816460 -311.569519
26.467106 -65.355904 -11.001572
28.528631 -60.919731 -14.603867
19.203808 -63.096973 -20.600206
26.925186 -61.866783 -35.600643
-60.016521 -61.814457 -47.110199
-67.116013 -62.204224 -47.605289
-40.824238 -65.944069 -47.204849
-86.130814 -59.314144 -60.783573
79.466843 -69.940292 -69.534447
-17.113384 -63.154320 -67.895401
87.313316 -67.721718 -61.748497
97.686737 -67.413979 -72.265091
-94.173615 -61.841164 -74.158310
66.019859 -67.153015 -76.102257
-42.662472 -68.993912 -82.446198
99.316292 -67.070618 -77.391632
-57.100285 -63.903801 -85.933479
49.516586 -67.895691 -86.411484
69.330276 -73.008217 -86.076714
54.058979 -67.158661 -92.155144
51.363182 -69.737465 -94.305283
72.892181 -71.362274 -91.060364
45.139999 -68.101555 -101.139366
98.992035 -69.805695 -95.976776
104.472794 -73.456802 -101.364166
78.661041 -66.262802 -99.077049
90.407906 -70.365944 -98.728767
99.386169 -69.083588 -90.366119
108.115044 -70.092422 -98.792953
38.236702 -68.254166 -102.118294
111.361954 -67.926926 -113.827530
112.541168 -71.803604 -113.821999
30.210289 -67.704224 -119.671181
43.523975 -70.328384 -114.696640
114.178345 -71.653122 -125.145950
35.143471 -68.968971 -122.662491
113.887215 -74.570999 -122.507874
107.576080 -71.612961 -117.451683
25.422644 -70.517761 -131.604965
-48.937176 -68.507835 -131.117569
-53.050907 -66.510002 -132.298309
110.356766 -70.826096 -130.024307
-70.172318 -71.656021 -137.572968
-73.718437 -68.658432 -137.660004
-59.828735 -68.864586 -138.331238
31.059608 -70.338837 -139.614120
115.295532 -73.915321 -140.721420
-70.136459 -65.401543 -144.581314
-48.824131 -68.358604 -139.630707
32.628002 -71.411507 -147.151764
-68.912239 -69.657234 -145.037216
113.125488 -70.920174 -136.315781
111.203201 -71.004883 -152.597061
115.551331 -73.719063 -147.784943
-39.138012 -71.882889 -149.799774
-65.288414 -69.619797 -161.516830
-69.762543 -66.020851 -154.611938
29.344551 -71.501068 -142.319839
-2.717532 -72.619606 -158.355545
108.540886 -72.546700 -156.598557
111.125191 -70.846611 -148.057114
111.558441 -75.020950 -153.178497
-64.272774 -66.688774 -157.407654
-45.905750 -71.902252 -162.049301
-2.843260 -70.098930 -161.471588
-29.659595 -71.082214 -171.593857
105.457611 -72.351830 -162.262070
-35.003376 -72.844566 -156.675507
108.925835 -71.833351 -163.383423
-42.198673 -71.068840 -170.456085
108.176941 -71.209137 -163.697861
-151.804962 -69.615585 -178.224762
-27.232246 -67.345131 -173.647705
-20.603172 -71.590836 -179.903046
24.442333 -75.055107 -172.939880
14.756824 -71.872131 -179.283676
27.318758 -72.843872 -178.966904
103.869667 -77.804558 -178.466232
-152.008224 -66.099709 -183.277298
-20.048285 -73.801643 -181.265991
101.792900 -74.583298 -173.535706
102.985657 -71.298080 -184.823715
107.776421 -74.903870 -172.654678
98.817764 -76.173157 -188.645447
-151.455750 -70.032387 -194.700333
99.922852 -75.973961 -200.421265
-28.341934 -69.984283 -193.909134
97.342690 -74.328270 -190.813873
-121.549431 -73.404564 -197.749268
-30.090538 -76.043152 -186.527206
-141.970566 -65.849213 -196.609390
95.160629 -74.797279 -193.645279
8.475313 -73.672501 -195.175537
23.665018 -71.621643 -188.606445
-148.182083 -70.293663 -201.047943
-139.018661 -69.277420 -200.141754
-10.111753 -72.584755 -203.104843
-124.460190 -70.227455 -201.626831
-144.061523 -72.136024 -197.688461
3.788039 -73.122131 -195.772812
-24.418299 -74.487450 -197.527573
20.488125 -76.110123 -198.129639
6.579310 -74.876984 -207.892883
85.403702 -72.629654 -203.836121
-18.370571 -70.581085 -208.533661
91.288910 -73.026573 -204.146118
96.920761 -76.986328 -201.897079
-148.938019 -71.485703 -212.639755
95.409912 -77.062462 -206.483734
4.935596 -72.405869 -203.522659
3.539666 -75.760696 -210.465622
-33.039593 -72.105705 -203.658539
-89.409309 -71.059494 -210.540024
-26.296164 -74.227837 -207.329300
85.146774 -74.730705 -212.061905
89.309532 -74.652763 -212.128738
-31.850233 -72.021271 -208.908463
-84.278923 -69.108688 -215.875381
-1.048532 -75.774323 -214.813904
82.066673 -71.758400 -208.516205
-151.887283 -74.470978 -219.875916
-165.749039 -68.513962 -212.821899
-161.910904 -73.006355 -220.489105
-21.285891 -74.694534 -223.284760
-153.832886 -73.627495 -220.852783
-5.651980 -75.139557 -220.672058
6.574961 -74.939270 -214.446732
-166.998138 -70.512520 -224.000931
-158.637924 -71.273155 -225.703049
79.373322 -79.212700 -226.384186
0.416602 -73.112228 -222.893875
-157.287613 -66.312340 -224.753662
-142.388168 -72.655540 -222.419632
-19.072214 -72.739075 -220.421127
-0.394369 -78.124466 -218.414902
80.211632 -73.426826 -220.881729
-161.047546 -69.263054 -226.361511
-143.734512 -69.159088 -229.154709
-124.868202 -70.234360 -228.902771
78.884911 -77.219849 -221.728683
-115.436920 -71.811684 -226.957077
-146.202667 -71.201920 -227.494583
-150.255890 -69.986717 -229.756042
-148.806686 -72.054886 -229.534302
-155.633728 -71.572914 -227.408646
-164.882874 -71.304543 -227.461990
-133.433167 -72.020447 -233.363998
-133.048767 -72.882263 -231.103210
-153.004944 -74.928802 -230.988998
-145.017029 -68.269333 -235.227768
-151.340897 -71.963310 -233.573380
75.102989 -78.024918 -227.487610
67.710228 -71.365799 -231.522522
-156.685349 -69.982841 -233.821075
72.066254 -71.715561 -228.735260
-19.447052 -72.946075 -233.188690
11.698518 -76.200180 -233.048004
7.211267 -75.624786 -232.067627
-154.107224 -71.957146 -240.972488
14.959892 -74.720139 -237.116074
61.295395 -74.864044 -233.407059
13.786545 -72.672379 -234.089996
5.722136 -75.568039 -237.656189
-6.107081 -72.759544 -236.750000
-20.723419 -73.231445 -239.404572
-1.340668 -74.904388 -238.187439
4.190131 -77.890564 -240.976868
57.767372 -77.153954 -236.927109
-55.085621 -77.338776 -241.527039
20.058098 -74.674980 -243.326614
-59.189186 -74.722984 -238.779083
-9.429538 -75.303917 -244.212036
-65.541496 -70.813988 -247.586288
-85.506866 -72.313217 -250.614914
-82.137230 -74.814293 -249.419785
-9.318313 -74.878532 -251.155258
-123.297195 -73.256172 -256.968597
-13.636016 -76.202591 -249.325577
-116.456528 -73.416687 -253.527130
-115.905952 -72.272171 -256.524689
-103.015327 -73.534744 -254.187134
-143.261917 -72.253616 -260.081940
-144.352814 -72.945503 -265.467590
-168.041763 -72.836365 -262.137360
20.082342 -80.910919 -275.975586
-57.163841 -74.360115 -282.465118
-66.389542 -74.941986 -280.859314
-41.360081 -78.144569 -280.533112
-27.225628 -77.811897 -282.975830
-95.479469 -77.521194 -286.618164
-29.972313 -74.879814 -282.422333
-3.284310 -77.368744 -282.401215
-166.492645 -74.275742 -287.792389
-15.091702 -79.143761 -282.155914
7.171734 -78.811340 -283.953278
14.827477 -81.864464 -279.337921
-56.168629 -78.639397 -284.444305
-32.359169 -77.476730 -288.074371
15.118835 -76.227257 -289.142700
-69.997856 -75.012718 -290.142670
-39.365688 -74.287010 -286.014282
-16.978222 -75.296333 -286.515350
15.855610 -80.184433 -286.846252
-10.709444 -79.268524 -290.438354
4.847163 -76.759750 -289.972229
15.059818 -79.883682 -286.444977
-133.964584 -74.192406 -292.415375
-144.042038 -77.543945 -297.157867
-149.891495 -76.312096 -311.388336
40.928913 -61.930801 -9.798297
28.002954 -61.996189 -8.054187
37.188332 -62.649864 -11.505836
19.989122 -59.252254 -15.227640
42.972786 -61.023441 -18.503994
23.581892 -60.949146 -20.345186
21.791302 -63.173374 -23.768688
22.938347 -64.350227 -34.486626
37.574543 -65.433731 -26.749151
24.355524 -66.883636 -32.364059
41.233459 -62.584320 -33.750809
30.010620 -64.252365 -35.543423
36.870888 -65.006866 -31.924803
29.131290 -62.893867 -36.166943
41.774918 -64.029434 -37.172314
31.880230 -63.248863 -35.152348
-42.673599 -61.049294 -45.460060
-31.716999 -58.238373 -47.894871
-91.031090 -60.620514 -52.583130
-90.638062 -63.575737 -63.191582
76.278770 -68.508873 -61.943096
82.798508 -66.291039 -67.817940
-21.108938 -62.597122 -70.415596
-89.742775 -63.164059 -69.374565
-26.627293 -63.909977 -73.588463
-51.060234 -65.580841 -82.001480
64.614342 -63.223103 -81.947388
51.432709 -66.034851 -88.944817
98.210136 -66.053833 -86.537270
68.157372 -69.014702 -91.905998
-69.551376 -65.873596 -88.291351
-63.385109 -63.150871 -95.227203
43.563732 -67.524780 -93.116470
76.217087 -66.428925 -95.220024
53.186970 -74.613602 -100.183289
100.016769 -67.722542 -91.574951
-96.356766 -66.422333 -104.814278
38.749638 -67.955231 -106.411583
105.893349 -69.686119 -103.484886
47.403179 -67.763588 -106.887466
100.345306 -69.740967 -104.550339
-86.485252 -65.501038 -112.800491
34.677155 -70.810280 -107.483276
105.597252 -68.174492 -111.637482
103.705299 -66.620308 -110.743454
104.448990 -69.505333 -109.877190
109.464340 -68.235092 -109.345558
38.771297 -69.325264 -105.808556
31.064159 -65.525352 -113.262802
39.864784 -67.514648 -109.857262
105.771194 -70.817581 -116.453384
39.177670 -66.781418 -119.020248
108.201561 -69.311928 -126.901276
110.069923 -68.867661 -125.790245
32.614670 -65.947189 -116.525078
-78.929161 -66.032951 -122.716187
113.044907 -67.897804 -129.002945
-55.292782 -67.420403 -134.397278
34.609367 -69.675148 -130.415955
-74.194160 -67.177635 -132.589813
25.955475 -70.683838 -127.391525
-80.441460 -67.649231 -140.026138
-46.230011 -70.645470 -138.540497
-74.886208 -67.678192 -135.314011
109.296997 -69.573837 -131.760208
116.347313 -69.009628 -136.259705
117.206963 -74.090225 -140.759491
-78.155426 -66.303795 -140.902512
7.275505 -65.510452 -147.061752
-52.844795 -68.646133 -146.173645
-51.570995 -69.294510 -152.040512
106.201561 -72.047501 -156.312881
-42.287670 -69.995705 -145.832016
13.297285 -67.715546 -153.756500
21.563925 -71.526451 -153.342010
114.062599 -71.378822 -159.223495
29.156424 -69.995293 -161.482025
-1.587013 -71.123711 -159.544464
31.118227 -71.073227 -156.453201
-68.479736 -66.593117 -154.784714
-66.487495 -67.970268 -156.124680
-69.490959 -67.291473 -162.725708
114.076012 -68.536629 -156.180389
-45.247768 -69.098061 -159.665588
17.091665 -70.450340 -161.370071
-64.530243 -67.911194 -166.616257
-63.617119 -67.319893 -168.397812
-42.027256 -69.682808 -156.849640
-34.211906 -71.540550 -165.020248
114.344032 -74.450157 -165.704941
-37.442387 -65.506836 -176.582489
13.144893 -71.619125 -168.978607
110.203773 -75.655525 -178.711777
-148.160141 -69.310699 -173.900009
-146.444580 -67.287720 -171.491013
-149.083450 -66.068314 -177.977982
-142.889343 -69.412216 -180.538574
-32.252514 -69.118896 -182.026016
-23.523890 -70.688324 -182.053528
22.970470 -68.290154 -187.004715
-141.801758 -67.488358 -184.594513
-147.641937 -68.579025 -186.435318
-21.661785 -68.158524 -182.912354
10.646561 -71.386528 -178.425522
-149.639191 -68.478813 -192.173004
-31.973064 -71.218445 -184.366623
99.719208 -73.142807 -183.048401
105.902412 -72.343468 -184.490463
23.924103 -67.654434 -189.391541
-13.884231 -71.128456 -184.686569
-28.094027 -72.785942 -189.634338
-155.580200 -69.674187 -197.066635
-132.892960 -69.878601 -194.508133
-125.406410 -66.418999 -192.802567
-124.906654 -67.554840 -195.321045
-22.686356 -67.113754 -192.699692
12.306067 -73.574539 -188.204193
92.336517 -77.138184 -195.799835
-150.251648 -64.956665 -193.569214
-145.242981 -66.393929 -196.742126
-151.091049 -68.161201 -198.120499
-155.125107 -66.290329 -195.586212
-24.995487 -70.793671 -196.005295
-10.981150 -69.874886 -191.657928
-146.478851 -65.139168 -200.238144
-18.665312 -70.710373 -197.501831
-161.596695 -67.809761 -198.770157
-134.561844 -68.774529 -197.153778
15.527139 -74.239708 -202.777023
-161.390533 -65.547462 -202.357559
-146.276337 -70.507507 -204.290970
8.068172 -70.240105 -198.893585
-154.244049 -66.255791 -200.792068
-24.782560 -70.795776 -198.244644
97.102280 -74.295197 -194.118927
-158.537903 -70.079491 -210.469269
-164.666321 -71.754410 -205.632233
-76.955620 -68.646828 -205.465744
89.146034 -73.371307 -204.017975
-3.832047 -71.499130 -214.595413
-154.567139 -68.118584 -210.954208
-87.676872 -70.736946 -210.643646
-9.475741 -74.705208 -207.369034
15.556807 -72.935768 -215.812439
-144.922852 -70.499954 -217.908112
-3.679171 -76.609657 -216.814575
-19.438429 -73.306122 -214.519760
-14.584970 -69.500305 -216.905243
90.198929 -74.621140 -214.076340
-20.774080 -70.980171 -213.257141
-31.778414 -71.467873 -213.671448
-107.450165 -66.685143 -222.446884
-16.090853 -71.098473 -219.628738
92.408501 -72.701614 -214.062042
77.449097 -75.214272 -215.588226
7.142234 -74.117653 -215.299988
-11.106655 -70.813141 -221.787170
78.602486 -75.106712 -217.158112
-122.387413 -73.676743 -222.642593
-19.985212 -70.732780 -219.694595
-97.103195 -70.344566 -221.001419
-102.473633 -70.979134 -221.576279
-131.521179 -72.464783 -226.336609
81.314651 -74.782944 -218.779999
-123.128098 -71.204933 -224.920914
4.807555 -72.820297 -224.899353
81.265579 -73.375786 -219.674393
-15.654871 -74.099152 -226.837723
-13.503457 -73.679329 -223.718536
-1.880304 -78.214828 -225.821396
10.303749 -75.256882 -223.358963
88.892532 -76.227028 -221.488632
10.086992 -72.228928 -227.545212
5.635620 -73.180473 -225.570557
-8.925569 -73.814926 -227.507065
-6.679166 -74.084404 -226.350433
18.879463 -72.740486 -228.763931
-12.288501 -70.922638 -229.705475
71.199341 -75.934082 -235.045059
-8.914956 -72.238739 -235.200974
19.137796 -75.108955 -231.643356
-162.620132 -69.269661 -238.626068
-5.370355 -71.605034 -233.458527
-7.914073 -74.567093 -236.445206
-167.348022 -71.581360 -248.906525
-10.574931 -72.432251 -240.818512
15.861684 -72.069603 -241.647003
-147.350235 -73.375900 -249.615433
-72.971001 -72.382370 -247.486221
-61.388939 -73.869667 -243.886658
52.611855 -73.297569 -242.488586
-74.415657 -72.343285 -243.905762
17.131159 -75.473541 -245.465637
-72.800270 -73.397675 -248.321671
-15.096632 -72.353058 -242.403931
-145.236298 -74.228806 -250.466431
46.929672 -72.277023 -245.802139
-79.758362 -75.245689 -252.708221
-102.380829 -69.785187 -252.550903
-99.067871 -74.212250 -251.829910
-119.557938 -70.275230 -250.691986
-105.459427 -70.300133 -254.674896
-105.495338 -72.421707 -255.538284
21.946821 -73.012840 -254.596786
-128.920517 -70.334923 -262.868683
-13.414227 -76.481293 -271.831451
-147.109787 -70.876678 -281.291748
-168.222946 -74.534332 -283.528351
-124.490997 -74.715309 -281.649078
-113.636276 -71.169083 -284.477997
-75.049202 -70.733673 -281.759796
-57.082855 -75.886650 -283.466125
-41.461678 -74.510063 -282.761841
-14.972417 -79.234947 -285.963348
-13.328005 -74.111984 -288.174164
-38.013706 -77.651360 -286.676270
-33.991192 -75.630692 -285.340820
-18.558023 -73.192459 -285.303375
-71.380363 -74.317978 -290.039185
-55.146526 -74.843735 -287.902771
-17.201195 -72.951218 -288.048492
-13.415099 -77.811768 -285.949280
-3.328539 -75.844826 -288.630066
2.898726 -73.548363 -288.520050
-91.778099 -74.961311 -290.163116
-139.406479 -75.636375 -292.660797
-115.960175 -75.294609 -290.073120
-153.151489 -72.598198 -292.895844
-151.565109 -74.699928 -297.359039
-146.283005 -72.612885 -297.946503
42.449253 -59.620777 -17.237816
17.800705 -64.111015 -19.497202
47.530823 -59.419510 -21.023403
45.134155 -63.450054 -30.853458
85.980812 -65.152580 -65.472549
93.943756 -67.301308 -69.003326
99.665855 -65.621712 -73.250069
96.784798 -66.785797 -78.577209
55.235767 -66.727295 -84.987297
44.031822 -70.696922 -86.670158
61.901108 -64.925896 -86.395523
-66.555367 -61.175926 -90.473625
69.354530 -65.427399 -83.329758
99.597427 -61.134605 -94.351364
73.181473 -67.513222 -96.488968
92.989662 -66.220604 -97.798782
-85.867485 -64.665810 -100.844109
43.795296 -65.055115 -93.984650
-87.817505 -64.982338 -99.664124
49.886047 -68.188446 -105.996437
36.354668 -71.192703 -99.237267
100.835716 -66.530060 -98.424751
35.897888 -66.073891 -101.881638
41.393456 -68.141068 -114.327255
41.512764 -66.592293 -108.903831
108.853867 -66.827957 -107.454926
-82.532257 -68.694923 -118.707191
111.011787 -71.872574 -118.790413
38.950237 -64.009293 -120.812416
39.369740 -66.438889 -116.145264
33.806984 -67.467255 -116.802544
-56.913094 -69.797112 -126.410065
29.032030 -66.254906 -119.518875
-78.392746 -64.178612 -135.241455
-56.492935 -69.130981 -129.498764
-80.530586 -63.597176 -132.361450
34.486691 -65.823280 -126.785797
-60.728764 -66.982910 -130.678223
34.050159 -67.058540 -129.362579
-72.982391 -64.240395 -137.001663
-60.238987 -64.022041 -138.005112
24.639698 -68.808365 -138.657745
109.799667 -72.311234 -137.997192
114.235588 -65.742027 -132.335938
29.665409 -68.147858 -137.515366
-49.278290 -67.803345 -137.137268
105.863884 -68.175911 -147.412857
-76.597412 -65.979034 -140.412384
-59.677967 -66.449196 -139.434326
30.652599 -64.678825 -143.655258
-78.590950 -67.514915 -143.453445
-71.623055 -66.538666 -147.531006
113.813766 -73.714531 -144.369965
-65.592163 -66.367027 -152.338181
-40.281498 -64.750351 -149.267517
24.677261 -66.752167 -142.154846
-74.245529 -66.730095 -143.332535
11.379207 -67.759666 -146.048264
30.896194 -68.400734 -152.979401
30.005241 -66.371460 -146.387421
14.152628 -72.655090 -150.135971
-50.927467 -68.579681 -150.193771
23.731113 -69.890846 -149.200668
-47.211124 -66.207504 -147.210617
3.716402 -68.468964 -150.404831
19.427156 -67.570175 -146.182724
-69.858437 -66.378174 -154.701477
-47.611618 -64.517868 -151.253143
-69.190636 -66.328094 -151.045654
17.166695 -67.619293 -154.737000
23.169783 -67.598228 -146.275482
1.583398 -68.791885 -160.900803
20.289463 -68.352432 -149.756317
29.822556 -69.160683 -163.220383
-48.306805 -69.007713 -160.139847
-37.888351 -73.881180 -159.757324
-41.859890 -68.465179 -157.706284
26.798813 -69.224953 -154.759125
-45.201939 -66.365036 -163.826859
-40.715950 -66.615562 -163.357117
20.402122 -67.900597 -161.989716
-40.763573 -69.031296 -172.052338
27.035202 -66.169914 -166.359711
110.728516 -67.828377 -160.160080
-34.458309 -68.363747 -168.825470
101.855392 -68.860550 -168.552139
-35.460228 -68.342957 -174.242783
-38.326393 -71.712433 -178.089691
20.196169 -72.463387 -173.004807
104.938263 -71.978859 -177.118439
-32.314289 -67.558723 -179.746948
-36.073551 -68.171890 -174.344879
-24.083015 -72.787079 -183.296280
-149.826950 -67.786003 -187.016846
12.087766 -69.675987 -179.608383
104.211487 -70.740997 -186.314941
-159.689728 -66.870918 -191.332336
-23.719090 -66.660423 -186.335678
-116.367195 -69.890205 -194.989914
-131.543091 -69.286636 -193.418030
-108.571838 -69.073280 -197.409866
-114.310547 -67.700180 -197.977417
-13.069529 -70.934288 -192.830444
19.393410 -69.585495 -192.307266
-16.411242 -66.813919 -198.627335
-127.335686 -68.552666 -203.413666
-21.433754 -66.779495 -199.811005
-129.976227 -67.229538 -200.879898
-16.097996 -70.407997 -196.798981
-146.692276 -66.877602 -200.970169
91.258698 -68.946541 -201.938629
-165.081802 -62.943275 -200.056320
-3.269889 -73.075943 -214.138336
10.876919 -72.420868 -206.042206
9.798311 -73.730766 -213.122772
82.155624 -72.919937 -212.071579
7.974801 -72.370056 -209.257950
12.135916 -70.688148 -211.006653
-16.379059 -74.278885 -212.261688
-90.958961 -70.007095 -211.863266
-98.458397 -69.715401 -214.100021
-0.419350 -70.532288 -215.538910
-166.884644 -70.450676 -220.193542
14.740082 -69.872826 -215.900085
-145.011444 -68.350861 -219.358353
12.583208 -72.419426 -221.119736
-135.020218 -70.706680 -222.735397
-116.268105 -70.798119 -224.856277
16.363400 -71.201042 -217.074615
77.978256 -73.137863 -216.773132
6.360256 -71.897430 -219.737595
-110.149231 -69.462860 -228.590118
72.001633 -74.255180 -223.226685
83.665947 -74.721741 -224.759277
-125.436073 -69.889992 -232.919617
-117.321274 -70.015495 -228.181137
-10.307932 -68.721413 -224.452835
71.673332 -74.248070 -226.831131
64.360435 -74.102455 -228.730698
72.974098 -72.978065 -224.987823
-135.441681 -66.607208 -232.219513
69.863968 -74.655350 -227.799179
65.956841 -71.518639 -230.994781
-166.385773 -67.707428 -228.935516
1.132549 -79.058670 -236.921097
19.135538 -74.251175 -235.534561
-6.164214 -70.087120 -237.239471
15.644998 -68.125359 -235.719269
65.984543 -74.766777 -233.640076
8.789808 -71.269951 -239.724213
-11.012522 -66.670212 -237.604904
-0.705902 -69.446465 -233.999832
64.756683 -74.669533 -237.972214
2.877527 -73.405197 -238.854034
-7.170714 -73.474571 -239.535187
14.064186 -75.462585 -238.949280
-167.671707 -71.224060 -239.372559
55.888096 -74.449020 -242.914627
49.959007 -68.754387 -246.888657
58.005089 -74.642998 -238.428436
-12.249084 -71.213058 -244.499268
57.041893 -73.883766 -241.363083
-73.972931 -71.354767 -247.110275
50.649189 -74.500534 -244.373138
-88.807816 -71.496017 -249.891708
-123.250031 -72.337067 -254.394470
-132.456100 -70.843445 -250.835739
46.000114 -75.725975 -247.570297
-132.666733 -73.373108 -250.945450
-109.205650 -69.678024 -252.807327
-116.051254 -69.208992 -255.274368
-83.807457 -72.286102 -251.977585
-110.966614 -69.918434 -256.868927
-124.105087 -74.723808 -260.030945
-146.373535 -68.910378 -265.784485
-15.235115 -72.415138 -262.200989
-171.314087 -72.705482 -262.690674
-14.456077 -73.621758 -270.297882
-158.860184 -67.939453 -265.639862
-152.564621 -71.777794 -271.519897
-169.752258 -71.384773 -275.825867
-14.069220 -74.519928 -275.812775
-130.018250 -74.767151 -280.856567
-157.786545 -71.838585 -284.380402
-143.753265 -71.152580 -279.000397
-134.751572 -75.006432 -278.232452
-7.894619 -69.203926 -281.170685
-125.725868 -75.968193 -281.007416
-140.768417 -70.384056 -283.659485
-115.563881 -75.702911 -283.220093
-78.724518 -71.803452 -285.361725
-60.499069 -74.592484 -284.029419
-6.808522 -75.950829 -284.165466
-53.701321 -72.834831 -282.705444
-56.940460 -71.815567 -285.710754
-70.127510 -72.213226 -287.525482
-87.758698 -72.862030 -291.143280
-94.764793 -71.168877 -286.507111
-160.051926 -71.418602 -289.670868
-160.822113 -73.315956 -291.826294
-124.397804 -75.828384 -291.473999
-144.369705 -72.961380 -292.942749
-152.728760 -75.318977 -301.661957
-150.072922 -75.888206 -310.025787
45.465511 -59.685219 -10.854712
14.386535 -63.000751 -26.165857
39.720135 -58.750931 -31.018837
-17.510468 -65.793159 -62.989174
79.835915 -62.581234 -60.900326
86.755173 -60.622829 -61.776474
75.857979 -67.328491 -61.029217
70.759094 -65.598351 -64.937607
89.259674 -67.335823 -70.368279
-97.991745 -58.394489 -68.128609
65.915031 -65.223701 -71.188904
-38.426304 -63.915535 -74.326645
97.124886 -65.578964 -81.329887
59.770260 -62.662613 -86.407837
105.310265 -70.529839 -88.762581
99.801659 -69.728546 -93.633858
70.651466 -65.749611 -96.390846
-81.802322 -62.177406 -99.056328
52.717884 -65.684418 -100.176956
105.527611 -64.166016 -101.505585
45.490398 -66.675476 -108.373840
78.285057 -65.130791 -101.121429
40.021549 -65.291725 -103.547150
102.587860 -66.127106 -98.628632
45.944443 -65.201675 -103.829567
105.555283 -71.543762 -104.986572
108.491478 -69.805634 -106.473633
-80.952034 -61.986591 -111.715042
-84.442970 -62.386673 -116.931435
42.353989 -69.210922 -115.925667
112.255989 -69.040512 -116.459435
112.189415 -67.300842 -118.844398
-88.688690 -63.516472 -124.535355
104.464394 -69.350494 -121.002899
-60.836582 -69.243217 -128.763275
-87.636566 -64.732941 -124.774940
-74.010239 -64.804619 -124.480774
-60.603252 -61.127018 -124.157944
30.192869 -66.193863 -126.346115
41.008999 -65.397087 -130.815216
-74.500031 -64.759056 -133.960938
27.335276 -64.625153 -127.230576
110.368355 -68.478859 -138.142685
-41.418976 -66.278183 -145.217392
29.128939 -68.246643 -144.940079
112.659035 -67.166443 -142.980637
34.240051 -67.749275 -138.799118
109.064163 -67.146019 -136.120102
-53.563370 -66.311142 -146.450806
-72.436226 -63.344959 -148.396103
-56.314236 -66.658737 -149.624557
-43.200623 -70.389458 -161.712494
3.520065 -68.609573 -152.204453
108.635361 -69.162788 -148.720932
107.842880 -69.129814 -154.848236
8.911899 -66.900803 -153.819107
2.203384 -67.627182 -157.718185
18.074554 -66.807632 -151.530518
24.514292 -66.363663 -151.894302
107.674622 -69.122063 -160.858887
108.471962 -72.687370 -162.752838
23.016180 -66.002960 -170.682251
23.878593 -70.073654 -159.871506
111.153244 -67.514725 -157.262405
-30.015879 -66.704994 -173.998047
109.164444 -69.881317 -162.934097
16.492870 -68.605232 -163.810028
20.598719 -68.074020 -163.919937
107.550407 -70.073662 -168.042252
25.756807 -67.564056 -166.548721
111.435516 -69.835632 -178.879990
-39.182297 -67.050758 -174.598206
24.131674 -68.018013 -167.268494
106.629158 -70.283455 -179.057541
22.181316 -69.725655 -174.667084
-152.630829 -64.779472 -184.697083
-28.950766 -65.512291 -186.212387
23.789406 -67.054024 -181.136215
-114.525482 -68.496788 -189.495590
-111.563354 -64.744476 -189.116241
22.972782 -69.783005 -184.636230
10.870136 -67.016167 -181.401962
-27.620838 -65.944298 -187.064102
-30.485579 -72.120079 -185.753433
-28.817030 -68.626976 -183.895889
13.953632 -66.679459 -176.335190
-151.549484 -66.561478 -193.203873
-146.069626 -66.227844 -190.932053
-145.103210 -69.714363 -196.221558
-23.661072 -67.646118 -188.102844
13.006252 -67.471382 -195.920074
98.114014 -69.910294 -188.678726
-114.375160 -66.266983 -196.106186
20.520840 -72.877609 -194.345917
-16.016056 -67.863716 -192.187912
-18.388962 -68.393173 -195.362473
100.292709 -69.933052 -194.859940
7.221995 -71.324852 -195.497162
-22.642677 -67.139374 -193.236237
-122.013138 -70.368912 -200.720779
-134.796036 -67.399155 -201.221390
-114.607582 -63.347797 -202.873657
-142.830826 -69.856407 -201.267242
16.821930 -69.185501 -193.987274
93.127640 -72.287064 -197.143524
-166.479431 -62.209183 -199.998062
99.342514 -70.835083 -197.490936
-22.300745 -72.873482 -202.526550
94.062523 -69.512871 -206.004150
87.481270 -72.858261 -206.877136
11.497695 -71.537659 -202.173386
19.232321 -69.750160 -208.225662
12.294643 -67.206398 -204.285141
-11.307841 -70.672852 -218.924088
-94.919044 -70.609680 -215.987152
-11.012310 -71.836258 -208.727631
88.539360 -71.955940 -211.729416
-94.052917 -70.780128 -215.045410
-101.538055 -66.508598 -218.893875
-94.911469 -69.381851 -216.956009
87.748985 -73.596214 -217.328568
-135.689117 -68.763145 -223.084427
-132.886353 -72.311844 -224.429398
-117.050148 -68.546951 -222.567520
-113.482277 -66.044067 -221.030426
-133.691910 -67.091949 -225.206451
-112.185562 -75.403847 -224.841278
-112.570122 -68.767723 -225.753647
-7.335245 -73.724419 -220.983597
-16.408911 -72.539391 -219.668427
-1.295956 -69.051102 -226.994080
-10.502729 -67.861534 -223.701462
15.053507 -72.171509 -229.739319
-19.193455 -68.962624 -225.869553
-167.232025 -66.100960 -220.677246
-4.428938 -71.079979 -229.951492
80.500229 -69.700035 -226.883148
10.615952 -73.124168 -229.876740
-6.190200 -70.438354 -231.319916
-157.094269 -66.408409 -234.803635
-142.594223 -67.123695 -228.512100
62.309254 -71.161148 -231.702744
-5.985719 -72.038391 -230.571808
8.925159 -73.207710 -226.957733
69.031525 -74.376793 -225.837143
76.630531 -72.977104 -229.869492
70.772621 -73.969063 -236.953323
-1.916233 -74.034943 -232.003326
57.791203 -70.819069 -233.836044
-19.310720 -73.702171 -236.234604
-15.480875 -69.027351 -237.106201
7.969858 -71.551399 -235.700470
64.448143 -75.691307 -233.447372
65.211685 -71.275459 -236.443344
49.418549 -72.956482 -241.986511
60.851067 -75.818825 -238.321503
-15.751662 -76.156525 -246.009750
-83.651497 -68.289230 -251.635635
-76.927094 -68.907822 -250.293671
44.040108 -75.483810 -243.563492
-149.267944 -70.615517 -248.651413
35.920147 -73.046936 -252.235077
-92.216469 -73.997955 -249.134796
-156.269073 -65.949249 -253.005096
-140.322800 -63.774811 -251.578094
45.053925 -72.900856 -249.433060
-124.975151 -66.529739 -255.837509
-116.962471 -70.555687 -253.016068
-92.367218 -66.937569 -254.697174
-13.789008 -68.726379 -247.111832
31.801897 -72.720787 -253.269226
24.935137 -70.505173 -255.717300
-158.914322 -65.502922 -258.672607
-114.799149 -73.313820 -260.178741
-13.945962 -72.135658 -258.506744
-132.767334 -70.315376 -263.229553
-14.064839 -71.659851 -266.903229
-164.789276 -69.560371 -270.735870
-7.197951 -74.406921 -275.872131
-160.662445 -71.488480 -285.893097
-163.767532 -72.405418 -275.948975
-142.425323 -71.573105 -283.111053
-170.026337 -72.764633 -282.770721
14.180161 -76.462509 -284.064728
-102.999847 -73.123909 -283.978424
-86.950020 -68.362312 -283.527802
-167.561386 -68.148277 -282.913513
-91.944321 -75.983093 -281.169983
-153.521637 -71.782219 -286.485535
-75.259972 -73.889885 -290.749359
-70.444138 -72.147362 -285.888000
-82.347885 -73.744553 -288.522888
-3.495939 -71.467819 -285.479553
-87.850639 -72.462990 -285.966675
-98.830330 -73.809387 -288.298615
-116.461617 -72.535034 -290.279358
-116.330582 -69.592133 -290.572876
-133.962967 -71.266678 -290.058929
-142.533707 -72.415047 -298.692902
-143.875977 -74.193367 -309.573120
21.516912 -57.775604 -11.700976
29.948072 -59.193203 -12.795777
26.954710 -61.868320 -14.538069
41.847881 -58.352913 -16.893250
22.681023 -60.422089 -28.073101
-76.922951 -57.719570 -44.637917
87.881134 -59.182655 -61.352352
-19.434736 -59.716724 -64.461929
100.846230 -62.886543 -68.405144
93.249825 -67.696861 -70.942696
66.749969 -65.012657 -74.244499
68.503853 -67.098915 -78.242615
-46.414108 -65.018112 -79.364258
59.406048 -66.987701 -78.120979
-96.049187 -61.589108 -85.943260
-50.832855 -59.659122 -82.510582
-57.642651 -68.463860 -84.423859
99.346191 -70.553543 -92.700394
57.555454 -67.283577 -87.996300
64.276947 -63.553020 -86.874298
-97.160759 -56.368847 -94.844505
106.229614 -66.521759 -88.344040
42.586239 -63.006824 -95.068626
99.868797 -64.998192 -93.523788
105.318138 -63.726719 -101.423561
99.788017 -65.923676 -99.908127
72.311958 -67.099243 -96.297264
85.806786 -67.490044 -101.975990
48.609699 -64.824120 -107.170082
109.183296 -63.585350 -98.986427
44.695927 -67.202240 -101.301743
39.090397 -62.521908 -97.748756
111.324013 -66.493958 -105.573524
-79.889503 -59.854668 -107.210205
44.728462 -64.225632 -108.910660
33.361164 -66.850555 -111.076729
104.082367 -63.703400 -105.536438
38.059654 -62.053928 -107.726532
-89.417717 -62.017834 -110.395927
-96.853203 -59.507725 -112.543434
102.669579 -69.512512 -114.284363
-96.096039 -63.874954 -116.125954
37.640209 -67.311554 -117.219650
35.673996 -64.935730 -116.860321
-84.649208 -62.683876 -121.652916
31.282213 -64.113846 -130.889481
109.641335 -68.483932 -126.371376
-53.740253 -63.955341 -133.113708
-89.374268 -62.162777 -129.158554
36.707138 -68.995270 -127.524002
-90.122169 -59.333645 -133.561554
-90.002991 -65.740318 -136.950119
-50.783596 -65.479500 -133.747086
-71.882576 -62.219254 -136.858978
-51.814018 -63.160358 -130.536240
114.348114 -64.980232 -132.856522
-74.344360 -65.227501 -133.995697
35.342411 -66.053612 -127.336121
-79.723618 -62.813675 -137.522507
-74.423882 -63.440613 -133.046295
-92.396141 -61.628384 -137.714615
-54.812645 -62.635284 -144.194962
30.499613 -62.563606 -142.091766
26.587658 -64.761208 -145.753891
18.208405 -61.485241 -140.827591
111.813408 -67.332451 -141.518326
-94.388588 -62.692978 -150.038528
12.039398 -67.773445 -148.615433
-72.823708 -64.067764 -150.582809
22.526344 -65.411079 -146.008820
-50.027092 -64.148148 -152.459061
8.672806 -64.898415 -149.662674
14.196058 -68.911324 -154.544662
16.908798 -71.069611 -159.902252
-49.753815 -67.427536 -159.421600
-40.056347 -64.353592 -151.772842
-47.205944 -65.822426 -157.964935
-104.392105 -65.412270 -169.474579
21.017763 -68.525322 -170.174591
-35.434341 -66.231102 -172.780045
14.716248 -71.185883 -174.359467
-144.291046 -64.335060 -173.738815
-32.892612 -63.459446 -169.758804
-155.734695 -68.632271 -175.697525
22.874578 -63.811615 -178.200928
-33.668365 -67.238411 -168.219742
-108.293404 -63.504734 -175.380707
-107.785027 -69.440483 -180.901657
-30.509842 -62.779240 -182.198486
-24.316063 -70.813789 -178.242340
13.436561 -67.156776 -185.596497
16.536154 -66.219643 -193.571930
13.281534 -67.851707 -183.237671
-143.392532 -63.954029 -185.505173
21.078661 -64.935692 -186.310333
7.069659 -68.191460 -193.084473
-137.549576 -63.982834 -192.421082
-114.807243 -65.576904 -193.095642
14.482223 -67.132767 -197.524933
-116.800743 -64.881439 -194.532745
-108.195801 -61.278072 -190.018494
-165.769592 -66.461716 -198.248062
-24.737143 -66.875114 -196.755554
12.481542 -67.146851 -196.604568
-143.373917 -66.061073 -201.916962
-136.182846 -67.896263 -204.155731
-20.451380 -66.702942 -204.016968
-12.329664 -69.392952 -201.038589
-15.178965 -68.953232 -202.494156
-141.253769 -69.050095 -202.225922
-16.856951 -69.005966 -209.483353
-10.842850 -72.441200 -210.620972
17.256695 -66.782600 -207.362198
-15.250221 -71.907875 -207.897552
10.138349 -69.308960 -206.345245
-10.687981 -69.830238 -212.081940
-21.271261 -66.072105 -208.766449
12.364871 -73.978310 -217.040070
-1.899198 -74.074821 -215.961166
11.042955 -66.363983 -217.663559
-6.236044 -71.603821 -223.260422
-158.948013 -67.300758 -223.452896
80.547195 -73.141098 -215.526749
-135.378555 -65.269684 -222.388062
-135.224304 -68.653160 -220.989395
-8.591412 -70.254997 -221.712540
8.475834 -70.154640 -230.161484
-156.987839 -66.638092 -227.738190
87.823624 -69.775467 -215.542816
-2.296094 -68.543594 -222.260651
0.425060 -70.266159 -219.370834
73.832672 -73.865036 -224.833145
0.598850 -68.097176 -231.394501
-14.896870 -71.379402 -223.644516
-126.519432 -66.273979 -232.239243
-4.301902 -69.990097 -233.374680
2.411261 -67.999474 -228.488953
66.027840 -69.825119 -234.072449
-158.256927 -68.618240 -236.391296
-12.440740 -69.989914 -241.286606
-169.115738 -69.452904 -237.037582
9.919823 -68.164169 -238.532944
-164.574020 -68.060440 -237.240585
-160.702118 -69.114044 -244.272873
57.065205 -71.771774 -241.047089
62.252346 -73.110641 -238.341858
56.169113 -72.307327 -240.274994
51.813473 -71.865273 -244.802643
-155.393494 -68.510170 -242.195770
-156.365097 -65.708588 -246.794159
-13.316444 -73.519699 -245.850739
-151.295349 -67.599007 -244.919479
19.717018 -72.856934 -247.352249
-169.687225 -72.374405 -249.210449
-167.486923 -66.169220 -246.779358
-82.077576 -70.815979 -246.210327
-169.234222 -67.981346 -258.212463
-85.230728 -69.389084 -254.166382
42.643463 -71.176842 -249.246002
22.328915 -75.030128 -252.304962
-158.478104 -69.448524 -260.085663
-100.552025 -64.306404 -257.514832
39.364826 -72.298378 -251.765686
-104.783150 -75.637985 -256.388611
-153.788773 -64.784889 -263.368103
-105.018097 -68.480980 -256.220917
-167.698639 -70.275040 -257.927155
-112.922180 -70.649696 -261.036469
-153.086914 -71.050423 -263.858185
-158.325836 -67.263519 -261.921356
-165.821869 -68.043182 -262.163055
-163.838242 -66.973701 -260.746765
-165.479263 -68.797127 -264.082825
-165.519073 -69.227509 -261.036774
25.961975 -73.582092 -261.375031
-149.684067 -72.177208 -261.686188
-149.370605 -69.668457 -282.388062
25.017893 -73.795525 -272.555725
-11.405657 -73.798576 -270.970245
-125.382957 -69.326111 -282.359009
-135.950150 -71.418297 -284.044098
-134.004044 -69.660156 -286.555267
-126.452370 -71.207840 -283.780518
-113.893486 -69.952927 -287.718872
-104.864067 -67.720581 -283.397339
9.694576 -76.301147 -288.636078
-84.578133 -72.340408 -287.332062
-148.695984 -70.997292 -286.463562
-101.275795 -71.556946 -288.337189
-128.756989 -68.516113 -289.945465
9.954087 -75.777649 -284.375427
-111.520767 -66.132339 -287.095215
3.343285 -73.719643 -289.563873
-142.767548 -70.060043 -286.911041
-152.485748 -71.233528 -294.113800
-157.342896 -71.200562 -312.381561
-154.568039 -70.731880 -310.062836
45.651897 -62.012375 -20.713219
21.250462 -60.213993 -31.910961
28.749331 -61.302860 -32.903156
-46.865925 -61.307220 -44.550392
-14.479612 -58.854729 -59.121201
92.507744 -64.082489 -63.951916
66.970268 -58.523914 -65.704948
-25.911417 -60.975342 -71.320984
-99.686493 -64.059654 -83.884911
-44.143234 -61.159557 -79.654556
59.881248 -62.258972 -77.438530
60.541397 -65.554955 -81.775467
51.895626 -60.931992 -83.725700
-60.460186 -60.050121 -87.627022
65.267929 -59.768642 -85.377708
42.092545 -66.576500 -93.846367
66.885925 -65.314743 -90.453453
-63.757141 -59.563553 -93.403419
48.539490 -65.124969 -89.146561
44.134991 -65.083580 -94.406021
101.866989 -61.971050 -96.142685
-67.991112 -61.291176 -96.200310
109.085854 -64.189156 -95.763580
-80.533272 -63.241371 -98.455276
52.992928 -66.489655 -100.830635
46.529961 -61.894363 -96.858490
90.381592 -62.837738 -99.472893
83.069496 -63.097618 -102.359543
53.339237 -63.812172 -100.528992
-77.685890 -62.363361 -108.435654
-78.141037 -61.185207 -112.363327
-81.704102 -63.239002 -115.699913
-94.563286 -66.414215 -115.777924
103.624428 -60.511604 -112.153450
-89.722145 -64.203705 -116.390915
-77.889778 -58.752926 -118.805916
108.206070 -64.255737 -111.434731
-62.769413 -55.156433 -115.634262
112.457489 -69.570969 -126.519310
108.805855 -67.480080 -124.647255
106.011673 -66.885460 -121.082703
-94.548439 -63.230907 -135.264496
-48.091675 -63.776390 -138.797134
-80.135857 -61.411465 -141.933624
-70.307106 -63.792980 -146.207687
-71.228905 -62.363247 -145.249664
-56.188984 -63.117817 -140.738434
-48.022038 -67.652283 -142.789520
15.367122 -65.296242 -142.676758
-95.129196 -60.079033 -140.543686
-46.686516 -62.749615 -144.311722
-53.047047 -58.286678 -145.003098
-42.989685 -62.834122 -151.855743
26.627197 -68.304985 -157.910797
-51.002701 -64.541954 -147.966553
-101.326233 -59.305958 -147.235214
-46.184025 -61.843182 -153.902847
24.678272 -67.351006 -144.242050
-99.449890 -68.661102 -160.301376
21.778395 -67.876167 -153.750580
-108.366150 -61.547188 -167.603729
-101.897018 -64.210327 -161.213379
21.373209 -66.102295 -161.138153
25.421312 -64.845055 -164.081192
-109.065254 -66.387299 -171.165955
-142.751678 -61.780491 -172.718826
-20.389257 -67.159271 -185.999619
-28.039240 -65.443024 -178.453644
-115.911560 -66.059753 -184.630341
-144.262131 -60.117943 -185.287796
-103.973213 -62.236446 -179.348251
-158.528061 -64.441879 -188.719910
-131.771790 -69.029724 -192.931122
-133.699524 -66.891090 -194.019089
-20.348091 -65.105171 -186.155426
-120.766838 -65.913658 -195.753021
-117.365112 -62.284672 -196.900223
-27.442291 -68.787491 -191.194778
-154.709335 -62.430733 -196.184601
-132.612320 -67.271645 -202.674866
-125.251007 -63.554367 -202.469650
17.670301 -70.044113 -197.945633
-162.347229 -64.298874 -201.483398
10.963227 -67.761826 -211.609161
13.630404 -69.736969 -210.887283
-17.282789 -64.465050 -205.814911
-5.301698 -68.606606 -212.843231
-170.268768 -62.539898 -208.826172
-159.292679 -62.126137 -211.362854
-94.925369 -66.681915 -215.990799
-98.826385 -68.530533 -220.257599
-161.104111 -66.442085 -223.410278
-106.670578 -64.945358 -217.058502
-12.328333 -66.669502 -210.847427
-127.650810 -68.042915 -220.143402
-142.289810 -66.931953 -222.103867
-3.364017 -70.163940 -217.700180
-134.430542 -64.930595 -222.851959
-123.992035 -70.387657 -220.880554
-114.539993 -68.817284 -222.416656
0.271294 -64.617035 -224.800919
-107.337418 -65.844337 -228.444992
-160.524200 -60.866840 -221.507263
-146.784775 -65.450310 -224.971115
-165.550766 -65.329758 -223.545502
-8.096017 -68.442223 -223.246078
-8.519517 -69.399628 -229.092239
78.214325 -72.635384 -220.920227
-0.293452 -71.102516 -225.838303
-143.019745 -66.706482 -234.302475
-14.351984 -67.434677 -225.862076
73.901405 -70.867897 -223.627151
74.549950 -71.253166 -228.658890
-134.636887 -65.482773 -230.550568
-157.554321 -68.610886 -226.579987
-114.254234 -65.959656 -230.788986
-124.696220 -63.150940 -233.767548
-163.727081 -65.159935 -233.293549
-160.149948 -66.878204 -234.001648
-146.729095 -63.185551 -232.517166
-12.817053 -68.339256 -231.970047
-5.219279 -69.094200 -236.990387
-160.693924 -65.301888 -239.078690
5.396944 -70.646400 -234.507126
2.761681 -70.380722 -233.007416
-160.102142 -66.373199 -237.167099
16.696787 -73.925270 -238.277161
50.740456 -73.330093 -241.069443
50.531788 -73.223328 -240.110657
-15.979094 -70.905670 -243.487686
48.251907 -70.097099 -245.080032
