-23.108140945435 -69.871704101563 -193.847518920898 2.406375169754
99.619323730469 -72.832366943359 -190.054748535156 0.940820097923
11.142584800720 -69.826568603516 -190.426269531250 2.502262353897
-138.761672973633 -71.827674865723 -203.348831176758 1.540806531906
-140.632888793945 -71.851844787598 -199.513275146484 2.233216285706
98.444633483887 -74.357704162598 -203.128341674805 2.772676229477
-13.721833229065 -75.584793090820 -201.170593261719 1.169890999794
-18.196455001831 -72.927047729492 -203.677230834961 2.207767009735
8.680389404297 -73.907806396484 -208.317932128906 1.577249050140
-151.891967773438 -70.564956665039 -205.427474975586 2.091599941254
-148.129821777344 -73.415260314941 -207.629180908203 1.740660071373
98.225242614746 -67.972099304199 -206.405960083008 2.794355392456
-84.071258544922 -71.646781921387 -208.294387817383 4.147869110107
-37.869110107422 -72.633949279785 -202.187286376953 1.780379533768
16.896112442017 -74.475860595703 -214.372360229492 1.769470810890
-27.100282669067 -72.491058349609 -211.752059936523 1.876994967461
-78.413253784180 -70.498565673828 -208.038818359375 3.078996658325
89.116027832031 -71.970550537109 -211.397064208984 1.176396965981
-82.335952758789 -69.777137756348 -212.508300781250 3.160054445267
-149.318939208984 -72.444206237793 -218.173080444336 2.444709300995
-81.886672973633 -70.833030700684 -213.387908935547 2.142378807068
-15.139182090759 -67.585060119629 -210.615158081055 1.902696132660
-22.630157470703 -69.640510559082 -219.575683593750 2.404154777527
16.583499908447 -71.875793457031 -214.317977905273 1.572808146477
-7.454894065857 -73.327560424805 -220.326828002930 3.426644086838
-90.227638244629 -75.107093811035 -218.911880493164 1.917052745819
90.702087402344 -71.154678344727 -215.329452514648 1.966265916824
-100.328063964844 -71.128257751465 -215.632461547852 2.328325033188
-154.246994018555 -71.337387084961 -223.579635620117 2.025826454163
-27.191474914551 -71.003234863281 -224.289703369141 2.136519432068
15.825876235962 -72.432075500488 -217.052536010742 1.418663978577
-104.002838134766 -72.139785766602 -219.942474365234 0.901524186134
5.431036949158 -69.018318176270 -219.776763916016 3.253605604172
-27.603223800659 -72.051147460938 -216.233062744141 2.934476137161
80.854263305664 -70.310432434082 -225.817382812500 0.974653303623
-147.282119750977 -71.342864990234 -218.719024658203 0.543537855148
8.303112983704 -70.641700744629 -226.731430053711 1.431162595749
-11.503260612488 -74.824600219727 -226.476837158203 1.558050394058
15.495803833008 -66.295906066895 -223.510345458984 3.203984260559
81.632575988770 -72.673789978027 -223.911148071289 2.386267662048
-15.644973754883 -74.094474792480 -229.260635375977 0.789643704891
-132.585815429688 -73.103515625000 -226.237228393555 1.578878879547
-15.857004165649 -72.109367370605 -225.191299438477 1.890084147453
14.676022529602 -72.293563842773 -232.133193969727 1.926393389702
-128.753402709961 -73.979682922363 -226.954879760742 2.332582473755
-153.671936035156 -68.959625244141 -229.057205200195 1.586012005806
-144.455139160156 -70.989036560059 -228.480438232422 2.127328872681
-132.946029663086 -70.180328369141 -227.580642700195 2.404189109802
-15.172244071960 -69.949623107910 -225.957382202148 1.909205317497
69.795845031738 -71.495826721191 -229.694305419922 1.995236158371
-145.424942016602 -68.590858459473 -235.852355957031 0.687299072742
68.730773925781 -72.880485534668 -230.259887695313 1.590914487839
-22.516214370728 -74.997016906738 -230.306442260742 4.136599063873
-144.327529907227 -75.121330261230 -228.911590576172 0.954201161861
75.268928527832 -76.439117431641 -230.415466308594 2.058924674988
7.605065822601 -75.550224304199 -234.409851074219 2.213159084320
-143.729217529297 -75.961456298828 -234.859100341797 1.294050574303
-152.175750732422 -70.994979858398 -233.394287109375 0.936320781708
14.754515647888 -68.720710754395 -232.471466064453 1.480223894119
-4.844407081604 -74.130645751953 -238.509567260742 1.171112418175
-29.837303161621 -71.304153442383 -237.798156738281 3.944407463074
-3.796889066696 -67.998435974121 -238.438964843750 2.108855009079
-162.937530517578 -73.892799377441 -237.129882812500 2.889315843582
5.739596843719 -70.727638244629 -244.458969116211 3.075163841248
-166.885360717773 -72.388099670410 -238.137115478516 1.318267583847
-14.952637672424 -72.937545776367 -238.414276123047 0.859479665756
59.363582611084 -72.531227111816 -240.601058959961 1.544077396393
-15.246401786804 -70.915588378906 -238.844940185547 1.893451452255
-27.111339569092 -71.033592224121 -244.993728637695 4.593813896179
-27.207624435425 -71.295410156250 -242.393402099609 2.814815759659
-15.034181594849 -73.933319091797 -241.599899291992 1.784230828285
-148.418701171875 -72.176803588867 -230.555130004883 1.828511357307
5.882843017578 -71.099670410156 -243.247085571289 2.513083219528
62.032630920410 -71.265342712402 -245.103485107422 3.481217861176
12.473768234253 -69.691162109375 -246.109542846680 2.405730962753
-168.177673339844 -70.246780395508 -240.955947875977 1.269828557968
-52.681949615479 -70.750785827637 -241.194351196289 4.243781566620
1.708173036575 -78.340049743652 -249.010253906250 1.451285481453
14.780768394470 -71.785606384277 -245.239990234375 2.034030437469
-56.456073760986 -71.026405334473 -247.568634033203 1.095316052437
-5.092202186584 -67.930152893066 -249.107162475586 3.528903007507
18.688568115234 -76.408805847168 -248.974121093750 0.903896391392
-171.399734497070 -69.995674133301 -248.127746582031 5.236676216125
-69.821464538574 -74.834877014160 -248.407379150391 1.613951325417
-53.821434020996 -70.587341308594 -247.801620483398 2.804415702820
-83.392982482910 -70.754684448242 -251.470306396484 1.642791152000
-163.256546020508 -72.573623657227 -246.400558471680 0.925958573818
-153.032211303711 -66.005897521973 -249.088562011719 2.990382432938
-62.371486663818 -73.391380310059 -249.990432739258 0.727405071259
-71.034317016602 -71.491271972656 -250.209915161133 1.317695379257
-155.922821044922 -69.796371459961 -252.224044799805 1.315729379654
-154.319351196289 -72.365379333496 -251.838058471680 1.580947995186
-78.176910400391 -68.595420837402 -254.614791870117 2.012562513351
-95.762626647949 -69.228576660156 -255.299377441406 1.811881780624
-166.693984985352 -67.172714233398 -251.684646606445 1.290679335594
-159.190216064453 -71.794311523438 -259.239532470703 3.306682586670
-137.156066894531 -73.007324218750 -257.973419189453 2.538402557373
-85.425926208496 -71.569114685059 -251.517471313477 1.398240208626
-164.476150512695 -68.888397216797 -252.417098999023 2.760989665985
-144.191848754883 -69.860275268555 -256.541778564453 1.592990875244
-87.612670898438 -70.724449157715 -251.413238525391 2.126330852509
-99.075263977051 -69.407806396484 -260.409912109375 1.418620347977
-147.397842407227 -72.400901794434 -255.619018554688 1.803736209869
-95.826332092285 -71.231704711914 -256.203399658203 1.672842144966
-154.931747436523 -70.011375427246 -255.597152709961 2.162670135498
-104.654037475586 -71.063873291016 -255.606597900391 0.523451387882
-171.041351318359 -70.862045288086 -258.291442871094 3.900529146194
-163.886581420898 -72.886619567871 -262.917266845703 2.225448369980
-128.754684448242 -74.264015197754 -256.395935058594 2.298287391663
-154.052154541016 -71.653419494629 -259.031921386719 2.493598461151
-114.242416381836 -68.872047424316 -261.895263671875 3.505307674408
-16.733165740967 -70.370750427246 -262.703613281250 2.721193552017
-143.966934204102 -71.234481811523 -260.712036132813 2.510597705841
-128.222717285156 -70.869651794434 -259.954925537109 2.839501142502
-156.580307006836 -69.975181579590 -262.259338378906 1.809361338615
21.102123260498 -72.387214660645 -271.944915771484 2.620056867599
-151.189666748047 -73.677528381348 -278.288482666016 2.475843191147
-170.953231811523 -71.791275024414 -279.590362548828 4.036471366882
-10.722064971924 -71.700569152832 -280.312042236328 1.880403876305
-148.403640747070 -71.427230834961 -280.182647705078 3.768902063370
-12.101580619812 -70.186325073242 -284.046813964844 3.618888616562
10.242028236389 -71.978523254395 -287.150451660156 1.721963882446
-139.231338500977 -70.071823120117 -285.742034912109 2.564633131027
-70.879997253418 -73.245010375977 -287.300445556641 2.856907367706
-35.919921875000 -73.776405334473 -288.714416503906 1.822062134743
-115.456878662109 -71.374618530273 -284.386474609375 1.692824482918
-97.921142578125 -75.046028137207 -290.356140136719 2.724686145782
-92.243949890137 -71.784416198730 -291.590545654297 1.806615829468
-52.438671112061 -72.862251281738 -292.414428710938 2.022017955780
-118.548713684082 -75.425552368164 -288.533081054688 1.065152168274
-116.322517395020 -72.662704467773 -290.243774414063 3.117989778519
-35.682060241699 -69.273246765137 -289.879669189453 1.409029126167
-117.962921142578 -71.944320678711 -292.981475830078 1.659654021263
-129.693557739258 -67.537193298340 -290.093109130859 1.107681632042
-147.040298461914 -73.390480041504 -293.287719726563 1.814156889915
4.526861190796 -71.425987243652 -292.544952392578 1.134762525558
13.994595527649 -73.351257324219 -294.416412353516 0.682820796967
-162.538726806641 -71.428115844727 -292.414916992188 1.692633986473
-161.010391235352 -74.963478088379 -300.255798339844 4.617274284363
-149.762863159180 -72.814918518066 -310.178985595703 2.941877603531
-154.761383056641 -70.353698730469 -310.495819091797 2.671491622925
-155.372802734375 -73.015228271484 -313.196594238281 0.603533208370
28.944049835205 -73.977615356445 -16.124498367310 1.357941985130
30.845603942871 -69.306732177734 -19.511678695679 2.299337863922
21.434978485107 -71.325469970703 -25.428903579712 2.099040985107
28.806791305542 -69.104270935059 -40.491065979004 1.224154710770
-58.349487304688 -70.103500366211 -50.192356109619 2.145188331604
-65.449668884277 -70.603408813477 -50.562877655029 2.387111663818
-39.091217041016 -73.845695495605 -50.914310455322 2.547237873077
-84.794395446777 -67.349700927734 -63.163555145264 5.058623790741
80.742691040039 -74.231788635254 -75.898406982422 0.304751664400
-15.887817382813 -69.435905456543 -71.896255493164 2.448660850525
88.713439941406 -72.301162719727 -68.162132263184 2.231928825378
98.849975585938 -71.200805664063 -78.855178833008 3.231325864792
-93.076416015625 -69.278205871582 -76.491912841797 3.500595808029
67.108169555664 -71.343208312988 -82.020683288574 1.073311448097
-41.633739471436 -74.946945190430 -86.226570129395 2.962247371674
100.361877441406 -70.538322448730 -83.986457824707 2.587751865387
-56.234409332275 -69.951942443848 -89.123321533203 1.797752976418
50.402538299561 -71.827896118164 -92.014511108398 1.799592733383
70.309265136719 -76.563255310059 -92.376167297363 2.449050903320
54.805568695068 -70.680908203125 -97.799308776855 1.880517721176
52.111721038818 -73.187049865723 -100.036071777344 3.239077091217
73.731948852539 -74.570793151855 -97.330802917480 2.604099988937
45.713470458984 -71.291770935059 -106.637527465820 2.871287345886
99.686607360840 -72.231185913086 -102.685966491699 2.873454332352
105.115798950195 -75.466255187988 -108.382583618164 0.456119537354
79.231857299805 -68.917480468750 -105.162956237793 2.193650960922
91.056777954102 -72.803527832031 -105.288467407227 2.785959482193
100.188484191895 -71.817741394043 -97.052719116211 1.302076220512
108.750404357910 -72.181098937988 -105.700500488281 1.826618194580
38.794605255127 -71.523948669434 -107.481613159180 1.925943255424
111.631652832031 -69.111709594727 -120.652008056641 1.644993066788
112.881607055664 -72.958808898926 -120.889945983887 2.108667850494
30.382310867310 -70.145973205566 -124.806861877441 1.226160764694
43.846195220947 -72.784866333008 -120.263008117676 2.244926691055
114.270851135254 -72.140693664551 -132.218475341797 1.795241475105
35.272113800049 -71.144165039063 -127.965538024902 1.708156466484
114.090324401855 -75.207244873047 -129.744232177734 1.338905215263
107.836647033691 -72.661628723145 -124.400367736816 2.235825300217
25.390504837036 -72.377853393555 -136.779891967773 2.461486577988
-48.965789794922 -71.850967407227 -134.653472900391 1.304177761078
-53.140007019043 -69.870689392090 -135.634658813477 1.822186112404
110.330307006836 -71.115798950195 -136.962768554688 1.873373270035
-70.274055480957 -75.045738220215 -140.839385986328 2.168935298920
-73.875610351563 -72.117813110352 -140.683944702148 1.359375000000
-60.002201080322 -72.014671325684 -141.650711059570 2.131982326508
30.848983764648 -71.639381408691 -144.880096435547 2.989869356155
115.092765808105 -73.502380371094 -147.916595458984 1.509272575378
-70.504257202148 -68.408042907715 -147.482040405273 0.913074493408
-49.039356231689 -71.221702575684 -143.145065307617 2.008847236633
32.273658752441 -72.256225585938 -152.496948242188 2.584806680679
-69.212318420410 -72.606697082520 -148.202926635742 1.911150097847
112.963790893555 -70.802322387695 -143.304992675781 0.936295330524
110.692268371582 -70.010093688965 -159.522125244141 0.872883915901
115.192344665527 -72.904800415039 -154.961456298828 2.040791273117
-39.512065887451 -73.979522705078 -153.693847656250 1.422728419304
-65.946479797363 -71.573097229004 -164.724945068359 1.825609087944
-70.335716247559 -68.455650329590 -157.537200927734 3.930652618408
29.097505569458 -72.681098937988 -147.611450195313 1.609219789505
-3.277445077896 -73.523231506348 -163.023315429688 1.931119561195
107.972900390625 -71.376457214355 -163.548919677734 1.535803198814
110.709419250488 -70.108581542969 -154.979858398438 1.320000290871
111.108467102051 -73.979461669922 -160.336944580078 1.095292448997
-64.896270751953 -68.858184814453 -160.478286743164 3.594077110291
-46.541236877441 -73.443099975586 -165.783370971680 1.504684090614
-3.516635894775 -70.834480285645 -165.988571166992 3.557713985443
-30.522737503052 -71.771247863770 -175.597686767578 1.778788447380
104.764991760254 -70.924087524414 -169.127868652344 3.482089996338
-35.509918212891 -74.472625732422 -160.696380615234 1.298963069916
108.198104858398 -70.275825500488 -170.289047241211 1.487247943878
-43.032455444336 -72.066658020020 -174.203872680664 2.409932374954
107.431266784668 -69.649681091309 -170.552246093750 0.969360232353
-152.789138793945 -72.320114135742 -179.626647949219 1.929147243500
-28.209251403809 -67.878036499023 -177.486282348633 2.577123403549
-21.640041351318 -71.635482788086 -184.106491088867 2.116153478622
23.601263046265 -74.605018615723 -178.276412963867 2.075433254242
13.724287986755 -71.260559082031 -184.229888916016 1.714099287987
26.305837631226 -72.003051757813 -184.226486206055 1.813191175461
102.927803039551 -75.488182067871 -185.578475952148 2.571772575378
-153.165908813477 -68.530677795410 -184.466995239258 3.201179027557
-21.074260711670 -73.755012512207 -185.603378295898 1.858609199524
100.899253845215 -72.590057373047 -180.432067871094 3.541335821152
101.787536621094 -68.653457641602 -191.538314819336 3.484163761139
106.905273437500 -72.842697143555 -179.693572998047 1.466969609261
97.628204345703 -73.386665344238 -195.543289184570 1.923719763756
-152.788177490234 -71.804115295410 -196.103103637695 1.768783330917
98.474922180176 -72.504943847656 -207.309188842773 1.746285319328
-29.707592010498 -69.396347045898 -197.837509155273 3.204261064529
96.073066711426 -71.452079772949 -197.573165893555 1.661024928093
-122.897850036621 -74.415084838867 -199.951049804688 1.497066259384
-31.184976577759 -75.893196105957 -190.775726318359 2.184997797012
-143.424743652344 -67.335899353027 -197.966796875000 2.167608499527
93.839340209961 -71.803863525391 -200.381179809570 0.871628165245
7.135167121887 -72.287940979004 -200.065872192383 2.944004535675
22.423004150391 -70.312995910645 -193.704452514648 0.426646292210
-149.648086547852 -71.644531250000 -202.521194458008 2.090101480484
-140.487411499023 -70.502029418945 -201.747238159180 1.141717672348
-11.635601043701 -71.119796752930 -207.537780761719 1.226311326027
-125.949440002441 -71.082687377930 -203.582168579102 1.845409870148
-145.422866821289 -73.591827392578 -199.356552124023 0.755938708782
2.426784038544 -71.796539306641 -200.534729003906 5.745604991913
-25.781078338623 -73.611709594727 -201.784591674805 1.427272081375
19.124073028564 -74.320770263672 -203.399047851563 1.520102024078
4.987411975861 -72.813133239746 -212.789382934570 2.039307355881
83.826530456543 -69.258308410645 -210.230712890625 5.078549861908
-20.045074462891 -68.976074218750 -212.673934936523 3.778544664383
89.709960937500 -69.522186279297 -210.683380126953 1.968739032745
95.460739135742 -73.491256713867 -208.777969360352 2.043715476990
-150.632156372070 -72.198249816895 -214.143905639648 2.116678237915
93.852851867676 -73.339187622070 -213.329605102539 1.642919898033
3.393403053284 -70.623916625977 -208.253585815430 3.722695589066
1.909643054008 -73.610168457031 -215.345046997070 4.163296699524
-34.574974060059 -71.058235168457 -207.592788696289 1.319923043251
-91.089836120605 -70.728225708008 -213.245666503906 1.815062761307
-27.874595642090 -72.838783264160 -211.515335083008 1.604097843170
83.430618286133 -70.898712158203 -218.555145263672 1.966080307961
87.588836669922 -70.735862731934 -218.702896118164 1.863849997520
-33.501003265381 -70.655906677246 -212.852844238281 3.864809274673
-86.112495422363 -68.381057739258 -218.566329956055 2.996319770813
-2.770354986191 -73.469177246094 -219.592041015625 2.335319757462
80.373802185059 -68.190933227539 -214.784545898438 2.683195590973
-153.681732177734 -74.829460144043 -221.475250244141 1.291071534157
-167.494857788086 -69.549827575684 -213.812591552734 3.253736019135
-163.741439819336 -73.528739929199 -221.798767089844 2.435810327530
-23.202301025391 -72.310783386230 -227.571121215820 2.828957080841
-155.663131713867 -73.970611572266 -222.362716674805 1.831008315086
-7.510090827942 -72.596443176270 -225.309204101563 1.734133005142
4.842689990997 -72.507339477539 -219.334793090820 2.794736623764
-168.948196411133 -70.941444396973 -225.058776855469 2.310714721680
-160.614151000977 -71.441886901855 -226.972412109375 2.145149946213
77.432426452637 -74.681205749512 -232.986465454102 2.100528717041
-1.529101967812 -70.329421997070 -227.536895751953 1.347094178200
-159.334869384766 -66.516792297363 -225.771881103516 0.917480885983
-144.274658203125 -72.688888549805 -224.106658935547 1.179729223251
-20.963541030884 -70.476371765137 -224.647521972656 2.798263549805
-2.151108980179 -75.600158691406 -223.332870483398 0.692032694817
78.283103942871 -69.198211669922 -227.183944702148 1.630513548851
-163.073883056641 -69.445419311523 -227.466537475586 3.459485292435
-145.830017089844 -68.846687316895 -230.604141235352 2.787189960480
-126.946128845215 -69.565773010254 -230.800704956055 3.243958950043
77.008186340332 -72.962860107422 -228.216674804688 1.966130137444
-117.447692871094 -71.065399169922 -229.141311645508 1.068651914597
-148.223876953125 -71.027328491211 -229.011901855469 1.370600104332
-152.346588134766 -69.766426086426 -231.117355346680 1.422190785408
-150.855255126953 -71.815093994141 -231.042724609375 3.081299781799
-157.642486572266 -71.586662292480 -228.753540039063 2.257016658783
-166.893981933594 -71.496391296387 -228.601776123047 1.647304296494
-135.571228027344 -71.265419006348 -235.179061889648 1.603116154671
-135.122360229492 -72.245170593262 -232.979019165039 0.435089915991
-155.030517578125 -74.684211730957 -232.571151733398 2.492321252823
-147.259475708008 -67.642494201660 -236.589553833008 2.460681915283
-153.477325439453 -71.546333312988 -235.017288208008 1.566031098366
73.118202209473 -73.516952514648 -233.933059692383 2.308342695236
65.519149780273 -66.787391662598 -237.432312011719 2.283188104630
-158.861312866211 -69.659828186035 -235.042831420898 1.664150714874
69.940032958984 -67.207992553711 -234.759277343750 0.809298694134
-21.610120773315 -69.973320007324 -237.395965576172 2.170710325241
9.585659980774 -72.621353149414 -238.078826904297 2.367777109146
5.110827922821 -72.189666748047 -236.975585937500 2.361728668213
-156.402435302734 -71.178680419922 -242.345870971680 3.885044097900
12.730739593506 -70.851783752441 -242.122756958008 0.834342002869
59.130363464355 -70.298881530762 -239.379623413086 2.768957376480
11.585648536682 -69.000503540039 -238.962265014648 1.773267149925
3.500581026077 -71.848251342773 -242.520233154297 2.042798757553
-8.355827331543 -69.326614379883 -241.214065551758 0.997542560101
-23.014961242676 -69.934036254883 -243.590515136719 3.110091924667
-3.583029985428 -71.293869018555 -242.868041992188 1.933966755867
1.940083026886 -74.010101318359 -245.934814453125 2.331293582916
55.569744110107 -72.455955505371 -242.950393676758 1.633728981018
-57.333866119385 -74.585937500000 -245.236175537109 2.461495637894
17.691965103149 -70.358375549316 -248.424133300781 1.787557363510
-61.424419403076 -72.209228515625 -242.261016845703 2.838515520096
-11.791412353516 -71.512313842773 -248.738296508789 1.533547282219
-68.036041259766 -67.936607360840 -250.700805664063 3.972062349319
-88.031295776367 -69.652984619141 -253.398971557617 1.666039943695
-84.591339111328 -72.150947570801 -252.416610717773 0.604334473610
-11.837957382202 -70.695594787598 -255.647155761719 3.465962171555
-125.926345825195 -70.975433349609 -259.018829345703 2.151427030563
-16.090135574341 -72.204376220703 -253.807067871094 1.596311926842
-119.011177062988 -71.195343017578 -255.733078002930 2.063548088074
-118.546539306641 -69.873764038086 -258.671783447266 2.614785909653
-105.587455749512 -71.013641357422 -256.674438476563 1.615130305290
-145.968658447266 -70.189689636230 -261.660034179688 2.396873235703
-147.162734985352 -70.599205017090 -267.052673339844 2.327082157135
-170.772262573242 -71.139877319336 -263.236083984375 3.500186681747
17.125583648682 -74.749298095703 -281.367126464844 2.534153699875
-60.349849700928 -69.354110717773 -285.888977050781 2.172771215439
-69.526496887207 -70.205299377441 -284.129608154297 2.532203674316
-44.441314697266 -72.931762695313 -284.498840332031 3.624126672745
-30.371379852295 -72.186477661133 -287.208435058594 0.902273356915
-98.681793212891 -73.024612426758 -289.426849365234 1.784375786781
-33.158786773682 -69.344299316406 -286.433715820313 4.166190624237
-6.435397148132 -71.308845520020 -287.101196289063 1.149056077003
-169.751327514648 -71.105720520020 -288.957885742188 3.246084451675
-18.200197219849 -73.325073242188 -286.714385986328 3.756705045700
4.009391784668 -72.457542419434 -288.946624755859 2.941936731339
11.817713737488 -75.614952087402 -284.669433593750 1.973305106163
-59.319290161133 -73.495246887207 -288.126983642578 2.946919679642
-35.619098663330 -71.665824890137 -292.173431396484 2.529170513153
11.793855667114 -69.431404113770 -294.143615722656 2.812867879868
-73.332519531250 -69.825035095215 -293.326110839844 3.989730358124
-42.636821746826 -68.734260559082 -289.792846679688 3.666265964508
-20.250654220581 -69.276473999023 -290.809600830078 4.279358386993
12.652496337891 -73.496162414551 -292.090240478516 2.317586421967
-13.996251106262 -72.898918151855 -295.078826904297 1.371795773506
1.518162012100 -70.116958618164 -294.790924072266 2.079920291901
11.860173225403 -73.234016418457 -291.656372070313 2.522399425507
-137.337692260742 -70.127693176270 -294.235382080078 0.822057008743
-147.452026367188 -73.403762817383 -298.952026367188 0.860397696495
-153.628997802734 -71.489173889160 -312.966979980469 2.114655256271
43.363216400146 -70.343727111816 -15.026513099670 1.536433219910
30.481307983398 -70.759368896484 -13.023959159851 1.388353943825
39.600452423096 -71.038673400879 -16.694852828979 2.705902338028
22.265472412109 -67.773933410645 -19.864744186401 2.499272346497
45.201648712158 -68.909164428711 -23.707069396973 1.635483264923
25.777420043945 -69.110275268555 -25.142730712891 3.057148933411
23.954416275024 -71.173271179199 -28.649074554443 1.723488211632
24.891153335571 -71.723739624023 -39.437698364258 0.826923251152
39.708419799805 -72.954032897949 -32.075923919678 1.481612563133
26.400058746338 -74.344192504883 -37.491344451904 3.938514709473
43.162422180176 -69.645011901855 -38.978839874268 2.012618541718
31.935974121094 -71.428596496582 -40.632198333740 1.379305124283
38.885463714600 -72.251014709473 -37.203613281250 2.677525997162
31.018619537354 -70.054656982422 -41.159709930420 2.359841823578
43.656288146973 -70.884849548340 -42.486991882324 3.445638179779
33.794872283936 -70.412322998047 -40.223449707031 1.377714037895
-40.991931915283 -69.093681335449 -48.857891082764 1.749580860138
-30.143857955933 -65.937034606934 -51.354190826416 1.779735207558
-89.491676330566 -69.209968566895 -54.951278686523 4.367265224457
-89.273666381836 -71.556541442871 -65.715721130371 2.614138841629
77.693565368652 -73.291481018066 -68.174415588379 2.793033599854
84.043151855469 -70.620330810547 -74.046997070313 3.360269308090
-19.946405410767 -68.816192626953 -74.298362731934 2.491451978683
-88.519805908203 -70.780883789063 -71.882591247559 2.098317623138
-25.506975173950 -70.056304931641 -77.426467895508 2.045509815216
-50.081123352051 -71.728881835938 -85.417266845703 0.594404578209
65.504928588867 -67.119438171387 -87.604110717773 1.308149576187
52.229061126709 -69.790664672852 -94.477340698242 2.275650978088
99.040039062500 -69.031341552734 -93.035316467285 1.444018483162
68.937721252441 -72.272338867188 -97.944953918457 1.639237761497
-68.695289611816 -72.028991699219 -91.332763671875 4.318350791931
-62.731197357178 -68.801155090332 -98.228622436523 3.060088634491
44.300491333008 -71.197349548340 -98.564193725586 1.536329865456
76.875213623047 -69.347640991211 -101.272155761719 1.764041781425
53.897285461426 -77.688842773438 -106.216644287109 2.471992492676
100.767776489258 -70.378913879395 -98.195335388184 2.203613519669
-95.836624145508 -72.172309875488 -107.306625366211 1.834598183632
39.209148406982 -70.974418640137 -111.760749816895 1.611240148544
106.420837402344 -71.555412292480 -110.315353393555 2.048829317093
47.845424652100 -70.587402343750 -112.402542114258 2.251090049744
100.853019714355 -71.658668518066 -111.268112182617 1.991464614868
-86.158416748047 -70.611381530762 -115.428871154785 2.020965337753
35.167518615723 -73.843757629395 -112.908393859863 2.762431383133
105.921096801758 -69.594406127930 -118.361610412598 3.254620552063
104.020706176758 -68.130119323730 -117.342468261719 3.571003913879
104.835716247559 -71.044174194336 -116.656211853027 2.821538925171
109.837234497070 -69.708091735840 -116.156639099121 2.213907957077
39.268947601318 -72.375465393066 -111.236747741699 1.458722472191
31.334253311157 -68.314170837402 -118.304382324219 4.402900218964
40.241363525391 -70.319335937500 -115.198158264160 0.685388803482
106.039451599121 -71.958961486816 -123.321838378906 2.705329656601
39.343223571777 -69.086242675781 -124.288970947266 3.000167369843
108.215629577637 -69.821777343750 -133.715530395508 1.863421678543
110.099082946777 -69.404205322266 -132.619735717773 1.249364614487
32.821434020996 -68.521774291992 -121.616432189941 1.061442017555
-78.809715270996 -70.437950134277 -125.511772155762 2.489363193512
112.985710144043 -68.197555541992 -135.832824707031 1.670326590538
-55.409610748291 -70.705383300781 -137.735305786133 2.226279973984
34.583759307861 -71.424102783203 -135.733932495117 1.000811696053
-74.268821716309 -70.933662414551 -135.529434204102 2.237074375153
26.017148971558 -72.769851684570 -132.594406127930 4.015683174133
-80.665534973145 -71.108810424805 -142.850723266602 3.457742452621
-46.380790710449 -73.515090942383 -142.239425659180 2.147319316864
-75.010231018066 -71.293861389160 -138.262786865234 1.453763842583
109.210517883301 -69.788963317871 -138.602966308594 2.916998386383
116.150497436523 -68.835395812988 -143.207092285156 1.885121345520
117.005813598633 -73.637512207031 -148.003723144531 1.055997252464
-78.424018859863 -69.671897888184 -143.696334838867 2.198087930679
6.825061798096 -66.865753173828 -151.553009033203 4.395893573761
-53.194412231445 -71.219802856445 -149.609909057617 2.095273017883
-52.035911560059 -71.512687683105 -155.528945922852 1.610158205032
105.631523132324 -70.939865112305 -163.187515258789 3.236295700073
-42.609397888184 -72.380004882813 -149.561889648438 1.480688571930
12.740306854248 -68.573387145996 -158.483932495117 0.904437303543
21.082469940186 -72.239395141602 -158.455398559570 1.814938783646
113.414291381836 -69.955406188965 -166.216384887695 1.792691111565
28.468070983887 -70.105545043945 -166.649902343750 1.969909429550
-2.200486898422 -71.941146850586 -164.148666381836 2.016855716705
30.557443618774 -71.425674438477 -161.731414794922 1.540514826775
-69.046661376953 -68.992156982422 -157.768356323242 2.550967454910
-67.058898925781 -70.252716064453 -159.224670410156 1.833090424538
-70.216140747070 -69.263076782227 -165.713699340820 4.106425285339
113.441284179688 -67.288871765137 -163.018325805664 3.408622264862
-45.883476257324 -70.764892578125 -163.258880615234 1.680604815483
16.418922424316 -70.801681518555 -166.316253662109 2.536878108978
-65.330055236816 -69.566337585449 -169.734054565430 3.937489748001
-64.466613769531 -68.858200073242 -171.497680664063 4.505553245544
-42.592727661133 -71.443847656250 -160.547210693359 1.544271707535
-34.922870635986 -72.686836242676 -168.968490600586 3.136111021042
113.611991882324 -72.651817321777 -172.865570068359 1.105148434639
-38.512378692627 -66.077568054199 -180.102233886719 6.267908096313
12.330879211426 -71.618186950684 -173.896102905273 5.318565368652
109.214645385742 -73.205459594727 -185.832046508789 1.784890294075
-149.057983398438 -72.187454223633 -175.367294311523 1.354670882225
-147.328201293945 -70.269844055176 -172.883453369141 2.999005317688
-150.128448486328 -68.739822387695 -179.235549926758 3.051379919052
-143.930786132813 -71.813056945801 -182.107742309570 1.488102436066
-33.375885009766 -69.276184082031 -185.846710205078 2.538295269012
-24.622573852539 -70.670837402344 -186.142074584961 1.205414772034
21.702222824097 -67.090919494629 -191.902938842773 2.651811122894
-142.966506958008 -69.643585205078 -186.069854736328 1.972449541092
-148.824081420898 -70.742996215820 -187.849136352539 1.256364703178
-22.826158523560 -68.060928344727 -186.894485473633 2.056653499603
9.625297546387 -70.904266357422 -183.261474609375 4.663688659668
-150.946273803711 -70.359748840332 -193.529769897461 2.164217710495
-33.108577728271 -71.235122680664 -188.307556152344 1.158312678337
98.594566345215 -70.658401489258 -189.803497314453 2.802733182907
104.729492187500 -69.658744812012 -191.324645996094 2.407925605774
22.592273712158 -66.303657531738 -194.269058227539 4.133934020996
-15.035569190979 -70.774085998535 -188.993087768555 4.823265552521
-29.316097259521 -72.428268432617 -193.733993530273 2.148064851761
-156.968627929688 -71.394203186035 -198.360214233398 3.073787689209
-134.231506347656 -71.298904418945 -196.283554077148 1.279484987259
-126.774581909180 -67.794998168945 -194.539077758789 2.861909151077
-126.308586120605 -68.777641296387 -197.127471923828 3.278154850006
-24.080816268921 -66.488372802734 -196.583969116211 2.349910497665
11.113116264343 -72.506843566895 -193.180236816406 2.401050567627
91.012779235840 -74.074775695801 -202.606277465820 3.597107648849
-151.653228759766 -66.777381896973 -194.711685180664 0.610323071480
-146.688705444336 -67.936103820801 -198.062927246094 1.809483289719
-152.531784057617 -69.737045288086 -199.418731689453 2.312444686890
-156.543807983398 -68.090583801270 -196.700424194336 3.113593339920
-26.392908096313 -70.021232604980 -200.044326782227 2.203458786011
-12.307176589966 -69.074539184570 -195.940505981445 1.932481527328
-148.022598266602 -66.511367797852 -201.456283569336 2.028942584991
-20.099117279053 -69.730422973633 -201.663360595703 2.517778635025
-163.053680419922 -69.554901123047 -199.831710815430 1.464514613152
-135.977096557617 -70.080795288086 -198.827713012695 3.117392063141
14.030425071716 -72.289550781250 -207.830398559570 2.343935012817
-162.966567993164 -67.091117858887 -203.288879394531 2.924250364304
-147.809219360352 -71.638656616211 -205.809539794922 1.588411331177
6.584955215454 -68.660774230957 -203.574691772461 4.314052581787
-155.776153564453 -67.746551513672 -201.912979125977 1.347191929817
-26.228382110596 -69.893417358398 -202.284088134766 2.277672052383
95.760780334473 -71.238151550293 -200.865432739258 1.845440268517
-160.207122802734 -71.103881835938 -211.700775146484 1.183055877686
-166.197906494141 -73.167152404785 -206.841445922852 3.913086175919
-78.575828552246 -68.361587524414 -208.299743652344 4.307481288910
87.577033996582 -69.915351867676 -210.530990600586 2.498096704483
-5.626441955566 -69.268173217773 -219.075042724609 1.316254496574
-156.284378051758 -69.041664123535 -212.155426025391 3.510368108749
-89.366249084473 -70.366600036621 -213.366424560547 1.714109301567
-11.053031921387 -72.984611511230 -211.927230834961 1.481815218925
13.754694938660 -70.255287170410 -220.769058227539 1.766419172287
-146.750442504883 -70.839973449707 -219.429367065430 1.249366283417
-5.427817821503 -74.242042541504 -221.582351684570 1.661422610283
-21.191781997681 -71.380973815918 -218.781402587891 2.010964155197
-16.461580276489 -67.353149414063 -221.046936035156 2.474110126495
88.435241699219 -70.577552795410 -220.663436889648 1.923518419266
-22.542291641235 -69.156127929688 -217.362106323242 2.363990068436
-33.542209625244 -69.834594726563 -217.577377319336 4.178192138672
-109.460777282715 -66.045242309570 -224.513275146484 0.909385085106
-17.996356964111 -68.824951171875 -223.824966430664 1.725100159645
90.609031677246 -68.619079589844 -220.585952758789 2.088320016861
75.668762207031 -71.333717346191 -221.944442749023 3.098352432251
5.376243114471 -71.628189086914 -220.151672363281 2.646482944489
-13.065999984741 -68.321571350098 -226.065643310547 1.164585947990
76.785820007324 -71.115661621094 -223.529067993164 1.645256280899
-124.268028259277 -73.305183410645 -224.797470092773 0.406520575285
-21.897281646729 -68.532257080078 -223.790100097656 4.327811241150
-99.019630432129 -69.577316284180 -223.489776611328 0.575044095516
-104.388687133789 -70.283348083496 -223.989242553711 0.705751776695
-133.500106811523 -72.066284179688 -228.228775024414 2.437140464783
79.455932617188 -70.648422241211 -225.185363769531 1.215408921242
-125.102943420410 -70.724258422852 -226.916671752930 1.124128580093
2.811429023743 -69.839637756348 -229.612335205078 0.975241005421
79.361763000488 -69.194473266602 -225.997558593750 1.466742396355
-17.661180496216 -71.406959533691 -231.199554443359 1.662081837654
-15.450977325439 -71.121040344238 -228.106430053711 2.120202541351
-3.794717073441 -75.303443908691 -230.700561523438 0.946720480919
8.383365631104 -72.251083374023 -228.325363159180 1.289802551270
86.998764038086 -71.789855957031 -228.126312255859 3.001423358917
8.020769119263 -68.997627258301 -232.328323364258 0.465840011835
3.631273984909 -70.145309448242 -230.319702148438 1.589814662933
-10.954245567322 -70.954238891602 -231.989715576172 1.268535494804
-8.678827285767 -71.244331359863 -230.896530151367 1.158821225166
16.792776107788 -69.268142700195 -233.754241943359 1.958776950836
-14.416341781616 -68.009277343750 -233.951538085938 3.116020202637
69.014587402344 -71.081634521484 -241.278457641602 1.120124220848
-11.138678550720 -68.948554992676 -239.580749511719 2.124931335449
17.032268524170 -71.465667724609 -236.767700195313 2.699123144150
-164.910537719727 -68.793960571289 -239.676971435547 1.254790067673
-7.569499015808 -68.344604492188 -237.878372192383 1.634787917137
-10.122361183167 -71.183372497559 -240.974960327148 0.730835974216
-169.816131591797 -70.616569519043 -249.972503662109 3.617562532425
-12.915736198425 -68.858673095703 -245.164993286133 1.639729619026
13.485721588135 -67.933883666992 -246.514068603516 3.376537322998
-149.808746337891 -71.977600097656 -251.192077636719 2.429586410522
-75.431640625000 -69.652915954590 -250.537139892578 1.379700064659
-63.749225616455 -71.113548278809 -247.265945434570 1.762541651726
50.225482940674 -68.394744873047 -248.177871704102 1.350324153900
-76.799118041992 -69.843185424805 -246.931320190430 3.246666193008
14.734660148621 -71.092552185059 -250.544372558594 3.373769998550
-75.260398864746 -70.616165161133 -251.431991577148 0.957524657249
-17.471307754517 -68.778884887695 -246.650253295898 3.877559423447
-147.698410034180 -72.739921569824 -252.133163452148 1.763040781021
44.455314636230 -67.300888061523 -251.311080932617 1.773623466492
-82.276519775391 -72.350456237793 -255.772308349609 1.032767534256
-104.986648559570 -67.350227355957 -254.842132568359 2.363709449768
-101.578262329102 -71.745246887207 -254.440811157227 1.306857943535
-122.107734680176 -68.279228210449 -252.661727905273 4.099853515625
-108.100433349609 -67.805099487305 -256.928222656250 1.810350775719
-108.116058349609 -69.875129699707 -257.909301757813 2.941943168640
19.306091308594 -68.029373168945 -259.618652343750 4.275201320648
-131.728393554688 -67.837821960449 -264.627593994141 3.564745664597
-16.349290847778 -71.214363098145 -276.292449951172 3.626345396042
-150.298233032227 -67.699218750000 -282.674591064453 2.675960302353
-171.384124755859 -71.637100219727 -284.680664062500 3.810109853745
-127.625831604004 -71.069282531738 -283.712615966797 1.870398283005
-116.901596069336 -67.158493041992 -286.558624267578 3.068789720535
-78.279304504395 -66.122970581055 -284.612701416016 4.109405040741
-60.262512207031 -70.820159912109 -286.976135253906 2.241661787033
-44.657649993896 -69.180503845215 -286.515899658203 3.499057292938
-18.161500930786 -73.199951171875 -290.522521972656 1.734306454659
-16.659442901611 -67.929786682129 -292.473327636719 4.025455474854
-41.237972259521 -72.029083251953 -290.671661376953 1.046340584755
-37.225299835205 -70.008430480957 -289.306915283203 1.854269146919
-21.842237472534 -67.275238037109 -289.448394775391 3.694622278214
-74.724983215332 -69.164337158203 -293.155120849609 2.907601594925
-58.441890716553 -69.492118835449 -291.385498046875 2.020102262497
-20.549652099609 -66.853759765625 -292.202728271484 6.079885005951
-16.630605697632 -71.749664306641 -290.459960937500 0.709954082966
-6.642055034637 -69.438690185547 -293.231658935547 3.276880264282
-0.457033008337 -67.030853271484 -293.119750976563 1.983874797821
-95.105400085449 -70.197898864746 -292.896575927734 2.187066555023
-142.756210327148 -71.661598205566 -294.450317382813 1.142536759377
-119.269714355469 -71.007896423340 -292.329254150391 3.030275106430
-156.556488037109 -68.884010314941 -294.231018066406 1.573462128639
-155.028579711914 -70.700401306152 -298.837554931641 2.083658695221
-149.799560546875 -68.480903625488 -299.414337158203 2.781988143921
44.679939270020 -67.590309143066 -22.353109359741 3.197093009949
20.074851989746 -72.427062988281 -24.356452941895 2.155825614929
49.674034118652 -67.077575683594 -26.224750518799 2.260781526566
47.139991760254 -70.595748901367 -36.215763092041 1.752344965935
87.253944396973 -69.553459167480 -71.706787109375 3.601997613907
95.176856994629 -71.344596862793 -75.516128540039 1.196304321289
100.774154663086 -69.317741394043 -79.777626037598 3.088801383972
97.800575256348 -70.236862182617 -85.101821899414 2.888702869415
56.128746032715 -70.629867553711 -90.644203186035 2.462576150894
44.965766906738 -74.716751098633 -92.318572998047 3.566783428192
62.727962493896 -68.622406005859 -92.084808349609 1.197703599930
-65.833755493164 -67.158569335938 -93.306892395020 2.411334753036
70.253791809082 -69.149642944336 -89.205940246582 2.594691991806
100.167823791504 -63.654895782471 -100.585510253906 2.413236141205
73.833305358887 -70.418037414551 -102.537818908691 1.927103519440
93.581550598145 -68.667327880859 -104.178710937500 2.131751298904
-85.298049926758 -70.437019348145 -103.459594726563 2.991158962250
44.467922210693 -68.678771972656 -99.295867919922 2.021706342697
-87.215995788574 -70.857337951660 -102.259620666504 4.021997928619
50.354324340820 -71.013061523438 -111.588119506836 2.380682945251
37.029426574707 -74.655830383301 -104.733383178711 4.106763362885
101.416618347168 -68.787864685059 -104.982086181641 2.581890821457
36.421852111816 -69.406486511230 -107.074081420898 3.303548812866
41.684387207031 -70.663764953613 -119.726852416992 1.520773530006
41.892349243164 -69.419975280762 -114.228111267090 1.460274934769
109.242019653320 -68.421539306641 -114.177322387695 1.418850421906
-82.275978088379 -73.390716552734 -121.586639404297 3.226714372635
111.246826171875 -72.778511047363 -125.821868896484 1.608830451965
39.026344299316 -66.222816467285 -125.916435241699 3.884534597397
39.591011047363 -68.902023315430 -121.403762817383 2.828831911087
34.035160064697 -70.000289916992 -122.003837585449 1.798112154007
-56.813213348389 -73.558074951172 -129.863723754883 0.898647308350
29.181232452393 -68.730781555176 -124.548675537109 2.497214317322
-78.577980041504 -67.873023986816 -137.920471191406 0.944923877716
-56.472137451172 -72.711471557617 -132.917770385742 0.829474329948
-80.663436889648 -67.496101379395 -134.968933105469 1.612705707550
34.468872070313 -67.785308837891 -131.889984130859 0.881483435631
-60.771125793457 -70.583679199219 -133.886657714844 2.859793901443
33.999530792236 -68.882194519043 -134.522994995117 1.508321404457
-73.206672668457 -67.730186462402 -139.792037963867 1.000239491463
-60.494056701660 -67.207015991211 -141.042877197266 1.533493161201
24.424232482910 -70.290695190430 -143.707122802734 3.078525781631
109.628517150879 -72.161445617676 -144.993774414063 1.660936713219
114.064414978027 -65.835159301758 -139.062286376953 3.267792224884
29.460477828979 -69.597373962402 -142.632614135742 1.066583156586
-49.449672698975 -70.816322326660 -140.615432739258 2.041932344437
105.415153503418 -67.581527709961 -154.077713012695 2.604902744293
-76.861999511719 -69.344810485840 -143.220703125000 1.806642293930
-59.919609069824 -69.538658142090 -142.618286132813 0.596576035023
30.251073837280 -65.770385742188 -148.585449218750 2.650939702988
-78.892242431641 -70.746116638184 -146.302215576172 2.971529960632
-72.033088684082 -69.406539916992 -150.460174560547 1.237618327141
113.529129028320 -73.125984191895 -151.516754150391 1.288030385971
-66.111564636230 -68.847465515137 -155.372726440430 2.020131349564
-40.774414062500 -66.911827087402 -152.735687255859 2.844686746597
24.348558425903 -68.041007995605 -147.082382202148 2.747921466827
-74.560340881348 -69.884620666504 -146.226333618164 1.132750511169
10.990250587463 -69.087768554688 -150.752792358398 1.251041054726
30.361495971680 -68.957328796387 -158.108200073242 1.753129005432
29.576021194458 -67.319236755371 -151.395111083984 3.275213003159
13.764075279236 -73.690811157227 -155.166885375977 2.568725824356
-51.365879058838 -70.890258789063 -153.658325195313 1.099585294724
23.308214187622 -70.796928405762 -154.273529052734 1.513714909554
-47.630119323730 -68.617233276367 -150.622695922852 0.674311518669
3.249460935593 -69.700790405273 -154.984298706055 2.453886270523
19.028589248657 -68.733894348145 -151.041458129883 1.698414802551
-70.426956176758 -68.809188842773 -157.644805908203 3.746595144272
-48.148731231689 -66.711387634277 -154.554122924805 3.548901796341
-69.681396484375 -68.951461791992 -154.006484985352 2.098595619202
16.585226058960 -68.346672058105 -159.536621093750 1.905007123947
22.768224716187 -68.683609008789 -151.212463378906 1.964876174927
0.896597981453 -69.475357055664 -165.435745239258 1.835314750671
19.827733993530 -69.297241210938 -154.670532226563 3.542758226395
29.081092834473 -69.161781311035 -168.351577758789 2.409038305283
-48.953182220459 -70.707801818848 -163.664398193359 1.810970902443
-38.441272735596 -75.390678405762 -163.772018432617 2.953597784042
-42.466259002686 -70.177001953125 -161.336883544922 0.699832558632
26.242446899414 -69.760154724121 -159.847213745117 2.202657461166
-45.977642059326 -67.802116394043 -167.258972167969 4.977478981018
-41.478717803955 -67.990974426270 -166.896331787109 2.897819280624
19.667905807495 -68.156997680664 -166.858520507813 1.611410617828
-41.669769287109 -69.915054321289 -175.711441040039 4.365046977997
26.172220230103 -66.054435729980 -171.258850097656 3.224004983902
109.996208190918 -66.423751831055 -166.882034301758 2.271026372910
-35.309604644775 -69.306770324707 -172.582092285156 1.874175310135
100.964370727539 -67.156089782715 -175.135147094727 5.578177928925
-36.428478240967 -69.001358032227 -177.967849731445 2.974333524704
-39.314762115479 -72.204811096191 -181.939529418945 2.606677770615
19.307870864868 -72.097152709961 -178.107482910156 2.512315988541
103.918220520020 -69.727607727051 -183.925567626953 1.041283249855
-33.417037963867 -67.847976684570 -183.482254028320 2.481404542923
-37.046897888184 -68.836837768555 -178.047485351563 3.267488956451
-25.169818878174 -72.707015991211 -187.489807128906 1.932870984077
-151.035324096680 -69.961395263672 -188.339920043945 1.865192890167
11.009012222290 -69.102180480957 -184.375030517578 4.873026371002
102.970458984375 -67.989669799805 -193.020477294922 4.168006420135
-161.004104614258 -68.998176574707 -192.393402099609 3.033661365509
-24.984033584595 -66.413406372070 -190.184661865234 1.877201914787
-117.722564697266 -70.960708618164 -197.104309082031 2.481126308441
-132.869491577148 -70.742835998535 -195.189651489258 2.027828454971
-109.997573852539 -69.857101440430 -199.633666992188 1.161978483200
-115.771423339844 -68.566619873047 -200.004745483398 3.617549896240
-14.400605201721 -70.107002258301 -197.127960205078 1.134545207024
18.035856246948 -68.156036376953 -197.195724487305 1.444488048553
-17.941717147827 -65.733642578125 -202.612716674805 3.739162206650
-128.893081665039 -69.366661071777 -205.212020874023 2.386995553970
-22.988403320313 -65.730880737305 -203.689193725586 4.262751579285
-131.502105712891 -68.239738464355 -202.553817749023 1.482495427132
-17.523200988770 -69.417922973633 -200.997375488281 0.730625689030
-148.219863891602 -68.209785461426 -202.280914306641 2.560479402542
89.652595520020 -65.573936462402 -208.248504638672 5.824741840363
-166.654418945313 -64.692855834961 -200.768768310547 1.479734182358
-5.025721073151 -70.856887817383 -218.719497680664 2.674623250961
9.278210639954 -70.381370544434 -210.891342163086 2.198340177536
8.071169853210 -71.312385559082 -218.011016845703 2.646774291992
80.407257080078 -69.149009704590 -218.401000976563 1.741381764412
6.306889057159 -70.206726074219 -214.038818359375 1.811347961426
10.397727012634 -68.348335266113 -215.774642944336 1.792359590530
-18.067043304443 -72.419082641602 -216.645233154297 2.963057756424
-92.686737060547 -69.633636474609 -214.475189208984 2.364259719849
-100.236808776855 -69.363296508789 -216.537475585938 2.524855613708
-2.253220081329 -68.183410644531 -220.032180786133 1.205796003342
-168.753662109375 -71.091308593750 -221.257110595703 3.017111539841
12.880230903625 -67.208793640137 -220.666549682617 2.442434072495
-146.909729003906 -68.614967346191 -220.753616333008 2.039647340775
10.658221244812 -69.499885559082 -225.976501464844 1.190521121025
-136.952224731445 -70.581855773926 -224.462844848633 2.921602010727
-118.251770019531 -70.187843322754 -226.969940185547 1.356002569199
14.501893997192 -68.437004089355 -221.947387695313 2.116927862167
76.134040832520 -69.184097290039 -223.020614624023 3.251356840134
4.458037853241 -69.177955627441 -224.439605712891 2.200289726257
-112.240463256836 -68.525764465332 -230.747085571289 1.312702178955
70.040962219238 -70.053733825684 -229.402999877930 2.565334081650
81.676055908203 -70.205619812012 -231.198608398438 3.323179244995
-127.606819152832 -69.007522583008 -234.779144287109 2.290101528168
-119.390663146973 -69.240447998047 -230.222885131836 2.877655982971
-12.363519668579 -66.068260192871 -228.624572753906 2.551056623459
69.634834289551 -69.850631713867 -232.993774414063 1.230046987534
