-148.289794921875 -66.289321899414 -225.969558715820 2.364364862442
-167.022903442383 -66.285728454590 -224.158660888672 2.423786163330
-9.590658187866 -69.025413513184 -227.214508056641 2.357057809830
-10.132068634033 -69.691230773926 -233.091323852539 1.347754836082
76.755020141602 -73.118904113770 -226.855087280273 1.538648247719
-1.838875055313 -71.534149169922 -230.094238281250 1.431537508965
-144.714279174805 -67.069580078125 -235.426544189453 1.291665434837
-15.900155067444 -67.903968811035 -229.649307250977 2.136652231216
72.385223388672 -71.229187011719 -229.382247924805 1.243214964867
72.931449890137 -71.361564636230 -234.439086914063 1.267546296120
-136.258316040039 -66.013992309570 -231.789367675781 2.046380281448
-159.085418701172 -69.392013549805 -227.514938354492 3.107834577560
-115.884132385254 -66.428710937500 -232.465423583984 1.590687870979
-126.388725280762 -63.500469207764 -235.087341308594 2.386759042740
-165.398864746094 -65.625732421875 -233.921142578125 3.164341449738
-161.834503173828 -67.297843933105 -234.786621093750 2.179028987885
-148.391403198242 -63.651077270508 -233.392791748047 1.388835072517
-14.488965034485 -68.499198913574 -235.824722290039 2.689082622528
-6.994211196899 -68.984405517578 -241.029830932617 1.511847138405
-162.484252929688 -65.471717834473 -239.766586303711 1.501447081566
3.672689914703 -70.632591247559 -238.843338012695 1.721535921097
1.068220973015 -70.448432922363 -237.279006958008 1.280272722244
-161.852050781250 -66.635551452637 -237.923263549805 1.251348376274
14.897850990295 -73.691886901855 -243.001098632813 2.634091377258
48.876522064209 -72.875274658203 -246.451416015625 2.678589582443
48.687316894531 -72.816940307617 -245.484451293945 3.337661981583
-17.881847381592 -70.495956420898 -247.389434814453 2.931900978088
46.302017211914 -69.452445983887 -250.244323730469 1.357094526291
-163.375869750977 -63.905876159668 -249.205490112305 4.831827163696
-161.038482666016 -67.182670593262 -246.571090698242 1.437313318253
-162.498535156250 -70.318893432617 -248.622375488281 1.678709268570
52.777339935303 -70.482162475586 -249.859954833984 1.699154734612
-94.206558227539 -67.034515380859 -252.526718139648 2.130312442780
-126.901420593262 -66.789436340332 -253.803070068359 0.574953496456
-107.961677551270 -71.815979003906 -253.241760253906 4.121702194214
24.416366577148 -73.853965759277 -258.292480468750 2.224707365036
39.301006317139 -68.578201293945 -252.183944702148 1.771995544434
-102.830078125000 -65.533714294434 -254.571380615234 3.603764057159
-95.630462646484 -64.187568664551 -251.350372314453 2.596024036407
43.283237457275 -74.223014831543 -255.529495239258 4.001745700836
40.122383117676 -68.983428955078 -257.728302001953 1.219720125198
-157.105758666992 -71.613792419434 -257.045593261719 1.649125218391
28.283824920654 -70.307220458984 -260.143096923828 1.892252326012
-145.161453247070 -70.121292114258 -263.518798828125 2.325495243073
-115.680816650391 -67.347976684570 -261.912506103516 1.676904916763
-139.232635498047 -66.334777832031 -261.808624267578 1.390795588493
29.013027191162 -70.040489196777 -263.664703369141 1.538186550140
-128.418624877930 -66.391731262207 -262.885253906250 1.369855284691
-13.442425727844 -68.400192260742 -258.603424072266 2.120362520218
19.145624160767 -73.252182006836 -271.816345214844 2.614593029022
-8.070862770081 -73.735221862793 -265.834960937500 4.888123035431
17.241746902466 -72.182083129883 -280.651672363281 1.812086462975
-155.808151245117 -68.993156433105 -281.527648925781 3.090145349503
-13.434811592102 -68.478141784668 -281.100891113281 3.416359663010
-155.688323974609 -70.592781066895 -281.586547851563 2.492681026459
-126.373458862305 -69.394111633301 -284.350402832031 1.325649857521
-163.142791748047 -72.768547058105 -285.247802734375 2.019791364670
-117.327331542969 -67.819244384766 -286.499420166016 2.843045473099
-107.072837829590 -68.384368896484 -289.071350097656 1.464514613152
-9.523218154907 -68.342536926270 -285.761657714844 2.480965852737
-110.953552246094 -69.309638977051 -288.680145263672 2.755532026291
-119.030670166016 -65.722229003906 -284.596221923828 4.643478393555
-122.870811462402 -64.936035156250 -290.973632812500 2.199788570404
-140.676422119141 -67.284072875977 -288.997192382813 1.731835007668
-128.842590332031 -65.468566894531 -290.803558349609 2.559964179993
-160.394119262695 -71.522712707520 -288.878845214844 1.031962633133
-149.479217529297 -65.587333679199 -291.880004882813 0.808328807354
-159.225433349609 -64.997276306152 -300.765014648438 5.814834117889
-157.002410888672 -65.733482360840 -310.053466796875 4.058299064636
-161.053070068359 -65.786720275879 -300.039245605469 6.474825859070
-144.630508422852 -68.502944946289 -309.718353271484 2.205477476120
-152.472808837891 -68.658355712891 -312.861175537109 1.348976492882
36.149360656738 -70.456794738770 -9.654492378235 0.999253630638
47.399379730225 -73.723464965820 -17.219738006592 2.609562397003
24.750001907349 -66.528915405273 -24.100538253784 3.491165637970
50.963546752930 -70.696067810059 -28.212192535400 2.185343027115
28.597555160522 -72.015464782715 -34.931049346924 1.427008390427
33.311042785645 -70.972404479980 -35.226863861084 2.316144466400
-57.288852691650 -64.230163574219 -47.165451049805 3.660795927048
80.125106811523 -66.901046752930 -62.315071105957 1.615275144577
81.272834777832 -71.498367309570 -67.982124328613 2.035338163376
-90.150566101074 -68.363388061523 -61.749275207520 1.820113182068
-12.363121032715 -66.367691040039 -61.651176452637 2.067035198212
-92.346069335938 -69.246109008789 -69.458465576172 2.294177532196
96.551521301270 -72.659072875977 -69.967399597168 2.668648242950
-13.518815040588 -65.899429321289 -68.149520874023 1.791103124619
67.636596679688 -72.763206481934 -79.759811401367 2.378381490707
-41.956531524658 -72.372444152832 -79.126800537109 1.113867878914
-27.172195434570 -72.064666748047 -75.795501708984 1.924641728401
56.234634399414 -66.860725402832 -87.069908142090 1.779098033905
-44.228439331055 -78.171882629395 -84.223091125488 1.793913483620
64.927398681641 -63.120166778564 -87.934349060059 0.870698332787
52.752880096436 -73.947135925293 -90.512298583984 0.638458371162
53.544715881348 -70.112358093262 -94.481971740723 2.648781776428
59.412136077881 -74.465087890625 -91.653190612793 1.029783964157
56.738662719727 -67.237655639648 -96.584388732910 2.142752170563
99.605514526367 -67.999549865723 -98.987915039063 1.931699872017
105.850044250488 -66.969573974609 -99.945899963379 1.609974384308
59.551685333252 -72.544624328613 -100.774009704590 2.893218040466
106.772552490234 -67.015983581543 -100.854515075684 1.287614107132
-77.089538574219 -67.253067016602 -98.710754394531 1.781869292259
-72.869537353516 -67.244705200195 -101.516822814941 0.959571957588
100.168273925781 -67.734046936035 -99.746368408203 1.606227993965
53.016193389893 -70.508354187012 -101.606513977051 0.829129457474
70.212982177734 -71.572181701660 -99.616798400879 1.612430095673
-72.750366210938 -67.799774169922 -106.859054565430 2.094559431076
-85.384300231934 -66.198165893555 -106.575073242188 2.496298551559
88.871009826660 -73.244224548340 -105.452758789063 4.213782787323
39.934005737305 -70.801208496094 -104.891540527344 1.270457863808
104.621879577637 -67.493621826172 -107.122367858887 1.096069455147
46.160831451416 -71.891830444336 -114.178253173828 1.736761212349
109.843978881836 -70.970024108887 -104.868759155273 2.256594181061
-79.002761840820 -67.066848754883 -110.483184814453 2.009682416916
104.277427673340 -66.707542419434 -109.850273132324 2.937211036682
-84.681404113770 -65.133583068848 -120.569274902344 1.960583209991
-59.120170593262 -70.117233276367 -128.121780395508 1.998853206635
-56.372627258301 -66.957229614258 -124.504035949707 1.143913269043
-73.043754577637 -68.963836669922 -129.405105590820 2.550039291382
-51.548484802246 -69.314094543457 -130.618347167969 0.596902489662
-84.651115417480 -68.992408752441 -132.255218505859 1.969819664955
-78.052192687988 -64.627922058105 -132.464874267578 0.915644466877
-81.165367126465 -67.576118469238 -130.343276977539 1.338128209114
-60.984638214111 -72.203208923340 -141.101837158203 2.750256776810
-72.301643371582 -67.429168701172 -140.140213012695 0.742713868618
-60.705448150635 -70.972618103027 -134.683883666992 2.622223377228
-59.313690185547 -68.180778503418 -141.456588745117 1.726725101471
16.038482666016 -65.837684631348 -144.200042724609 1.583631753922
-91.727066040039 -67.755149841309 -141.501434326172 1.942866683006
-48.520465850830 -71.675140380859 -146.385955810547 1.872042179108
-97.283973693848 -65.496520996094 -148.987228393555 1.067213892937
-101.685234069824 -64.972061157227 -148.453460693359 1.569759726524
18.206415176392 -71.048904418945 -154.161453247070 1.761047005653
13.068803787231 -70.414215087891 -158.480636596680 1.422246217728
-96.835693359375 -68.923927307129 -158.988174438477 1.070081233978
-104.406982421875 -67.292152404785 -153.393951416016 3.556223630905
-101.439353942871 -66.120719909668 -167.618652343750 0.963629305363
20.940074920654 -68.632812500000 -170.309082031250 2.406866073608
-111.654747009277 -66.834899902344 -171.888702392578 3.614352703094
21.592271804810 -69.415061950684 -166.889450073242 1.830475807190
-148.805908203125 -66.599395751953 -175.351409912109 0.919722199440
16.614267349243 -69.003143310547 -176.815979003906 1.085610508919
22.811777114868 -70.064651489258 -186.344314575195 2.373176097870
-153.627960205078 -65.151786804199 -185.403152465820 1.784850955009
20.177034378052 -70.036926269531 -176.822296142578 0.917883038521
17.928335189819 -63.919902801514 -180.849533081055 3.012286186218
-145.028594970703 -69.970497131348 -183.657257080078 3.307631254196
-153.192306518555 -64.160827636719 -188.064529418945 1.673379778862
18.548749923706 -69.344680786133 -188.755462646484 1.727579116821
17.060228347778 -70.915634155273 -190.223342895508 2.282451391220
-143.607940673828 -68.494644165039 -192.695999145508 1.421941518784
-110.504936218262 -67.586563110352 -196.946273803711 1.891426324844
22.380981445313 -69.912246704102 -198.966812133789 2.144385814667
-126.284065246582 -66.752311706543 -193.920028686523 2.811707973480
9.124856948853 -71.202980041504 -200.250244140625 1.929171442986
-131.546081542969 -62.114685058594 -193.465148925781 3.614254951477
-160.782348632813 -64.156410217285 -189.470275878906 6.760467052460
-162.949569702148 -65.698699951172 -195.540588378906 4.324335575104
-160.254577636719 -67.289001464844 -193.909942626953 2.055671691895
-21.766735076904 -68.641136169434 -204.669769287109 2.158160924911
-169.146987915039 -68.314445495605 -198.327148437500 4.816583156586
-27.869884490967 -65.539009094238 -192.723556518555 3.132812976837
-16.976741790771 -69.950294494629 -196.026809692383 0.988793730736
8.371231079102 -64.791786193848 -196.035415649414 3.565129756927
-159.369186401367 -66.357742309570 -202.739257812500 2.649961948395
-109.659637451172 -66.019119262695 -201.540573120117 1.866619348526
-19.012331008911 -65.801910400391 -201.783508300781 3.396589994431
-161.645797729492 -62.320819854736 -200.558868408203 2.892083644867
15.171751976013 -69.416091918945 -201.950820922852 1.274836778641
-170.374145507813 -64.210784912109 -203.811141967773 3.783697366714
-122.340171813965 -69.188819885254 -201.989990234375 2.043027162552
-116.987541198730 -64.511581420898 -206.558486938477 3.147945880890
-124.561798095703 -66.029953002930 -203.463333129883 1.646050095558
-16.397712707520 -67.884796142578 -203.765563964844 2.458285808563
-18.973346710205 -68.904296875000 -204.622467041016 1.432086229324
-165.959579467773 -65.557243347168 -209.591583251953 2.869660615921
-161.736740112305 -64.411613464355 -211.327743530273 2.534653186798
-166.606307983398 -66.610542297363 -218.393966674805 2.896070241928
-143.088150024414 -68.515266418457 -213.195709228516 3.085393428802
-146.590454101563 -66.702278137207 -222.922225952148 2.282118320465
-4.722825050354 -67.330009460449 -220.255035400391 2.465139389038
-11.356751441956 -72.154853820801 -217.141708374023 1.603679776192
-101.748710632324 -65.767662048340 -220.294937133789 2.575282812119
-8.682913780212 -67.496238708496 -232.416229248047 0.886329472065
-168.912506103516 -63.881755828857 -227.877838134766 1.918442010880
-108.655624389648 -65.190856933594 -231.716979980469 2.436361789703
-0.435593008995 -69.010025024414 -226.967697143555 1.039239168167
0.964203000069 -67.984519958496 -230.217758178711 1.562727332115
-113.716773986816 -67.683807373047 -232.398544311523 0.964741826057
-3.350529909134 -69.618759155273 -229.080368041992 1.904717683792
-119.607795715332 -64.373970031738 -233.592483520508 0.834795773029
-9.607784271240 -66.101516723633 -233.397781372070 2.214882373810
-4.114817142487 -67.860893249512 -235.184036254883 0.460845768452
-3.530401945114 -68.549591064453 -237.970794677734 2.435914278030
69.755340576172 -67.403404235840 -237.378967285156 1.269103169441
-12.746713638306 -71.561996459961 -237.805007934570 2.123672246933
5.411483764648 -69.640182495117 -237.589675903320 2.245279073715
9.207063674927 -68.231895446777 -239.520874023438 1.070775508881
3.475712060928 -69.662528991699 -239.188446044922 1.830945134163
0.573581993580 -70.380302429199 -241.436172485352 1.953754544258
62.281787872314 -66.119445800781 -239.429107666016 1.738611578941
67.039451599121 -67.268646240234 -241.137069702148 2.166481018066
6.317942142487 -68.847625732422 -247.282867431641 3.449850559235
52.050559997559 -70.743530273438 -242.966308593750 1.917477726936
53.553344726563 -73.352546691895 -241.431808471680 2.945395231247
44.971546173096 -66.681213378906 -250.069976806641 1.720500111580
39.268524169922 -67.569915771484 -251.937408447266 1.213051080704
38.595436096191 -68.550048828125 -257.051361083984 1.391570210457
-133.971725463867 -63.106933593750 -257.026641845703 1.951611399651
-12.447373390198 -68.281372070313 -250.223175048828 2.385413169861
26.232191085815 -68.238258361816 -258.575714111328 1.450893163681
43.002540588379 -68.786277770996 -248.761535644531 0.760511398315
25.226291656494 -71.649497985840 -254.385833740234 1.624194383621
-105.096740722656 -68.770660400391 -258.146362304688 3.400218486786
29.088714599609 -70.206077575684 -256.796661376953 1.322719335556
-149.378601074219 -68.396728515625 -259.939056396484 1.274408459663
-118.570129394531 -68.382141113281 -256.114044189453 2.275995492935
-111.023529052734 -66.952377319336 -257.242309570313 1.172620058060
-5.777737140656 -70.774971008301 -259.266052246094 3.838616609573
-152.648712158203 -67.714607238770 -256.321044921875 2.822531700134
33.056602478027 -69.238357543945 -262.416992187500 2.605683565140
-111.921318054199 -65.858337402344 -255.994995117188 2.339497566223
23.917739868164 -72.521942138672 -259.691741943359 1.896114468575
-137.227279663086 -68.291503906250 -261.887207031250 2.307740211487
-118.763206481934 -66.085075378418 -263.315032958984 0.392124235630
-111.787025451660 -66.435714721680 -260.652313232422 2.326304197311
-117.307334899902 -71.014305114746 -260.752960205078 2.665526866913
-142.239761352539 -68.019096374512 -256.925079345703 1.955897927284
26.768877029419 -69.778503417969 -260.706634521484 1.244192600250
-119.626304626465 -65.691528320313 -262.286651611328 1.027244329453
-146.636734008789 -68.036140441895 -262.538848876953 2.556008338928
-7.404382228851 -66.892410278320 -270.985382080078 2.962553977966
-153.275741577148 -68.791160583496 -280.122467041016 1.969817638397
-10.891098976135 -69.444892883301 -286.443328857422 3.607516765594
-7.845177173615 -66.691284179688 -283.139068603516 2.526495218277
-136.880767822266 -66.514976501465 -286.851135253906 3.317041158676
-130.145339965820 -67.233512878418 -289.643981933594 1.513940453529
-138.309143066406 -66.705123901367 -293.104370117188 2.656100511551
-129.176589965820 -65.765419006348 -290.997192382813 2.306677818298
-157.497543334961 -66.977836608887 -293.429229736328 3.094983100891
-158.852462768555 -66.823318481445 -299.138946533203 4.864851474762
-150.614746093750 -69.694107055664 -299.991149902344 2.323223114014
-152.520065307617 -67.316940307617 -302.337341308594 1.896051645279
-147.782852172852 -66.582786560059 -298.152313232422 2.511722087860
-152.216445922852 -65.833831787109 -303.238586425781 2.017958879471
-149.070434570313 -64.589569091797 -313.870544433594 3.123885869980
19.813087463379 -71.608268737793 -27.909105300903 0.209065288305
49.629184722900 -72.016227722168 -36.573402404785 2.016984701157
25.680326461792 -74.304878234863 -38.220802307129 3.375673294067
32.703563690186 -70.026092529297 -43.115013122559 1.926843404770
-42.302665710449 -62.334613800049 -47.812961578369 4.444394588470
-76.341850280762 -64.809440612793 -50.122428894043 1.729676008224
80.448608398438 -68.468887329102 -62.539897918701 1.047060966492
74.598297119141 -69.813293457031 -63.289306640625 2.344681739807
71.548637390137 -70.819519042969 -67.214477539063 2.183092355728
-99.375549316406 -66.180969238281 -72.100952148438 4.177845478058
99.137725830078 -72.898628234863 -77.005722045898 1.193335294724
-30.699926376343 -68.538825988770 -82.617271423340 4.552544116974
62.968807220459 -67.635643005371 -77.411056518555 3.474253892899
-43.362918853760 -64.340065002441 -82.566169738770 1.825887799263
-54.134895324707 -64.917381286621 -82.434234619141 1.446382761002
50.491771697998 -69.898742675781 -91.240280151367 2.830906867981
102.024391174316 -69.215980529785 -91.707321166992 1.609471321106
63.768684387207 -66.997749328613 -94.673225402832 0.956961452961
56.458061218262 -67.531013488770 -93.750274658203 1.248718380928
48.282070159912 -66.442375183105 -102.201904296875 1.501656532288
56.248409271240 -65.604843139648 -101.235984802246 2.041042089462
102.743186950684 -67.850234985352 -99.138450622559 0.405124008656
69.305732727051 -68.508392333984 -107.262496948242 3.336178302765
49.691711425781 -68.569152832031 -106.526809692383 1.901704192162
76.053337097168 -73.675308227539 -107.980934143066 5.219713687897
95.173912048340 -66.285408020020 -109.091438293457 2.501547098160
-75.645622253418 -64.828926086426 -101.195610046387 0.142702639103
-87.341400146484 -67.092155456543 -109.698165893555 1.731494069099
-82.776657104492 -67.359764099121 -112.314079284668 1.175753593445
-60.771236419678 -66.032646179199 -118.391494750977 1.762421131134
-57.927127838135 -70.336547851563 -125.753425598145 1.524025082588
-95.274742126465 -65.970146179199 -121.172874450684 1.990598201752
-75.755905151367 -68.000442504883 -119.045341491699 1.637200593948
-77.535514831543 -69.999938964844 -131.908645629883 1.817211151123
-61.571838378906 -64.707260131836 -128.055847167969 0.710143446922
-89.278038024902 -63.132442474365 -129.888900756836 2.786462306976
-90.518798828125 -65.826599121094 -129.553009033203 2.298553705215
-49.025932312012 -70.628952026367 -135.157241821289 0.712276220322
-52.302921295166 -67.735282897949 -136.459274291992 2.010056018829
-78.141296386719 -68.264602661133 -138.054824829102 0.806009471416
-54.861221313477 -68.737442016602 -141.319580078125 2.494120597839
-75.329971313477 -69.580528259277 -143.418167114258 2.382363557816
20.318113327026 -66.162376403809 -139.253448486328 0.979457259178
-58.414508819580 -70.774047851563 -144.550186157227 2.509280204773
-55.890991210938 -64.314186096191 -145.374847412109 2.681403875351
8.124421119690 -71.125953674316 -155.496612548828 0.930896520615
15.775233268738 -66.680168151855 -151.531173706055 0.642520129681
-143.517654418945 -66.154106140137 -173.128784179688 1.808092355728
-111.564491271973 -65.514480590820 -177.392562866211 2.245171070099
-110.974502563477 -63.324375152588 -189.007049560547 2.508862257004
-153.934494018555 -67.329139709473 -190.323715209961 1.303686380386
-114.332771301270 -65.608779907227 -184.974151611328 3.399945497513
-153.418182373047 -62.101810455322 -195.129684448242 1.410266160965
-115.542335510254 -65.020538330078 -197.785522460938 1.135543823242
-151.698867797852 -63.445175170898 -199.273712158203 2.610249280930
-152.052093505859 -65.857513427734 -205.175582885742 1.552243709564
-154.491577148438 -69.302116394043 -206.811431884766 3.359045267105
-149.500717163086 -65.659584045410 -222.834228515625 2.846456289291
-152.029541015625 -68.517089843750 -224.179748535156 1.705268263817
-106.725898742676 -64.531593322754 -225.371963500977 1.706264138222
-103.555725097656 -66.406478881836 -221.809005737305 2.503748178482
-124.981689453125 -62.218761444092 -229.676589965820 2.210740327835
-109.757499694824 -65.926773071289 -225.433853149414 1.487164616585
-158.221908569336 -66.824386596680 -229.474624633789 0.499789476395
-4.628633022308 -67.736274719238 -226.291366577148 1.937618613243
-135.617736816406 -67.809516906738 -229.830825805664 2.844023942947
-155.208084106445 -67.031738281250 -234.031234741211 1.808785080910
-138.744888305664 -68.352180480957 -232.273834228516 2.779045343399
-13.043599128723 -67.283325195313 -236.251495361328 2.319565534592
6.969256877899 -68.639251708984 -243.417373657227 1.716933369637
61.069522857666 -65.354278564453 -241.614822387695 2.285592317581
16.271530151367 -71.457611083984 -249.037567138672 1.450874805450
54.111583709717 -68.654006958008 -244.450012207031 1.199041962624
39.261978149414 -70.467018127441 -250.286346435547 2.597064495087
56.899932861328 -66.893363952637 -252.408309936523 2.422330617905
-154.407150268555 -65.863868713379 -249.166976928711 3.957552909851
-151.491821289063 -69.423515319824 -253.295761108398 1.681915521622
40.777008056641 -67.739295959473 -257.458618164063 2.316877603531
27.386095046997 -68.364715576172 -256.253662109375 2.267212629318
45.767768859863 -66.791877746582 -253.425491333008 1.113865494728
-146.868652343750 -68.746582031250 -258.488037109375 1.771190881729
-138.369522094727 -64.620887756348 -254.352554321289 2.549442052841
-126.923591613770 -64.137237548828 -257.069885253906 0.986236512661
-136.027542114258 -66.407966613770 -255.106689453125 1.783794164658
-142.885116577148 -66.735733032227 -256.918090820313 1.517234921455
-125.722106933594 -65.617378234863 -258.622772216797 1.265566110611
-144.804656982422 -64.470924377441 -259.268829345703 2.407181024551
-128.355789184570 -67.942756652832 -258.612548828125 2.597901582718
-124.533737182617 -66.487144470215 -263.555725097656 0.469532549381
-129.706848144531 -66.811882019043 -263.928039550781 2.237580299377
-122.507202148438 -63.433963775635 -263.242889404297 2.548143386841
-7.409635066986 -68.591293334961 -266.233642578125 1.644157886505
25.896995544434 -66.258529663086 -262.645294189453 0.730979561806
-148.338302612305 -62.503849029541 -265.862274169922 0.870159566402
24.011444091797 -68.988494873047 -269.614776611328 2.377163410187
-7.073644161224 -64.075111389160 -274.630584716797 4.017419815063
14.627255439758 -73.806152343750 -283.962524414063 1.675077795982
-144.044174194336 -66.643714904785 -288.155334472656 2.849172830582
-127.870056152344 -67.496658325195 -286.418457031250 2.312863111496
-134.631332397461 -62.687667846680 -289.407562255859 2.718956708908
-160.911376953125 -61.996654510498 -290.786163330078 5.910982131958
-128.425872802734 -62.055973052979 -288.457672119141 2.876765251160
-120.507507324219 -64.462295532227 -288.434997558594 2.382842779160
-128.132446289063 -68.082481384277 -294.806030273438 2.109426259995
-153.401458740234 -68.531372070313 -292.502563476563 1.564496994019
28.634319305420 -71.735839843750 -12.937554359436 1.459004163742
31.787496566772 -72.404716491699 -17.927658081055 1.080600500107
38.311420440674 -69.133537292480 -20.481603622437 0.861542880535
48.453853607178 -63.538887023926 -24.290451049805 3.054378032684
27.573427200317 -73.404853820801 -28.408384323120 2.002804040909
20.549173355103 -71.609855651855 -34.902534484863 1.041108012199
-34.260993957520 -67.388511657715 -46.276363372803 2.902989864349
-82.376083374023 -67.550308227539 -52.603538513184 1.667677879333
-16.478296279907 -66.964706420898 -58.708244323730 1.334822654724
72.635437011719 -66.834541320801 -65.730216979980 1.861155986786
101.561210632324 -68.155097961426 -69.858757019043 2.796340703964
64.402061462402 -66.862236022949 -83.814491271973 2.784418344498
61.060241699219 -63.764625549316 -83.960021972656 2.419551610947
99.910171508789 -68.812927246094 -85.581466674805 1.714579343796
-64.458129882813 -63.863437652588 -90.222335815430 2.884265899658
-65.845405578613 -66.124351501465 -90.872833251953 3.021917581558
49.210613250732 -65.998634338379 -94.075805664063 0.764697790146
-67.691513061523 -67.559860229492 -95.594406127930 2.569500207901
-72.062957763672 -65.816184997559 -100.421386718750 1.793649435043
-97.183448791504 -64.574287414551 -99.200859069824 1.926407814026
-76.234497070313 -62.850444793701 -99.695709228516 2.572272777557
46.377433776855 -64.902343750000 -102.338920593262 2.744124174118
-68.082138061523 -68.045433044434 -103.046974182129 3.077090024948
48.958110809326 -65.891021728516 -103.774810791016 1.982044100761
95.615997314453 -68.271034240723 -105.845756530762 2.975564718246
90.156311035156 -68.242843627930 -112.324493408203 5.350188255310
-73.563171386719 -65.616783142090 -114.056762695313 1.679700493813
-85.191612243652 -66.637153625488 -111.943084716797 1.995169043541
-62.618663787842 -65.970489501953 -118.848609924316 1.760992884636
-96.892776489258 -62.257301330566 -118.548370361328 2.992677211761
-77.533721923828 -67.614555358887 -126.818954467773 1.605041027069
-94.154289245605 -59.583236694336 -124.782989501953 1.550746679306
-64.044578552246 -64.342773437500 -117.633766174316 1.290812611580
-60.905338287354 -60.633007049561 -120.188301086426 2.114822864532
-89.536209106445 -66.105171203613 -129.026718139648 2.135997772217
-64.143348693848 -69.088035583496 -127.106826782227 3.390873193741
-84.996765136719 -64.743949890137 -132.008422851563 1.548635601997
-80.440139770508 -66.498321533203 -133.428878784180 1.328481674194
-63.048843383789 -69.410415649414 -134.208160400391 1.639665484428
-61.718532562256 -62.461673736572 -134.345825195313 1.909993052483
-55.536697387695 -61.558280944824 -135.276428222656 1.272029995918
-97.150306701660 -63.088253021240 -131.757675170898 5.425787448883
-97.949455261230 -62.986404418945 -143.540863037109 3.808170795441
-89.404914855957 -65.887840270996 -134.433975219727 2.765602827072
19.550336837769 -69.471786499023 -148.942565917969 2.196354627609
-50.904548645020 -66.795097351074 -141.660293579102 0.797637343407
16.956733703613 -66.985427856445 -150.677490234375 1.787775278091
-99.331649780273 -66.085830688477 -163.912597656250 3.046074151993
-104.176895141602 -69.422111511230 -170.740753173828 0.846284687519
-103.637275695801 -62.391338348389 -170.685150146484 3.149402618408
-109.008316040039 -60.824249267578 -170.672683715820 4.150104522705
-108.800590515137 -66.026382446289 -178.886596679688 0.827805519104
-111.845848083496 -64.980155944824 -177.630981445313 2.827789306641
-143.457702636719 -63.363819122314 -186.078689575195 2.152451992035
-113.249084472656 -64.093307495117 -185.777374267578 3.514142036438
-135.128128051758 -62.231861114502 -198.781082153320 2.581229448318
-150.756713867188 -66.687515258789 -197.345260620117 1.503059744835
-127.897773742676 -65.332389831543 -197.212783813477 2.930379629135
-158.286483764648 -66.337188720703 -195.396316528320 2.491122961044
-148.744934082031 -67.867950439453 -200.992202758789 1.964435100555
-126.569938659668 -60.730655670166 -198.032821655273 2.937040090561
-135.998703002930 -63.953517913818 -200.566955566406 2.289205074310
-143.082382202148 -69.531761169434 -205.496597290039 2.096807718277
-133.792999267578 -67.340049743652 -222.646759033203 0.857103824615
-112.322174072266 -66.995330810547 -228.910858154297 1.881016850471
-145.789443969727 -65.906219482422 -227.390441894531 2.063624382019
-120.445739746094 -63.838302612305 -230.387344360352 1.182125091553
-117.445732116699 -61.547927856445 -230.235137939453 3.525475978851
-124.543708801270 -66.129173278809 -232.393585205078 1.474602222443
-132.485595703125 -65.139366149902 -233.607635498047 1.508878946304
-117.462615966797 -62.664020538330 -235.842575073242 3.875256776810
2.638807058334 -66.378234863281 -236.146514892578 0.941662788391
-153.849868774414 -66.544433593750 -236.706115722656 2.444504976273
4.670528888702 -68.235000610352 -235.417938232422 1.256965756416
3.662772893906 -64.071289062500 -242.540100097656 2.644769668579
-0.009344000369 -68.953140258789 -241.640655517578 1.994158029556
12.194414138794 -64.156776428223 -241.203781127930 2.489051342010
-146.250579833984 -63.490409851074 -234.299835205078 2.010612487793
-6.973593235016 -68.227722167969 -247.409286499023 1.970911145210
17.578170776367 -67.039291381836 -241.767593383789 2.349301338196
47.706230163574 -66.182807922363 -250.455245971680 0.994525074959
48.747337341309 -66.352058410645 -251.088897705078 1.632369279861
-148.818893432617 -66.681381225586 -251.507308959961 1.315452694893
-7.843985080719 -67.855636596680 -251.808578491211 1.741265416145
20.788639068604 -68.096549987793 -256.374328613281 2.539481878281
-134.403701782227 -60.437973022461 -257.677154541016 4.278579235077
-126.203262329102 -63.766727447510 -257.923889160156 1.815513372421
-126.905517578125 -66.042358398438 -257.372192382813 1.376528739929
24.392280578613 -67.224464416504 -259.442932128906 2.070812702179
-136.145736694336 -63.100475311279 -264.811187744141 3.792268276215
28.543323516846 -65.582084655762 -261.251464843750 1.097420573235
30.408952713013 -67.727348327637 -264.108276367188 2.754097223282
-155.278839111328 -66.982986450195 -266.114410400391 2.246612787247
-149.234054565430 -70.236709594727 -286.084350585938 2.010154485703
-152.027038574219 -62.017383575439 -287.127868652344 1.142158746719
-146.498092651367 -62.977611541748 -293.436798095703 0.940325021744
9.469312667847 -70.416030883789 -292.716156005859 3.021025419235
-157.095291137695 -62.966434478760 -299.051574707031 5.938950538635
45.875293731689 -72.020988464355 -26.987846374512 0.964481651783
35.327545166016 -73.254280090332 -40.973770141602 2.239655256271
-61.400657653809 -63.342060089111 -45.959793090820 3.037801265717
-72.297012329102 -63.226818084717 -46.409648895264 1.661302685738
-27.182443618774 -63.927032470703 -50.884105682373 2.008800268173
-22.375385284424 -69.090431213379 -54.806434631348 1.301592588425
-11.724224090576 -62.859958648682 -67.158355712891 2.003303527832
-26.746646881104 -62.690612792969 -70.114791870117 2.591529130936
64.445091247559 -67.109313964844 -74.948509216309 2.397890090942
-97.302459716797 -59.947071075439 -78.396018981934 2.914620876312
-47.020381927490 -65.948760986328 -86.353988647461 2.109544038773
54.025131225586 -68.280158996582 -86.951652526855 1.844393372536
58.052314758301 -67.248237609863 -87.600646972656 2.974929094315
61.620655059814 -67.810371398926 -89.941139221191 1.229722142220
105.623115539551 -67.046691894531 -92.352828979492 0.769328653812
51.611919403076 -64.524719238281 -91.912811279297 1.245472908020
98.236602783203 -63.528705596924 -101.803382873535 2.364960432053
-82.782005310059 -66.882934570313 -103.054748535156 0.888744711876
-94.880928039551 -64.943618774414 -101.527732849121 3.147087335587
74.432937622070 -64.196136474609 -113.291435241699 3.745506763458
-78.306701660156 -64.509193420410 -103.629745483398 2.123177051544
-78.678207397461 -68.983924865723 -114.598136901855 0.489969253540
-84.987312316895 -69.277107238770 -118.775375366211 1.530387401581
-56.359886169434 -66.565742492676 -126.685012817383 1.485565066338
-78.516265869141 -65.432441711426 -128.706436157227 1.763499140739
-63.550102233887 -62.470939636230 -129.617416381836 1.841330170631
-85.016540527344 -66.601684570313 -134.813858032227 2.065262079239
-76.977005004883 -63.967624664307 -132.958618164063 1.224292039871
-80.729492187500 -62.150054931641 -125.285911560059 1.263727664948
-89.732498168945 -63.314006805420 -130.138198852539 3.137496709824
-66.678291320801 -62.634021759033 -134.409118652344 3.736295938492
-91.616638183594 -64.608154296875 -132.597671508789 2.255170822144
-51.125007629395 -67.241714477539 -133.636276245117 1.846196174622
-56.863044738770 -69.490150451660 -139.201660156250 1.401321887970
26.672811508179 -66.594482421875 -140.469879150391 2.751140832901
-57.938266754150 -60.196121215820 -137.128738403320 1.718312144279
14.079511642456 -70.106025695801 -144.856903076172 2.926839113235
15.274742126465 -65.489944458008 -148.939086914063 1.785218596458
16.583498001099 -63.192710876465 -154.261184692383 2.240078210831
-99.096740722656 -63.368682861328 -144.955047607422 3.758259296417
-92.527587890625 -65.083938598633 -149.877258300781 3.423488140106
-97.380767822266 -61.524986267090 -151.022186279297 1.792475700378
-106.120864868164 -64.923866271973 -160.962356567383 2.218002080917
-98.850845336914 -63.612850189209 -158.967529296875 1.675470352173
-153.380981445313 -64.078010559082 -174.764389038086 1.836757659912
-155.222396850586 -64.153244018555 -175.119461059570 3.276571750641
-111.864562988281 -62.667144775391 -181.340484619141 3.445708036423
-143.305358886719 -62.097560882568 -176.965911865234 2.037447214127
-111.429824829102 -61.564140319824 -180.951416015625 2.428080797195
-151.199249267578 -58.273612976074 -186.431289672852 4.602326869965
-113.077774047852 -61.650955200195 -191.897918701172 1.889203429222
-111.818298339844 -64.790588378906 -183.511047363281 2.413800954819
-145.656723022461 -63.743148803711 -198.257415771484 1.519240975380
-131.910430908203 -65.489173889160 -196.190078735352 1.903180241585
-108.843879699707 -64.731857299805 -197.410522460938 0.722688317299
-117.575447082520 -59.811767578125 -198.538711547852 4.040439605713
-114.582069396973 -65.099708557129 -200.005172729492 1.368181943893
-117.687477111816 -60.684131622314 -202.261993408203 2.204405784607
-135.844314575195 -61.785030364990 -196.973846435547 3.278176546097
-140.056152343750 -63.850063323975 -202.210098266602 2.030797719955
-132.698974609375 -62.799549102783 -206.501205444336 2.317023754120
-129.111831665039 -59.700447082520 -200.778915405273 3.748512268066
-126.126419067383 -63.019824981689 -204.400802612305 1.248810887337
-115.451332092285 -63.418529510498 -204.304733276367 2.613079786301
-149.831130981445 -63.192977905273 -213.260498046875 2.314484834671
-153.881668090820 -63.665348052979 -219.329849243164 3.451724529266
-154.904479980469 -62.612865447998 -221.818115234375 3.793692827225
-142.329544067383 -68.424369812012 -224.625747680664 1.861828923225
-133.928665161133 -60.555290222168 -226.628829956055 3.592318534851
-124.246688842773 -65.991569519043 -219.991561889648 5.000817775726
-142.795410156250 -65.702209472656 -228.344604492188 0.639852106571
-153.126022338867 -65.785903930664 -225.466171264648 2.453544855118
-136.009750366211 -65.006004333496 -225.774078369141 2.151146173477
-135.404891967773 -61.366638183594 -227.902252197266 2.254103183746
-149.629043579102 -64.193649291992 -228.740341186523 1.411526322365
-136.747879028320 -58.890090942383 -229.249801635742 4.948869705200
-129.618545532227 -62.752864837646 -230.154220581055 2.921923875809
-12.637582778931 -68.134246826172 -237.490249633789 1.163416743279
2.863823890686 -64.892585754395 -241.314773559570 1.545111894608
11.637593269348 -62.124122619629 -243.758895874023 0.230171471834
7.342918872833 -68.532218933105 -244.417037963867 2.188668966293
-10.499084472656 -68.101112365723 -240.570022583008 2.170707225800
-14.489124298096 -66.256263732910 -247.311660766602 2.002583980560
35.853080749512 -65.103057861328 -251.323303222656 3.135483264923
45.648986816406 -66.366302490234 -253.987838745117 1.510875344276
-148.183990478516 -62.486278533936 -253.442718505859 1.613428592682
39.783691406250 -64.934242248535 -255.993835449219 2.598368167877
36.155838012695 -67.433975219727 -254.445175170898 1.974942326546
-160.808319091797 -66.874954223633 -256.500457763672 2.710609674454
-153.132141113281 -63.244895935059 -256.577148437500 0.702074050903
-153.129119873047 -66.861618041992 -258.576812744141 2.496016502380
0.248427003622 -67.079307556152 -264.204711914063 1.986170053482
-153.350433349609 -64.287384033203 -265.896697998047 1.826653122902
-2.902050971985 -66.349418640137 -274.903961181641 3.795281171799
-148.939163208008 -66.154525756836 -274.007537841797 2.090504169464
-150.428619384766 -64.085044860840 -280.812774658203 1.625773072243
-153.720626831055 -63.733757019043 -284.233612060547 2.194903850555
-152.395706176758 -57.889488220215 -282.774993896484 4.440175533295
-147.890853881836 -62.418407440186 -288.607177734375 2.979163646698
-157.960968017578 -62.936500549316 -284.414367675781 1.992124199867
-153.821502685547 -63.709548950195 -285.336791992188 2.275820732117
-154.297241210938 -61.493793487549 -286.720916748047 1.254684329033
-150.211410522461 -63.216857910156 -286.652709960938 2.482029676437
-146.650650024414 -63.348220825195 -286.455200195313 1.407285213470
8.789442062378 -67.510108947754 -285.865478515625 4.388491153717
-149.615722656250 -63.338100433350 -292.496582031250 2.326602935791
-159.742904663086 -60.387050628662 -290.617279052734 5.807704448700
-157.884368896484 -59.330669403076 -287.775146484375 4.440824508667
-153.347183227539 -61.780418395996 -292.468627929688 2.685400962830
-151.447814941406 -58.340717315674 -288.450195312500 3.207209110260
-149.373352050781 -65.067024230957 -291.130432128906 1.541311025620
1.336974978447 -67.583770751953 -293.120971679688 2.405809164047
-146.877059936523 -61.728797912598 -293.620941162109 1.871314764023
-150.554244995117 -60.697128295898 -292.586975097656 2.188241481781
29.280845642090 -60.177845001221 -17.516323089600 2.128297805786
42.352199554443 -70.763473510742 -21.489475250244 1.349521636963
42.861209869385 -63.479080200195 -22.593130111694 1.102614164352
17.830764770508 -70.840774536133 -32.289001464844 1.633865833282
26.793958663940 -58.155334472656 -36.029331207275 1.485232234001
37.550922393799 -67.872192382813 -36.905517578125 2.135319471359
-56.631973266602 -62.731838226318 -44.428619384766 2.368111610413
-50.839298248291 -64.107543945313 -42.207553863525 3.624324798584
89.628837585449 -66.924896240234 -65.796188354492 2.458657264709
-95.997200012207 -61.952499389648 -65.026657104492 1.471683502197
95.938369750977 -74.181838989258 -64.381187438965 6.287525653839
67.625541687012 -67.472694396973 -71.157691955566 2.330000638962
100.105712890625 -68.837638854980 -79.316535949707 3.570289611816
63.176017761230 -70.042236328125 -77.393852233887 3.453924417496
-42.422027587891 -65.344223022461 -77.941650390625 2.556316137314
59.536090850830 -63.219474792480 -82.992027282715 2.050474643707
-53.992313385010 -61.444927215576 -78.548980712891 1.546351671219
58.436645507813 -65.525756835938 -85.288650512695 1.110403895378
61.826599121094 -63.667331695557 -86.507278442383 0.317427575588
-98.761428833008 -63.530670166016 -83.153495788574 2.138989686966
51.050823211670 -64.736648559570 -87.362854003906 3.524195432663
51.322959899902 -70.017913818359 -94.100387573242 1.892929434776
64.273307800293 -67.425674438477 -93.314117431641 1.619828343391
51.720607757568 -64.770149230957 -97.423759460449 2.131414651871
-81.706863403320 -62.320953369141 -106.382209777832 2.783051729202
82.169692993164 -70.106956481934 -107.262504577637 2.543960332870
-81.758819580078 -66.612670898438 -117.169197082520 2.371158123016
-77.522132873535 -62.041912078857 -106.356979370117 1.601350903511
-80.624710083008 -64.931312561035 -122.217887878418 1.808095097542
-86.710250854492 -63.004936218262 -114.599006652832 0.482384890318
-94.592704772949 -61.722255706787 -119.366149902344 2.732060909271
-81.410850524902 -64.720405578613 -122.599639892578 1.160714030266
-53.635681152344 -62.174243927002 -125.740295410156 1.146312832832
-79.091972351074 -62.061203002930 -134.339538574219 2.587904691696
-57.700447082520 -59.612575531006 -130.531875610352 1.594277620316
-89.203041076660 -61.480487823486 -136.517837524414 2.331868648529
28.494356155396 -64.799438476563 -138.702560424805 0.583299398422
18.528327941895 -65.613204956055 -141.470062255859 2.032808780670
-94.123535156250 -56.166820526123 -141.792419433594 6.202538013458
19.680393218994 -66.789627075195 -149.088027954102 0.990938782692
-91.259735107422 -65.689918518066 -145.955307006836 1.481128931046
-95.185676574707 -59.634540557861 -147.138275146484 3.265628814697
17.639328002930 -65.649597167969 -159.079772949219 4.249355792999
-97.139076232910 -62.380893707275 -146.412948608398 2.216841220856
-99.276062011719 -61.213359832764 -147.066619873047 3.462016105652
-104.520614624023 -62.232067108154 -156.074462890625 3.623855590820
-97.212875366211 -62.775516510010 -160.718322753906 0.774373829365
-105.456115722656 -64.861579895020 -177.484054565430 1.264089584351
-110.155586242676 -67.762222290039 -168.307113647461 2.866070985794
-100.657432556152 -63.500049591064 -164.748229980469 4.086511135101
-106.834777832031 -63.538272857666 -168.811157226563 1.534186959267
-142.107849121094 -63.878803253174 -177.213363647461 2.090402364731
-111.414115905762 -62.668693542480 -177.540054321289 2.120573043823
-142.843383789063 -62.534854888916 -186.806579589844 1.910051465034
-150.092056274414 -59.956054687500 -189.191619873047 3.728016614914
-154.377029418945 -59.254570007324 -188.891708374023 6.004325389862
-124.364738464355 -60.949100494385 -195.777587890625 2.270413875580
-131.538299560547 -64.942710876465 -194.906021118164 1.382454156876
-123.971900939941 -61.394344329834 -199.775756835938 0.720537722111
-144.786575317383 -64.786842346191 -200.982635498047 1.320432782173
-125.228309631348 -65.450134277344 -203.085113525391 2.507412433624
-148.033813476563 -63.526950836182 -203.452896118164 1.406349420547
-153.016708374023 -62.478473663330 -204.744262695313 1.708349704742
-156.686676025391 -60.891426086426 -226.667663574219 2.800308704376
-144.711700439453 -67.213890075684 -230.696334838867 1.651124119759
-129.409439086914 -61.101154327393 -231.245498657227 4.723796367645
-155.680984497070 -60.669696807861 -229.684661865234 1.758748531342
-4.921614170074 -69.274147033691 -239.287017822266 1.939658761024
10.461196899414 -62.704689025879 -239.565368652344 1.910148024559
-4.514886856079 -68.044700622559 -243.827728271484 3.410828590393
-151.571868896484 -61.465641021729 -244.005081176758 1.589086413383
-9.760658264160 -63.140407562256 -243.743347167969 2.944052934647
-153.210525512695 -65.958854675293 -252.497161865234 2.071336269379
-8.679860115051 -67.787940979004 -249.904495239258 1.431936860085
-151.595031738281 -63.813995361328 -252.971054077148 1.878565788269
19.817087173462 -67.347862243652 -253.198059082031 4.075958251953
-154.497985839844 -58.807128906250 -254.386795043945 4.118687629700
-151.280761718750 -62.086627960205 -254.367446899414 0.858657777309
-154.706207275391 -61.974735260010 -253.313415527344 1.330940842628
-151.592437744141 -60.983810424805 -256.892852783203 1.528281092644
31.709486007690 -65.644676208496 -259.021026611328 1.567646741867
28.584999084473 -64.972244262695 -264.252807617188 0.652291774750
-148.124328613281 -62.287380218506 -255.164001464844 1.589564561844
-153.683715820313 -58.619880676270 -259.406097412109 4.877457618713
-156.376815795898 -64.614372253418 -259.039428710938 1.618491530418
-149.449569702148 -60.159248352051 -258.953369140625 2.857688426971
24.885639190674 -64.173316955566 -263.374267578125 1.480051994324
26.870738983154 -64.991737365723 -266.668579101563 2.546513795853
-156.169311523438 -63.185668945313 -261.992187500000 0.182750254869
-145.574676513672 -61.889751434326 -262.459228515625 1.792850732803
-151.855453491211 -59.376224517822 -262.392974853516 2.686949253082
-146.419403076172 -61.664451599121 -263.388519287109 1.300364375114
-147.069122314453 -64.510139465332 -262.834716796875 1.883196949959
-149.505645751953 -65.711013793945 -264.899200439453 1.656288146973
-150.656158447266 -60.194599151611 -265.145599365234 2.899190187454
-152.469924926758 -59.235187530518 -284.696014404297 3.183673620224
-150.534927368164 -61.947856903076 -281.476989746094 0.675545156002
-150.494979858398 -62.278114318848 -278.846130371094 2.797623634338
14.815091133118 -65.419242858887 -282.907135009766 2.345251083374
-156.496337890625 -59.588626861572 -284.216003417969 4.725375652313
-149.363815307617 -61.282382965088 -287.238281250000 2.350582599640
-7.471508979797 -69.939620971680 -287.927612304688 0.984785974026
2.534050941467 -64.801109313965 -293.022369384766 2.970231771469
-154.519683837891 -62.960788726807 -294.008605957031 2.212665796280
27.078996658325 -71.816719055176 -22.523923873901 1.744429945946
45.501216888428 -66.003791809082 -29.337865829468 2.255774736404
49.637874603271 -71.416328430176 -33.732559204102 2.555401563644
41.184688568115 -62.050983428955 -35.940666198730 2.165994882584
25.347763061523 -72.415565490723 -37.967227935791 1.786759018898
44.828514099121 -69.950874328613 -41.076301574707 1.585395455360
79.635513305664 -63.493778228760 -63.460952758789 3.767614841461
76.647102355957 -66.028823852539 -63.552742004395 2.301501989365
-16.547393798828 -64.995529174805 -69.607086181641 2.646233558655
66.872192382813 -62.780139923096 -72.290092468262 2.128846168518
-28.326452255249 -66.785278320313 -73.813095092773 1.809751868248
-34.862876892090 -68.360122680664 -79.907844543457 2.849989652634
-57.155670166016 -62.031642913818 -76.424171447754 3.120069742203
-54.844081878662 -60.748199462891 -79.294944763184 0.756567001343
63.648063659668 -69.678817749023 -83.567794799805 2.204432010651
106.294105529785 -70.657943725586 -91.144912719727 3.342634439468
-60.871364593506 -61.057220458984 -86.235931396484 0.628337919712
56.441013336182 -65.687980651855 -96.890480041504 2.244080305099
63.301521301270 -63.524330139160 -94.922927856445 2.185814142227
102.969375610352 -65.918342590332 -96.126792907715 1.330547213554
-66.538658142090 -65.652839660645 -93.656303405762 1.681447625160
54.771053314209 -61.708202362061 -97.052124023438 2.220879793167
-66.446517944336 -66.546424865723 -105.072967529297 3.420017480850
67.581520080566 -66.528938293457 -97.914466857910 1.010190963745
67.037178039551 -65.077613830566 -104.331306457520 2.395136594772
-75.488975524902 -61.689987182617 -108.331550598145 1.419809579849
-98.138504028320 -60.381992340088 -111.839874267578 2.697744846344
-70.445350646973 -57.923053741455 -110.809455871582 2.101445674896
-84.315460205078 -63.758045196533 -111.284019470215 1.829466938972
-63.589447021484 -64.865005493164 -114.855522155762 1.469423651695
-84.721969604492 -60.532318115234 -109.032241821289 3.301375627518
-77.331985473633 -63.547504425049 -115.092559814453 0.649994313717
-77.418823242188 -64.905212402344 -115.826004028320 0.895525634289
-69.107429504395 -65.757934570313 -119.779937744141 3.737233638763
-85.573425292969 -65.111526489258 -125.938667297363 2.168027400970
33.941234588623 -64.381057739258 -128.941299438477 2.694726705551
-50.671222686768 -63.243480682373 -129.511520385742 2.709226846695
30.629516601563 -64.094367980957 -135.075332641602 2.102803707123
29.827045440674 -65.332031250000 -133.343444824219 2.171443939209
29.723136901855 -66.504280090332 -133.097991943359 2.861153602600
-54.326141357422 -61.547283172607 -132.409866333008 1.174371004105
19.981838226318 -64.525260925293 -146.671005249023 0.999181807041
22.325832366943 -65.112503051758 -144.875701904297 2.683076620102
-146.962936401367 -62.549163818359 -176.462997436523 2.508310079575
-151.642684936523 -58.213809967041 -174.317321777344 3.806227684021
-153.667785644531 -61.408821105957 -180.687438964844 2.577755451202
-148.800186157227 -59.483341217041 -184.545516967773 3.270706176758
-150.071533203125 -62.248020172119 -191.163467407227 2.796050548553
-150.791046142578 -63.759044647217 -192.149139404297 2.988078355789
-142.458511352539 -63.832172393799 -192.263214111328 2.856238365173
-145.737258911133 -59.098751068115 -199.225311279297 2.330751419067
-123.672332763672 -64.107177734375 -199.462951660156 0.768442392349
