-152.772277832031 -73.518486022949 -194.771026611328 3.173218250275
99.665054321289 -78.595985412598 -191.246704101563 3.816479444504
-46.284309387207 -73.115318298340 -194.257980346680 2.360620737076
-15.974067687988 -77.133956909180 -198.384246826172 1.164996504784
-141.664337158203 -74.475601196289 -196.234420776367 1.050890564919
-44.737548828125 -73.260620117188 -197.997985839844 3.321342229843
100.491424560547 -76.595870971680 -195.377700805664 2.313282728195
105.235061645508 -76.087463378906 -183.880355834961 1.407936334610
-46.026039123535 -75.194129943848 -196.758132934570 1.793530941010
-24.784448623657 -80.622726440430 -198.151565551758 2.554888963699
-149.532104492188 -77.990951538086 -201.756835937500 1.898714542389
-26.629859924316 -76.036666870117 -196.960494995117 1.972023010254
-159.004547119141 -74.821189880371 -199.897186279297 4.393135547638
-154.303482055664 -79.332283020020 -206.036682128906 2.328477859497
-144.752319335938 -75.977127075195 -203.636215209961 1.473348855972
-39.988338470459 -75.889091491699 -200.111648559570 1.383897185326
99.647903442383 -77.681152343750 -200.009780883789 1.738489866257
-42.531276702881 -73.537048339844 -199.977600097656 2.044525623322
-144.788208007813 -77.338844299316 -206.762374877930 2.388503551483
-39.276580810547 -72.179054260254 -205.947265625000 0.697343647480
-22.210248947144 -79.276443481445 -210.017059326172 3.909757852554
95.513732910156 -78.600837707520 -203.620758056641 2.158478736877
89.906379699707 -77.610763549805 -211.735458374023 1.586954593658
-35.729068756104 -73.646591186523 -217.316619873047 4.284616947174
-88.888206481934 -75.507240295410 -211.960510253906 2.113523483276
-77.089668273926 -75.227729797363 -212.512466430664 1.203045248985
-20.043527603149 -75.461860656738 -213.743011474609 2.842109680176
-151.324127197266 -74.827835083008 -207.726989746094 1.877536296844
88.811302185059 -76.677444458008 -211.928192138672 2.144786596298
87.625221252441 -74.827362060547 -216.659011840820 1.852737307549
88.893196105957 -76.544296264648 -218.547988891602 2.220468521118
-103.561691284180 -74.139968872070 -221.400024414063 1.917769193649
-154.329681396484 -75.924148559570 -223.941955566406 3.216884613037
-21.256072998047 -73.963111877441 -222.617080688477 1.633412361145
78.717666625977 -74.034980773926 -224.588592529297 1.357516288757
-150.898208618164 -76.845214843750 -225.890380859375 1.092281579971
-29.360118865967 -76.190719604492 -219.122711181641 2.366774082184
-134.608352661133 -72.163505554199 -232.880462646484 0.570102095604
-13.029143333435 -77.347229003906 -229.933151245117 2.550312757492
16.252349853516 -74.884613037109 -225.510818481445 1.978307723999
18.522718429565 -76.267852783203 -232.184570312500 1.348277568817
-155.952453613281 -76.332595825195 -236.226684570313 4.032454967499
-126.978347778320 -70.578674316406 -234.208114624023 1.784562349319
-9.315464973450 -74.325241088867 -235.047119140625 1.846263408661
-1.013417959213 -74.381660461426 -236.935562133789 0.835969567299
68.045204162598 -75.710342407227 -231.660369873047 1.579387903214
69.593917846680 -73.320045471191 -236.648544311523 1.250137567520
-1.416610956192 -73.638137817383 -239.970565795898 1.448861837387
15.370336532593 -71.901084899902 -239.136108398438 1.516353845596
-31.171108245850 -69.000007629395 -240.636245727539 6.618214130402
-34.797008514404 -80.004051208496 -241.796768188477 1.211137771606
-47.942165374756 -73.854827880859 -239.084396362305 0.340503513813
-40.291294097900 -72.577789306641 -241.192016601563 2.490355491638
-18.499034881592 -75.890258789063 -242.733230590820 1.324458956718
-53.426696777344 -72.626274108887 -244.280502319336 1.817668199539
0.861276984215 -75.124320983887 -244.800659179688 1.706448197365
-69.200668334961 -74.650627136230 -244.873306274414 2.001245021820
19.715421676636 -75.795143127441 -246.556518554688 0.365722477436
-145.139129638672 -75.243179321289 -246.897018432617 1.593728303909
-73.598823547363 -76.035652160645 -252.472412109375 1.586352229118
14.354840278625 -76.426513671875 -248.711959838867 2.831250905991
-162.263946533203 -71.735916137695 -251.440948486328 2.576608419418
14.132813453674 -78.002525329590 -252.358596801758 2.692287921906
-80.857627868652 -69.999237060547 -251.547393798828 2.368987083435
-76.120811462402 -74.359970092773 -251.650939941406 1.048625826836
18.736915588379 -76.232521057129 -254.513046264648 1.731492042542
-90.094352722168 -72.886390686035 -253.204879760742 0.489959955215
-126.543373107910 -70.576766967773 -256.597534179688 3.292928934097
-134.390335083008 -75.068275451660 -261.200561523438 1.630968570709
-135.974273681641 -75.189949035645 -256.462615966797 1.685732960701
-147.911941528320 -73.280014038086 -262.743103027344 3.119797706604
-145.200027465820 -70.553649902344 -256.842010498047 1.439985156059
-135.622192382813 -71.243156433105 -263.367095947266 1.889653205872
-162.458236694336 -69.986763000488 -262.756317138672 0.722904562950
-127.763320922852 -71.906311035156 -267.706298828125 2.747138738632
-136.094299316406 -69.359680175781 -264.184570312500 1.294621348381
-164.406280517578 -69.841148376465 -269.396820068359 2.719619750977
-157.472854614258 -70.153747558594 -266.057922363281 1.425899147987
-150.073043823242 -70.946289062500 -267.351837158203 0.954539895058
-148.795043945313 -72.850379943848 -267.484252929688 1.990342140198
16.076957702637 -76.695755004883 -278.067016601563 2.155625820160
-166.853134155273 -72.040336608887 -269.169342041016 2.179563999176
-152.560134887695 -72.990028381348 -275.359924316406 1.483778715134
-6.495052814484 -80.873687744141 -272.981323242188 1.789895057678
-157.913482666016 -70.252052307129 -274.488281250000 2.741817474365
11.600939750671 -77.674644470215 -281.545074462891 2.119748115540
-152.813278198242 -71.648590087891 -283.729888916016 2.767064094543
-164.979751586914 -72.538459777832 -289.824768066406 2.498263120651
-155.463806152344 -73.739189147949 -282.237762451172 3.221252202988
-165.555191040039 -70.189804077148 -289.780975341797 2.847701072693
0.846036016941 -76.265090942383 -287.167480468750 2.020256996155
6.740849971771 -78.179870605469 -282.699371337891 1.260568261147
-102.425186157227 -70.974105834961 -291.971099853516 2.301901578903
-154.458404541016 -75.825134277344 -289.675811767578 1.135035634041
-148.769134521484 -70.202957153320 -287.715332031250 1.430983781815
-107.746589660645 -71.383041381836 -291.893157958984 2.382142543793
-152.659057617188 -73.747367858887 -293.785980224609 1.186698436737
-148.948867797852 -74.538818359375 -291.241485595703 0.709075152874
-72.579788208008 -74.997169494629 -293.291564941406 3.099414587021
-166.253143310547 -73.262802124023 -291.577789306641 2.660218954086
-123.523429870605 -69.497993469238 -292.828155517578 0.571161925793
-43.698970794678 -76.483184814453 -288.281616210938 1.940775752068
-153.846557617188 -71.557830810547 -290.380767822266 2.350144863129
-133.512435913086 -67.955993652344 -294.995758056641 3.341629981995
-19.008546829224 -71.515197753906 -293.744323730469 2.742293834686
-128.391708374023 -69.496444702148 -294.897674560547 2.365734338760
5.418137073517 -74.588905334473 -293.986145019531 1.567418336868
14.952586174011 -72.021583557129 -291.994812011719 1.599734663963
-133.977111816406 -69.432304382324 -293.329986572266 1.850417017937
-146.035339355469 -72.940475463867 -298.976623535156 0.439876675606
-156.316787719727 -73.110542297363 -315.825714111328 2.851194858551
-75.601356506348 -73.176826477051 -53.171966552734 3.727799654007
-25.597450256348 -72.925811767578 -63.929512023926 2.702799320221
-23.661203384399 -79.403778076172 -65.252960205078 3.430147171021
69.382423400879 -76.657844543457 -75.785934448242 2.786048412323
87.746177673340 -78.491508483887 -74.273490905762 3.671146392822
-40.210372924805 -76.660316467285 -79.356040954590 2.096800088882
72.071868896484 -77.947563171387 -78.247817993164 2.265125036240
86.276420593262 -81.831436157227 -80.853172302246 4.636281490326
64.782409667969 -78.242149353027 -82.363876342773 7.008924007416
69.592117309570 -77.526351928711 -87.554527282715 3.842882394791
-52.907577514648 -78.049758911133 -86.912971496582 3.527864456177
-94.928070068359 -78.170028686523 -89.619522094727 3.559756755829
55.666728973389 -79.824661254883 -92.879165649414 5.297762870789
47.122814178467 -79.173057556152 -98.159332275391 1.694393157959
90.821495056152 -75.976013183594 -97.654960632324 2.413559913635
-95.064964294434 -72.021606445313 -102.876922607422 2.988408327103
78.991744995117 -75.162750244141 -97.823257446289 2.266724824905
70.128410339355 -78.388175964355 -98.856590270996 3.478038311005
88.685111999512 -79.885498046875 -96.884651184082 4.359056472778
80.225082397461 -77.826202392578 -96.670440673828 3.134518384933
79.997108459473 -80.730270385742 -97.282264709473 4.408185005188
-88.273406982422 -77.557746887207 -103.576057434082 3.014857530594
39.633743286133 -76.177581787109 -106.028518676758 2.081455230713
102.639877319336 -79.045265197754 -109.170463562012 4.747369766235
105.265419006348 -78.698600769043 -109.139755249023 3.746298789978
45.407360076904 -79.584022521973 -118.011703491211 1.429560303688
108.456977844238 -80.187789916992 -119.447677612305 3.687475442886
114.126419067383 -80.409896850586 -133.234634399414 2.852270603180
-53.929710388184 -73.815414428711 -131.890167236328 0.734957814217
24.870759963989 -76.288238525391 -134.013748168945 3.679809093475
38.081535339355 -79.271072387695 -132.952453613281 2.373317003250
22.753662109375 -74.038619995117 -142.255920410156 1.371327042580
110.497222900391 -80.210418701172 -136.769073486328 3.520832300186
109.231636047363 -78.592384338379 -130.179870605469 3.205506324768
-75.902999877930 -75.033515930176 -149.251052856445 3.999262094498
-46.316658020020 -74.940475463867 -143.430099487305 1.777000546455
-73.462631225586 -73.280242919922 -152.262496948242 1.405175924301
17.430547714233 -74.966049194336 -149.312088012695 3.624423265457
110.253883361816 -75.575805664063 -147.783554077148 2.619997262955
-55.913497924805 -76.367370605469 -151.683425903320 3.072239637375
-73.502113342285 -73.738822937012 -151.977905273438 1.241792559624
-41.200908660889 -78.388053894043 -153.036743164063 1.922065854073
30.171627044678 -71.864448547363 -152.625747680664 1.952207565308
107.773796081543 -74.747177124023 -149.589523315430 2.064059257507
113.233276367188 -76.337936401367 -158.933486938477 1.941309452057
-70.417655944824 -72.043937683105 -155.963348388672 1.893579363823
-74.800773620605 -76.250465393066 -162.187652587891 4.337686061859
19.594612121582 -79.117401123047 -163.020904541016 3.080656051636
-62.121475219727 -72.779319763184 -167.648071289063 0.949501276016
-34.895561218262 -73.925720214844 -162.899200439453 2.490644931793
5.754498958588 -76.855804443359 -163.318328857422 1.210179328918
106.639373779297 -75.327621459961 -160.142745971680 1.417881846428
5.760284900665 -78.332229614258 -166.864776611328 3.498766899109
-34.905025482178 -75.453063964844 -166.116760253906 0.618810117245
-3.953722000122 -71.839500427246 -165.698913574219 3.463468551636
105.590675354004 -74.252655029297 -166.545623779297 1.219560503960
-43.432491302490 -72.622947692871 -166.113006591797 2.119020462036
27.249099731445 -73.262557983398 -171.725906372070 2.788348913193
110.982749938965 -79.706771850586 -170.920303344727 3.056832313538
-59.123046875000 -71.808029174805 -176.949920654297 2.356739759445
-30.166191101074 -77.307121276855 -175.073425292969 2.703418970108
101.021141052246 -76.835494995117 -172.715499877930 4.876310348511
27.127502441406 -74.129524230957 -169.242446899414 1.568181872368
105.643775939941 -78.483634948730 -173.731369018555 3.835908889771
-38.757808685303 -71.844520568848 -178.623123168945 2.946257591248
106.480964660645 -79.042625427246 -179.250595092773 2.089531898499
-63.749336242676 -72.195030212402 -178.438766479492 5.025907993317
-27.439315795898 -78.481597900391 -179.270507812500 1.219063043594
-148.150436401367 -68.744865417480 -185.569534301758 1.881136894226
-55.989784240723 -73.616165161133 -181.467773437500 2.501708507538
-148.870223999023 -73.398567199707 -188.349380493164 1.317684054375
-35.831901550293 -72.705703735352 -185.471450805664 1.824829220772
25.006578445435 -78.998435974121 -181.445648193359 2.232612371445
104.652404785156 -77.133071899414 -181.852432250977 0.522434175014
-35.826992034912 -74.839752197266 -184.367813110352 1.824152946472
9.288096427917 -75.706268310547 -190.651184082031 2.100360393524
15.803944587708 -74.552566528320 -203.305480957031 2.416500806808
-149.860763549805 -73.533020019531 -191.840652465820 1.771446943283
103.404975891113 -78.239952087402 -194.155517578125 2.312355756760
-22.954620361328 -72.397796630859 -193.442916870117 2.304553508759
99.597244262695 -77.227272033691 -186.892410278320 4.207036018372
11.204668045044 -72.918106079102 -189.236694335938 1.754171609879
-138.372665405273 -72.481834411621 -205.629699707031 3.863920688629
-140.332550048828 -72.549430847168 -201.839187622070 1.163513422012
98.704681396484 -78.493400573730 -200.015884399414 1.734538793564
-13.483153343201 -78.111618041992 -200.654937744141 1.615942597389
-17.860118865967 -75.342689514160 -203.213119506836 3.072825193405
9.100513458252 -76.631515502930 -207.253738403320 1.531723737717
-151.431884765625 -70.988533020020 -207.984832763672 2.127076148987
-147.660614013672 -73.852523803711 -210.152908325195 2.449598550797
98.652320861816 -72.045783996582 -203.176971435547 1.442616581917
-83.585159301758 -73.011535644531 -209.315185546875 2.955329418182
-37.555892944336 -74.788734436035 -202.169555664063 2.430969476700
17.445617675781 -77.208007812500 -213.127731323242 2.245542287827
-26.567049026489 -74.627052307129 -211.480422973633 1.331600070000
-77.918830871582 -71.951324462891 -208.908355712891 1.623766899109
89.605400085449 -75.817329406738 -208.450042724609 3.685966253281
-81.726089477539 -71.089988708496 -213.452285766602 1.958970189095
-148.590774536133 -72.669479370117 -220.701171875000 2.433416128159
-81.271591186523 -72.135925292969 -214.341064453125 1.181731820107
-14.566935539246 -69.918815612793 -209.977386474609 1.984602212906
-21.876443862915 -71.698287963867 -219.144454956055 1.877105832100
17.168863296509 -74.605079650879 -213.031631469727 0.891124129295
-6.741843223572 -75.592941284180 -219.616531372070 2.327017545700
-89.542098999023 -76.184425354004 -220.134307861328 2.448793172836
91.293746948242 -74.952285766602 -212.328964233398 1.087200880051
-99.658264160156 -72.119194030762 -217.013183593750 1.182530403137
-153.375778198242 -71.390808105469 -226.197586059570 1.362431645393
-26.346067428589 -72.906639099121 -223.986663818359 1.894075155258
16.467063903809 -75.099578857422 -215.792831420898 1.516718387604
-103.246047973633 -72.996917724609 -221.424621582031 1.342582464218
6.187883853912 -71.484008789063 -218.690078735352 2.973020553589
-26.959550857544 -74.097091674805 -215.962722778320 1.521555304527
81.704978942871 -73.770080566406 -223.022308349609 2.100425720215
-146.526367187500 -71.588218688965 -221.179443359375 2.065261840820
9.197189331055 -73.020545959473 -225.606338500977 2.422380685806
-10.667292594910 -76.916564941406 -225.884857177734 1.303464889526
16.374317169189 -68.840950012207 -222.139938354492 1.973661780357
82.405128479004 -76.179420471191 -221.143508911133 1.176186084747
-14.732476234436 -76.074485778809 -228.748703002930 2.186970949173
-131.686080932617 -73.424957275391 -228.390350341797 1.013635993004
-15.010611534119 -74.162010192871 -224.648681640625 0.889152407646
15.669589996338 -74.665588378906 -230.890625000000 1.413965225220
-127.850898742676 -74.343818664551 -229.036270141602 1.773327469826
-152.639968872070 -68.920921325684 -231.614807128906 1.978650808334
-143.468856811523 -71.095573425293 -230.865066528320 2.009929656982
-131.973373413086 -70.472473144531 -229.686447143555 3.174530029297
-14.277588844299 -71.998748779297 -225.358093261719 2.383678913116
70.723754882813 -74.721359252930 -227.173461914063 3.353887319565
-144.233078002930 -68.547622680664 -238.210876464844 1.647079229355
69.652496337891 -76.079566955566 -227.789276123047 3.970953702927
-21.589748382568 -76.856689453125 -229.968643188477 2.148132324219
-143.390090942383 -75.220626831055 -231.370834350586 1.931676864624
76.141189575195 -79.730201721191 -227.861770629883 4.049389362335
8.607734680176 -77.775596618652 -233.389739990234 1.897692441940
-142.665939331055 -75.959388732910 -237.317794799805 3.218603372574
-151.072662353516 -70.897506713867 -235.953964233398 1.462049007416
15.806755065918 -71.088630676270 -231.159744262695 1.659703016281
-3.721780061722 -76.098106384277 -237.746505737305 2.296528577805
-28.681705474854 -72.919082641602 -237.555526733398 2.071153163910
-2.589010953903 -69.984268188477 -237.536544799805 1.345583200455
-161.785003662109 -73.567703247070 -239.989273071289 2.717883348465
7.044807910919 -72.741310119629 -243.386505126953 1.143980383873
-165.686584472656 -71.986915588379 -241.058319091797 3.171043395996
-13.811498641968 -74.758888244629 -237.860671997070 1.811299681664
60.533737182617 -75.401969909668 -238.334197998047 2.709045171738
-14.066382408142 -72.725227355957 -238.259857177734 0.650694370270
-25.785907745361 -72.555603027344 -244.680313110352 3.345186710358
-25.946229934692 -72.863990783691 -242.088272094727 1.609451174736
-13.833255767822 -75.694320678711 -241.065490722656 2.438877820969
-147.399703979492 -72.186553955078 -233.052093505859 2.718940019608
7.154581069946 -73.137733459473 -242.178863525391 1.691202402115
63.324302673340 -74.092376708984 -242.749618530273 1.442771673203
13.829543113708 -71.773368835449 -244.862396240234 1.924001216888
-166.882522583008 -69.775169372559 -243.865264892578 1.731432437897
-51.431198120117 -71.968139648438 -241.463821411133 2.606405973434
3.012155056000 -80.208396911621 -248.171463012695 0.740471363068
16.085699081421 -73.917121887207 -243.979690551758 2.964728116989
-55.059917449951 -72.070564270020 -247.927047729492 1.250691294670
-3.635293006897 -69.699890136719 -248.228485107422 3.965714693069
20.012910842896 -78.527343750000 -247.709518432617 2.164490222931
-169.933380126953 -69.344367980957 -251.103103637695 3.800545215607
-68.455101013184 -75.666496276855 -249.143646240234 1.731290936470
-52.414596557617 -71.665946960449 -248.091247558594 3.260761022568
-81.892440795898 -71.331848144531 -252.439788818359 2.073790311813
-161.869964599609 -72.072914123535 -249.238372802734 2.687264442444
-151.493576049805 -65.607269287109 -251.567123413086 3.095043897629
-60.950595855713 -74.303398132324 -250.527954101563 2.075256109238
-69.578079223633 -72.272727966309 -250.910308837891 2.590797185898
-154.364288330078 -69.296363830566 -254.838836669922 2.097707748413
-152.806930541992 -71.895301818848 -254.464569091797 1.709044456482
-76.574584960938 -69.191558837891 -255.422622680664 3.330762147903
-94.146919250488 -69.554039001465 -256.522186279297 1.263796687126
-165.106643676758 -66.525466918945 -254.497390747070 4.218743324280
-157.496109008789 -71.116210937500 -261.963775634766 2.248735427856
-135.516754150391 -72.675361633301 -260.215606689453 2.053376674652
-83.935127258301 -72.115364074707 -252.548858642578 0.654817402363
-162.897048950195 -68.259658813477 -255.210922241211 3.623462438583
-142.538360595703 -69.452484130859 -258.886810302734 2.005553007126
-86.111457824707 -71.240806579590 -252.478958129883 2.129741668701
-97.342277526855 -69.590209960938 -261.709838867188 2.344092369080
-145.800750732422 -71.962440490723 -258.085754394531 1.365523219109
-94.218132019043 -71.538963317871 -257.464935302734 2.090770721436
-153.298355102539 -69.463516235352 -258.191772460938 2.046287298203
-103.054031372070 -71.252769470215 -257.067749023438 1.244873166084
-169.351577758789 -70.027954101563 -261.270385742188 1.445686936378
-162.120925903320 -72.071395874023 -265.768157958984 3.175111293793
-127.172981262207 -74.084045410156 -258.469726562500 2.699244499207
-152.362762451172 -71.054534912109 -261.635742187500 2.265946388245
-112.461723327637 -68.804756164551 -263.532348632813 3.916043519974
-14.991145133972 -71.717887878418 -262.131896972656 1.423605918884
-142.236328125000 -70.752548217773 -263.075897216797 0.958800137043
-126.510299682617 -70.632667541504 -261.951141357422 1.193013072014
-154.791183471680 -69.280059814453 -264.888153076172 2.268723249435
23.015899658203 -74.117813110352 -270.539184570313 2.796734571457
-149.083251953125 -72.764236450195 -280.856262207031 3.723208904266
-168.782440185547 -70.564659118652 -282.575408935547 3.683583259583
-8.592554092407 -72.810119628906 -279.619720458984 2.426484584808
-146.222259521484 -70.520416259766 -282.643341064453 2.185729265213
-9.863333702087 -71.207054138184 -283.355987548828 1.611113905907
12.518522262573 -73.269027709961 -285.979461669922 2.106758832932
-136.905044555664 -69.197158813477 -287.964385986328 1.073563218117
-68.588012695313 -73.342903137207 -288.013977050781 2.536318302155
-33.615631103516 -74.360641479492 -288.635406494141 2.116354227066
-113.189392089844 -70.873245239258 -286.088623046875 2.023689985275
-95.573860168457 -74.690460205078 -291.722473144531 1.123473644257
-89.823699951172 -71.490188598633 -292.764770507813 1.836005926132
-50.029384613037 -73.136161804199 -292.695526123047 3.135124921799
-116.241500854492 -74.801094055176 -290.380523681641 2.545730113983
-113.937110900879 -72.040054321289 -291.987426757813 2.139123201370
-33.286720275879 -69.840690612793 -289.709991455078 2.447294712067
-115.503150939941 -71.247230529785 -294.748046875000 2.889185190201
-127.233749389648 -66.722686767578 -292.047119140625 1.784708499908
-144.583236694336 -72.260963439941 -295.748321533203 1.506917953491
6.938527107239 -72.533172607422 -291.492309570313 2.469985008240
16.418785095215 -74.562149047852 -293.181976318359 1.200764298439
-160.068252563477 -70.088012695313 -295.194458007813 2.437870502472
-158.408828735352 -73.499923706055 -303.063354492188 2.336179018021
-146.904586791992 -71.333526611328 -312.683776855469 0.942383646965
-151.858886718750 -68.793846130371 -313.068847656250 1.271912813187
-152.445281982422 -71.395767211914 -315.832519531250 3.319466829300
24.895389556885 -80.549697875977 -14.681333541870 7.971529960632
26.941324234009 -75.845405578613 -17.935544967651 3.584927320480
17.642774581909 -77.616264343262 -24.104001998901 6.133884429932
25.393024444580 -75.225463867188 -38.948661804199 4.078554153442
-61.520065307617 -74.767181396484 -50.663658142090 1.641703724861
-68.616134643555 -75.155998229980 -51.206287384033 2.745227098465
-42.305431365967 -78.777381896973 -51.013946533203 4.546021461487
-87.614959716797 -71.386711120605 -64.183944702148 1.695171952248
78.058418273926 -80.458854675293 -73.245582580566 6.573511600494
-18.560926437378 -74.321357727051 -71.371475219727 2.673853874207
85.874160766602 -78.788581848145 -65.293563842773 5.023683547974
96.270759582520 -77.639579772949 -75.728698730469 4.600162982941
-95.612052917480 -72.946968078613 -77.732681274414 2.584358930588
64.612144470215 -77.258026123047 -79.623573303223 7.234143257141
-44.043182373047 -79.188568115234 -86.389717102051 3.024345397949
97.910614013672 -76.904640197754 -80.810577392578 1.856226921082
-58.500129699707 -73.927337646484 -89.526130676270 4.008885860443
48.137729644775 -77.312965393066 -90.005317687988 4.640622615814
67.978080749512 -82.332214355469 -89.999275207520 8.169591903687
52.689701080322 -76.123970031738 -95.665000915527 0.759367287159
50.013095855713 -78.548583984375 -98.009712219238 2.644659757614
71.542839050293 -80.298942565918 -94.835739135742 5.452973842621
43.797386169434 -76.438034057617 -104.719375610352 1.302506327629
97.645462036133 -78.241607666016 -99.549194335938 3.445258855820
103.158805847168 -81.450126647949 -105.179626464844 6.279002666473
77.302932739258 -74.583129882813 -102.431953430176 3.203288555145
89.071083068848 -78.639167785645 -102.359268188477 4.802901268005
98.022308349609 -77.939727783203 -93.899139404297 3.972384929657
106.776580810547 -78.268737792969 -102.353561401367 1.881695866585
36.897369384766 -76.553092956543 -105.726165771484 3.349121809006
110.047431945801 -74.966186523438 -117.174659729004 2.853469371796
111.247688293457 -78.826148986816 -117.456192016602 2.957259178162
28.909875869751 -74.732032775879 -123.210830688477 2.825208663940
42.225761413574 -77.651573181152 -118.409782409668 1.799703598022
112.910964965820 -77.819305419922 -128.732482910156 2.763352632523
33.856964111328 -75.743278503418 -126.274734497070 1.012720227242
112.629440307617 -80.928070068359 -126.321151733398 4.306221961975
106.290290832520 -78.390205383301 -121.075195312500 4.053695678711
24.166011810303 -76.668853759766 -135.335083007813 3.686967134476
-50.204601287842 -75.091117858887 -134.905258178711 2.388292312622
-54.326316833496 -73.032058715820 -135.944503784180 2.660995244980
109.096572875977 -76.649253845215 -133.545806884766 3.064431428909
-71.406890869141 -77.858261108398 -141.637313842773 3.023404598236
-74.969047546387 -74.881210327148 -141.509475708008 1.510510087013
-61.076866149902 -74.963661193848 -142.155654907227 2.083332061768
29.820964813232 -75.860961914063 -143.292633056641 2.389889955521
114.077507019043 -78.902603149414 -144.430465698242 3.665853023529
-71.388366699219 -71.096298217773 -148.157470703125 0.782967448235
-50.072113037109 -74.304054260254 -143.382980346680 2.225686311722
31.413101196289 -76.357780456543 -150.885055541992 1.593109011650
-70.139945983887 -75.299407958984 -148.927383422852 1.985700249672
111.880729675293 -76.257286071777 -139.818939208984 1.258043527603
109.997673034668 -75.132316589355 -156.066116333008 2.371383190155
114.349044799805 -78.176475524902 -151.458709716797 1.309905409813
-40.342796325684 -77.005889892578 -153.760452270508 1.564216613770
-66.477172851563 -74.008697509766 -165.347778320313 1.734434485435
-70.987220764160 -70.960571289063 -158.205230712891 2.076323270798
28.118696212769 -76.826232910156 -146.082550048828 2.251485586166
-3.898586034775 -76.908645629883 -162.246078491211 2.452176094055
107.353317260742 -76.384017944336 -160.179229736328 0.909778058529
109.908004760742 -75.314956665039 -151.527313232422 1.572406172752
110.376136779785 -79.091629028320 -156.945709228516 2.242071390152
-65.487266540527 -71.388404846191 -161.027832031250 2.261183500290
-47.081161499023 -76.143165588379 -165.995788574219 1.362423658371
-4.030603885651 -74.162345886230 -165.164932250977 2.642612934113
-30.817037582397 -74.525306701660 -175.406921386719 3.206690073013
104.282508850098 -75.781654357910 -165.820800781250 3.280406713486
-36.186637878418 -77.428146362305 -160.677368164063 1.637778043747
107.750526428223 -75.162460327148 -166.890533447266 1.735934972763
-43.358676910400 -74.662963867188 -174.306228637695 1.153251647949
106.998992919922 -74.520378112793 -167.159423828125 0.797720611095
-152.952484130859 -73.206779479980 -182.248962402344 2.208873748779
-28.405166625977 -70.632209777832 -177.168395996094 1.880732536316
-21.738231658936 -74.362609863281 -183.705673217773 1.682459592819
23.308757781982 -78.102409362793 -176.896286010742 1.941926956177
13.621203422546 -74.504051208496 -183.010787963867 1.925135612488
26.187448501587 -75.430885314941 -182.732757568359 1.324852943420
102.762809753418 -80.013572692871 -182.392166137695 2.278389692307
-153.162841796875 -69.323440551758 -187.024536132813 3.034390449524
-21.168088912964 -76.462181091309 -185.228805541992 0.978414833546
100.656829833984 -77.181610107422 -177.240036010742 5.313943862915
101.858558654785 -73.053901672363 -188.246963500977 2.646556377411
106.639892578125 -77.535888671875 -176.368850708008 3.148156404495
97.726348876953 -77.650810241699 -192.434631347656 4.398058414459
-152.561798095703 -72.386497497559 -198.708450317383 0.447533994913
98.858352661133 -76.564338684082 -204.159347534180 1.627759218216
-29.452266693115 -71.752075195313 -197.573577880859 3.336858272552
96.246421813965 -75.656448364258 -194.462890625000 3.435145616531
-122.630393981934 -75.363922119141 -201.918197631836 0.888899326324
-31.185457229614 -78.355949401855 -190.671020507813 1.267543911934
-143.094985961914 -68.022384643555 -200.272491455078 2.006916999817
94.073692321777 -75.923500061035 -197.327529907227 3.585195779800
7.387410163879 -75.141921997070 -199.010269165039 3.530336380005
22.550064086914 -73.509239196777 -192.263824462891 2.390238761902
-149.271652221680 -72.154403686523 -205.048675537109 2.033398628235
-140.116073608398 -71.160850524902 -204.043457031250 2.394813060760
-11.186377525330 -73.560798645020 -206.887481689453 2.062054634094
-125.549156188965 -71.920608520508 -205.555023193359 2.025777578354
-145.149154663086 -74.221588134766 -201.825149536133 1.032878875732
2.698646068573 -74.572952270508 -199.577667236328 5.881776809692
-25.495599746704 -75.950912475586 -201.508163452148 1.759842395782
19.420297622681 -77.288383483887 -202.105209350586 1.348863482475
5.528254032135 -75.400375366211 -211.787322998047 2.652967929840
84.329399108887 -73.049835205078 -207.354507446289 5.435579776764
-19.443031311035 -71.199470520020 -212.173950195313 1.902041196823
90.217391967773 -73.391548156738 -207.677001953125 3.171800374985
95.865333557129 -77.479042053223 -205.715164184570 2.249025583267
-149.993515014648 -72.478782653809 -216.699264526367 2.622922420502
94.365844726563 -77.219329833984 -210.298828125000 0.870424032211
3.860728979111 -73.272209167480 -207.248901367188 2.330469608307
2.499589920044 -76.104835510254 -214.427459716797 4.697487831116
-34.115104675293 -73.161880493164 -207.467498779297 0.237583562732
-90.473159790039 -71.898834228516 -214.408004760742 1.822005391121
-27.351518630981 -74.967704772949 -211.268112182617 1.459078311920
84.103469848633 -74.530166625977 -215.715225219727 2.042547941208
88.265892028809 -74.425598144531 -215.764465332031 0.967945694923
-32.913734436035 -72.678215026855 -212.693023681641 1.847336769104
-85.340774536133 -69.526985168457 -219.568008422852 2.514384746552
-2.078105926514 -75.816787719727 -218.777282714844 1.691504359245
80.998817443848 -71.847984313965 -211.965469360352 5.273674488068
-152.909271240234 -74.929077148438 -224.146835327148 2.980938911438
-166.819961547852 -69.589958190918 -216.705078125000 1.165902495384
-162.939224243164 -73.475234985352 -224.676498413086 1.613948225975
-22.300827026367 -74.211692810059 -227.199722290039 2.208370447159
-154.857101440430 -74.025016784668 -225.063201904297 1.887764692307
-6.670986175537 -74.769157409668 -224.584228515625 2.153580665588
5.539838790894 -74.971603393555 -218.327423095703 1.941999435425
-168.031570434570 -70.752075195313 -228.005828857422 1.259499430656
-159.663314819336 -71.339225769043 -229.736877441406 3.279332399368
78.388580322266 -77.957000732422 -230.348937988281 2.697973251343
-0.608247995377 -72.549301147461 -226.631103515625 0.466087102890
-158.342269897461 -66.456436157227 -228.414886474609 1.464116811752
-143.414138793945 -72.878417968750 -226.521041870117 2.850217103958
-20.104637145996 -72.464637756348 -224.191558837891 1.978601098061
-1.402605056763 -77.887138366699 -222.542358398438 2.230774641037
79.182312011719 -72.595214843750 -224.426315307617 0.753712356091
-162.082260131836 -69.298110961914 -230.249649047852 3.594924688339
-144.763442993164 -68.894416809082 -232.979080200195 1.768068432808
-125.892219543457 -69.886566162109 -232.755920410156 2.441430330276
77.878257751465 -76.321044921875 -225.558639526367 1.607379555702
-116.457153320313 -71.555717468262 -230.907592773438 1.321831464767
-147.224395751953 -71.068771362305 -231.483459472656 2.740472316742
-151.278793334961 -69.708862304688 -233.658828735352 2.461530923843
-149.818893432617 -71.780212402344 -233.588562011719 2.874790430069
-156.653488159180 -71.494621276855 -231.451766967773 1.490939855576
-165.903793334961 -71.271522521973 -231.510589599609 1.522208690643
-134.436706542969 -71.378372192383 -237.362167358398 1.900216102600
-134.053009033203 -72.405082702637 -235.171218872070 0.986534774303
-153.997970581055 -74.559066772461 -235.266067504883 3.352674961090
-146.036331176758 -67.559005737305 -238.971984863281 3.524274349213
-152.343933105469 -71.399642944336 -237.616470336914 1.619124293327
74.114486694336 -76.712318420410 -231.372177124023 2.560843944550
66.695236206055 -69.808540344238 -234.917602539063 1.316487073898
-157.698471069336 -69.434234619141 -237.730010986328 1.707348704338
71.046463012695 -70.343246459961 -232.152252197266 0.859203219414
-20.447959899902 -71.716682434082 -236.939758300781 1.862675905228
10.714427947998 -74.808784484863 -236.956558227539 1.021964669228
6.221794128418 -74.331985473633 -235.948333740234 2.610390663147
-155.092651367188 -70.853782653809 -245.001998901367 1.276741504669
13.977376937866 -73.011100769043 -240.893280029297 2.168509483337
60.304031372070 -73.189392089844 -237.076660156250 1.450026750565
12.785712242126 -71.201942443848 -237.725631713867 1.144555211067
4.745677947998 -73.864608764648 -241.521057128906 0.846333026886
-7.100761890411 -71.193954467773 -240.439987182617 0.889209926128
-21.707962036133 -71.542350769043 -243.163070678711 2.710594654083
-2.319346904755 -73.200080871582 -242.020767211914 1.194571495056
3.234232902527 -75.939880371094 -245.010604858398 1.538116931915
56.796897888184 -75.227684020996 -240.768112182617 1.364883542061
-56.042175292969 -75.659332275391 -245.682708740234 2.296565771103
19.090026855469 -72.474143981934 -247.068801879883 1.011679768562
-60.166435241699 -73.278274536133 -242.757995605469 2.528717517853
-10.391566276550 -73.189636230469 -248.080825805664 1.170675158501
-66.518936157227 -68.753944396973 -251.265350341797 4.172017574310
-86.468597412109 -70.126800537109 -254.453247070313 1.539255142212
-83.088264465332 -72.692665100098 -253.439422607422 1.952957987785
-10.266134262085 -72.244804382324 -254.972366333008 2.603064060211
-124.238014221191 -70.789390563965 -260.964752197266 1.418421387672
-14.580915451050 -73.724822998047 -253.258987426758 1.554170250893
-117.404785156250 -71.171348571777 -257.525970458984 1.604702711105
-116.853317260742 -69.802642822266 -260.427856445313 2.547301054001
-103.961608886719 -71.169136047363 -258.155578613281 1.535459160805
-144.200424194336 -69.661170959473 -264.049774169922 1.669464588165
-145.274749755859 -69.953422546387 -269.475128173828 3.993049621582
-168.971801757813 -70.218284606934 -266.211944580078 2.862932443619
19.225877761841 -76.246833801270 -280.092895507813 2.097960948944
-58.039138793945 -69.633575439453 -286.288391113281 1.312744617462
-67.265335083008 -70.382476806641 -284.756317138672 3.146058559418
-42.219673156738 -73.469177246094 -284.601287841797 2.772866010666
-28.081462860107 -72.880340576172 -286.972900390625 0.953161954880
-96.327026367188 -72.675613403320 -290.773010253906 1.490491390228
-30.845361709595 -70.012397766113 -286.209014892578 2.519548177719
-4.144340038300 -72.355911254883 -286.300170898438 0.572229743004
-167.353820800781 -69.723823547363 -291.898345947266 3.205796241760
-15.942456245422 -74.206222534180 -286.221313476563 3.137860059738
6.323060989380 -73.623336791992 -287.926818847656 1.358052492142
13.984290122986 -76.973396301270 -283.531799316406 3.208354473114
-57.015964508057 -73.747306823730 -288.579681396484 0.803726851940
-33.204605102539 -72.191146850586 -292.046295166016 1.715829491615
14.268319129944 -70.616157531738 -292.886047363281 1.596657872200
-70.851112365723 -69.776573181152 -294.028900146484 3.840895414352
-40.233249664307 -69.201484680176 -289.772613525391 2.405520200729
-17.839494705200 -70.053009033203 -290.285614013672 1.955458164215
15.021137237549 -74.730316162109 -290.890350341797 1.761178612709
-11.539886474609 -73.687263488770 -294.477630615234 2.848470211029
4.001696109772 -71.138893127441 -293.781677246094 1.066959142685
14.222768783569 -74.464645385742 -290.469879150391 1.440040946007
-134.815780639648 -69.123840332031 -296.411621093750 3.295019865036
-144.863555908203 -72.163543701172 -301.419799804688 1.831488013268
-150.685729980469 -69.899948120117 -315.534271240234 3.129842519760
39.335456848145 -77.148544311523 -13.184730529785 4.814874172211
26.405925750732 -77.412178039551 -11.486359596252 5.593082904816
35.602912902832 -77.757293701172 -14.951718330383 4.880101203918
18.394380569458 -74.180702209473 -18.456430435181 5.196555614471
41.395076751709 -75.580940246582 -21.792312622070 4.293501377106
22.008495330811 -75.470642089844 -23.676675796509 2.526488304138
20.238178253174 -77.441551208496 -27.262102127075 4.989933967590
21.417108535767 -77.806251525879 -38.034847259521 6.146795749664
36.040531158447 -79.389503479004 -30.359579086304 8.976740837097
22.842988967896 -80.484069824219 -36.104034423828 7.872114181519
39.700546264648 -76.004493713379 -37.117984771729 4.569514274597
28.491241455078 -77.592414855957 -39.061679840088 5.734993934631
35.346881866455 -78.579856872559 -35.490665435791 5.424921512604
27.606023788452 -76.195663452148 -39.584152221680 4.603252887726
40.257999420166 -77.186408996582 -40.636585235596 4.140540122986
30.354431152344 -76.611236572266 -38.591354370117 4.718158245087
-44.185531616211 -74.036819458008 -48.912639617920 1.874542713165
-33.238613128662 -70.993988037109 -51.099632263184 3.091740846634
-92.527557373047 -73.329338073730 -56.118019104004 6.225419998169
-92.093223571777 -75.479545593262 -66.916862487793 5.037205696106
74.844558715820 -79.616813659668 -65.577247619629 8.058173179626
81.366096496582 -76.930999755859 -71.251350402832 2.062557935715
-22.553443908691 -73.597923278809 -73.853958129883 2.440782308578
-91.185478210449 -74.601203918457 -73.049140930176 1.644932150841
-28.057010650635 -74.698356628418 -77.131561279297 1.309047460556
-52.460422515869 -75.862480163574 -85.713996887207 2.794335603714
63.199184417725 -72.908752441406 -85.161872863770 1.439354658127
50.049728393555 -75.257568359375 -92.386840820313 2.291959762573
96.820716857910 -75.211494445801 -89.857429504395 1.715048909187
66.797355651855 -77.919486999512 -95.516357421875 4.370322704315
-70.934684753418 -75.780265808105 -92.059509277344 5.597754478455
-64.766822814941 -72.513359069824 -98.754806518555 3.137195587158
42.198917388916 -76.472091674805 -96.680221557617 3.687919139862
74.850746154785 -75.050506591797 -98.605010986328 2.127706289291
51.877357482910 -82.961105346680 -104.231292724609 3.725453853607
98.648376464844 -76.488677978516 -95.000892639160 3.594976425171
-97.697296142578 -75.230415344238 -108.651596069336 2.886694908142
37.418888092041 -75.930732727051 -109.983573913574 1.982519030571
104.563880920410 -77.523796081543 -107.008049011230 2.934665918350
46.072368621826 -75.658599853516 -110.419700622559 2.045189380646
99.018760681152 -77.527778625488 -108.090042114258 6.089314460754
-87.811958312988 -73.661750793457 -116.518913269043 2.609347343445
33.364551544189 -78.718803405762 -111.277389526367 5.636708259583
104.278961181641 -75.407325744629 -115.025337219238 1.721979856491
102.376464843750 -73.934417724609 -114.022689819336 1.958225011826
103.133773803711 -76.872291564941 -113.372856140137 3.217023372650
108.140861511230 -75.619148254395 -112.733650207520 1.691880583763
37.446563720703 -77.341949462891 -109.484786987305 1.242745995522
29.736631393433 -73.034843444824 -116.654922485352 2.237212419510
38.539817810059 -75.227447509766 -113.383468627930 1.456072330475
104.478736877441 -77.681312561035 -120.025154113770 4.812283992767
37.870532989502 -73.813552856445 -122.467689514160 2.781583786011
106.925735473633 -75.384582519531 -130.324157714844 3.949727296829
108.789001464844 -75.014991760254 -129.177780151367 2.124781847000
31.297170639038 -73.203002929688 -119.935302734375 1.637999415398
-80.229515075684 -73.409812927246 -126.425552368164 3.516984701157
111.766304016113 -73.791633605957 -132.300552368164 2.349941015244
-56.558208465576 -73.794425964355 -138.111999511719 0.721454977989
33.345165252686 -75.869499206543 -134.060760498047 2.429899692535
-75.464874267578 -73.786865234375 -136.343963623047 2.064587354660
24.689712524414 -77.147270202637 -131.144439697266 3.864965200424
-81.691802978516 -73.732887268066 -143.812072753906 4.359402656555
-47.468193054199 -76.652519226074 -142.459884643555 1.353028893471
-76.147705078125 -74.085594177246 -139.099914550781 1.660780668259
108.034141540527 -75.276062011719 -135.185989379883 3.245852470398
115.091972351074 -74.339439392090 -139.610977172852 1.480739474297
115.989944458008 -79.064132690430 -144.476211547852 5.110510349274
-79.411041259766 -72.313621520996 -144.578872680664 1.954599261284
6.028739929199 -70.613098144531 -150.423858642578 2.313597679138
-54.075572967529 -74.121772766113 -149.940231323242 0.494523316622
-52.784305572510 -74.322189331055 -155.835601806641 2.105806112289
105.010635375977 -75.919898986816 -159.863479614258 2.910683393478
-43.512107849121 -75.437744140625 -149.671279907227 2.211258888245
12.078338623047 -72.278923034668 -157.248168945313 0.736790239811
20.364572525024 -76.066757202148 -157.097259521484 1.291242122650
112.874824523926 -74.993865966797 -162.693984985352 1.556003212929
27.967981338501 -73.890380859375 -165.078613281250 1.320691347122
-2.773391008377 -75.321990966797 -163.316482543945 0.474771469831
29.923646926880 -75.331657409668 -160.139205932617 2.863522291183
-69.700920104980 -71.511550903320 -158.416809082031 2.431782245636
-67.698028564453 -72.774002075195 -159.850601196289 1.355963468552
-70.689430236816 -71.618438720703 -166.390579223633 3.443395614624
112.865539550781 -72.387557983398 -159.446548461914 2.377123832703
-46.444114685059 -73.521987915039 -163.406951904297 0.917322158813
15.905643463135 -74.415809631348 -165.034591674805 2.576520681381
-65.716163635254 -71.918968200684 -170.302795410156 1.700042486191
-64.802032470703 -71.191101074219 -172.032516479492 3.037721633911
-43.227176666260 -74.299110412598 -160.633758544922 2.639627933502
-35.382419586182 -75.498611450195 -168.898788452148 2.526897907257
113.188385009766 -77.569564819336 -169.386428833008 2.070665836334
-38.618144989014 -68.632820129395 -179.985641479492 4.140164852142
11.983401298523 -75.032096862793 -172.720245361328 5.700813293457
109.085700988770 -77.818984985352 -182.458465576172 2.300182580948
-149.319656372070 -73.207572937012 -177.903411865234 2.463707208633
-147.620880126953 -71.361747741699 -175.344909667969 1.872187256813
-150.250885009766 -69.673728942871 -181.729660034180 2.887356519699
-144.032608032227 -72.783912658691 -184.516235351563 2.126770019531
-33.395763397217 -71.799728393555 -185.669937133789 0.425917267799
-24.658689498901 -73.316886901855 -185.790634155273 1.215334415436
21.833599090576 -70.310768127441 -190.419036865234 2.412263393402
-142.945846557617 -70.555976867676 -188.413681030273 0.580450296402
-148.775619506836 -71.536308288574 -190.347229003906 2.118700981140
-22.808332443237 -70.720130920410 -186.452423095703 1.524687767029
9.506328582764 -74.105651855469 -182.130126953125 3.937321901321
-150.759735107422 -71.017082214355 -196.066818237305 1.165935516357
-33.099330902100 -73.716567993164 -188.160415649414 2.253420591354
98.597976684570 -75.043525695801 -186.623870849609 4.078220844269
104.780158996582 -74.106002807617 -187.984817504883 0.832421720028
22.789438247681 -69.493064880371 -192.748886108398 1.675738453865
-15.010539054871 -73.507995605469 -188.422439575195 2.816799163818
-29.199298858643 -74.864723205566 -193.519927978516 0.751117229462
-156.682479858398 -71.873687744141 -201.052734375000 1.947229027748
-134.000610351563 -72.150184631348 -198.453659057617 1.749899625778
-126.537071228027 -68.788833618164 -196.472991943359 2.947341203690
-126.025161743164 -69.730201721191 -199.068054199219 3.168299674988
-23.815275192261 -68.950576782227 -196.136840820313 1.607927322388
11.200974464417 -75.546325683594 -192.040542602539 0.644992947578
91.267486572266 -78.111221313477 -199.659194946289 5.218700408936
-151.388015747070 -67.403511047363 -197.197052001953 2.196831703186
-146.364059448242 -68.572784423828 -200.454742431641 2.717459201813
-152.199142456055 -70.262496948242 -201.977844238281 1.302583456039
-156.249328613281 -68.607887268066 -199.321792602539 3.002774238586
-26.096488952637 -72.384620666504 -199.715164184570 1.531311035156
-12.097737312317 -71.720558166504 -195.272247314453 2.369601726532
-147.598419189453 -67.066184997559 -203.850387573242 3.425636529922
-19.763315200806 -72.156257629395 -201.183639526367 1.956044316292
-162.704956054688 -69.918487548828 -202.628570556641 1.392570495605
-135.669174194336 -70.859809875488 -201.013824462891 1.932747244835
14.460286140442 -75.101165771484 -206.613250732422 2.668300390244
-162.502578735352 -67.392784118652 -206.035873413086 3.135760784149
-147.357070922852 -72.114738464355 -208.293304443359 1.822394847870
6.970457077026 -71.442855834961 -202.461929321289 2.214754343033
-155.356094360352 -68.178894042969 -204.507965087891 2.974282026291
-25.878225326538 -72.217864990234 -201.947769165039 2.581459045410
96.013702392578 -75.377166748047 -197.756851196289 2.986290216446
-159.606048583984 -71.289459228516 -214.456268310547 2.042858362198
-165.736740112305 -73.354110717773 -209.775299072266 1.529783129692
-78.044876098633 -69.807739257813 -209.132690429688 2.657001256943
88.076126098633 -73.756141662598 -207.580993652344 4.211837291718
-4.885343074799 -71.584625244141 -218.246994018555 2.153098583221
-155.644851684570 -69.276939392090 -214.781936645508 3.019188165665
-88.742256164551 -71.560348510742 -214.482376098633 1.957950234413
-10.528699874878 -75.352531433105 -211.296722412109 2.665314674377
14.513881683350 -72.824356079102 -219.514282226563 0.774523139000
-145.971237182617 -71.080139160156 -221.867828369141 1.899213910103
-4.699396133423 -76.513694763184 -220.842208862305 1.289690613747
-20.481803894043 -73.474029541016 -218.350265502930 1.242920756340
-15.643451690674 -69.474822998047 -220.430526733398 1.700323939323
89.159744262695 -74.243522644043 -217.701751708984 1.538418173790
-21.833087921143 -71.256225585938 -216.920715332031 1.682332396507
-32.833591461182 -71.769233703613 -217.400985717773 2.177218914032
-108.509155273438 -66.739578247070 -226.003952026367 1.169405102730
-17.134136199951 -70.872383117676 -223.270233154297 1.388824582100
91.358802795410 -72.318893432617 -217.537597656250 1.984296441078
76.416954040527 -74.788604736328 -219.289245605469 4.893731117249
6.104663848877 -74.085418701172 -219.115173339844 2.247528553009
-12.146441459656 -70.400032043457 -225.387374877930 2.212107181549
77.573471069336 -74.557716369629 -220.843460083008 3.085046291351
-123.407653808594 -73.775131225586 -226.764236450195 1.439015626907
-21.030260086060 -70.523216247559 -223.319351196289 3.394676923752
-98.145896911621 -70.442680358887 -224.807846069336 1.394308328629
-103.511421203613 -71.060569763184 -225.443527221680 2.374464988708
-132.539047241211 -72.337806701660 -230.382492065430 1.494575858116
80.287689208984 -74.099151611328 -222.429000854492 1.563018083572
-124.156341552734 -71.143531799316 -228.853103637695 2.593624830246
3.785813093185 -72.084945678711 -228.596862792969 1.963586688042
80.233093261719 -72.629219055176 -223.215637207031 1.925732254982
-16.664688110352 -73.322319030762 -230.682464599609 0.486313104630
-14.523017883301 -73.126045227051 -227.534622192383 0.376261472702
-2.870398044586 -77.430267333984 -229.938919067383 2.090898513794
9.291497230530 -74.601211547852 -227.228012084961 2.124844789505
87.879730224609 -75.296524047852 -225.217102050781 2.240885496140
9.068238258362 -71.269371032715 -231.176315307617 2.534195184708
4.617420196533 -72.389488220215 -229.290863037109 2.455915451050
-9.935456275940 -72.953468322754 -231.309921264648 2.184507369995
-7.690380096436 -73.297042846680 -230.170471191406 2.442326307297
17.866239547729 -71.642089843750 -232.405487060547 1.747457385063
-13.308827400208 -69.922317504883 -233.294891357422 2.135014295578
