# This PCD file was generated using the MATLAB® pcwrite function
# from Computer Vision Toolbox®.
# .PCD v.7 - Point Cloud Data file format
VERSION .7
FIELDS x y z
SIZE 8 8 8
TYPE F F F
COUNT 1 1 1
WIDTH 786
HEIGHT 1
VIEWPOINT 0 0 0 1 0 0 0
POINTS 786
DATA ascii
-14.700664104677788 -73.202390071314682 -199.650651177684665
-18.612295575986650 -69.964794563362176 -201.948296042490199
5.585877439616162 -70.234668319217803 -203.812642007152022
-153.025458610969423 -73.114223707002623 -211.377577498329345
-149.179066009338271 -74.971355998912543 -212.551728048415896
90.232411508995853 -64.218439328938032 -197.317290666141503
-79.543212318942693 -73.506961352975196 -215.465598649856304
-40.879567865993394 -72.851477558644802 -202.577900225983853
13.528347701805949 -66.824907438213287 -205.500986571596684
-29.999328607120997 -71.590410061647830 -210.810943427667667
-84.447718865513423 -75.978665366912026 -212.751218667160799
87.328035017932081 -67.098461081558369 -204.866558088260376
-87.897633265084764 -72.670568732457227 -214.918973269719572
-149.439476001784158 -75.994774812541365 -225.590838152897561
-83.361994703451515 -74.244532622981254 -218.636222094945538
-23.017233151392848 -72.924127968544653 -212.904939614110447
-25.578305713618892 -67.595102898629619 -217.302581699508437
15.931183460711310 -65.735623010484417 -208.511082632144792
-9.339394563105984 -66.828685067286699 -213.882794602194906
-87.285948846935526 -71.205249374246549 -219.425692388327604
87.455515176960716 -65.477251268632429 -207.097283579982673
-98.496299926747966 -74.414157091114660 -222.971772718345619
-152.813364050835332 -75.083203928721204 -232.132866196125065
-19.009124907662624 -67.557896133767130 -226.993741243264139
12.475554594687615 -68.887641880995957 -212.334410753024144
-103.752513452038372 -72.834205966336285 -223.811672006632193
1.744207189104705 -71.818485527123727 -221.442519109294096
-25.513775818048064 -72.520597211770308 -219.491931168737949
79.547358108943385 -64.863024602515210 -219.037827634673192
-151.298597967035505 -79.508281591127769 -228.537542446534701
-1.482893460729693 -67.535071751128626 -218.870548521277385
-11.457302855490230 -67.875921161061513 -220.721229220624309
10.297924425368089 -65.646053279564825 -220.603562599696318
80.302338351775049 -65.272841118632215 -215.152651226298531
-12.269881390651513 -68.271673420429835 -226.593212258955646
-132.119913733120342 -73.497841061432382 -230.433863686620157
-14.649890673568049 -71.269845732956696 -226.346814319312273
13.494717449981861 -72.954085804350328 -232.823733534142889
-125.275556888227328 -74.864214934744354 -233.286065774862834
-150.837527116429470 -71.001361355364864 -236.628494884381837
-143.549654421481392 -74.097422330606904 -235.870919615596449
-139.963485321749772 -76.600255889149039 -233.595826040196528
-21.752998421495889 -71.947904354674577 -225.524594651619850
68.786143512622175 -67.654428515328405 -224.897836556417133
-145.051123666712130 -69.072734646856546 -240.247554268059389
72.995998620001600 -68.170204312439409 -227.607691694204846
-20.158460708091162 -68.971891984564991 -226.984418948212181
-143.911636650537844 -80.218338829216449 -238.047343456478586
80.487765171840024 -64.724015640875720 -221.119029367385394
8.235631994305983 -72.172863385790365 -232.185849179996012
-147.589973089099630 -78.000247556481241 -238.428559902450900
-153.424791543544444 -75.549165851170173 -241.136601472006532
10.285058033379739 -69.002103229729798 -230.889079428385514
-3.833229724629911 -66.717752966008092 -232.628492419818201
-26.113058262959019 -70.816541098672374 -240.923129693914802
-5.860393139681216 -69.216047779191314 -239.482133584625444
-161.506948104956308 -74.907048070674179 -243.013457436648764
9.217113980986376 -70.612773529817716 -247.099931200130925
-165.633604037159614 -71.503519969007087 -242.061974137086281
-17.168231360072348 -70.993842605122765 -236.411929652636445
65.858214345000448 -66.525398621679571 -238.018801343988287
-15.125240017335024 -72.102591296507583 -241.327896686089389
-26.642200678499439 -64.069174248923886 -239.625462589050699
-28.766468317648478 -69.560860220334504 -241.175959631559806
-17.254363004642073 -70.023128486545119 -237.594167418446489
-147.412321218343550 -78.542039720140579 -241.361697736378289
5.679470854020424 -70.190526243245642 -242.999353085306154
62.166362958118029 -63.965731254186835 -237.512628874018674
8.796304550729426 -67.927974050981291 -242.873910621513858
-161.670992665974296 -72.430716073323040 -250.965827013903947
-50.023316031435698 -72.974216083643029 -246.862946263026402
0.353711356382677 -72.901573278404825 -243.608653515067260
14.684749076843712 -69.091912551174758 -243.071801183442233
-56.686367483225368 -69.277499976466430 -247.614001044868814
-9.511772083600995 -65.222627757361792 -244.802088733614767
23.047251273050389 -66.885954966137092 -242.362244363321622
-165.316072750397637 -74.110683108882753 -259.863422060622781
-72.952262639941821 -71.122603524151444 -245.086350262131873
-52.729596719209383 -70.467095607105307 -250.190746881407620
-80.378582319075150 -69.773212065579429 -254.621905127066213
-159.105434765071067 -75.139321721327192 -255.340256150939183
-156.917725682937430 -77.026171119640523 -261.759956914380837
-59.853186303067787 -71.322055519329268 -251.383050023272745
-70.894476051555301 -73.119759000861279 -254.140959616868145
-155.885808416401517 -74.801523074867617 -261.100723714391734
-152.107524050266392 -74.101643559293592 -258.632246821998592
-82.720580306370280 -70.799346840338941 -256.559016501416465
-96.370340956278014 -69.452969799775559 -257.813906618750423
-171.926749280381586 -72.641265518432846 -258.229167410468847
-156.192902777686356 -71.582987861368835 -264.555829339586012
-133.525160902621735 -70.494012193759175 -260.918938551662791
-84.727645367262681 -74.750474206699195 -257.600707142548060
-166.604892606745267 -73.515671837949185 -259.837652233380595
-145.004416160607519 -73.402841190625779 -263.207969310647684
-88.061426799752226 -75.290513776113116 -258.281704108017436
-96.171785034605833 -67.409500885688033 -262.706567026883647
-149.987937277271982 -75.338313394546574 -260.741758425441617
-97.082753559874902 -72.133246899256619 -259.038288777409718
-149.972757580380403 -74.661493428091262 -266.874471217729138
-100.000118495465642 -73.040577728827998 -263.058841521228999
-164.612215623435276 -74.934733363182559 -270.114339507772002
-159.727187897923983 -69.814737443925154 -266.075123868117942
-121.464883501677548 -73.392066969272889 -262.936359956967408
-150.115769281247367 -73.087525212789757 -266.447733420728582
-119.664703092373230 -71.087389734515455 -263.992333797226877
-17.999139086448938 -69.077881074867491 -261.768290222483074
-144.466258203405914 -74.236051264849337 -266.985700233431487
-124.846380449217150 -72.903466223617642 -267.158145611446059
-158.153027318757722 -72.951031030248245 -268.120725869554235
20.100729681840260 -65.249289932293038 -264.486669398248864
-145.489940897850602 -73.133838530473682 -284.542804241801946
-166.753174094541919 -70.976180675551205 -285.076299843642460
-8.561212253006474 -69.659646500934258 -280.350806596049836
-148.568993109974031 -76.004660959615691 -288.201650013073163
-7.930563665942778 -66.824526024068362 -283.889474119728504
13.572657264729585 -65.072746147174186 -282.498846777111623
-136.993591043736586 -73.571431845595143 -293.822742627617856
-71.946544677724106 -69.605487502259550 -284.995402138830968
-31.860732516120020 -67.049172401598440 -285.533032122356474
-113.316680038813701 -73.855588977359844 -290.945372148730314
-88.297740727201713 -71.683334552539236 -294.911537252681796
-91.247528367944028 -70.251098077238609 -292.958680222827297
-46.329324371197970 -68.506052081578886 -293.080808119474682
-112.232695674178515 -74.122850633678780 -293.694695195658767
-107.983886593797138 -71.601550130504393 -296.733434176193441
-32.770356694613554 -70.089433288858686 -293.635107690774248
-110.467427113708879 -68.932276373924651 -297.031116003034185
-125.538036535682011 -72.713212170260491 -300.737664774696839
-141.170659804419927 -71.381246307849153 -297.983604821308916
8.430772537340776 -66.999205859557904 -290.796281796042365
13.843440276458921 -68.450279168282620 -289.700561122991928
-155.442218510016630 -74.574472900180325 -303.308415277469635
-150.379457974742934 -74.367166592347928 -309.315430853182534
-141.128023027311997 -73.663217820722437 -319.277454027858425
-147.431133821678401 -71.730267278962046 -319.467828796488959
-151.735266252823806 -74.180967802883302 -319.863282850125529
19.976544943780869 -74.601844780186212 -13.442610399522422
7.239200880149857 -71.614922212434223 -10.129180102986162
9.208051235378095 -71.467794819252418 -20.478824440807266
14.564362747869554 -72.489639487226142 -37.427075850105368
-67.327945768736825 -73.401294637293176 -51.632413579619893
-76.966762946037008 -74.069819917149687 -50.864897956974019
-46.554254533146377 -76.527571731066843 -52.240755970403754
-93.867382300362934 -72.552619522230998 -66.883046614784647
73.853897551354294 -69.284832422825318 -67.411362588672873
-34.515232284738914 -75.027326984410962 -69.222110454845946
78.060149312719986 -75.559859088547384 -65.714110344932507
86.209808815851616 -70.705502460609736 -71.219574347580789
-104.916315164749633 -78.385219278169274 -82.665974385074378
61.828701722309845 -69.350026949143057 -77.640311181119941
-53.099427958922746 -75.799113672615348 -83.260629948924645
90.310410419060958 -68.537780815864423 -76.237684262547901
-62.883491924497179 -76.337091172920907 -94.722335740416554
44.685467783415163 -69.876834428520198 -87.684916409404948
67.161781436949212 -71.526253703217364 -86.031105658248819
49.043184750212205 -71.174233857261825 -95.788552019686733
44.034366904836133 -71.370579330923064 -94.424170296808271
64.057979443968719 -70.179524572085356 -87.822180203905376
34.810639586222777 -66.377147223050500 -96.359998896378883
97.105113239330706 -66.395407558417645 -95.212483307905970
101.049182036496688 -66.758101839731921 -97.038709352849949
76.740935316265904 -64.975481885502191 -100.012048420856544
78.293776163202082 -67.282962627862730 -92.495191874927812
93.824957729327338 -70.569956125202012 -92.088694100679348
100.508520167753090 -65.998894743604126 -94.467451510413795
29.184333970633482 -71.298835679176818 -102.804672839759817
101.435978756667140 -66.751250260772380 -112.006915911199869
104.539050383564003 -66.762568961222883 -109.415434518802883
25.061697881970044 -68.822129859391225 -121.503302960474642
37.946128721660102 -71.387575040578668 -116.340880585303083
108.029242723984936 -63.196920146914678 -119.060969165988794
33.322979968481263 -69.807672207463895 -126.458027013554286
106.657646673165857 -67.814817934294680 -117.510430710848297
104.096243030689408 -66.449119908312241 -115.598371713675036
19.709380767240692 -71.379861235999527 -133.630896657392725
-57.136958095018244 -74.673635101330262 -135.372854730490076
-59.951787066669453 -73.397336891246283 -137.902094589663648
104.066984809015992 -64.836258868165814 -126.525269211328791
-77.051136695558341 -76.403685557857301 -141.252404519878610
-82.958933853895630 -75.081642963543558 -141.464058209506391
-62.943970029165385 -77.055996516299132 -147.751633753277872
29.035814596509578 -66.128689363203065 -139.212438339525022
104.272053448740422 -64.288684760957281 -131.775294161974841
-75.687152248781231 -71.657306689571840 -150.644048297423922
-50.337983813826597 -73.421945594167724 -147.088070741637239
28.346533562467926 -67.976236236621403 -146.799052093009209
-73.404031200016036 -74.448528136761809 -150.496971132474243
106.386983510091397 -68.424797995234499 -136.540742106217465
106.362501722721717 -64.766370478839434 -151.077059506403032
110.351272600594356 -64.454022552528400 -142.941855242848305
-42.216485926197294 -73.799021967297406 -154.197813519721876
-72.836018865712404 -72.289872006973539 -164.177886088047444
-82.913359863344724 -73.292121953522937 -158.032704487582407
27.456474350599095 -73.518205127487775 -148.476751599334420
-6.986727966901144 -72.087577358120541 -160.938663584785388
100.145859761915531 -65.605834508741850 -152.615933015199175
103.976757774692558 -66.675577531873969 -147.026868148831227
107.990890420717989 -63.268347170279867 -147.062229957257671
-71.639714240113008 -73.988562383977481 -164.467867287562115
-51.288859772005083 -69.743524867677039 -161.625126532152990
-4.414490328975964 -69.117539043748394 -165.191431148429842
-28.922713607550659 -69.899795377238803 -176.521859312116590
100.669147099017678 -64.844881356348694 -160.028284898608831
-41.697028946616214 -72.704282573801947 -157.498245790785404
104.990612531985690 -66.496807941621100 -163.943169261224796
-46.893118427054560 -71.573703864220377 -173.664058997288350
103.582621322035536 -63.037717911845633 -160.989329658220697
-151.015535799430239 -77.901239343393982 -190.480063428942856
-36.725577286009340 -68.871747263590976 -175.479846576832017
-26.213720669740649 -69.098008689323962 -180.624886027973901
22.546138058422493 -70.002303988648720 -173.899444065847661
11.103272561468053 -69.030624988629810 -181.494835285414354
21.105984789294979 -69.010173025889927 -179.018796531189707
107.180591691181377 -63.238051060094691 -174.943316306554834
-156.725423989330181 -77.452286231668225 -195.622655232327190
-24.368091182866483 -76.027590197806290 -187.699535050247960
101.387480529487348 -64.438399028938278 -171.855022096621951
97.464890345937732 -65.709291426082032 -185.382954995093257
102.474721820286817 -66.957635621896813 -170.501978306521721
92.912800316908374 -67.403959009862973 -186.170512564645890
-158.467218321262237 -76.437964888994514 -201.656480067150142
97.477062124161478 -64.178834911889595 -197.588152396521139
-32.820713226151696 -66.341613994705980 -194.720322006082142
96.761911607751713 -66.504998935567485 -192.327103369090764
-127.723643640623607 -72.141720870746795 -198.430470559073171
-31.290408401604527 -76.010622525649609 -192.676677183594904
-146.664171678924191 -74.140712560740539 -206.890264177407687
90.005517560552121 -66.983012172623688 -192.717826483631995
5.001334079592018 -69.367155020446134 -196.940452000227367
16.812581703645886 -70.578733417380491 -191.562392524187032
-147.951261582207906 -70.804851456308228 -206.636760691697191
-145.561383456961948 -73.118888422089768 -205.331368024090580
-15.078935088865926 -66.180439135854684 -201.932516323269340
-128.671762192940122 -71.829644139926842 -206.328938793902068
-146.499514578075633 -82.373797238908921 -211.566059958643223
6.991099795137186 -69.763755806307231 -202.198977398754209
-23.161014123646641 -72.795756913124137 -204.109598252595845
18.150683364980285 -70.230148868059302 -199.512228482623527
7.048932271942164 -66.537513887493006 -208.622840329222583
85.865050867548376 -65.109082868285725 -206.701198513364091
-23.858239613359675 -68.089174224357990 -211.070650659798901
88.398252913675151 -64.262713954270097 -204.013926801453522
92.960655769951956 -64.548992978928041 -197.632952215563193
-152.469422837918131 -75.574404338768659 -220.458450621523411
94.857093011380798 -64.427456742593591 -204.209116987120808
2.372908157989271 -71.465824358177741 -209.575057798805460
3.822895697027541 -69.907963323458659 -213.740708526828996
-38.684714776597460 -72.001551558450416 -207.987908683400747
-92.454710797123340 -72.290639024458585 -216.863631490774310
-30.697270340154471 -70.919202616039144 -209.605882173548650
79.963753213216464 -64.182449611390410 -209.264795750533835
82.999039641426464 -66.822983119843428 -211.526063105711046
-36.644667628949762 -71.192634825591441 -213.331116759887664
-90.721960242489345 -69.431668699478521 -219.683530972207677
-5.939112235832047 -69.197570817247424 -214.584638793298041
84.889812237110732 -66.689137354004274 -215.370696591814863
-149.126518501925290 -74.484596846205207 -227.688703299089525
-167.951340568960205 -74.405166893112749 -222.716799383052091
-157.988670053294783 -74.585590674922884 -230.292404035197137
-21.700565603546295 -68.061213165633205 -225.574061361842496
-151.017211551014668 -74.079856310050758 -229.114613949432965
-11.881540503631502 -71.699063833635165 -223.077555990139160
6.896039772323951 -67.296769523203494 -216.200067729363468
-164.081614756845795 -73.036809937089885 -234.164247132655191
-165.309944376392451 -73.718284623737077 -230.656219797410188
80.146889809308206 -64.540193506995863 -223.791217221800935
2.677555154866692 -67.313851904327777 -227.903749368008675
-158.527075405862604 -73.036490034610594 -236.832406955261604
-141.947235971952409 -75.047105730205629 -231.579535768019582
-24.021043195201425 -70.236664533397175 -224.077238074770605
2.269239076478901 -74.213713385403778 -225.530266085010112
76.328661199815016 -62.851245313098701 -219.162361844695852
-164.919695383079585 -74.196023947533362 -235.304994445108093
-152.701110312409298 -70.741059775887393 -232.349363359204233
-126.385793948590674 -71.282098298977317 -236.234459745989909
80.363311781791239 -64.819028952528427 -221.433571390551606
-116.587850436314810 -71.505020572509594 -233.292311087650660
-154.088403912276959 -73.824905484428740 -232.307750711624863
-151.255927050669669 -72.232514043708875 -238.091743774823385
-148.230352442066106 -72.878348270035829 -237.453691646979905
-157.018900557092024 -73.579826531624605 -235.108486863638745
-166.739366231664121 -75.138456391845040 -236.532497602084163
-136.652859349324899 -69.197965407430047 -236.000422788139531
-134.872940228541836 -73.352883033364776 -237.775281046887301
-154.333798683226917 -72.377223305398928 -234.563631883872119
-148.095836525525300 -70.031724677225370 -242.249766364422271
-153.994693026907044 -72.814661502457994 -239.872574344617135
73.072888936502324 -63.209388049716679 -223.071037244498484
63.033429104926952 -66.115624179409380 -235.010021574547693
-163.543172515313017 -74.006740847279971 -240.734406424918348
64.586640445203031 -64.317622396577931 -228.399583726383923
-21.083132960728332 -69.453824913881377 -238.510931039872389
8.173517988570374 -65.457147357401865 -230.792698240130790
3.284085426437953 -68.607588021429279 -233.163190268492940
-152.136568250197882 -75.470792390951374 -252.983881956240225
9.809626960848712 -66.673383813600793 -236.902271335821865
62.366449175968825 -64.330559747681392 -234.984253420329026
10.861799625805538 -66.022176931552323 -236.236490329971218
5.289975520988861 -68.787935453085964 -241.285193585690649
-9.553975715528747 -69.608775105947402 -241.879440398833196
-21.707345144381261 -67.967140887313647 -243.674467380614033
-0.785077098341517 -69.112744095213046 -243.224559824203084
1.623760684966951 -66.649475925228728 -239.175778362112965
56.996367643263682 -66.290134168569850 -237.382100821995152
-55.180639185825029 -69.256648749978098 -243.066930165579720
16.185234974287408 -64.973817488372418 -242.652966645223728
-63.913763624598602 -73.785752350010824 -244.515397927359800
-8.810002609863197 -67.111032633730346 -247.075972081557950
-66.671852447307856 -68.072007632245317 -253.742550530067490
-89.777314389035794 -70.310529623481642 -255.571024162527806
-83.062583558655163 -67.410991371588096 -250.949221779337222
-15.061289924691792 -64.877693870567910 -248.979498064082634
-125.109662851687233 -67.493247134257203 -259.155896476782175
-15.018857240526277 -71.056929789972912 -254.399687029123925
-117.800362799769502 -73.628028003537992 -261.961063170707121
-114.787204528147470 -70.880870832782037 -264.874836039924389
-103.104905752170694 -73.581302281460992 -263.500098596111513
-146.326058202131804 -75.143092918042015 -270.013786013810488
-145.972176870707727 -70.169089444978283 -270.837578932118106
-167.428817704726498 -74.022262149396312 -272.067116071679607
16.961830405615586 -66.794891283129246 -273.587681379055141
-52.951822479472071 -68.297440282454588 -290.796709541305631
-64.262761604422067 -70.402108699623682 -289.279875098703030
-40.477691022097645 -71.003341855142338 -286.296424931516299
-30.578129827029567 -67.512258949004305 -283.572716185110266
-95.185205210349224 -67.383226376850828 -288.207206744640416
-28.575059328190040 -67.965458347339975 -288.895840380702055
-5.074606318411751 -68.186225302657647 -285.466270163897605
-166.096966580341444 -71.543183411505510 -295.314383448396541
-7.224392205641802 -68.029951913816973 -288.586243026433635
9.784357908905809 -66.690189176632998 -286.944418547869361
18.067909071894974 -72.044969051749575 -285.051017531871253
-53.426290032364960 -71.209930022393465 -290.923479283250629
-26.249850895114808 -65.109389785145083 -292.146330351550887
14.064684993291333 -63.253200570231584 -289.539345164066390
-69.242245380962785 -67.024869537808542 -294.793803878094081
-35.748169160995261 -68.608183363456845 -294.987413718866890
-17.009422082083272 -66.547308858190476 -290.871023030140407
18.881749075243505 -65.370281378448439 -287.784121280566751
-7.697583174790960 -63.912638087260632 -290.427546036515650
3.585132979657178 -63.014690550418635 -289.331412028223895
16.906677001244184 -67.950400628563273 -289.566279414452879
-133.508233477897534 -70.365834224805582 -299.836533873772566
-142.038734435658682 -74.760852707515383 -306.762247261933169
-143.952593877340604 -72.362475545749788 -322.732668511706038
26.257336140174420 -71.253619795952673 -7.722121054211993
18.659192474099058 -72.596065645725005 -9.919339314641864
25.239856482896641 -72.791358399406960 -11.867151032863955
5.518079237701404 -73.529979670467952 -18.019334967562642
29.708815694276836 -70.367222100711842 -17.777568754431186
9.943153118019486 -71.553098648358883 -20.375141963840463
12.457760892332573 -74.373772932870494 -27.135525931295092
9.118394229287899 -69.049063391741583 -29.473642288746433
35.266966662982341 -70.726520828223528 -28.776456603577714
18.144953956275341 -70.725503985744709 -30.843377302700745
28.709744916625578 -68.371835209423651 -30.827420498110932
19.929851940581006 -69.638540472002347 -33.560787719079272
24.254179368658576 -72.851797988335761 -30.948797215104086
19.261065333165668 -72.097092592897909 -38.109772328068857
28.789080606421471 -69.937208272406124 -34.403266315675445
25.103203741943023 -73.903082582797339 -40.334846771675984
-47.587482384122808 -72.776225936624002 -51.715344927016346
-43.826066479821620 -71.698591242146705 -52.046712189909172
-95.360667493762179 -73.530821877302159 -59.750578024713533
-96.642128843460100 -75.782793299387521 -69.506301068344300
71.261160094050183 -73.440633465718022 -65.198088537292719
72.771689964872110 -69.725335600393635 -67.094424501649513
-27.234550407126758 -69.156972003211010 -72.824766717569901
-100.609425834514511 -77.728914076933037 -75.682555762400952
-36.194662214796068 -73.652006737706472 -77.400843932830824
-58.574759370287055 -74.370670377679090 -86.099822433550955
56.018504397718843 -65.261486595734851 -80.944169635445519
44.258110978694035 -68.389549392010963 -89.362303820262611
89.348057337516067 -66.679938521054609 -85.097712764539580
63.276152589581784 -67.468446150960460 -90.377064638566083
-73.858632723473988 -79.836176340855175 -99.446006327744726
-79.355483620141470 -74.138619401134505 -97.158631146961682
35.508727630595033 -71.077290310437931 -94.408530490430621
67.784439360561819 -70.763621537689218 -97.854017520325783
47.900092590454449 -71.167211088929989 -96.981598319301341
91.261467694266628 -68.555293691905149 -90.837740142423058
-102.764679037746390 -73.825821710220140 -108.614849787565760
26.939623828681114 -72.817098011091232 -107.623999394660601
98.297408051651971 -65.015534716493036 -98.800647606088887
38.728842222698319 -68.040374524622834 -105.452932328382573
96.406636410803145 -64.389422239915689 -101.207268346285176
-96.375727101276752 -72.856763673392038 -115.222933111526331
29.513484696170060 -69.607298211574047 -106.473304625595119
95.530124866515308 -66.930428911556390 -109.423916997910410
95.400330562685582 -64.420898578728455 -108.390881543041473
101.485207677113635 -66.058562092473281 -109.413561915108815
99.992897851083001 -67.321591150304982 -107.750049612325057
31.202997966689171 -71.423877159593999 -106.675206457575996
20.385537696511403 -73.427777607576786 -118.319752404485385
37.017647869443230 -71.284028250905862 -115.272961215079064
104.349946407254095 -66.931252845662158 -116.920628218858283
29.207621769433299 -71.318248014096625 -121.668888975038882
99.162774933282137 -65.195003055092769 -123.416530715729905
105.281910311657796 -64.836334155469459 -124.757559019922311
24.440264205512229 -72.113275936641301 -121.505505890895549
-83.017207610882835 -75.876759663450287 -131.745784468640124
108.009517739240351 -66.223437546972363 -130.420407307526375
-64.786312025146202 -71.699025656614666 -136.018883494133547
30.278064101765569 -70.172386526858830 -132.937975406128089
-79.458703652413888 -76.357423084492567 -141.042945735305807
25.074410685176428 -71.592575567278672 -131.974422583796809
-82.779341949662822 -71.444329194957490 -145.048236348758223
-51.129127641554660 -74.015833056155842 -142.469815010823311
-75.416507891228505 -70.517754878372244 -140.230073442927335
105.221206667711940 -66.411665091470269 -132.395618951556912
102.580496667388118 -65.718777395950468 -131.650938307354522
109.955107771545713 -64.771090892275225 -134.320474783562815
-75.445138008267335 -71.274374870838315 -150.014811304898558
3.167897085236408 -67.522903634910605 -151.461338938636004
-61.634744449081182 -75.401207759711042 -151.532755436961281
-53.740698086969971 -72.627685398043965 -158.125102202988899
103.377358793278532 -62.056904493091920 -152.322834102696447
-48.081362743845347 -73.453773919979909 -149.836992854209086
4.769089103442647 -68.187794229102408 -154.738112767980851
17.016049161529828 -69.560457465303145 -154.471254711072675
107.766113851327148 -65.155420906536108 -157.376188024327121
21.626816537514234 -66.702529105521236 -160.154783575258193
-6.380393062586146 -69.746462404893606 -160.994550976363314
25.585041257802907 -70.059489524391950 -158.354247589084878
-74.053960052060560 -73.310113413298154 -162.020604909879125
-69.444079257546761 -71.479703829479888 -161.803502594462714
-74.151660513461366 -71.869358542696872 -168.819436775374697
107.317003369562542 -63.112344283467309 -154.544421557486658
-49.525710539743756 -70.986498815359440 -163.681953810179607
15.432626696062503 -69.893968175611093 -165.905584931651731
-70.712385863308683 -72.018954925644735 -171.745337747415704
-66.196898026178317 -71.665718780811602 -175.913143625754344
-41.876281138287183 -69.716177694310289 -161.436416403484657
-34.056075798582782 -71.715025592928157 -170.514247704149625
108.727330231188745 -64.791549968696032 -161.334447261724733
-44.981015990855084 -67.198767940117705 -179.559721142309286
12.057977887139149 -70.637747758614779 -173.851515230554469
107.151044951244273 -62.877333524473514 -173.416056425038903
-152.990280440864524 -76.279071034103637 -181.426809809349379
-150.401975267334336 -78.327479471034380 -183.412197462268580
-158.946960513860120 -72.569768558123030 -182.232547579948800
-146.380084879911180 -71.978899436628382 -184.902244019339321
-35.103658296794592 -71.050894826223029 -188.541322927365513
-26.480474128264856 -69.697985781924530 -185.824853207815238
14.987845584779198 -65.912452155731174 -187.683805154352399
-147.833369625667075 -74.486721660433105 -192.162615763039923
-149.786183900845231 -74.297267145331844 -194.964927711171185
-24.005210868624840 -68.898044405503001 -188.741005979329600
9.220739140406874 -69.708711478165171 -182.914000702641658
-151.666679493336289 -73.024096553404249 -199.886662316540026
-37.052150718035890 -70.058823599205965 -186.749251961979724
96.668102547842707 -64.411060785650406 -181.753787848751756
102.605409865619180 -65.382129862251531 -185.023068222908762
15.487634972441001 -66.712048429797576 -191.396036175347660
-25.857419667452238 -70.816592081320636 -184.405901361691349
-29.103599416456067 -72.035329028740350 -195.229681727985735
-155.411549346090311 -70.601068583248718 -202.607365788546929
-135.429212602545562 -74.573633573151341 -202.655410789635766
-129.363446463577759 -73.536403520266575 -202.465215722474738
-125.096208487586040 -72.267039715750116 -204.918821164994654
-29.350476868961938 -69.177234285490002 -197.931572792501186
6.212397535133270 -69.333521376167653 -188.195160169262692
94.830003276289318 -63.859068788620121 -193.892113394500086
-152.775910028330401 -75.298534306542322 -206.747007379151910
-152.204900983076101 -73.640711247465063 -204.644537442847707
-151.859814852442497 -71.611391120352238 -205.759268797470952
-159.843359894363459 -75.514077082064546 -206.475564218243107
-31.631662361438369 -70.486621203781411 -199.201634376631034
-23.574895373270085 -72.855194101894824 -194.773611420426789
-156.218285864878254 -72.834048698005589 -207.136374194712175
-18.673986626672011 -66.889228486038448 -201.137202151500787
-167.000275945877434 -72.415380519184225 -204.739273135383485
-137.630488509496814 -74.394925189943365 -206.002226707145780
16.293067006057353 -66.814803373149502 -204.444275718344613
-171.023943496364240 -74.124709559601214 -210.041072300595943
-147.505760341456551 -73.539623685012486 -211.846612625979049
6.526807595785280 -65.225026880172038 -201.080462122522249
-158.295282336251574 -74.261829747521134 -211.165297601713860
-27.323251109404605 -68.527976834746838 -201.929662941449521
102.297789883701583 -64.344074822352283 -196.961276668426592
-156.424880792420623 -76.683004016486521 -223.628305169096109
-165.348575248241502 -76.781836986287075 -215.270507607887339
-83.779771856023217 -73.458628696840933 -213.088703338480911
83.678713414353055 -65.864466628125257 -203.655464235156387
-6.670042338975531 -64.532504517106560 -214.844741679046933
-152.997731098987799 -73.525284948092263 -222.607200966688595
-90.636061415604829 -71.784811246418215 -216.857556080567917
-9.249502039693773 -69.458727837587730 -210.703423796219397
11.248725213442157 -70.572968958925344 -220.439225419947377
-149.555976872834464 -72.880011716500434 -223.730106587018497
-2.478800872132107 -68.384233896866533 -218.492035471182817
-24.642314492724825 -70.335484032749463 -217.218838740897354
-18.646280998604578 -64.952161501579099 -218.711421016040958
83.981618050161373 -61.197465335760413 -208.010628518433862
-26.086735165204157 -69.566642724190913 -217.241455940684489
-30.666890597473863 -67.523098949094873 -218.567046516104085
-112.885728965778540 -70.314529344008093 -229.951514887775090
-18.719174973370333 -66.781504112699253 -222.700523096442680
85.025202895200366 -63.270610463117649 -211.314277949691416
81.078188602068153 -62.461800405733399 -215.650754308093610
1.665796883843299 -69.679304039104196 -217.016337581128710
-15.319090563855784 -68.743536537304337 -226.452251308596487
74.188631440097382 -66.601957599221265 -217.054777875003765
-124.419173213446186 -72.116155926723096 -226.895360982669331
-28.992448822469715 -67.445223399987469 -220.082060286715318
-103.460171039370621 -71.318710187472945 -225.620969221279779
-109.043111982482884 -73.973781798093285 -228.070415110870897
-138.114970280913525 -72.849687298316013 -229.929943351357679
79.886783717295998 -64.384823762060648 -218.601201960330684
-126.027483459192553 -71.928455778538122 -230.983516963505565
2.760558898263591 -66.895753908651812 -227.533268729686768
76.140260953754364 -63.548229923099129 -217.950542979634747
-15.834541790149277 -63.429069470028452 -225.487713012277140
-13.207736456199765 -71.548220775483017 -231.100341307426618
-5.578779308623162 -68.538145804030535 -223.919129518550506
6.112800998118487 -66.748178094805127 -222.312092242634094
82.258198365979467 -62.871400808432270 -215.763033630409439
8.665785736920419 -67.005091562982315 -231.486220517958031
-1.472516389828737 -68.217312679470965 -226.375738222113682
-11.110950974607530 -67.032970976669446 -229.114731789809355
-7.820846638466087 -70.466549514457057 -231.739706894997028
12.718865815577214 -64.998627343524291 -227.754159502080256
-16.215614254096614 -68.353150245247946 -234.491991820208227
69.518101173129992 -63.039171126663007 -233.037691636280158
-9.631592369832152 -64.965818714471752 -237.536089967810653
16.065465519328441 -67.818602733810238 -233.149957842652725
-171.477292190146642 -75.700984948729044 -246.965533637758085
-7.792813324425612 -69.058346733930193 -239.535436974251809
-10.031263336353177 -67.791248178703114 -238.704470192903500
-168.153539147082341 -73.399984217433101 -257.810386592904706
-13.316434396543421 -68.470979490312317 -245.666576631096632
14.414916238710031 -66.560935847511345 -246.261851147329480
-146.882933341915901 -74.268473179494293 -258.869144812095954
-67.281316300841780 -65.254213829106732 -253.005273333024888
-60.487401112419889 -68.259946146728566 -248.321360683908892
51.288275478128739 -64.992937799071953 -245.245288806482620
-80.428117580751675 -71.324473753311267 -248.693194900933804
17.362542518684339 -66.674943995228560 -248.147296465398313
-73.543545049769321 -69.208834740596700 -253.260655008070501
-16.886817760454743 -72.881765870074233 -252.326271600337691
-145.374142375850994 -73.376916366660424 -257.754625126072824
45.784782662873795 -63.323835396361133 -248.033672314971682
-76.179112802193529 -66.632150459349319 -255.849742890228640
-104.424813070444841 -69.533915572912193 -260.170671039176398
-97.436558895665556 -72.117163128610656 -259.932381201051214
-119.445991934737975 -74.729389555713368 -263.838500964358161
-108.691173533030053 -71.450902161062530 -263.127048333993628
-109.361793881238313 -72.890274875054686 -263.102366493060515
18.821443962468877 -69.115850866837363 -260.855393868740407
-128.354185686736514 -70.483505179621048 -272.470869535922247
-9.865268352722794 -68.054329772444163 -277.788192748710230
-146.401133932787758 -70.031260633153607 -290.737263757906703
-167.083531995325984 -70.717798484773994 -290.094016637920959
-123.648804318028141 -72.988214040616995 -290.981945392188379
-115.173382920406738 -69.136230719689905 -292.368864344544249
-76.236004531704566 -69.060589415621223 -290.845520884132895
-54.510809523337329 -66.518302692228190 -287.667236076222594
-43.880193086300366 -67.773618088252988 -287.002805841851227
-11.727594898162689 -63.621628789493855 -285.459008287077438
-14.746673159238988 -62.337416255001187 -288.801428369200664
-34.574552383842686 -64.739243426896266 -288.483026220580030
-33.068839005968201 -66.149296584213545 -289.082283025725189
-19.425690602877683 -65.712622010017085 -290.249090488992806
-67.676159958534441 -65.321463753885865 -295.275727679468389
-52.967091330053591 -66.642664767856161 -293.318258939165958
-15.726569999925410 -64.290159520366331 -293.316381788518868
-11.399182591495222 -67.114151515235108 -289.671711881264287
-3.351531583990679 -62.671771243220789 -288.968240473282492
0.423184760982279 -63.624025068104316 -290.753051356646154
-87.616118354342589 -68.004726317313100 -297.328193549547223
-140.762794375974181 -67.896188047118073 -295.071094079963700
-117.357636500259673 -70.526774234119216 -295.786352011624103
-155.117482805651719 -75.239548940799111 -305.013700317789130
-153.902096684733351 -71.371770809271226 -303.649646057229575
-146.190659198739098 -71.684760742381712 -308.083338438413307
32.089520558310923 -68.979507787623390 -18.016385525277300
8.807020412049260 -72.243084087510624 -19.659690338960139
33.220128252194925 -72.931294754200309 -24.081032755252110
35.031576547202540 -70.010562860597574 -30.038550432688602
74.704545862410257 -65.765614340383109 -61.053260317176608
84.713709071227811 -67.175140440680323 -65.497134970296088
91.267342301592592 -68.080891702728010 -73.122990913843267
87.191632855259115 -67.560408903177333 -76.393380884706175
49.663889385922786 -67.986084292571761 -85.083685230575952
43.527034334920941 -73.062264046986471 -90.836010404671342
53.128913931127443 -67.319978631704913 -85.953880134346647
-73.349818345777237 -68.890964607564968 -93.854711808543854
56.649347205707301 -70.628420799243386 -83.485561119748212
89.352275038846457 -64.326868781562936 -94.970033142256170
64.541310499070903 -68.032640322579866 -95.219103267682144
86.711510608911468 -65.066002375569568 -96.614675022932929
-87.868811282735066 -71.808120692357207 -106.775503648697537
33.021984742693668 -72.970632382221623 -98.069566619852012
-90.658350107669236 -77.804577134438745 -110.760267038467688
40.799495252554621 -70.493078395598019 -106.396988348254055
35.821687063558954 -69.849959733534035 -100.270543474236831
98.771827465305805 -65.793162753471904 -100.279904484134363
30.409887731487988 -70.352888798999373 -105.664366410426240
30.193886176463025 -63.837765411603101 -107.175422277067511
35.969317353846982 -67.023476741356063 -109.342451275238318
97.197029450270307 -66.969977580778547 -105.481927964397471
-87.614483078733002 -72.052922752124260 -120.434617487681763
105.561695582658587 -66.949311650837188 -116.228374087615990
25.299967890302582 -67.059082087651561 -119.826903327697337
34.507112896351003 -67.161336360194611 -117.654147066144972
29.334967373857225 -69.559059618348101 -119.892347051430889
-62.378395429040793 -72.912148463834086 -128.747051269881354
22.757477908506623 -68.862348886074599 -122.106331769795460
-85.967834990610058 -73.106421367524348 -142.043399599710085
-61.115145176031120 -72.232053657413388 -132.464037119617956
-87.966461699640519 -71.970999436376275 -138.431151628258192
23.580794062245459 -65.620349092441259 -124.438076883953400
-64.439775516494876 -71.244057782635238 -135.204198977156807
27.141735770070778 -68.141016530910861 -130.798677630587520
-81.870682168981716 -71.536234001580667 -141.633826951839694
-69.684352947760402 -70.750703751946645 -142.068556803522881
24.311692360000109 -64.376968773262675 -138.722198683477984
101.949038569276453 -66.687474175335637 -134.533000650036570
106.254609003852011 -62.798400170559830 -130.913255548599011
24.925783415434974 -64.946306164151594 -136.317145931090920
-48.940870531287871 -70.613776110233147 -143.179910570727429
103.060866786723636 -63.045252205781026 -147.593621511015442
-79.986585883755268 -72.981106233618732 -148.095954433628947
-66.045795751540723 -72.215089976029759 -144.499876422414559
20.991200324527064 -70.578655847850726 -149.071270492737938
-81.287410374101157 -72.510624449514864 -149.726655036112390
-78.648737498592197 -73.425405201752412 -153.600305248459222
113.315240265667640 -64.782767413256863 -142.290819905010039
-73.113805146228700 -71.895395583705906 -157.166052857543264
-47.499848267505342 -71.576887580388970 -155.846473871610158
21.785358143856428 -68.913051690942766 -147.530450798491131
-82.063240814810669 -75.242637725922492 -150.291947244469043
4.488415784108378 -71.043564533844446 -150.292337297163101
25.191939680625573 -64.290938153846909 -151.299152994372889
21.685959449347578 -64.508231186994692 -144.963399676068832
5.141974944111851 -71.580810051680814 -149.333986901618061
-52.448072962714420 -70.472611578115760 -155.055901514466029
24.831609326514560 -66.027240404237403 -151.332009232148721
-51.139919110167384 -68.602881716300672 -150.984969859845194
1.546342065602246 -68.379075869342870 -154.063837394640188
16.091548518179032 -67.614350241566200 -149.344124223828430
-80.569447842788222 -70.429780536791810 -156.278078405782765
-52.450062095117133 -69.060807097421176 -156.831057461234877
-72.726425725992343 -73.190599543933430 -159.330173482421174
5.822930331641734 -67.407731518562713 -153.564128423649208
18.712835111781953 -67.302201547592887 -148.542325842941693
-3.543520231396196 -64.889857994612953 -159.639421898332444
12.113014865885017 -71.936515871075670 -154.019644263961254
23.750611121595398 -65.449782300708790 -162.376463776204048
-53.996145901315984 -70.618682616640129 -163.032635611505668
-33.989678541924064 -68.132827403929340 -161.116363920617744
-43.853391253598843 -68.980731879716785 -161.553767903945413
22.519428513091832 -68.751665578648854 -157.627801526966493
-51.023780434419280 -71.569794345587979 -170.429757295906541
-47.912280214924962 -65.396577133418276 -162.767523372421749
13.138695229993733 -68.264932946370735 -164.245156292279148
-45.749580310500022 -67.906533862820197 -173.470203635548785
20.811690817238294 -66.961415795939445 -169.956303903722869
106.836139045691766 -65.610111873119777 -163.528586812936112
-36.880946904700039 -68.553028842676326 -172.930842990303290
102.226155884474295 -62.421868247082543 -170.457477730993503
-39.977028140375594 -68.146160809492997 -177.076024340368917
-39.465110797660557 -68.832569602252136 -180.481382583499112
12.266298290632710 -66.662218005924089 -169.556908440636903
99.383752029478018 -62.909512889619762 -173.747698410157909
-33.205015084073111 -70.084658873634027 -187.755432058633062
-38.321178706094500 -64.891941284430061 -175.337222124044104
-26.136516866774254 -66.961883141417971 -182.868707195843797
-153.689952683635795 -73.649736841231999 -194.664139894327207
11.894050027068429 -67.131825937263486 -183.936136658965381
101.701361206104096 -60.341902443103791 -183.813621714452495
-158.261677923726893 -74.580882471557842 -203.859685546087746
-35.465080745956598 -71.172177917880205 -190.717779174946145
-118.605998011544983 -71.164261879768205 -200.231229745958899
-138.846676939901158 -74.862420489149699 -199.676213728766470
-114.334034568154124 -70.423937882347303 -200.996649090559572
-115.422147744635311 -71.961945643815568 -206.991123089888788
-19.028867830897628 -67.816202773505125 -193.638242788291166
14.514509235769328 -67.844191621345303 -195.709113405271125
-21.560917338409219 -65.909032887471483 -202.200994186316962
-126.499138711277396 -71.117663263767867 -211.919768942869837
-28.023054197896382 -70.009281097150307 -206.707691680703249
-138.718634402635018 -73.892271626533017 -207.800810045613787
-16.774108013449297 -71.013738794903546 -204.523924883319239
-147.602620020277044 -74.816540765536956 -213.265112867377866
85.179348351447516 -63.451307096358434 -202.948970333170450
-173.278935722023306 -74.679193829145149 -211.393774470073367
-9.378523261361977 -65.321854654762618 -211.798340535703460
6.696209068466281 -65.491588320065617 -205.404041947911765
9.436391467430600 -64.979395379976651 -213.292283844626809
80.214048902549663 -63.945737917541067 -212.550826125333003
2.793302315840278 -66.311495638499437 -209.062703910098492
11.687547279927928 -65.260360108971426 -214.247821901844247
-18.684816118925990 -70.748202530746738 -216.020190358703417
-92.791495415920650 -72.249855718637988 -219.891877480857261
-100.033873278743982 -70.651618320655800 -220.916599192203876
-9.292219238228903 -67.507795574327389 -216.420485425408856
-167.554232338269401 -74.729303186659109 -229.857249780105235
7.513279468697906 -68.535954322161942 -219.733091169053978
-147.341685732830257 -74.001877227189482 -229.769901738614635
8.464327635507997 -65.800193122618012 -221.787426621168152
-134.651882779843618 -71.651184059448326 -230.466721833587258
-119.937428154413112 -69.799238353594362 -228.861603499609373
12.044337191360020 -66.303539415805730 -219.138253514614689
72.438749206408247 -66.355677611107453 -217.631412186120144
5.933364347791160 -64.447482857849167 -221.421055321998608
-116.263879479658982 -70.470998387665517 -233.522144298940532
77.197470950269505 -63.377576062479761 -226.375434374927181
77.704899012226861 -63.168663761195276 -221.248327916765959
-125.187379922047000 -68.364981788815243 -238.871376526773531
-115.356665874075290 -72.185161000585055 -238.731339178922042
-17.132631882103766 -69.601530035750557 -230.684533157513954
68.651810874964923 -61.469158904681294 -223.599683795294027
62.172979152188091 -65.646649264010279 -230.294598503568579
73.219012219230336 -64.521059042492894 -227.829630076653416
-136.589005419751402 -71.284983893398234 -243.219129271225370
70.927976337141459 -66.290531042196491 -231.392480747417096
63.050019485799510 -63.675723869666385 -232.807190383135548
-170.845999734450658 -72.007872289795102 -236.868485759941052
0.504940692499135 -66.304517560321003 -234.441221580253682
14.313762027778726 -66.358460758500726 -235.631027694917918
-9.922693120300799 -64.170095116301582 -239.286646116011070
6.637369136211463 -64.734053553518081 -237.603402362842928
61.427582832287442 -64.795787787690116 -232.694821591979348
8.733257969845717 -63.124358178760019 -242.155587718342474
-13.624777847611288 -63.815232862916588 -243.139588676638198
-1.030960960015225 -67.777208125241089 -242.176075261162509
62.691372055192872 -64.673641630029678 -238.651912074574568
4.196268331804609 -67.327947899172727 -244.089125851054234
-11.527116746557262 -66.864880831178198 -240.837172467696462
12.947980084140985 -67.149205384473049 -240.891117431530972
-167.531712468995522 -72.229621773312317 -247.384534118709212
59.806801844015041 -62.056554866377539 -244.676736297665798
47.230929497557256 -59.046740121353508 -247.405781384288446
51.856261579531377 -63.986172721528050 -236.001526471614454
-15.636512460751380 -66.584451569125321 -248.431824699093625
54.494774423564593 -65.734864386082378 -243.637399902805157
-74.062121321434233 -66.239734459682992 -251.280270756470088
50.246120099367857 -64.848720176285028 -246.427756725564450
-94.644658775691312 -69.728936099572110 -254.038502734986935
-128.625107032500722 -69.680671856327308 -257.491273764547543
-134.748462536145240 -71.674941551187331 -258.718695039383078
41.892408573438829 -65.104309917198165 -246.698719810163198
-137.541059768904489 -74.584324662174993 -257.877588866564508
-114.587610109751708 -72.557406377219436 -261.557589579709827
-114.537122692804914 -67.842932331922469 -263.636328858812760
-83.850116619003771 -69.986231253851400 -259.155090718577299
-115.930557865431979 -73.072504504911024 -266.357548579036120
-123.405379094608293 -71.247646315011764 -266.203243300898862
-146.422308156124018 -67.995330288318215 -273.695170908441582
-18.140992218014738 -62.402005732125929 -262.047011984015512
-165.117658972294663 -70.970703947713801 -272.801142197938702
-15.895390280834750 -64.442504007566143 -272.394191346114155
-162.684205024028131 -70.748937192227643 -274.842726291619272
-152.042427388797989 -71.789025518689343 -281.058695461036109
-167.926734386241378 -71.438816550888077 -286.025964086737872
-11.862783630004653 -59.921228528897885 -274.897592328453015
-134.657229457993481 -71.833100932188486 -285.690255797731425
-160.833470712684743 -70.677659384877927 -291.383372222112939
-147.000685609637287 -71.204727632644364 -287.049372707602345
-134.641519126481882 -76.876009770173681 -290.371310735795930
-11.933264943760413 -63.896348563289322 -286.275820485133124
-124.680451277184375 -73.463364311851606 -289.669462078945230
-144.270550929887065 -70.715564898470618 -292.154217205660018
-114.576552750114928 -69.584339813935998 -288.535246951042495
-75.927044400300886 -66.110670079812451 -292.848493276650629
-62.210964674539483 -66.413312775219154 -286.891058458954944
-4.048531643559834 -64.923520834255513 -287.912719652781220
-52.790065651429018 -69.665716441488740 -292.093338562425174
-59.661195447329305 -65.919487538095083 -290.340084673824663
-68.730941541224425 -66.188061003028167 -294.216213166028240
-87.003706560090919 -65.987393680288719 -296.490552294455199
-99.727511857439339 -68.121254529998225 -291.950389888922246
-162.438889960504042 -69.304657933018206 -296.339388124293407
-163.230333269827696 -70.443174842762360 -297.929735202226993
-124.406264798994698 -71.381549583314765 -298.235071073235190
-145.761165074493960 -72.248723456806658 -302.206788859827213
-155.757692725875586 -69.092519794952509 -304.900926838508951
-142.501224509824539 -70.503847422815014 -320.739579095918884
32.870377129294901 -72.895236947452631 -13.931356041955944
8.891077387025515 -69.618285177950028 -27.064086608524370
25.128934985898891 -69.747089137562796 -31.784939905984032
-28.075536475851987 -74.815605100853006 -65.151319196095798
70.010286419819153 -67.510053418062853 -61.123098267839325
70.719296297891802 -66.283786542176372 -59.307315534781623
67.658345351963490 -68.134574495062495 -58.180306713046463
