-17.539512634277 -74.247528076172 -163.938140869141 10.239324569702
-5.820152282715 -73.875076293945 -163.744659423828 3.416338205338
15.264465332031 -76.970428466797 -184.767349243164 0.560350477695
-121.355895996094 -67.623229980469 -77.492340087891 23.344627380371
-81.179382324219 -69.159721374512 -105.362884521484 2.258479118347
-5.574768066406 -75.206481933594 -157.010238647461 7.140901088715
-118.728240966797 -65.950218200684 -75.818054199219 20.462181091309
19.203231811523 -77.142044067383 -181.286636352539 1.416654467583
-123.925872802734 -66.987892150879 -71.065643310547 26.239982604980
-89.359489440918 -66.812187194824 -96.674942016602 7.637769222260
-82.511535644531 -70.345977783203 -100.222808837891 3.037065744400
-89.335372924805 -70.119689941406 -94.527008056641 6.107311725616
-0.820068359375 -74.513214111328 -160.187057495117 1.743421316147
-1.558517456055 -75.361160278320 -158.631607055664 3.083177089691
-119.898078918457 -66.880088806152 -66.639770507813 22.638057708740
-113.926879882813 -66.644844055176 -65.441558837891 17.332099914551
-113.897994995117 -66.212295532227 -58.092346191406 18.923978805542
-100.243591308594 -66.885475158691 -74.238830566406 4.118854045868
-95.459411621094 -65.533035278320 -68.604248046875 1.012919783592
14.677993774414 -75.702377319336 -151.305923461914 3.734027147293
7.957229614258 -75.383728027344 -152.304000854492 2.808447122574
-59.513099670410 -69.295295715332 -96.229598999023 5.638948440552
18.537902832031 -75.014030456543 -146.802352905273 4.560243606567
-109.244758605957 -66.177757263184 -53.095031738281 16.905204772949
-63.759601593018 -70.236099243164 -82.906784057617 8.357939720154
22.529830932617 -75.896728515625 -150.567626953125 0.748208999634
28.059631347656 -76.935455322266 -149.899307250977 2.183293342590
-63.846824645996 -67.340347290039 -80.157562255859 7.087910652161
24.103866577148 -75.672622680664 -146.208419799805 1.157810688019
-65.909866333008 -69.124671936035 -74.923614501953 11.946939468384
22.063781738281 -75.407951354980 -139.279556274414 3.232891559601
24.897125244141 -75.571296691895 -142.385620117188 1.441695332527
27.813842773438 -74.378318786621 -143.483123779297 2.342030286789
84.449432373047 -79.337585449219 -185.033691406250 16.990219116211
18.821044921875 -72.753707885742 -134.496963500977 7.752574443817
32.420410156250 -75.141052246094 -142.412048339844 2.852448225021
39.897583007813 -76.525115966797 -145.454299926758 4.769465446472
34.599807739258 -76.318290710449 -144.258850097656 1.882583737373
30.519943237305 -75.015716552734 -139.797470092773 3.292794942856
81.327682495117 -79.345153808594 -181.689910888672 21.140594482422
85.613952636719 -78.347358703613 -181.618637084961 17.264244079590
41.879470825195 -74.987182617188 -143.347442626953 5.498536109924
77.580825805664 -79.204223632813 -173.040969848633 27.712053298950
76.170562744141 -77.357101440430 -172.500091552734 28.890995025635
72.109024047852 -77.930374145508 -162.748306274414 35.408557891846
68.619720458984 -76.398483276367 -155.058792114258 34.286182403564
70.524124145508 -77.709762573242 -154.000762939453 35.854740142822
-68.780830383301 -66.710754394531 -48.031738281250 3.157754182816
28.384628295898 -73.763183593750 -121.370361328125 3.547173500061
61.728561401367 -75.467964172363 -139.766098022461 22.597503662109
75.473999023438 -77.240447998047 -158.495605468750 32.869659423828
59.132492065430 -75.802413940430 -141.776931762695 21.067586898804
-40.202156066895 -69.742454528809 -65.926635742188 8.947036743164
66.915512084961 -77.096450805664 -146.372665405273 29.977821350098
-78.509948730469 -65.182647705078 -34.989166259766 11.025007247925
-51.746582031250 -69.538078308105 -56.239288330078 5.865919113159
-44.171394348145 -69.538375854492 -63.544799804688 8.806342124939
36.736053466797 -75.200042724609 -120.554901123047 2.204713582993
-77.535621643066 -65.553527832031 -37.738494873047 8.384511947632
68.213226318359 -78.075515747070 -143.238891601563 30.101655960083
-49.047302246094 -69.256935119629 -58.247070312500 6.956921577454
63.809448242188 -76.768005371094 -139.880294799805 24.613546371460
-66.481460571289 -68.740188598633 -43.481201171875 3.062393903732
-50.710815429688 -69.654296875000 -54.421752929688 4.747470378876
-43.988983154297 -69.828086853027 -60.611785888672 7.303046703339
-50.085647583008 -69.831527709961 -52.626312255859 4.149341583252
-66.433990478516 -67.081153869629 -40.327239990234 5.287358283997
65.879684448242 -76.594642639160 -138.708724975586 26.002967834473
-50.030914306641 -68.097045898438 -50.402252197266 3.242143154144
-70.770408630371 -65.528450012207 -35.602966308594 9.257844924927
44.645187377930 -75.039878845215 -111.746749877930 3.111020088196
-66.098083496094 -64.526771545410 -14.921600341797 28.185230255127
49.212753295898 -74.510604858398 -101.916076660156 2.561877250671
53.293228149414 -75.836944580078 -100.192550659180 1.695083618164
-50.440841674805 -66.676635742188 -23.793273925781 20.159585952759
-41.216690063477 -67.489715576172 -27.397979736328 18.706314086914
-47.425590515137 -65.729812622070 -16.990051269531 26.987316131592
-38.218620300293 -65.698944091797 -20.728454589844 25.583177566528
-59.762077331543 -64.241638183594 -4.717803955078 37.849617004395
-56.414497375488 -66.028709411621 0.273620605469 43.305957794189
-51.678756713867 -65.103713989258 -4.256683349609 38.838916778564
-54.082122802734 -67.459350585938 -1.071197509766 42.277252197266
-49.820777893066 -65.564407348633 -4.412445068359 38.915218353271
-51.368690490723 -67.190704345703 -2.730865478516 40.694255828857
-44.772117614746 -66.344741821289 5.825988769531 49.769355773926
-78.379295349121 -74.416198730469 -320.661804199219 29.412450790405
-53.345359802246 -76.819183349609 -333.133728027344 42.331577301025
-66.674407958984 -74.456123352051 -317.205932617188 26.302059173584
-61.316356658936 -75.313751220703 -320.179321289063 29.410331726074
-119.681793212891 -75.206794738770 -269.113952636719 7.400552749634
-145.479125976563 -70.815910339355 -244.691864013672 1.472641348839
-10.759002685547 -83.025177001953 -331.144073486328 39.902198791504
-13.614082336426 -81.162094116211 -327.015930175781 35.551525115967
-15.217170715332 -81.015121459961 -319.273529052734 28.080526351929
-145.708236694336 -71.433670043945 -215.402908325195 2.785249710083
13.879898071289 -81.895812988281 -331.228759765625 37.655883789063
-93.130386352539 -75.907958984375 -249.339889526367 4.429927825928
-12.863807678223 -80.410514831543 -308.408630371094 17.150011062622
-100.155136108398 -75.097396850586 -241.152847290039 13.285256385803
-102.890609741211 -75.758270263672 -234.530120849609 8.721375465393
-18.502197265625 -77.408859252930 -289.651123046875 1.069219708443
23.471298217773 -80.540115356445 -321.084442138672 28.859632492065
-2.763191223145 -82.182403564453 -294.890319824219 6.815896987915
-9.237281799316 -80.716171264648 -290.438537597656 3.710391521454
-12.571517944336 -79.621063232422 -281.568420410156 6.594707012177
-8.289299011230 -81.760925292969 -288.130981445313 4.762957572937
29.544540405273 -83.778007507324 -315.540527343750 27.487070083618
6.529273986816 -81.220489501953 -291.412902832031 3.792026042938
-11.624679565430 -80.101516723633 -276.137054443359 4.947115421295
13.427597045898 -79.633705139160 -293.922607421875 2.098414897919
24.925811767578 -83.654632568359 -299.271636962891 13.207132339478
-111.275543212891 -72.120445251465 -201.988128662109 2.007368326187
-116.536125183105 -70.185943603516 -192.369964599609 3.162767410278
-110.808441162109 -70.667015075684 -192.229324340820 1.035143613815
-89.810607910156 -75.212913513184 -202.279922485352 10.550800323486
-83.359741210938 -71.245353698730 -198.280303955078 12.327342987061
-115.357788085938 -70.960060119629 -178.404281616211 5.730546951294
-102.505210876465 -73.046974182129 -190.367538452148 6.549066066742
-95.255218505859 -70.283851623535 -181.961578369141 10.409198760986
-84.711380004883 -72.915405273438 -192.327194213867 18.150409698486
-106.769744873047 -73.461753845215 -175.053955078125 4.664214611053
-107.590095520020 -70.834510803223 -175.896697998047 2.820131540298
-69.648773193359 -70.215560913086 -195.531265258789 14.274904251099
-74.073623657227 -74.722976684570 -192.695617675781 15.673148155212
-91.321258544922 -73.662597656250 -175.652709960938 13.378273010254
-70.316986083984 -73.286079406738 -187.425949096680 13.878823280334
-88.599456787109 -72.565841674805 -173.861923217773 14.509873390198
-11.430122375488 -79.225982666016 -236.094223022461 5.137713909149
-71.016876220703 -71.669418334961 -182.028656005859 12.225459098816
-69.490097045898 -74.536972045898 -184.489761352539 11.494790077209
-12.425872802734 -76.337127685547 -213.984558105469 1.618211030960
-9.632698059082 -78.779228210449 -220.175491333008 2.122426509857
-123.150016784668 -68.743682861328 -106.387359619141 25.408346176147
-94.801071166992 -69.149505615234 -123.398071289063 2.260301113129
-86.062187194824 -71.122749328613 -117.256484985352 2.829558134079
-118.929016113281 -66.905746459961 -87.174118041992 20.539281845093
-92.657608032227 -70.399169921875 -117.121734619141 2.414170026779
-118.905464172363 -68.380836486816 -84.633880615234 20.825506210327
-86.186538696289 -71.223403930664 -106.065017700195 2.819357872009
-113.527435302734 -67.947067260742 -84.069839477539 15.544274330139
-111.763816833496 -66.302658081055 -77.313842773438 13.746335029602
-107.868797302246 -66.165878295898 -72.527435302734 10.841714859009
-96.747413635254 -67.956344604492 -67.072692871094 2.360950469971
-101.090682983398 -65.678611755371 -62.877136230469 6.130037784576
-63.881282806396 -69.860916137695 -91.811050415039 1.497379541397
-62.473098754883 -70.398330688477 -89.678527832031 3.175228834152
-76.160095214844 -70.293914794922 -76.104278564453 10.155680656433
-65.116096496582 -71.118644714355 -85.168945312500 7.148488521576
-99.625862121582 -64.933914184570 -55.362457275391 7.546205520630
21.535629272461 -76.003364562988 -148.067199707031 2.117597818375
-82.595199584961 -69.460327148438 -66.096008300781 5.646902561188
-95.450332641602 -64.900650024414 -53.465057373047 5.952689170837
-80.273269653320 -68.225967407227 -64.737243652344 7.310534000397
20.000503540039 -74.339660644531 -133.368362426758 6.842990875244
38.302612304688 -75.495231628418 -144.087402343750 2.930381536484
81.855361938477 -79.859786987305 -176.114578247070 22.881710052490
49.889907836914 -76.445236206055 -145.452392578125 13.524703979492
81.008926391602 -79.680984497070 -170.224960327148 25.134323120117
69.992385864258 -78.754760742188 -157.593994140625 36.267272949219
80.082000732422 -78.368171691895 -164.330749511719 27.403913497925
-83.280181884766 -67.153816223145 -40.104522705078 8.736130714417
-83.801193237305 -64.223731994629 -38.108947753906 9.469009399414
73.968170166016 -78.757438659668 -150.549514770508 35.851528167725
66.631881713867 -78.475250244141 -144.500335693359 29.229497909546
74.416213989258 -78.071685791016 -158.794357299805 33.985260009766
-76.363449096680 -65.424468994141 -42.784210205078 3.376462221146
-67.454246520996 -69.274658203125 -46.806152343750 2.469875335693
-61.395389556885 -69.698028564453 -52.157714843750 3.462828159332
-68.156127929688 -66.988761901855 -46.611755371094 2.947692394257
-73.078292846680 -67.729377746582 -41.287048339844 5.026924610138
-58.346351623535 -68.926559448242 -50.802429199219 3.136903762817
-71.359771728516 -68.040939331055 -38.960968017578 7.051379680634
-56.607254028320 -68.769432067871 -48.427551269531 1.503042578697
-56.708877563477 -69.798698425293 -46.374694824219 1.852072000504
-55.587722778320 -67.738601684570 -46.381469726563 2.647646903992
-49.764038085938 -69.992080688477 -50.891632080078 2.667762517929
41.115875244141 -75.124229431152 -116.583740234375 3.811764717102
65.005310058594 -76.532852172852 -136.668502807617 24.382495880127
-71.930519104004 -66.498390197754 -31.619659423828 13.465313911438
66.779876708984 -78.814903259277 -134.612823486328 25.289627075195
46.633941650391 -75.995208740234 -112.964660644531 1.476944446564
70.009429931641 -73.194671630859 -114.335586547852 11.750942230225
-54.859802246094 -66.901649475098 -16.180114746094 27.269388198853
-42.875137329102 -69.576377868652 -26.325714111328 19.826831817627
-47.936584472656 -68.812385559082 -19.948089599609 24.797235488892
-65.305953979492 -68.554145812988 -6.164520263672 37.439975738525
-40.694221496582 -69.865074157715 -26.114410400391 20.671514511108
-34.932403564453 -70.490631103516 -29.695709228516 18.436834335327
-40.257606506348 -68.763046264648 -21.970336914063 24.318193435669
-55.247329711914 -65.904296875000 -6.452392578125 36.722911834717
-82.270858764648 -75.208206176758 -337.678710937500 46.541080474854
-74.206352233887 -75.515380859375 -340.161071777344 49.009651184082
-70.333084106445 -75.537734985352 -341.697113037109 50.598819732666
-58.882637023926 -84.387252807617 -342.449401855469 52.670028686523
-75.299118041992 -74.830688476563 -325.755035400391 34.649810791016
-72.630256652832 -74.630737304688 -317.598205566406 26.419223785400
-112.462333679199 -77.160537719727 -273.585845947266 12.308742523193
-149.028411865234 -73.001388549805 -240.632400512695 2.967875957489
-90.577812194824 -77.225158691406 -277.680633544922 9.918028831482
-17.044898986816 -82.384246826172 -322.489532470703 31.498935699463
7.325057983398 -83.791740417480 -336.299987792969 43.581996917725
-11.733055114746 -80.520317077637 -305.895843505859 14.705976486206
-14.545242309570 -83.393112182617 -303.981567382813 14.429106712341
20.902557373047 -85.059913635254 -326.946258544922 34.804378509521
-110.002212524414 -75.472305297852 -222.974670410156 4.613292217255
-108.330039978027 -74.709884643555 -219.365447998047 4.855344295502
-17.528602600098 -80.486640930176 -284.205169677734 5.157967090607
-108.479759216309 -75.346069335938 -216.337799072266 7.209268569946
-108.928688049316 -73.725265502930 -211.990295410156 10.293160438538
-134.911834716797 -74.757972717285 -196.524765014648 1.374474883080
-112.478981018066 -74.028671264648 -206.788009643555 5.817128658295
-15.048355102539 -80.876411437988 -279.654357910156 8.473602294922
-107.507522583008 -73.211021423340 -207.968612670898 8.430028915405
-10.675765991211 -81.752693176270 -282.350463867188 6.918823719025
27.636260986328 -82.457962036133 -306.839874267578 19.405235290527
25.718185424805 -83.894287109375 -301.427001953125 15.061003684998
-105.509704589844 -73.403129577637 -197.865524291992 5.410053730011
-110.397964477539 -73.672439575195 -193.772766113281 3.206652402878
-90.938957214355 -73.936737060547 -200.089645385742 13.081999778748
-118.775779724121 -72.529197692871 -178.645736694336 9.346139907837
-98.840225219727 -72.960128784180 -184.559219360352 8.953587532043
-113.557395935059 -74.693756103516 -178.726531982422 7.381289482117
-91.231430053711 -76.219726562500 -199.763107299805 13.356211662292
-90.343002319336 -77.388122558594 -201.614212036133 11.431237220764
-105.836509704590 -74.340553283691 -178.274200439453 5.257062911987
-85.907012939453 -71.310188293457 -192.272613525391 18.764333724976
-102.426811218262 -73.601371765137 -177.320938110352 5.692798614502
-92.652725219727 -72.487998962402 -182.886688232422 13.819846153259
-85.552917480469 -74.031188964844 -189.662567138672 20.933410644531
-81.479553222656 -77.074951171875 -187.088150024414 22.663362503052
-73.633903503418 -75.039703369141 -189.712051391602 17.590847015381
-106.438819885254 -72.958694458008 -170.233932495117 4.404226303101
-104.558753967285 -71.095848083496 -160.577301025391 3.648074865341
-101.338150024414 -72.310897827148 -175.584991455078 5.232054710388
-7.827430725098 -77.948806762695 -229.635742187500 2.242652416229
-66.373291015625 -74.504776000977 -187.728805541992 10.631119728088
-12.079879760742 -79.954879760742 -222.787322998047 3.936760187149
-94.476394653320 -71.837280273438 -143.424957275391 3.383448362350
-91.989356994629 -70.904289245605 -133.588577270508 2.689014434814
-92.644866943359 -72.804656982422 -134.129180908203 4.699990272522
-98.871025085449 -71.323829650879 -135.065307617188 7.248586177826
-89.186698913574 -70.598533630371 -124.979797363281 3.096599340439
-95.669342041016 -71.311225891113 -124.623748779297 4.681986808777
-114.120895385742 -68.525329589844 -97.786071777344 16.098869323730
-91.093109130859 -71.787261962891 -115.252487182617 2.503764867783
-102.329010009766 -71.528533935547 -95.855850219727 6.322304248810
-112.294898986816 -68.286048889160 -86.163711547852 14.480053901672
-93.563995361328 -70.189155578613 -101.178985595703 3.789672851563
-118.402786254883 -67.591888427734 -81.733612060547 20.436973571777
-110.610992431641 -67.860687255859 -83.543884277344 12.805144309998
-91.142837524414 -71.476318359375 -97.967880249023 3.849662542343
-98.652755737305 -68.433433532715 -89.323348999023 2.504473686218
-105.517127990723 -67.770668029785 -81.403106689453 8.430779457092
-86.079444885254 -67.014236450195 -72.893310546875 7.762067794800
-67.507118225098 -70.785644531250 -82.443267822266 10.148447036743
-93.369346618652 -67.280967712402 -60.982391357422 2.009033441544
-69.370925903320 -71.407241821289 -79.345733642578 11.330403327942
-66.262229919434 -70.889724731445 -79.181030273438 11.376972198486
-72.901458740234 -70.097991943359 -70.437255859375 9.584809303284
-74.026580810547 -68.572021484375 -68.641815185547 10.344564437866
-67.026138305664 -71.093551635742 -75.846130371094 10.913520812988
29.515563964844 -77.434539794922 -146.210937500000 1.802118659019
-93.158332824707 -67.155281066895 -53.656280517578 5.303498268127
31.950515747070 -75.384101867676 -150.568450927734 1.973503708839
35.762557983398 -78.169204711914 -145.927459716797 2.217427253723
30.946777343750 -76.639892578125 -141.379364013672 2.597001075745
42.847213745117 -80.355300903320 -149.093612670898 9.341819763184
-89.149795532227 -67.320960998535 -56.452453613281 1.269628882408
30.463943481445 -77.810821533203 -133.904724121094 0.947806000710
48.471832275391 -78.713699340820 -148.536651611328 13.642388343811
72.942962646484 -80.218666076660 -161.409835815430 35.254871368408
75.856933593750 -80.770965576172 -163.762908935547 31.982194900513
-79.792015075684 -67.264053344727 -42.699310302734 6.024836540222
32.266799926758 -77.007522583008 -126.134780883789 0.958802103996
61.593261718750 -78.334167480469 -140.893081665039 23.199745178223
-65.784301757813 -70.304138183594 -44.617462158203 3.291409254074
-58.827499389648 -70.820480346680 -47.099212646484 2.042624711990
-60.346126556396 -70.972404479980 -50.242156982422 2.634335756302
62.972076416016 -78.026153564453 -138.837066650391 23.475221633911
-63.429267883301 -67.851776123047 -40.492797851563 4.631737709045
65.003005981445 -78.885841369629 -137.765579223633 24.978876113892
68.651672363281 -77.679870605469 -138.655715942383 28.554147720337
-75.824768066406 -66.051719665527 -29.456329345703 15.517566680908
-59.670448303223 -63.975822448730 -13.301269531250 29.340139389038
-61.816383361816 -67.475090026855 -10.358581542969 32.909606933594
-54.178543090820 -70.402023315430 -12.524017333984 31.618587493896
68.038253784180 -74.813606262207 -102.945159912109 6.718183994293
-61.464179992676 -68.772697448730 -4.351409912109 39.047687530518
-61.194580078125 -76.154327392578 -338.110778808594 47.299442291260
-60.178951263428 -75.262115478516 -320.592803955078 29.965730667114
-137.803543090820 -74.574905395508 -258.021331787109 2.625945806503
-144.566482543945 -75.492523193359 -252.375961303711 2.220765590668
-105.146835327148 -76.867965698242 -275.980102539063 12.049967765808
-97.108078002930 -75.986930847168 -276.614990234375 10.886888504028
-84.830680847168 -80.263656616211 -270.720428466797 16.379642486572
-90.950241088867 -78.080810546875 -262.683837890625 7.719045162201
-16.998168945313 -83.055328369141 -313.165557861328 22.711601257324
-145.402603149414 -74.615989685059 -211.614349365234 1.060223698616
-100.925910949707 -75.988502502441 -237.104827880859 11.621772766113
-17.629371643066 -81.422698974609 -296.011535644531 6.820215225220
-15.881858825684 -82.338569641113 -294.728576660156 6.742282867432
-7.183433532715 -82.144477844238 -299.249969482422 10.170124053955
25.462036132813 -85.025390625000 -321.339050292969 30.881277084351
-15.369804382324 -84.328094482422 -287.891479492188 7.021951198578
27.774703979492 -83.292648315430 -310.822845458984 22.758844375610
-115.838760375977 -72.878723144531 -203.416351318359 3.845087766647
-129.600616455078 -71.586555480957 -191.592300415039 3.851828098297
13.811340332031 -84.349281311035 -290.120544433594 6.070850849152
-112.015449523926 -76.170913696289 -204.398284912109 6.066524028778
-104.770477294922 -72.039932250977 -191.516204833984 4.672323226929
-109.257904052734 -73.813591003418 -188.038299560547 3.845213174820
-81.463592529297 -74.337142944336 -197.551116943359 12.218593597412
-99.999649047852 -72.043609619141 -182.838302612305 7.067157268524
-83.330017089844 -74.359634399414 -190.349380493164 19.650253295898
-97.386138916016 -72.730064392090 -177.550674438477 8.648311614990
-93.749717712402 -74.594650268555 -180.886672973633 13.201688766479
-102.560371398926 -78.022636413574 -183.629714965820 9.686326980591
-104.154098510742 -74.908897399902 -175.220291137695 6.020587921143
-84.276779174805 -75.968833923340 -188.411483764648 21.875259399414
-105.176246643066 -74.623725891113 -170.388259887695 5.655203819275
-71.951072692871 -75.035720825195 -194.856079101563 13.080439567566
-75.159637451172 -74.314178466797 -187.060394287109 17.698545455933
-9.422782897949 -79.883499145508 -239.368652343750 6.136568546295
-77.077148437500 -77.510238647461 -186.801147460938 19.219476699829
-13.644706726074 -78.221199035645 -223.982330322266 3.021677494049
-7.775749206543 -78.587692260742 -224.418640136719 2.239835500717
-7.498527526855 -80.659744262695 -221.037384033203 0.867010414600
-103.906013488770 -73.662330627441 -158.630065917969 5.794462203979
-97.028114318848 -72.360847473145 -154.780670166016 3.993881702423
-98.334793090820 -75.301544189453 -152.903610229492 6.684857368469
-101.099113464355 -72.517463684082 -144.865219116211 7.372893333435
-95.685722351074 -72.875740051270 -148.407623291016 4.556558132172
-129.323364257813 -64.814308166504 -102.234237670898 30.308940887451
-130.301437377930 -68.603408813477 -99.491439819336 31.848871231079
-89.769218444824 -72.688217163086 -123.807449340820 4.626574039459
-120.964340209961 -71.957725524902 -103.914230346680 23.913963317871
-93.862670898438 -73.091888427734 -122.408126831055 3.941932201385
-123.114440917969 -70.158798217773 -91.799316406250 25.351556777954
-86.251686096191 -72.604499816895 -109.791564941406 2.064382314682
-88.511230468750 -73.249176025391 -116.624710083008 1.477124571800
-108.596824645996 -69.501091003418 -90.547103881836 11.707683563232
-102.582359313965 -69.932723999023 -95.020202636719 6.026210784912
-82.432952880859 -71.778663635254 -108.635391235352 3.063797712326
-86.263519287109 -72.396049499512 -103.151580810547 3.814399957657
-82.905593872070 -72.797912597656 -104.846008300781 1.321683645248
-83.971305847168 -71.987632751465 -101.282730102539 3.713487863541
-101.502021789551 -71.551269531250 -92.799621582031 6.081172943115
-99.680610656738 -70.830329895020 -90.683746337891 4.057375431061
-97.366539001465 -70.702392578125 -89.688674926758 2.247858047485
-92.171508789063 -73.000213623047 -94.852005004883 2.471870422363
-92.520584106445 -70.040733337402 -92.049560546875 3.841044902802
-84.702957153320 -72.533309936523 -99.144226074219 4.645353317261
-100.876731872559 -69.217544555664 -72.140655517578 5.433185100555
-100.285415649414 -68.297164916992 -63.895965576172 6.625520706177
-101.470001220703 -71.567298889160 -61.510284423828 10.290695190430
-91.836059570313 -66.746719360352 -66.629821777344 2.306944847107
-84.044143676758 -70.972328186035 -71.698486328125 5.289021968842
-78.672119140625 -69.677757263184 -77.655944824219 10.391026496887
-90.304962158203 -69.228981018066 -65.579772949219 2.488574028015
-96.290534973145 -66.859855651855 -59.544464111328 4.525507926941
-85.372802734375 -69.601943969727 -69.743377685547 5.709255218506
-83.124855041504 -71.571945190430 -69.024139404297 5.221948623657
-93.858184814453 -66.524383544922 -58.821411132813 2.657300710678
-81.047744750977 -70.753372192383 -66.473693847656 6.289819240570
-77.062713623047 -72.552230834961 -74.194183349609 7.380690097809
22.716064453125 -74.833389282227 -137.960052490234 3.557623624802
33.125366210938 -78.616821289063 -143.163452148438 1.391203165054
41.960113525391 -79.203292846680 -145.544433593750 6.875930309296
40.689712524414 -77.064376831055 -142.319686889648 3.983235120773
24.877044677734 -76.761390686035 -130.860290527344 4.331487178802
26.221191406250 -77.073776245117 -127.504821777344 3.323752880096
71.087005615234 -80.970794677734 -154.638137817383 36.886119842529
76.900939941406 -80.124679565430 -159.883804321289 31.809480667114
-76.484680175781 -71.368705749512 -42.119445800781 7.255609512329
72.947387695313 -80.380371093750 -151.359054565430 36.967239379883
67.101303100586 -80.011718750000 -150.356170654297 31.653816223145
-83.438262939453 -68.920196533203 -31.230621337891 16.909564971924
-79.923477172852 -70.902534484863 -34.262939453125 14.059661865234
-75.851257324219 -65.437957763672 -35.257965087891 9.907290458679
46.541366577148 -78.184745788574 -121.251312255859 2.213675260544
-75.627761840820 -69.649009704590 -29.024780273438 17.140048980713
51.302749633789 -77.532058715820 -111.665908813477 2.125680446625
-67.404632568359 -68.984779357910 -24.672637939453 19.928594589233
-62.647876739502 -69.956245422363 -17.417266845703 26.956354141235
-65.781616210938 -69.222213745117 -15.409698486328 28.779891967773
-63.194568634033 -69.271278381348 -14.690429687500 29.368507385254
-58.681098937988 -69.708778381348 -17.749786376953 26.171607971191
-67.263542175293 -69.404090881348 -9.724182128906 34.307384490967
-63.332958221436 -70.511199951172 -12.601623535156 31.765054702759
-61.813289642334 -68.947296142578 -13.015686035156 30.787822723389
-59.950752258301 -69.927345275879 -15.516418457031 28.441619873047
-56.390182495117 -70.678840637207 -15.676605224609 28.468486785889
70.195617675781 -77.898818969727 -108.055801391602 10.300085067749
-58.418273925781 -69.210853576660 -11.802886962891 31.821201324463
-64.640243530273 -69.417221069336 -7.141662597656 36.670055389404
-62.435012817383 -69.804954528809 -8.942687988281 34.936565399170
-59.464187622070 -69.748367309570 -5.735900878906 37.900215148926
-59.671096801758 -70.225387573242 -8.533172607422 35.269233703613
-56.244491577148 -70.057525634766 -11.122039794922 32.714069366455
61.956359863281 -77.202934265137 -97.437667846680 5.143941402435
-53.708824157715 -69.161727905273 -10.226898193359 33.624691009521
-55.492362976074 -70.413528442383 -8.021392822266 35.856204986572
-78.066223144531 -85.751480102539 -333.376983642578 43.769443511963
-67.783584594727 -78.102890014648 -341.618316650391 50.851676940918
-65.139572143555 -83.929321289063 -339.890808105469 49.921596527100
-77.191497802734 -74.450622558594 -319.997406005859 28.777475357056
-67.819168090820 -85.236396789551 -321.671142578125 32.511829376221
-59.751342773438 -75.869140625000 -327.669647216797 37.054485321045
-133.760406494141 -78.283218383789 -263.271118164063 3.380558490753
-127.580802917480 -77.118774414063 -266.505279541016 4.360534191132
-4.826744079590 -83.974021911621 -335.810577392578 44.323467254639
-151.158233642578 -75.371337890625 -222.468566894531 1.924703121185
2.638870239258 -82.206176757813 -336.075317382813 43.687694549561
-18.615928649902 -84.272125244141 -318.214477539063 27.800176620483
15.471084594727 -84.023788452148 -332.469116210938 39.302696228027
-15.447135925293 -82.829086303711 -310.258666992188 19.913158416748
-99.192619323730 -75.402366638184 -245.256103515625 9.355077743530
-15.371009826660 -86.319770812988 -302.945709228516 15.191217422485
-111.396163940430 -78.389480590820 -232.738967895508 7.069777011871
-10.453414916992 -84.221282958984 -301.581634521484 12.651290893555
-13.827392578125 -83.175842285156 -301.664459228516 12.261660575867
-142.290527343750 -73.177589416504 -207.941894531250 3.507445096970
-17.887611389160 -82.607124328613 -291.099182128906 4.878759860992
-15.455802917480 -81.437736511230 -289.034667968750 4.333174705505
-6.240592956543 -81.657989501953 -295.956085205078 7.461350917816
-13.457008361816 -84.252388000488 -286.674713134766 7.358819961548
-115.076698303223 -75.637451171875 -198.358337402344 4.570824146271
17.060272216797 -82.275268554688 -297.453125000000 6.940930366516
-107.086486816406 -75.067909240723 -195.164825439453 5.751222610474
-108.669517517090 -76.355949401855 -199.537948608398 5.883305549622
-104.885986328125 -73.898536682129 -188.276275634766 5.524876117706
-115.654090881348 -74.117195129395 -190.139663696289 5.883243560791
-114.353546142578 -71.869163513184 -182.107162475586 5.013578891754
-100.925849914551 -74.434043884277 -184.544387817383 8.232001304626
-81.394119262695 -78.863937377930 -196.728759765625 13.371202468872
-95.634101867676 -74.974830627441 -179.047729492188 11.486132621765
-78.817543029785 -79.031799316406 -191.771530151367 17.249362945557
-101.890670776367 -74.839660644531 -170.910629272461 6.234151363373
-7.255844116211 -81.675567626953 -239.301147460938 7.877156734467
-13.198379516602 -79.870849609375 -231.706024169922 4.721776485443
-103.108619689941 -75.589202880859 -166.587448120117 6.813503265381
-9.141014099121 -80.538421630859 -224.324157714844 3.391296386719
-99.138092041016 -73.955070495605 -162.152999877930 5.972216129303
-100.055496215820 -75.513298034668 -158.456466674805 6.797859191895
-5.943229675293 -80.592643737793 -221.720977783203 1.614629387856
-103.248214721680 -74.931419372559 -159.272079467773 6.612852096558
-101.437553405762 -75.375038146973 -155.161743164063 7.290354728699
-99.978958129883 -74.535820007324 -144.586975097656 7.912895202637
-96.965148925781 -74.943862915039 -145.942886352539 6.579218864441
-93.379608154297 -74.234504699707 -129.622589111328 6.775107383728
-98.260063171387 -72.991531372070 -134.362792968750 8.264107704163
-96.772750854492 -74.891738891602 -138.959716796875 7.329699039459
-95.846458435059 -74.322792053223 -131.094070434570 8.047166824341
-120.714462280273 -69.717407226563 -106.521942138672 23.367284774780
-92.596694946289 -74.007850646973 -124.881530761719 6.173562049866
-115.959114074707 -71.474021911621 -96.735549926758 18.876514434814
-119.674682617188 -70.726226806641 -92.611312866211 22.347389221191
-117.845428466797 -69.845848083496 -88.196563720703 20.435497283936
-95.611976623535 -72.509948730469 -100.928787231445 3.463754653931
-100.523513793945 -72.860839843750 -94.184753417969 6.149042606354
-92.502487182617 -71.751686096191 -99.664367675781 3.994385242462
-105.091102600098 -69.481163024902 -85.923416137695 8.477804183960
-90.579483032227 -71.740669250488 -94.704986572266 4.238810539246
-106.340904235840 -69.029579162598 -80.638122558594 9.770177841187
-109.946548461914 -69.613128662109 -77.658050537109 13.096664428711
-100.835433959961 -70.923812866211 -56.066284179688 11.147089958191
-88.102371215820 -68.995483398438 -62.545898437500 1.586731910706
-74.960487365723 -71.539710998535 -70.382690429688 7.860011577606
-98.673751831055 -71.913597106934 -53.848663330078 11.262578010559
26.370941162109 -76.046936035156 -140.201965332031 1.123692631721
41.247497558594 -80.605377197266 -147.377685546875 7.398497104645
28.731781005859 -77.441184997559 -135.046203613281 1.126473665237
-84.647720336914 -70.819862365723 -48.280456542969 5.639277935028
29.035903930664 -79.269058227539 -130.784179687500 2.180319547653
-79.827346801758 -70.760185241699 -41.722076416016 8.273772239685
30.707748413086 -79.647270202637 -129.619491577148 1.144877910614
-83.139091491699 -70.455642700195 -39.679382324219 10.952119827271
57.992111206055 -76.816925048828 -143.154602050781 20.608190536499
-83.251365661621 -70.881935119629 -36.431610107422 13.598467826843
-79.546485900879 -70.803245544434 -39.638244628906 9.912019729614
-84.605300903320 -70.428054809570 -36.298980712891 13.853844642639
-79.673919677734 -71.621986389160 -37.260864257813 12.083249092102
68.767517089844 -81.341751098633 -148.302337646484 32.848049163818
66.609664916992 -81.491134643555 -139.904983520508 27.682521820068
-76.490127563477 -71.351036071777 -37.277374267578 11.072779655457
-77.409866333008 -71.086967468262 -33.045806884766 14.672681808472
-81.904403686523 -70.672973632813 -31.222686767578 17.152690887451
-75.520492553711 -71.721038818359 -34.185363769531 13.471375465393
64.700210571289 -81.026687622070 -137.518661499023 24.866685867310
67.363021850586 -80.044113159180 -137.735580444336 27.168909072876
-75.983123779297 -70.408958435059 -31.357635498047 15.528428077698
-70.827346801758 -71.074867248535 -36.382171630859 10.663167953491
-76.871719360352 -71.220619201660 -29.758392333984 17.464605331421
-72.661560058594 -71.279182434082 -35.080413818359 12.084980010986
-72.325698852539 -69.942733764648 -31.493957519531 14.630025863647
-75.298568725586 -70.830528259277 -29.214508056641 17.485939025879
-73.943138122559 -71.602363586426 -30.889190673828 16.092815399170
-63.811450958252 -70.916206359863 -15.406158447266 29.335283279419
-65.239257812500 -70.462265014648 -15.665802001953 28.926507949829
-64.309738159180 -70.722145080566 -18.056549072266 26.835247039795
71.026687622070 -78.035690307617 -115.935684204102 15.163287162781
-66.930358886719 -69.810897827148 -12.781188964844 31.449264526367
-61.243362426758 -71.012130737305 -16.545959472656 27.882061004639
56.812423706055 -77.254714965820 -98.664169311523 1.793132781982
66.191619873047 -77.709014892578 -100.210388183594 8.366431236267
-56.673728942871 -68.700584411621 -5.430969238281 38.010795593262
-77.637405395508 -74.922607421875 -330.873046875000 39.641403198242
-60.199081420898 -82.882446289063 -335.079223632813 45.151535034180
-53.730941772461 -76.920257568359 -335.921417236328 45.114475250244
-59.439250946045 -84.188186645508 -332.189392089844 42.537914276123
-70.502120971680 -74.923339843750 -317.244567871094 26.200975418091
-54.054023742676 -75.639068603516 -327.836791992188 36.988620758057
-11.356338500977 -84.971191406250 -332.786987304688 41.877994537354
-15.523681640625 -84.027770996094 -328.953094482422 38.143917083740
-83.025688171387 -77.885414123535 -271.930572509766 15.445615768433
-18.312355041504 -86.102294921875 -314.675872802734 25.163795471191
-90.249679565430 -74.573333740234 -254.631683349609 0.333529144526
-91.445030212402 -76.020050048828 -251.401763916016 2.594256401062
-110.374900817871 -78.978942871094 -236.477905273438 9.353117942810
-107.048400878906 -78.362388610840 -237.261383056641 10.712114334106
-10.898078918457 -82.092674255371 -304.723358154297 14.175636291504
22.588745117188 -82.124954223633 -324.292999267578 31.938341140747
-110.289978027344 -76.905975341797 -225.177124023438 4.985306262970
-12.039344787598 -82.514053344727 -288.827972412109 4.928615093231
-9.526786804199 -85.588073730469 -295.295227050781 9.395964622498
27.212188720703 -83.997573852539 -317.024536132813 27.572244644165
-109.475486755371 -77.109718322754 -216.723190307617 8.382693290710
-11.219833374023 -84.768661499023 -288.402038574219 7.302075386047
-106.303016662598 -74.381828308105 -205.764083862305 8.233389854431
0.132156372070 -81.056045532227 -293.859313964844 4.580762386322
3.499412536621 -84.632873535156 -291.073394775391 7.323482036591
-106.769615173340 -76.029838562012 -202.714553833008 7.179656982422
-126.006347656250 -77.081985473633 -185.285308837891 11.834115028381
-104.196212768555 -78.776809692383 -203.763717651367 10.964198112488
-113.132446289063 -75.197860717773 -192.921691894531 5.001072883606
-97.621818542480 -76.567543029785 -202.345260620117 13.523267745972
-113.894493103027 -77.075576782227 -192.093322753906 7.106303691864
-106.981704711914 -75.693214416504 -191.145751953125 6.400938510895
-103.276107788086 -75.862609863281 -191.681961059570 8.347513198853
-93.655090332031 -75.426414489746 -196.280456542969 15.837158203125
-105.135971069336 -74.219657897949 -182.837097167969 5.063389301300
-9.994186401367 -83.067428588867 -251.348327636719 4.222873687744
-78.903305053711 -76.707458496094 -198.479629516602 11.076396942139
-11.324592590332 -81.931900024414 -244.507217407227 8.204391479492
-8.672599792480 -81.243415832520 -243.579498291016 6.682371616364
-6.833312988281 -83.620941162109 -243.693267822266 7.335195064545
-72.963272094727 -77.446228027344 -191.468414306641 15.904851913452
-10.493911743164 -82.032455444336 -227.010177612305 5.713070869446
-7.226966857910 -81.326843261719 -232.069717407227 4.915668964386
-123.859825134277 -73.337173461914 -103.883773803711 27.057542800903
-127.714477539063 -73.029861450195 -102.140121459961 30.698558807373
-127.810058593750 -71.183387756348 -98.456420898438 30.012979507446
-120.683464050293 -72.352310180664 -93.462417602539 23.680496215820
-118.295494079590 -72.561065673828 -95.049423217773 21.424282073975
-115.541938781738 -70.569366455078 -90.319412231445 18.713479995728
-113.151412963867 -69.491233825684 -91.191543579102 16.015598297119
-111.770347595215 -74.566024780273 -86.479919433594 16.662797927856
-93.345367431641 -73.939498901367 -97.746353149414 1.466113924980
-98.922103881836 -72.804702758789 -91.918457031250 4.718537330627
-104.568710327148 -71.838722229004 -76.718200683594 9.322589874268
-97.825256347656 -71.947570800781 -63.493041992188 6.621680259705
-100.558914184570 -72.590362548828 -61.020080566406 10.203646659851
-94.636085510254 -73.336326599121 -62.061248779297 6.398269176483
-101.661132812500 -72.246368408203 -58.827056884766 11.714670181274
-95.321311950684 -72.361930847168 -57.216735839844 8.053114891052
-97.261589050293 -72.151023864746 -59.515045166016 8.274676322937
-92.726486206055 -72.925277709961 -59.120513916016 5.596869468689
-88.181617736816 -72.124450683594 -59.620056152344 3.950586080551
-91.976791381836 -71.761833190918 -56.930053710938 6.136651992798
-96.289398193359 -71.689704895020 -53.214080810547 10.181747436523
36.288604736328 -78.593048095703 -144.098358154297 1.171296834946
22.364501953125 -75.276123046875 -132.928512573242 5.214579105377
-89.636009216309 -71.320053100586 -55.520172119141 4.739539146423
-92.806404113770 -71.437011718750 -53.227844238281 7.456713676453
-92.145645141602 -72.650718688965 -53.757843017578 7.618944644928
40.865081787109 -79.716522216797 -141.278228759766 5.177842617035
-89.978713989258 -71.345901489258 -49.447326660156 8.070032119751
-80.103225708008 -72.010475158691 -40.290405273438 10.052276611328
35.433486938477 -80.304946899414 -129.696746826172 1.814084172249
-82.509857177734 -72.143913269043 -40.460998535156 11.204404830933
-81.381530761719 -72.345649719238 -40.539886474609 10.610261917114
-76.385772705078 -71.660812377930 -40.268127441406 9.002949714661
-73.912918090820 -72.090454101563 -40.687866210938 8.301399230957
63.099777221680 -81.361518859863 -139.338623046875 24.314289093018
-74.345397949219 -71.569168090820 -29.866485595703 17.054477691650
67.994659423828 -78.586700439453 -131.215728759766 25.105579376221
71.113815307617 -77.297943115234 -111.559417724609 11.570353507996
61.051422119141 -79.720832824707 -99.360656738281 6.679999351501
66.934722900391 -81.607650756836 -102.229263305664 11.853944778442
-76.865219116211 -85.001083374023 -336.612213134766 46.732604980469
-53.524406433105 -76.961975097656 -330.350524902344 39.555950164795
-61.919010162354 -75.482315063477 -321.200408935547 30.372829437256
-119.753738403320 -80.190376281738 -269.706573486328 10.461618423462
-153.278717041016 -78.191192626953 -237.458770751953 3.651398420334
-153.271163940430 -77.417266845703 -229.416336059570 1.824017167091
-89.914131164551 -80.551902770996 -266.949218750000 12.649822235107
10.732757568359 -86.096069335938 -336.076141357422 43.449226379395
16.439743041992 -89.976547241211 -332.627471923828 41.196376800537
17.485565185547 -84.204879760742 -330.752197265625 37.779460906982
-104.228996276855 -76.927978515625 -235.048278808594 9.036683082581
-112.362243652344 -79.019683837891 -227.707733154297 6.961981773376
-13.351081848145 -87.115478515625 -296.458129882813 11.546356201172
-16.306137084961 -85.899505615234 -293.110900878906 8.971526145935
-107.424240112305 -77.019866943359 -216.373413085938 7.665736198425
-129.782104492188 -77.545036315918 -189.091247558594 8.997950553894
16.583816528320 -83.581245422363 -293.694946289063 5.933716773987
-109.064720153809 -75.441680908203 -195.306701660156 5.671300888062
-99.690200805664 -79.164039611816 -202.644729614258 13.780476570129
-111.499351501465 -76.858573913574 -193.547164916992 6.266730308533
-113.543403625488 -77.366424560547 -190.436294555664 7.678899288177
-108.684478759766 -76.302856445313 -189.917877197266 6.333786964417
-99.039566040039 -77.437118530273 -198.826339721680 12.868123054504
-93.004058837891 -76.908157348633 -197.878570556641 15.764184951782
-107.072174072266 -76.736953735352 -188.533508300781 6.952455520630
-106.845184326172 -77.256072998047 -190.502731323242 7.684335708618
-93.238616943359 -78.022483825684 -196.182968139648 17.334180831909
-109.953994750977 -76.762832641602 -186.920394897461 6.917636871338
-101.429550170898 -76.741287231445 -189.164184570313 9.781410217285
-97.250381469727 -75.395469665527 -185.052856445313 11.707085609436
-98.898468017578 -77.134613037109 -182.394927978516 11.220968246460
-12.631813049316 -85.189361572266 -246.822891235352 9.306610107422
-78.509422302246 -78.273376464844 -193.966964721680 15.108220100403
-12.327735900879 -81.966598510742 -241.021759033203 7.060155391693
-12.968811035156 -82.777137756348 -236.950195312500 7.653232574463
-113.000038146973 -73.741210937500 -90.814636230469 17.046491622925
-106.035980224609 -70.960021972656 -88.690322875977 9.852396965027
-117.503303527832 -73.695831298828 -79.762115478516 21.700172424316
-112.828239440918 -73.673706054688 -81.728057861328 17.169384002686
-114.959983825684 -70.940124511719 -77.847625732422 18.261407852173
-111.334381103516 -73.102661132813 -79.892425537109 15.943086624146
-105.334007263184 -72.948226928711 -83.768661499023 9.986224174500
-110.039314270020 -72.823104858398 -77.810485839844 14.657042503357
-100.374740600586 -72.003768920898 -63.773620605469 8.638994216919
-98.595977783203 -73.622177124023 -63.838531494141 7.965261459351
-97.490333557129 -72.915634155273 -65.801147460938 6.246596336365
-96.884185791016 -71.511917114258 -66.078399658203 4.890137195587
-96.660812377930 -73.068580627441 -61.754119873047 7.433938980103
-93.447311401367 -72.601150512695 -66.232849121094 3.268904924393
-93.493942260742 -72.785629272461 -64.041442871094 4.384725570679
-93.939628601074 -73.779281616211 -65.485351562500 4.447641849518
-89.697883605957 -72.931678771973 -63.593078613281 3.357460260391
-89.825416564941 -72.824356079102 -59.944213867188 4.058235645294
-91.161056518555 -72.887382507324 -55.670837402344 6.716404438019
-92.225540161133 -73.017433166504 -55.059997558594 7.510752677917
31.137207031250 -79.899047851563 -142.005340576172 1.471261262894
45.477737426758 -80.277030944824 -149.416763305664 11.752783775330
57.112228393555 -82.661148071289 -143.034576416016 20.658765792847
61.717269897461 -84.041313171387 -139.910202026367 24.133621215820
49.966110229492 -81.188690185547 -123.904602050781 7.030919075012
70.495269775391 -79.171615600586 -123.032333374023 21.258571624756
56.250946044922 -79.340019226074 -108.436279296875 6.023251056671
64.875961303711 -82.836380004883 -103.069274902344 12.438328742981
69.749282836914 -79.833862304688 -105.067504882813 10.136590957642
-61.421981811523 -77.020065307617 -345.403015136719 54.596832275391
-63.636878967285 -85.773406982422 -321.931427001953 33.161392211914
-107.204368591309 -80.320404052734 -276.277587890625 13.574738502502
-97.479225158691 -81.699493408203 -280.095611572266 10.576863288879
-87.321197509766 -80.241424560547 -279.510742187500 9.611935615540
-0.027374267578 -86.419387817383 -338.174224853516 46.909252166748
-150.840637207031 -78.118591308594 -218.351196289063 1.182886958122
13.306228637695 -87.461891174316 -335.510192871094 43.120353698730
-16.318641662598 -86.273315429688 -298.066741943359 11.821331977844
-7.141151428223 -85.221221923828 -298.116363525391 11.201615333557
-111.268615722656 -78.060379028320 -222.432525634766 7.300872802734
-13.611259460449 -83.203704833984 -289.399780273438 5.658897399902
-8.032546997070 -86.609985351563 -294.701477050781 10.340886116028
28.402359008789 -87.770309448242 -315.447998046875 28.182567596436
-107.974685668945 -79.770271301270 -215.299530029297 10.303170204163
-108.946739196777 -79.751419067383 -211.100708007813 13.336078643799
10.958328247070 -85.129219055176 -289.938720703125 7.426717281342
-111.663948059082 -78.061538696289 -200.569503784180 6.697762489319
-96.419281005859 -77.640159606934 -205.283660888672 10.668410301208
-10.421524047852 -85.613510131836 -261.599914550781 4.243708610535
-105.511093139648 -77.440605163574 -184.158935546875 8.187909126282
-8.849868774414 -84.679473876953 -259.903991699219 2.954946994781
-114.595245361328 -74.280242919922 -184.410720825195 6.404848575592
-116.899963378906 -74.888618469238 -176.887969970703 9.762838363647
-93.047561645508 -77.037170410156 -193.725112915039 16.977365493774
-7.786262512207 -84.147689819336 -254.338043212891 2.889208555222
-86.612670898438 -78.638900756836 -191.943084716797 19.372493743896
-80.690612792969 -78.382583618164 -189.726150512695 19.856048583984
-74.884628295898 -77.864036560059 -188.156661987305 17.917642593384
-110.109405517578 -74.321846008301 -88.341217041016 14.881970405579
-115.589820861816 -74.588760375977 -89.168075561523 19.862785339355
-115.946662902832 -73.724632263184 -87.254806518555 20.153293609619
-119.141777038574 -72.743507385254 -83.462341308594 22.515844345093
-114.732101440430 -73.626152038574 -84.324020385742 18.727499008179
-109.866218566895 -74.725364685059 -90.266616821289 14.615654945374
-106.907005310059 -74.748741149902 -87.374252319336 12.275440216064
-110.181388854980 -73.929679870605 -84.828720092773 14.766915321350
-110.296600341797 -74.190093994141 -82.404296875000 15.002004623413
-113.463928222656 -73.727226257324 -77.577148437500 18.039264678955
-106.890655517578 -74.226043701172 -82.501800537109 12.048756599426
-106.973609924316 -73.210906982422 -79.682556152344 12.053036689758
-109.001060485840 -74.612258911133 -79.472747802734 14.441092491150
-109.980194091797 -74.217910766602 -79.072418212891 15.278915405273
-97.725212097168 -73.550857543945 -64.207916259766 7.185378551483
24.351928710938 -78.798828125000 -137.948211669922 2.958498477936
34.713409423828 -82.594413757324 -141.874969482422 3.944118499756
41.917968750000 -82.735244750977 -144.276718139648 8.125267982483
37.987075805664 -81.611846923828 -139.694290161133 3.333925008774
52.044982910156 -81.146347045898 -144.203659057617 16.114183425903
41.254470825195 -78.958465576172 -126.051345825195 1.284931659698
54.123214721680 -81.081558227539 -117.859786987305 8.134042739868
67.938339233398 -83.927246093750 -132.630096435547 26.672355651855
71.171585083008 -81.213356018066 -115.621643066406 17.029178619385
-80.960487365723 -81.078689575195 -339.836761474609 49.177501678467
-140.842178344727 -79.031387329102 -257.826049804688 2.058080196381
-115.070869445801 -79.805480957031 -272.833190917969 12.747087478638
-19.442840576172 -86.869018554688 -323.513671875000 33.652111053467
-92.844161987305 -78.038314819336 -258.766418457031 4.801043033600
-95.011245727539 -81.271392822266 -250.218795776367 8.458007812500
-100.043899536133 -79.834747314453 -241.849609375000 14.410467147827
-7.335845947266 -87.616401672363 -298.883514404297 13.391488075256
24.061889648438 -89.633697509766 -323.271667480469 33.712913513184
