53.351814270020 -68.624465942383 -27.249526977539 3.003528833389
29.894321441650 -70.433723449707 -34.892269134521 0.445527672768
33.970676422119 -68.801704406738 -34.154842376709 2.365836858749
-55.414093017578 -62.188022613525 -48.357139587402 3.967755794525
79.282592773438 -63.561782836914 -61.287525177002 1.888345003128
84.353538513184 -70.284873962402 -69.243591308594 1.708536982536
-87.916343688965 -69.097015380859 -62.312252044678 2.211909055710
-11.055727005005 -64.665161132813 -60.254489898682 2.283404350281
-90.813217163086 -68.901397705078 -70.864311218262 2.984157085419
98.420600891113 -71.964073181152 -69.094963073730 3.878006458282
-10.371234893799 -64.606056213379 -67.701202392578 2.635231733322
69.163230895996 -72.447052001953 -82.489799499512 1.263367891312
-42.402568817139 -72.324607849121 -80.757064819336 2.064251184464
-24.652708053589 -70.937217712402 -74.359901428223 0.812472343445
57.304565429688 -63.388084411621 -87.941055297852 1.562891721725
-41.720550537109 -78.313583374023 -83.467895507813 2.032299757004
66.569465637207 -58.796722412109 -88.963554382324 1.227841615677
53.709331512451 -74.445442199707 -92.217918395996 1.125136494637
56.625923156738 -68.003303527832 -95.691093444824 1.954316496849
59.577678680420 -76.111328125000 -91.727287292480 2.172930002213
57.591758728027 -63.891967773438 -96.997253417969 1.280937075615
100.294181823730 -65.259559631348 -100.198059082031 2.119441509247
108.332191467285 -63.658977508545 -101.689582824707 3.847620725632
61.885746002197 -72.092147827148 -101.989807128906 4.509480476379
108.981834411621 -64.554214477539 -102.543090820313 2.808367013931
-76.469825744629 -66.882820129395 -98.229347229004 1.975729346275
-72.131370544434 -67.957199096680 -102.558410644531 0.549597203732
101.592941284180 -65.293106079102 -100.265251159668 2.137405395508
54.519939422607 -70.059333801270 -102.185188293457 1.527487397194
71.585678100586 -71.182861328125 -98.790008544922 2.041926622391
-70.278411865234 -68.077476501465 -108.280067443848 1.369608759880
-84.532592773438 -66.119949340820 -107.366844177246 2.386538505554
88.259399414063 -73.598968505859 -104.834617614746 3.602874994278
40.221923828125 -71.180183410645 -103.821495056152 0.394314974546
107.151054382324 -65.138580322266 -109.301666259766 1.344052076340
49.078849792480 -72.440597534180 -114.709907531738 1.146997570992
112.080337524414 -70.260589599609 -104.182205200195 1.709218382835
-76.781242370605 -67.911926269531 -111.539932250977 1.950064778328
104.306320190430 -64.135307312012 -110.723396301270 3.592087984085
-82.338783264160 -64.835975646973 -121.071075439453 1.761723160744
-57.513225555420 -70.962196350098 -127.698715209961 1.030190587044
-56.022834777832 -67.608345031738 -123.696197509766 1.775546073914
-70.601249694824 -70.479644775391 -129.975662231445 2.872449159622
-49.740509033203 -69.854408264160 -130.966156005859 1.968708634377
-83.153396606445 -69.895050048828 -133.373260498047 2.687587261200
-76.756713867188 -63.629478454590 -131.377395629883 1.445686101913
-78.606575012207 -68.870422363281 -132.008621215820 1.088123679161
-60.589015960693 -73.949821472168 -141.835632324219 2.050494670868
-70.133148193359 -68.657859802246 -140.938949584961 1.773906469345
-59.789913177490 -73.967559814453 -132.821655273438 2.761091947556
-56.650051116943 -68.259780883789 -142.472854614258 2.099468469620
13.791317939758 -64.360038757324 -146.048309326172 1.689092397690
-90.662002563477 -69.122512817383 -140.067047119141 1.487026214600
-47.935134887695 -74.333808898926 -148.429031372070 3.296697139740
-94.379714965820 -66.444534301758 -149.161849975586 2.497341632843
-101.212730407715 -64.792747497559 -146.838699340820 2.802000522614
20.462635040283 -72.086807250977 -155.409912109375 1.498600482941
15.057432174683 -70.820945739746 -159.540695190430 0.520488142967
-94.969306945801 -71.246223449707 -159.751281738281 3.799257993698
-103.687400817871 -68.902397155762 -150.926879882813 4.545456886292
-99.554672241211 -66.894790649414 -166.858520507813 2.121707439423
21.689090728760 -68.988304138184 -171.169418334961 1.650028109550
-111.871810913086 -68.214401245117 -172.367279052734 2.834578752518
24.790327072144 -69.336540222168 -165.787292480469 0.723484039307
-147.944442749023 -68.562736511230 -175.311416625977 1.056758403778
18.089052200317 -69.034111022949 -176.813079833984 1.151171565056
24.732673645020 -71.025665283203 -186.819534301758 1.897710323334
-151.969406127930 -66.473785400391 -184.523818969727 2.938904762268
21.068685531616 -71.507255554199 -175.744064331055 2.461039304733
19.113929748535 -61.776386260986 -182.058578491211 5.100444316864
-145.312835693359 -72.762916564941 -181.398834228516 1.809927344322
-152.108932495117 -64.561515808105 -187.971191406250 1.129004359245
19.593559265137 -70.520874023438 -188.424011230469 2.763586044312
18.357711791992 -73.196792602539 -190.854370117188 3.140264511108
-141.975631713867 -71.182975769043 -192.815658569336 1.600024938583
-109.929534912109 -69.287231445313 -196.626068115234 2.436260223389
25.525028228760 -70.536155700684 -200.164443969727 4.490575790405
-125.764846801758 -69.290756225586 -193.510940551758 1.747932553291
9.153137207031 -73.254600524902 -201.493850708008 0.707722723484
-129.160202026367 -61.549404144287 -192.859283447266 4.761290073395
-162.216217041016 -65.504539489746 -186.964614868164 8.777441978455
-160.853118896484 -66.720466613770 -194.744445800781 2.394362926483
-157.255233764648 -70.572822570801 -191.560745239258 2.025509357452
-21.822067260742 -70.429679870605 -207.298568725586 2.360565900803
-169.272079467773 -71.086730957031 -197.254959106445 5.548346042633
-28.082914352417 -64.882781982422 -193.098373413086 4.413660049438
-16.120790481567 -71.249954223633 -194.024749755859 2.370668888092
6.582750797272 -63.403560638428 -196.671051025391 5.780453681946
-157.467010498047 -69.280868530273 -204.686416625977 1.733364820480
-107.235038757324 -67.105583190918 -201.817687988281 2.830615997314
-17.190681457520 -65.670356750488 -199.989456176758 3.063544750214
-161.717117309570 -61.745948791504 -199.514587402344 4.302140712738
16.856845855713 -70.872604370117 -202.999694824219 1.439715743065
-171.524734497070 -65.830093383789 -204.234893798828 5.539670467377
-120.348159790039 -71.384338378906 -201.225021362305 1.305395483971
-116.558761596680 -65.733665466309 -207.847305297852 3.843746900558
-123.313056945801 -68.406455993652 -202.575531005859 1.214981913567
-16.386276245117 -68.366249084473 -202.930572509766 2.353388071060
-19.619060516357 -70.607727050781 -203.785003662109 0.933115541935
-164.792953491211 -67.928131103516 -209.911956787109 1.471165657043
-160.460220336914 -65.754501342773 -210.000396728516 2.295595884323
-165.603698730469 -69.351127624512 -217.712387084961 2.068770647049
-140.306411743164 -71.632400512695 -212.265579223633 5.615698337555
-146.176452636719 -68.094970703125 -223.415679931641 2.061901092529
-2.029674053192 -68.010139465332 -219.525680541992 2.213330268860
-9.716560363770 -75.769470214844 -217.325866699219 2.728240013123
-101.715667724609 -66.479682922363 -219.647048950195 2.309022426605
-8.623321533203 -68.098899841309 -235.401779174805 2.422332763672
-169.790527343750 -65.111076354980 -228.845077514648 4.064489364624
-106.032035827637 -66.834007263184 -233.062286376953 4.071246147156
1.324646949768 -70.634742736816 -227.055343627930 2.275131940842
1.098459959030 -69.482360839844 -229.950042724609 2.525963544846
-112.950515747070 -69.217552185059 -232.803863525391 0.694674432278
-2.504770994186 -71.580253601074 -227.751296997070 1.655183792114
-119.611404418945 -65.257362365723 -232.978195190430 1.108589529991
-9.089487075806 -66.159187316895 -232.117889404297 1.356376051903
-2.776077032089 -68.882431030273 -235.432342529297 1.136367797852
-3.591734886169 -69.193252563477 -239.351730346680 2.203955173492
71.409233093262 -66.668525695801 -238.164718627930 1.627850890160
-10.693556785583 -73.636100769043 -237.951477050781 1.181407690048
8.895236015320 -71.145126342773 -236.594329833984 1.298101425171
10.219131469727 -69.392089843750 -238.464736938477 1.797993659973
4.032347202301 -71.825485229492 -239.220993041992 1.783432483673
2.995543003082 -72.502464294434 -242.143203735352 1.859223365784
62.122638702393 -64.919860839844 -240.955245971680 2.439498424530
67.761161804199 -65.991035461426 -242.112564086914 3.165802717209
5.432649135590 -69.612129211426 -249.132797241211 5.589893341064
50.710758209229 -72.722015380859 -243.687072753906 1.303426265717
54.097244262695 -75.803634643555 -241.456802368164 3.064691066742
45.680774688721 -66.075302124023 -252.163269042969 2.073337316513
41.067092895508 -66.956634521484 -252.699600219727 0.656729280949
39.391044616699 -69.370643615723 -259.653259277344 2.358898639679
-131.545196533203 -63.038665771484 -258.613037109375 2.081732749939
-10.166831970215 -69.155059814453 -248.136917114258 2.102211713791
29.040296554565 -68.292068481445 -258.425292968750 0.937095582485
42.533031463623 -68.993988037109 -246.766006469727 2.281458854675
27.991807937622 -73.931083679199 -253.550811767578 5.028715610504
-105.511718750000 -72.248962402344 -258.636444091797 0.752676427364
28.713010787964 -72.034797668457 -256.820556640625 2.306127786636
-146.727600097656 -71.419540405273 -260.380737304688 2.149525642395
-118.038223266602 -72.216949462891 -254.870697021484 1.372622370720
-112.246498107910 -69.454505920410 -257.490234375000 1.477832078934
-3.267066001892 -73.827018737793 -259.170654296875 7.689618110657
-153.419036865234 -70.428695678711 -255.538635253906 1.421175718307
35.491939544678 -71.153106689453 -263.886199951172 5.529022693634
-109.431320190430 -67.798217773438 -254.754623413086 2.185887813568
24.294782638550 -75.896347045898 -259.402893066406 2.487104177475
-136.251937866211 -72.689292907715 -263.247406005859 1.228302001953
-118.261459350586 -68.753005981445 -265.189544677734 2.254337787628
-112.531394958496 -68.928054809570 -261.482482910156 2.713586330414
-115.510681152344 -76.692756652832 -259.920562744141 3.442498922348
-143.051788330078 -71.282669067383 -253.764694213867 2.861311435699
28.264501571655 -71.341384887695 -259.788848876953 2.614986181259
-118.442184448242 -67.237319946289 -261.388427734375 1.693785905838
-146.284118652344 -70.785232543945 -262.044189453125 3.140027999878
-6.557093143463 -67.663215637207 -270.904998779297 2.313158988953
-151.696563720703 -72.057586669922 -278.549438476563 1.932755470276
-10.798357963562 -71.804496765137 -289.211853027344 2.231155157089
-7.303737163544 -67.985809326172 -281.687011718750 1.267633080482
-136.298492431641 -68.920814514160 -288.006011962891 0.920259594917
-131.265579223633 -70.139236450195 -290.871185302734 2.191245794296
-137.553100585938 -68.825302124023 -293.658325195313 1.865849375725
-128.676635742188 -66.761390686035 -288.807708740234 1.994672417641
-157.865417480469 -69.272659301758 -292.671508789063 2.583423614502
-159.927764892578 -70.203300476074 -298.190704345703 2.734113454819
-150.582855224609 -73.908668518066 -300.002960205078 2.366513967514
-151.468460083008 -71.730560302734 -303.129364013672 3.164338111877
-147.034469604492 -69.070747375488 -296.537628173828 0.825784564018
-152.889511108398 -69.082832336426 -304.409271240234 2.990612983704
-147.944625854492 -66.694824218750 -314.987579345703 2.989448547363
21.487426757813 -69.971694946289 -26.559612274170 1.824811816216
52.595069885254 -70.764678955078 -37.464740753174 3.241060495377
26.514715194702 -74.100944519043 -37.141929626465 3.299782276154
34.004001617432 -67.536544799805 -44.571258544922 3.899494886398
-39.796207427979 -59.176387786865 -48.546813964844 2.682008504868
-72.922859191895 -62.330612182617 -49.696876525879 5.015312671661
81.883926391602 -67.502647399902 -62.830821990967 1.437307357788
75.466117858887 -68.801681518555 -63.039871215820 1.086825966835
74.150665283203 -70.644607543945 -66.166503906250 3.092828273773
-99.196075439453 -66.174034118652 -70.769828796387 3.636470794678
100.020645141602 -73.114967346191 -77.111251831055 1.427704930305
-26.892942428589 -69.526222229004 -85.097595214844 7.132213592529
63.163784027100 -65.618049621582 -76.442169189453 1.683086156845
-40.852470397949 -62.876346588135 -83.657295227051 4.697422027588
-54.399604797363 -64.543701171875 -81.188453674316 2.929432392120
52.744331359863 -68.422782897949 -91.547500610352 1.692128181458
103.665191650391 -66.529129028320 -92.402061462402 1.793448328972
64.344200134277 -65.898353576660 -93.943572998047 1.687148332596
57.416778564453 -66.254821777344 -92.641265869141 2.601706743240
49.115383148193 -64.407882690430 -103.109909057617 1.488693475723
57.351894378662 -63.958641052246 -103.201400756836 4.344644069672
103.739753723145 -66.315650939941 -99.450973510742 2.206704139709
70.010101318359 -67.663299560547 -109.062286376953 4.799796104431
52.866775512695 -68.240585327148 -107.058815002441 2.643811941147
76.728607177734 -74.624816894531 -108.858680725098 6.437381744385
99.651596069336 -64.503089904785 -109.265098571777 5.007105350494
-72.997077941895 -63.774768829346 -98.588172912598 3.385500669479
-85.669616699219 -66.911331176758 -109.396430969238 2.618365287781
-81.076271057129 -67.428070068359 -111.456916809082 2.107594966888
-59.752498626709 -66.956771850586 -118.501403808594 2.140413999557
-56.664398193359 -71.430740356445 -125.983993530273 1.256316781044
-93.977424621582 -66.129081726074 -120.621307373047 1.301834344864
-73.254943847656 -69.674026489258 -118.343605041504 4.661865234375
-76.458236694336 -71.401306152344 -132.239196777344 1.898924469948
-59.838706970215 -63.676597595215 -127.391159057617 2.355464696884
-87.448379516602 -62.952800750732 -129.928543090820 1.425116777420
-89.210655212402 -65.709861755371 -130.045013427734 1.002136468887
-47.973171234131 -70.936721801758 -134.795623779297 1.347990870476
-50.302658081055 -69.279754638672 -137.141952514648 2.129336357117
-77.207740783691 -70.761306762695 -137.641845703125 2.424958229065
-54.236152648926 -70.119384765625 -141.007247924805 2.708490610123
-73.333740234375 -72.221984863281 -144.378738403320 1.521819353104
20.093666076660 -65.624969482422 -140.076324462891 0.678315281868
-57.563247680664 -72.644897460938 -143.798202514648 1.177772164345
-55.340492248535 -63.911418914795 -145.864349365234 3.674142599106
9.143943786621 -72.765113830566 -155.705276489258 1.820708751678
17.686655044556 -66.729324340820 -151.427597045898 1.693779945374
-141.581787109375 -68.359512329102 -171.868026733398 3.358673572540
-110.182426452637 -65.964859008789 -176.740524291992 0.609018445015
-111.353965759277 -63.676345825195 -189.249832153320 1.727364063263
-153.315689086914 -69.825363159180 -188.585952758789 2.422116994858
-113.455101013184 -67.091964721680 -185.066925048828 1.909183979034
-151.731048583984 -62.482368469238 -195.150314331055 1.668101549149
-114.586021423340 -66.899391174316 -197.931884765625 1.754845023155
-151.331787109375 -64.255195617676 -199.544677734375 2.761301517487
-150.231658935547 -67.321090698242 -205.080841064453 1.778137326241
-154.217849731445 -72.768333435059 -203.914474487305 2.618146181107
-149.771759033203 -67.984672546387 -222.998458862305 1.073848009109
-150.112609863281 -71.483322143555 -224.666534423828 1.859734535217
-106.067443847656 -65.236846923828 -227.233963012695 1.598171591759
-100.866859436035 -68.446098327637 -219.987274169922 0.570943593979
-123.802413940430 -62.830570220947 -231.000076293945 2.549488067627
-107.953567504883 -68.433197021484 -224.556243896484 2.147720575333
-158.016052246094 -68.600883483887 -229.011108398438 1.135433673859
-4.017253875732 -68.780181884766 -225.135543823242 2.131680727005
-134.026535034180 -71.825050354004 -228.630157470703 2.511469364166
-154.521072387695 -68.857933044434 -233.895095825195 1.679316043854
-139.603378295898 -71.982910156250 -231.020172119141 1.355445623398
-11.422144889832 -67.694801330566 -234.570541381836 1.704928636551
7.913066864014 -69.611305236816 -244.607833862305 2.174773216248
61.911155700684 -64.152450561523 -241.602462768555 2.870026826859
16.739826202393 -74.258293151855 -250.045242309570 2.926442861557
53.345108032227 -69.605659484863 -243.522872924805 1.746080279350
39.433509826660 -72.871658325195 -250.700637817383 3.532033681870
60.364154815674 -66.275016784668 -253.839324951172 6.200307846069
-154.392013549805 -68.461662292480 -247.325149536133 2.459804296494
-148.625930786133 -72.507064819336 -253.135284423828 2.339541196823
42.440624237061 -68.631790161133 -257.430969238281 1.892014265060
26.731101989746 -69.970466613770 -255.177230834961 2.190908908844
47.263912200928 -66.390663146973 -254.808380126953 1.943373560905
-146.558853149414 -71.836830139160 -261.009521484375 2.465208053589
-138.834579467773 -66.971984863281 -253.193557739258 4.310636043549
-125.390029907227 -66.054740905762 -257.980926513672 1.749903559685
-134.576187133789 -68.478927612305 -254.556793212891 0.655720949173
-141.310180664063 -69.838485717773 -256.643554687500 1.674210429192
-124.390258789063 -67.897377014160 -258.694244384766 1.135758757591
-144.409912109375 -66.455154418945 -258.697845458984 1.461893558502
-128.536804199219 -71.539764404297 -256.849487304688 4.044586181641
-121.720291137695 -69.923629760742 -263.864501953125 2.338047266006
-130.449737548828 -69.236709594727 -264.024078369141 1.825408458710
-123.464439392090 -64.792304992676 -263.067840576172 1.706162571907
-6.591994762421 -70.367126464844 -266.861236572266 2.995940923691
27.974945068359 -65.791725158691 -262.296508789063 1.990455150604
-147.133712768555 -62.718791961670 -265.971160888672 0.576935589314
24.751453399658 -71.660476684570 -271.742156982422 2.769357442856
-7.512633800507 -63.700683593750 -276.646789550781 3.991205215454
15.740640640259 -76.678756713867 -283.714874267578 3.473109245300
-142.908843994141 -69.674911499023 -288.010498046875 2.071590185165
-126.504447937012 -71.800514221191 -285.801544189453 0.670177698135
-132.642959594727 -64.088874816895 -289.428436279297 1.603446602821
-161.424392700195 -64.038490295410 -291.197387695313 5.218110561371
-128.443481445313 -63.242671966553 -288.269866943359 1.807218670845
-119.814720153809 -67.102874755859 -287.854858398438 1.721752166748
-126.608329772949 -72.411117553711 -296.181396484375 1.565294384956
-154.133026123047 -72.495986938477 -290.365844726563 2.796997785568
31.350183486938 -70.057098388672 -12.199943542480 0.874546706676
31.615583419800 -71.039596557617 -18.444643020630 0.661807000637
39.595783233643 -65.628265380859 -21.965023040771 3.315480709076
49.654636383057 -61.517131805420 -24.387451171875 1.948778390884
30.588989257813 -72.805824279785 -28.687862396240 3.523840427399
20.983203887939 -70.089126586914 -34.200099945068 1.747436881065
-31.999494552612 -67.967895507813 -45.547546386719 3.467034339905
-79.487014770508 -68.345970153809 -52.911426544189 3.734598636627
-15.546733856201 -66.517723083496 -59.570072174072 2.762491226196
75.502021789551 -65.047760009766 -66.068542480469 3.244902849197
105.097122192383 -66.623832702637 -70.578788757324 4.060573101044
65.773048400879 -64.564384460449 -85.100860595703 0.872710168362
62.308605194092 -61.506099700928 -85.462806701660 2.174441099167
99.234962463379 -68.468948364258 -86.301666259766 2.693481445313
-63.390754699707 -63.434177398682 -90.666610717773 2.433506488800
-65.044326782227 -66.636550903320 -89.327384948730 2.682722330093
52.020458221436 -64.169540405273 -93.180160522461 2.186874866486
-66.869354248047 -69.491943359375 -95.446334838867 3.355611562729
-72.060363769531 -65.977638244629 -101.268371582031 1.878230929375
-94.315193176270 -66.090560913086 -101.219146728516 3.720912933350
-75.197196960449 -61.676132202148 -98.940811157227 3.091354846954
47.873210906982 -62.844890594482 -103.325271606445 2.885799884796
-64.880050659180 -69.271903991699 -103.020622253418 4.183070659637
48.908241271973 -64.742599487305 -105.314453125000 1.327460765839
96.414482116699 -66.649864196777 -106.670989990234 1.484836459160
90.454627990723 -67.827262878418 -115.103805541992 7.182731151581
-71.045082092285 -65.908187866211 -115.093223571777 3.820157051086
-85.821517944336 -68.046440124512 -111.431533813477 1.243961691856
-61.328964233398 -66.206428527832 -118.592422485352 1.653948783875
-95.113800048828 -61.211124420166 -117.831855773926 2.580326795578
-75.790611267090 -69.162605285645 -126.671012878418 1.364608407021
-93.406433105469 -58.133743286133 -126.007392883301 3.162258386612
-63.454048156738 -64.978569030762 -116.608283996582 1.723627209663
-59.633361816406 -59.688583374023 -121.343330383301 2.130099534988
-89.469596862793 -68.124214172363 -129.683105468750 1.061177134514
-63.242919921875 -69.778167724609 -126.187355041504 3.907776832581
-83.490760803223 -65.409347534180 -132.821334838867 1.729753971100
-82.819076538086 -67.071701049805 -134.202072143555 1.974527835846
-60.867134094238 -72.087295532227 -136.160812377930 2.865578174591
-59.945827484131 -62.688552856445 -133.798645019531 1.934934258461
-54.678298950195 -59.645160675049 -133.760208129883 1.093046069145
-98.444839477539 -62.791320800781 -130.445190429688 7.277246952057
-97.121658325195 -61.876716613770 -144.010345458984 3.636329412460
-90.383819580078 -66.560516357422 -135.431289672852 1.444010376930
19.516403198242 -70.353515625000 -151.122879028320 2.632874965668
-49.966457366943 -67.558715820313 -140.322235107422 1.701925992966
19.756414413452 -67.925216674805 -152.194168090820 2.462849140167
-98.042060852051 -67.677345275879 -164.676651000977 3.282303094864
-103.379394531250 -72.752456665039 -169.908035278320 3.578211307526
-102.556533813477 -62.646961212158 -170.444595336914 1.915474295616
-108.484397888184 -59.513954162598 -173.134948730469 4.040024757385
-109.069679260254 -67.420387268066 -177.846817016602 1.592905163765
-110.758285522461 -66.417953491211 -178.019271850586 1.220613002777
-142.775299072266 -63.869525909424 -185.253952026367 2.802471160889
-111.865982055664 -65.483993530273 -184.920440673828 2.523000001907
-134.582565307617 -63.632343292236 -200.432952880859 1.086694598198
-151.134124755859 -69.512397766113 -196.953109741211 2.323990583420
-129.019409179688 -67.264892578125 -197.277236938477 3.827717781067
-158.628280639648 -68.886856079102 -193.897949218750 0.715532600880
-147.760787963867 -71.187034606934 -200.918869018555 0.507620453835
-126.991973876953 -60.653213500977 -196.267608642578 3.080933094025
-135.223312377930 -64.579620361328 -198.813034057617 2.667286634445
-140.357513427734 -73.681640625000 -205.260299682617 3.640961647034
-131.773559570313 -69.436546325684 -221.682815551758 3.202553749084
-109.927749633789 -70.177963256836 -229.650131225586 2.663688898087
-143.233169555664 -68.023658752441 -226.177978515625 0.853336274624
-120.984672546387 -65.747596740723 -231.211380004883 1.670313000679
-117.609588623047 -61.630718231201 -229.827438354492 3.656190156937
-122.561988830566 -69.015556335449 -231.386062622070 2.646107196808
-134.040054321289 -66.707809448242 -232.851562500000 0.660794734955
-116.096572875977 -63.740169525146 -237.461685180664 4.478660106659
4.343946933746 -67.329360961914 -237.185623168945 1.460578918457
-153.622772216797 -69.380165100098 -237.439529418945 2.828893423080
4.961946964264 -68.863021850586 -237.204483032227 2.161314725876
3.010943889618 -63.977161407471 -245.056228637695 3.241334199905
1.202767014503 -71.155677795410 -243.084915161133 1.018381595612
12.061958312988 -64.988090515137 -241.901214599609 1.982127785683
-144.412689208984 -64.263961791992 -233.579162597656 2.256314277649
-7.091647148132 -71.052932739258 -248.880065917969 3.111508846283
18.294937133789 -68.380393981934 -240.484161376953 3.714320659637
50.045139312744 -66.621490478516 -251.854202270508 0.905523836613
49.444950103760 -67.074302673340 -252.933029174805 1.457633495331
-148.064865112305 -69.643142700195 -251.063171386719 2.831375598907
-6.524772167206 -70.163375854492 -251.559600830078 4.598117828369
19.885393142700 -69.783012390137 -255.439224243164 4.400731563568
-132.602264404297 -60.900413513184 -256.963928222656 3.856951236725
-123.678863525391 -66.152992248535 -256.005462646484 2.351261615753
-125.196395874023 -69.872550964355 -257.125305175781 2.170721054077
25.721914291382 -68.214286804199 -258.910064697266 1.664749264717
-134.934249877930 -63.849418640137 -265.502136230469 3.788790702820
31.719682693481 -66.039192199707 -260.610168457031 0.910274922848
32.697486877441 -68.637725830078 -264.257598876953 3.529014825821
-155.531402587891 -69.880928039551 -266.624359130859 2.093533515930
-147.704635620117 -73.916679382324 -284.981475830078 2.163170814514
-150.324951171875 -63.047725677490 -286.146301269531 1.591777563095
-146.050735473633 -66.084312438965 -294.501831054688 1.252468705177
12.396946907043 -72.748405456543 -293.019287109375 1.852421045303
-156.544586181641 -65.738662719727 -302.166168212891 3.481989622116
48.612262725830 -70.407600402832 -27.334917068481 1.703831195831
37.564662933350 -72.550781250000 -40.886020660400 1.247299075127
-57.648529052734 -61.447875976563 -46.723323822021 3.751484394073
-69.854339599609 -62.295303344727 -47.126880645752 3.504699230194
-25.086034774780 -61.959251403809 -51.521427154541 1.682073593140
-21.385120391846 -69.419151306152 -55.116725921631 0.669882476330
-8.377153396606 -61.816200256348 -67.774200439453 3.745506048203
-26.516895294189 -60.841636657715 -70.801300048828 2.939530134201
65.672645568848 -66.344947814941 -76.282180786133 1.598182559013
-94.891937255859 -58.268718719482 -79.039398193359 4.789752960205
-44.911228179932 -66.206108093262 -88.003540039063 4.439037799835
55.524009704590 -67.955627441406 -87.439544677734 1.335706353188
61.548107147217 -66.783912658691 -87.273674011230 2.875476598740
61.472953796387 -67.176742553711 -90.029914855957 1.896274805069
108.174224853516 -65.640281677246 -92.875778198242 3.072603464127
53.341197967529 -63.892856597900 -90.719184875488 1.789806962013
99.035766601563 -59.370285034180 -102.160118103027 2.400997400284
-82.780479431152 -67.763641357422 -103.808822631836 0.333654463291
-91.254554748535 -64.713745117188 -100.683097839355 6.780442237854
74.999351501465 -62.466091156006 -115.546463012695 5.575029373169
-77.959609985352 -65.743423461914 -103.867332458496 2.468295335770
-77.186614990234 -70.648406982422 -112.566169738770 0.817004084587
-83.978500366211 -72.558563232422 -119.160430908203 1.992998480797
-54.968219757080 -67.197158813477 -126.504280090332 1.554398298264
-76.187553405762 -65.245529174805 -129.330886840820 1.725241661072
-63.037734985352 -61.007183074951 -128.464645385742 1.647774219513
-85.968780517578 -67.733123779297 -135.555755615234 2.568066835403
-76.139991760254 -64.313766479492 -132.955764770508 0.581914901733
-79.049613952637 -63.606590270996 -125.182472229004 0.599082231522
-89.538543701172 -64.024642944336 -129.441452026367 2.352833271027
-66.984115600586 -62.431594848633 -135.515914916992 4.665275573730
-90.303237915039 -66.125488281250 -131.404632568359 2.058037996292
-50.211372375488 -68.491882324219 -132.901397705078 1.988308787346
-55.018562316895 -72.097900390625 -139.170425415039 0.867666423321
28.086877822876 -66.525344848633 -142.888839721680 1.521541237831
-55.951999664307 -59.186759948730 -136.581771850586 1.226854920387
15.609675407410 -71.831085205078 -143.950012207031 4.305603027344
14.473576545715 -64.516464233398 -148.651428222656 1.155680298805
17.516836166382 -62.227336883545 -155.493743896484 3.397149562836
-98.669105529785 -64.081069946289 -145.076782226563 3.181608915329
-89.998298645020 -65.902000427246 -148.634506225586 2.311143159866
-96.626007080078 -62.129364013672 -150.063751220703 1.526336789131
-106.294433593750 -66.449363708496 -163.022232055664 1.124244332314
-98.541366577148 -64.184623718262 -159.628646850586 1.560792684555
-152.794342041016 -63.129024505615 -174.737930297852 1.382839679718
-154.432174682617 -65.634498596191 -174.317398071289 3.036005020142
-113.408088684082 -63.423309326172 -181.456726074219 3.397218227386
-141.586547851563 -63.838226318359 -176.094406127930 0.855066478252
-110.281936645508 -62.059162139893 -181.676483154297 1.048881888390
-148.832839965820 -57.233409881592 -186.264236450195 5.419329643250
-112.017631530762 -62.121417999268 -190.389953613281 2.883761405945
-111.338729858398 -67.296730041504 -180.999877929688 1.869017720222
-146.414794921875 -65.271820068359 -199.246856689453 1.415540456772
-128.891326904297 -67.826889038086 -195.949432373047 3.322905302048
-106.611763000488 -66.503540039063 -197.244369506836 2.226596355438
-116.856613159180 -59.366668701172 -197.854034423828 4.838435173035
-114.246490478516 -67.909912109375 -199.705307006836 3.213382482529
-117.448204040527 -60.548015594482 -202.070098876953 2.753029584885
-135.006256103516 -62.936203002930 -195.785629272461 2.512766838074
-141.827804565430 -65.936012268066 -202.425155639648 1.023851037025
-130.833908081055 -64.116561889648 -208.047180175781 3.500862121582
-129.529846191406 -60.097545623779 -199.541305541992 3.004854440689
-123.438636779785 -63.740402221680 -204.098068237305 1.634734988213
-112.750434875488 -65.331527709961 -204.543472290039 1.645383596420
-150.186538696289 -64.655822753906 -211.640274047852 0.934408426285
-153.955825805664 -65.167678833008 -217.167312622070 3.679171323776
-154.322296142578 -65.590354919434 -220.435470581055 2.456089973450
-140.408004760742 -71.473297119141 -223.871902465820 1.808169364929
-132.789550781250 -60.982547760010 -226.852066040039 3.207200527191
-121.858680725098 -68.358970642090 -217.094787597656 8.310842514038
-141.657333374023 -68.648788452148 -228.799652099609 2.798815011978
-153.029876708984 -67.756561279297 -223.427551269531 1.057341337204
-134.665145874023 -67.375328063965 -224.941101074219 0.907377183437
-134.641754150391 -62.702068328857 -227.249328613281 1.877890110016
-148.358001708984 -64.960983276367 -227.493789672852 2.210193157196
-136.858612060547 -58.269348144531 -227.475540161133 6.359865188599
-130.185470581055 -65.168800354004 -231.125320434570 2.483585834503
-13.750616073608 -69.184440612793 -237.740798950195 1.540788650513
3.991528987885 -65.691940307617 -242.711242675781 3.762093067169
12.886651992798 -61.204082489014 -244.658920288086 1.783717989922
7.945304870605 -70.346061706543 -244.491897583008 2.073075771332
-8.879493713379 -70.386466979980 -238.498992919922 2.168885707855
-14.765663146973 -67.817687988281 -247.200164794922 1.283088207245
34.373920440674 -65.696266174316 -250.618240356445 3.857304811478
45.404712677002 -66.842300415039 -255.321166992188 1.247863650322
-148.638702392578 -65.314712524414 -252.743820190430 2.369835615158
40.956554412842 -65.118354797363 -255.883285522461 1.373806238174
38.353569030762 -69.133110046387 -254.980072021484 1.562999486923
-161.446914672852 -71.533859252930 -254.805175781250 2.541072368622
-152.060913085938 -66.643379211426 -255.211273193359 2.856055974960
-154.109924316406 -69.034355163574 -257.364929199219 1.075502038002
1.257722020149 -69.370628356934 -263.937835693359 4.206053256989
-152.556350708008 -67.697364807129 -266.044677734375 1.401793956757
-2.626688003540 -68.079185485840 -274.744445800781 3.553106546402
-147.841796875000 -70.191955566406 -273.953216552734 2.999214172363
-149.965530395508 -67.589126586914 -279.672546386719 2.055780887604
-153.010360717773 -66.841239929199 -285.313781738281 2.329164505005
-151.920135498047 -57.401039123535 -281.818359375000 5.357861042023
-147.977737426758 -64.750831604004 -290.910858154297 1.934520602226
-157.043090820313 -65.891677856445 -283.412200927734 2.891837596893
-153.377639770508 -67.566764831543 -284.841033935547 2.161699056625
-154.985122680664 -63.056388854980 -286.748565673828 1.985259771347
-150.261337280273 -66.236709594727 -287.146392822266 0.924404323101
-146.344696044922 -66.724334716797 -285.631195068359 2.415735960007
8.317882537842 -69.644165039063 -283.748992919922 4.846310138702
-148.700347900391 -66.128280639648 -294.171997070313 2.043873786926
-160.278350830078 -61.920661926270 -291.186309814453 5.582250595093
-159.016326904297 -60.273399353027 -286.728759765625 4.356520652771
-152.009460449219 -64.157524108887 -291.612243652344 0.950680315495
-149.918228149414 -58.792240142822 -286.670959472656 4.279223442078
-149.104782104492 -69.309326171875 -290.834899902344 0.880225002766
4.149433135986 -70.071022033691 -293.233154296875 0.328895747662
-146.012924194336 -63.381095886230 -293.557312011719 0.876477539539
-150.301254272461 -62.608345031738 -291.485870361328 1.481529951096
31.358654022217 -57.897331237793 -16.114343643188 3.401997327805
44.784954071045 -69.657127380371 -22.596414566040 1.498970746994
44.643573760986 -61.448505401611 -22.689138412476 2.017990589142
17.950946807861 -68.843406677246 -32.818584442139 3.242252588272
26.619565963745 -54.613857269287 -36.444644927979 1.973078131676
38.291633605957 -64.043670654297 -37.716178894043 2.083123207092
-53.993865966797 -62.361316680908 -45.335311889648 0.850633561611
-48.764072418213 -63.475109100342 -41.100086212158 3.904841423035
91.975479125977 -65.257957458496 -68.201141357422 4.676840782166
-93.917938232422 -61.641262054443 -64.889793395996 2.563970327377
98.583984375000 -75.443344116211 -63.264072418213 8.834753990173
69.680496215820 -67.501235961914 -73.224304199219 2.106230258942
100.213920593262 -67.845108032227 -80.895637512207 2.858466625214
63.984779357910 -70.967048645020 -78.178726196289 3.391607999802
-41.263343811035 -64.449760437012 -77.853019714355 1.269876956940
60.522727966309 -62.434204101563 -83.703796386719 2.714436769485
-49.590160369873 -60.820423126221 -77.263160705566 2.563778400421
57.012115478516 -64.779464721680 -84.898513793945 2.129066467285
64.023979187012 -61.281902313232 -88.179595947266 1.719271183014
-97.309028625488 -63.213592529297 -83.694831848145 2.198080539703
52.580474853516 -63.144390106201 -85.887413024902 3.410329103470
52.668277740479 -70.976676940918 -94.703514099121 1.975051522255
66.455482482910 -66.337600708008 -93.540069580078 0.551603972912
53.013786315918 -64.302757263184 -98.256324768066 1.656988501549
-79.772789001465 -62.242828369141 -106.521728515625 1.974956035614
83.361907958984 -70.216064453125 -108.171897888184 3.603668451309
-82.503295898438 -68.760833740234 -119.270584106445 2.367035865784
-76.587646484375 -61.930282592773 -104.746498107910 1.409141421318
-79.243515014648 -65.515701293945 -123.306655883789 0.834174752235
-84.508117675781 -62.826972961426 -115.914024353027 2.422583580017
-94.781028747559 -59.725685119629 -119.215087890625 3.341593742371
-81.058395385742 -65.450767517090 -120.692184448242 1.183134555817
-50.568950653076 -62.845966339111 -124.654647827148 4.061818122864
-78.005897521973 -61.644897460938 -134.992019653320 2.826943874359
-56.568912506104 -58.995704650879 -129.037536621094 1.995636701584
-88.267158508301 -61.173744201660 -136.807632446289 3.052680253983
29.914173126221 -64.596817016602 -139.279312133789 1.863213777542
19.617357254028 -65.345085144043 -142.165267944336 1.576360702515
-94.118148803711 -53.408390045166 -143.689132690430 9.674620628357
22.142621994019 -67.765884399414 -149.336425781250 3.030344963074
-89.670928955078 -67.662612915039 -146.634567260742 2.861662626266
-94.313697814941 -59.081241607666 -147.176864624023 3.801228523254
18.215051651001 -66.130851745605 -162.924240112305 5.360180377960
-96.155319213867 -63.230525970459 -147.502609252930 1.097559213638
-98.980026245117 -61.683666229248 -145.933303833008 3.203766345978
-104.244079589844 -63.204639434814 -154.714614868164 3.623993635178
-94.521308898926 -64.192199707031 -161.734863281250 4.086002826691
-103.556793212891 -67.722702026367 -179.369659423828 2.258959770203
-110.326278686523 -71.571884155273 -168.641952514648 4.864491462708
-97.606697082520 -65.569725036621 -164.740936279297 3.654300212860
-105.080924987793 -65.563560485840 -167.108581542969 1.791084170341
-140.627883911133 -65.277214050293 -177.630371093750 2.027695655823
-111.757537841797 -64.214805603027 -176.913055419922 2.514018058777
-140.668304443359 -64.400939941406 -186.589660644531 2.859001874924
-149.016174316406 -60.168800354004 -189.789932250977 3.796469926834
-155.111038208008 -58.586414337158 -186.525894165039 6.615404605865
-122.434082031250 -61.650318145752 -195.703170776367 1.395256757736
-129.087173461914 -68.620941162109 -192.745330810547 2.590434789658
-122.819229125977 -61.897789001465 -200.364151000977 1.663963437080
-145.019332885742 -66.941665649414 -200.111618041992 1.677445292473
-123.920562744141 -68.489555358887 -202.505340576172 1.499702692032
-147.714767456055 -64.889602661133 -201.998992919922 1.742139816284
-152.933166503906 -63.829078674316 -203.935028076172 2.209001302719
-155.527374267578 -62.651443481445 -225.388961791992 2.032698869705
-144.660202026367 -70.978065490723 -230.271865844727 3.228836059570
-129.454254150391 -61.941150665283 -230.326538085938 3.405486822128
-154.205474853516 -62.904541015625 -228.377532958984 0.491615027189
-4.007093906403 -71.508583068848 -240.382980346680 1.545943498611
10.658035278320 -62.893009185791 -239.056823730469 2.037088394165
-2.710083961487 -70.479469299316 -244.347457885742 3.049725532532
-152.333694458008 -63.372722625732 -243.551635742188 2.167904138565
-9.829522132874 -63.860073089600 -242.115219116211 2.585978746414
-154.874526977539 -70.670112609863 -252.157180786133 1.682124495506
-8.477844238281 -71.593284606934 -250.724502563477 3.406529664993
-149.987472534180 -67.203834533691 -253.198547363281 1.476865291595
19.298463821411 -67.707733154297 -252.761886596680 4.142493247986
-153.484069824219 -59.577957153320 -254.027938842773 3.055127382278
-151.223495483398 -64.546752929688 -254.140731811523 1.834583044052
-153.062530517578 -64.405616760254 -252.679351806641 0.993087053299
-150.861389160156 -63.376789093018 -257.107238769531 0.982900917530
31.086524963379 -67.188507080078 -260.710723876953 1.211393594742
30.113016128540 -66.581863403320 -265.847076416016 2.316117048264
-146.796554565430 -65.115173339844 -253.192764282227 2.169509649277
-153.778396606445 -59.351676940918 -258.326965332031 3.891415834427
-155.197723388672 -68.911529541016 -258.371337890625 1.346860885620
-148.321578979492 -62.048027038574 -257.456604003906 0.851068377495
25.984947204590 -65.165313720703 -263.988311767578 1.240349411964
27.840389251709 -65.829902648926 -268.397979736328 2.788320302963
-157.760009765625 -66.312347412109 -261.037872314453 3.532985687256
-145.132278442383 -64.245140075684 -262.405670166016 1.711365103722
-149.933502197266 -60.725250244141 -261.338378906250 0.924066126347
-145.155227661133 -64.124824523926 -263.934997558594 0.658844649792
-144.962875366211 -67.933769226074 -261.162750244141 1.931409239769
-146.654418945313 -70.603767395020 -264.413024902344 2.483344078064
-149.844284057617 -62.177474975586 -265.208068847656 1.025883674622
-152.068557739258 -60.584041595459 -285.422180175781 2.076264619827
-148.315536499023 -64.612648010254 -280.878967285156 1.787159323692
-149.550338745117 -65.165046691895 -277.465698242188 2.608253955841
14.693610191345 -66.069000244141 -282.557464599609 3.351244449615
-156.021408081055 -60.686042785645 -284.505645751953 3.506615877151
-148.733200073242 -63.817710876465 -289.081970214844 1.419603466988
-7.878974914551 -74.026870727539 -287.271636962891 2.415673017502
2.990415096283 -65.702972412109 -292.918762207031 1.488324880600
-155.058441162109 -65.370140075684 -292.890716552734 0.894570946693
29.072191238403 -70.191894531250 -22.593082427979 0.953192710876
48.286052703857 -64.884002685547 -29.362890243530 4.050236225128
51.789394378662 -69.768363952637 -34.401649475098 2.107125759125
41.923736572266 -59.549728393555 -38.309600830078 2.191389083862
27.752235412598 -71.490295410156 -38.177631378174 1.592299818993
47.166549682617 -67.026176452637 -42.410301208496 4.607759475708
80.129714965820 -60.723541259766 -65.385475158691 5.981977462769
78.790222167969 -64.472702026367 -65.152175903320 3.891681671143
-17.289960861206 -63.824108123779 -71.550880432129 3.818145751953
69.480239868164 -61.179859161377 -73.311935424805 4.384535312653
-26.293621063232 -65.518104553223 -72.548690795898 3.182360649109
-35.091964721680 -69.202384948730 -81.107841491699 3.928396463394
-56.496814727783 -61.996685028076 -75.240348815918 3.976039648056
-54.676475524902 -59.471275329590 -79.042449951172 1.861286282539
64.566062927246 -70.009681701660 -83.774833679199 2.209541082382
109.709129333496 -69.692222595215 -93.348434448242 3.474857091904
-58.376483917236 -59.651103973389 -85.516555786133 1.252887248993
59.193321228027 -64.573760986328 -97.940704345703 1.228963613510
66.492019653320 -62.619323730469 -97.040222167969 3.038391113281
104.663238525391 -63.347698211670 -96.226585388184 2.884846687317
-64.769638061523 -67.473381042480 -92.926971435547 1.285962939262
56.149021148682 -59.558403015137 -97.750923156738 3.042419910431
-62.114398956299 -67.596847534180 -104.805992126465 6.868103981018
69.457504272461 -64.412315368652 -97.626640319824 3.420038938522
67.790771484375 -64.299507141113 -105.343795776367 2.821424484253
-75.396972656250 -61.057182312012 -108.754158020020 1.319110989571
-96.231658935547 -60.942001342773 -112.899490356445 2.160951375961
-69.103614807129 -56.554462432861 -112.377365112305 2.128054141998
-82.898445129395 -64.443527221680 -111.018379211426 1.171671986580
-60.609531402588 -66.135841369629 -115.710151672363 2.066493511200
-82.981826782227 -60.411239624023 -107.346656799316 3.761570453644
-74.057411193848 -64.217071533203 -114.078819274902 2.735882282257
-76.151351928711 -66.365249633789 -114.133491516113 1.589040517807
-69.103256225586 -67.021270751953 -119.201683044434 4.183938980103
-85.104339599609 -66.241783142090 -126.713798522949 2.723572015762
35.566764831543 -64.365745544434 -130.447463989258 3.452173233032
-47.575054168701 -63.182590484619 -130.630386352539 4.484463691711
33.384365081787 -63.566623687744 -137.467529296875 3.859664678574
31.228414535522 -65.035720825195 -133.264053344727 0.639954864979
30.065452575684 -68.264144897461 -132.220916748047 2.527755737305
-53.774669647217 -60.940464019775 -129.764434814453 2.139149665833
22.225034713745 -64.981361389160 -147.281158447266 2.648286104202
22.630815505981 -65.221710205078 -145.645477294922 2.553505182266
-146.095397949219 -65.520591735840 -176.285736083984 1.660428285599
-151.137390136719 -58.582427978516 -173.474044799805 4.122403144836
-152.928451538086 -62.811626434326 -181.875793457031 2.138698101044
-146.816101074219 -60.299751281738 -183.139205932617 1.624696373940
-150.585540771484 -64.875022888184 -193.553070068359 1.830332159996
-151.240570068359 -66.125091552734 -191.847854614258 2.211263179779
-139.320495605469 -65.402656555176 -191.641052246094 3.922642469406
-143.818893432617 -61.085472106934 -200.069244384766 1.823221683502
-121.296478271484 -67.605880737305 -199.192550659180 2.271543502808
-135.613510131836 -65.468032836914 -204.058410644531 3.030419588089
-149.573623657227 -65.911628723145 -213.725601196289 1.708224773407
-147.041992187500 -55.947612762451 -220.114181518555 5.862838745117
-152.603363037109 -63.125305175781 -226.245956420898 1.968354701996
-146.874114990234 -65.037986755371 -227.488845825195 2.479067087173
-151.692321777344 -63.152114868164 -228.311904907227 2.265216112137
-151.128402709961 -59.371215820313 -225.250396728516 1.748032331467
-147.376266479492 -65.260993957520 -230.500808715820 1.256575942039
-146.119644165039 -65.332237243652 -231.423675537109 2.374557733536
-142.713592529297 -61.799324035645 -237.529632568359 3.016000032425
-147.348571777344 -66.018913269043 -226.459060668945 2.387785673141
-156.496551513672 -62.666797637939 -232.746231079102 0.526061475277
10.720595359802 -63.706245422363 -240.737640380859 2.391485214233
-9.101645469666 -70.180389404297 -241.964187622070 1.430423498154
-146.050552368164 -60.409450531006 -242.390869140625 3.748914003372
-153.924728393555 -64.567192077637 -236.029846191406 1.889779567719
-155.722045898438 -66.588554382324 -239.470596313477 2.661739110947
7.127727985382 -67.079437255859 -243.347900390625 2.184842348099
-150.473480224609 -62.018913269043 -235.882110595703 0.518427133560
-150.596664428711 -68.470687866211 -251.708557128906 1.116073846817
-5.819277763367 -66.699134826660 -249.306472778320 3.264767646790
-148.175796508789 -63.331001281738 -250.118240356445 1.760659813881
-143.512680053711 -63.059856414795 -253.568389892578 2.217820167542
-142.107452392578 -64.491340637207 -255.142211914063 0.275511145592
-144.319412231445 -63.870201110840 -253.586288452148 1.584830641747
27.830554962158 -69.981277465820 -264.935089111328 2.413620471954
-150.809677124023 -69.111152648926 -262.231994628906 0.782962262630
27.486454010010 -67.475326538086 -274.007293701172 3.317541837692
12.004455566406 -64.251556396484 -289.657836914063 1.913593649864
0.373107999563 -65.506904602051 -287.676361083984 2.697968959808
8.133017539978 -63.217414855957 -295.468078613281 1.154327154160
34.279464721680 -63.034660339355 -22.460987091064 3.880422592163
43.668823242188 -73.253204345703 -39.648120880127 2.454174518585
39.113605499268 -71.615699768066 -39.874420166016 1.142847895622
-42.342708587646 -61.621047973633 -47.754276275635 3.540069341660
-89.710647583008 -63.884922027588 -56.294448852539 1.313981175423
-93.032562255859 -62.673156738281 -60.266643524170 2.897269725800
-21.033294677734 -60.818462371826 -67.550453186035 2.370453119278
103.233016967773 -65.705070495605 -69.958648681641 3.026841640472
109.053359985352 -62.531406402588 -76.955802917480 4.861111640930
107.848518371582 -65.089424133301 -78.644195556641 3.797297477722
-48.036819458008 -64.183189392090 -83.107955932617 1.723010301590
-61.067565917969 -60.556591033936 -84.950721740723 1.940117120743
59.507427215576 -63.130210876465 -91.083053588867 2.455107688904
55.222267150879 -68.486030578613 -92.751991271973 2.271716833115
-58.449909210205 -67.873413085938 -97.062210083008 6.173103332520
-93.987380981445 -57.895671844482 -108.306838989258 4.783726692200
76.588745117188 -63.056655883789 -110.863456726074 1.388117551804
-79.844360351563 -61.240745544434 -106.210708618164 2.279130220413
-66.924133300781 -65.026283264160 -107.231307983398 2.049224376678
-78.596679687500 -67.624664306641 -114.216110229492 1.773664832115
-83.256683349609 -54.401794433594 -116.317741394043 2.085441112518
-82.318641662598 -63.639846801758 -116.004737854004 2.068557024002
-69.399986267090 -52.800460815430 -120.447898864746 3.083678245544
-66.230583190918 -61.161941528320 -115.713806152344 1.455190896988
-81.118446350098 -55.805347442627 -117.251091003418 1.131011247635
-74.686332702637 -62.135498046875 -116.386756896973 1.947818517685
-60.909370422363 -60.983833312988 -119.285552978516 1.801302552223
-83.641288757324 -61.410194396973 -116.907119750977 2.020292997360
-73.547676086426 -62.877487182617 -119.385185241699 3.197168350220
-72.661048889160 -60.303611755371 -129.806015014648 5.289012432098
-80.495521545410 -62.287555694580 -128.384048461914 1.366882205009
27.432741165161 -61.582080841064 -123.623245239258 5.288381576538
-58.054931640625 -59.937660217285 -133.268966674805 1.124427318573
28.622417449951 -64.639747619629 -135.490112304688 1.589407801628
22.411018371582 -69.005203247070 -141.684051513672 2.229347467422
-143.215621948242 -64.289337158203 -193.464324951172 1.648238897324
-135.693252563477 -63.938625335693 -197.058410644531 2.743454933167
-151.858856201172 -64.076225280762 -202.654708862305 2.901646852493
-151.489013671875 -59.563991546631 -197.909576416016 1.345177531242
-158.919158935547 -67.558593750000 -200.414505004883 2.018649339676
-147.635848999023 -58.132926940918 -201.051513671875 2.240615844727
-141.905593872070 -61.036491394043 -201.085418701172 0.730688750744
-150.082702636719 -59.523162841797 -206.012069702148 1.022684454918
-148.388610839844 -65.496734619141 -222.255645751953 1.484871864319
