-38.854930877686 -83.815856933594 -186.465545654297 4.798295974731
-54.332332611084 -81.892936706543 -187.269378662109 2.224384546280
-34.436000823975 -81.682609558105 -192.506362915039 1.790828466415
-140.774871826172 -77.415405273438 -181.271804809570 4.954699993134
-154.343826293945 -80.068412780762 -190.731124877930 4.910426139832
-154.497726440430 -80.686309814453 -194.131668090820 3.934391260147
-150.731811523438 -79.635643005371 -194.985733032227 1.358896493912
-72.938430786133 -85.904953002930 -206.555313110352 4.512581825256
-62.184024810791 -79.045837402344 -201.094757080078 4.305415153503
-151.581069946289 -80.895759582520 -208.354049682617 1.724167823792
-74.725158691406 -82.751281738281 -207.876358032227 2.450329542160
-73.553955078125 -83.676528930664 -209.404693603516 0.947335898876
-78.226615905762 -78.278366088867 -206.478576660156 2.475934505463
-144.720016479492 -82.401473999023 -219.639633178711 2.018678665161
-147.826965332031 -82.464408874512 -226.011184692383 0.942258059978
-153.697280883789 -83.477561950684 -247.085678100586 3.190725326538
11.834095954895 -77.558815002441 -243.883209228516 2.319876432419
7.989912986755 -77.668838500977 -245.007095336914 1.244349479675
-138.429534912109 -83.041328430176 -254.309951782227 2.839435100555
10.888627052307 -85.055206298828 -251.626708984375 3.696957349777
6.742921829224 -81.693428039551 -253.397338867188 2.430070638657
-153.689819335938 -84.136779785156 -258.967895507813 0.803704977036
-158.299911499023 -78.494674682617 -269.596282958984 4.112215518951
-10.105119705200 -79.499885559082 -270.901550292969 1.355454087257
7.778338909149 -82.341194152832 -277.631683349609 1.730179429054
-157.765701293945 -85.769073486328 -277.786285400391 6.478310585022
-144.091064453125 -85.103073120117 -270.104431152344 3.061974525452
-147.831817626953 -81.194633483887 -299.006835937500 0.741531014442
-41.440361022949 -84.923553466797 -68.470474243164 4.794815063477
-67.791030883789 -78.858055114746 -66.727439880371 1.069519996643
-40.300945281982 -84.701896667480 -68.074005126953 5.155354499817
-28.529693603516 -84.125915527344 -73.604179382324 4.313609600067
-70.123687744141 -79.421119689941 -65.204627990723 2.245521783829
-31.811218261719 -84.405792236328 -71.385520935059 5.013601779938
-44.762237548828 -75.538864135742 -80.716209411621 2.311216354370
-53.674396514893 -76.647056579590 -86.793685913086 3.320560693741
-63.396167755127 -86.818389892578 -86.443817138672 3.423501014709
-60.611839294434 -81.820053100586 -96.783851623535 1.301774024963
-91.551658630371 -81.302085876465 -107.006164550781 4.459527492523
41.369178771973 -79.464355468750 -119.332756042480 1.823932409286
38.626083374023 -85.598472595215 -119.124679565430 5.242498397827
-42.720172882080 -84.355354309082 -163.948608398438 4.564646244049
-42.879112243652 -80.410797119141 -156.356048583984 2.874626159668
-5.233521938324 -80.923286437988 -169.868820190430 1.687665939331
-62.740676879883 -86.930229187012 -164.056732177734 7.082659244537
-61.357971191406 -81.340866088867 -176.748413085938 2.681491136551
-58.279422760010 -80.911117553711 -170.507705688477 0.577727973461
-33.809570312500 -81.170951843262 -169.135147094727 2.408300161362
-58.697906494141 -79.889366149902 -177.010711669922 1.575280070305
-32.440288543701 -78.838447570801 -177.589355468750 2.513540029526
-147.386260986328 -79.138313293457 -178.243621826172 5.621044158936
-52.852798461914 -80.662178039551 -178.476181030273 2.027460336685
-47.790111541748 -78.996009826660 -191.569458007813 1.798639535904
-31.057275772095 -81.665672302246 -179.323547363281 2.826045036316
-34.178657531738 -83.978500366211 -184.975952148438 2.585727453232
-35.156230926514 -77.580818176270 -189.368072509766 3.116116046906
-23.115800857544 -82.979736328125 -185.598083496094 2.370835304260
-49.243247985840 -80.604194641113 -197.049118041992 2.282796382904
-145.872573852539 -74.323493957520 -186.806304931641 1.240800499916
-41.503936767578 -74.694961547852 -190.698974609375 2.603383541107
-40.594165802002 -77.570053100586 -199.710479736328 1.006401419640
-41.043899536133 -83.249572753906 -199.622512817383 2.030383825302
-46.092739105225 -77.399360656738 -197.492233276367 1.678174972534
-134.141098022461 -79.540138244629 -189.179153442383 7.285868644714
-137.302841186523 -78.572692871094 -194.450469970703 3.731900930405
-51.030872344971 -79.271697998047 -200.501876831055 0.923145174980
-61.932186126709 -85.098579406738 -201.676040649414 2.478049516678
-42.968448638916 -80.489097595215 -200.172012329102 1.727424740791
-143.492126464844 -81.655151367188 -199.633087158203 1.633573055267
-71.132820129395 -74.264732360840 -203.979324340820 4.755629062653
-39.248241424561 -83.790267944336 -205.969238281250 4.368439674377
14.314073562622 -82.112854003906 -204.207992553711 2.808083534241
-74.907966613770 -81.647392272949 -209.285903930664 0.830363214016
-30.878280639648 -77.286842346191 -211.215423583984 0.469187587500
10.322400093079 -79.150802612305 -217.985076904297 1.208261132240
-155.273498535156 -80.165382385254 -211.149398803711 4.562576293945
4.561046123505 -78.871841430664 -225.671142578125 2.348722696304
10.390243530273 -81.261077880859 -222.930282592773 1.128857970238
15.684571266174 -77.336059570313 -223.481903076172 1.337265253067
-140.652709960938 -84.391616821289 -220.511322021484 4.963106632233
-147.056732177734 -78.548370361328 -223.122741699219 2.319549322128
9.380564689636 -81.195587158203 -234.514923095703 1.125500679016
14.692242622375 -77.788749694824 -235.047470092773 2.641767024994
12.776468276978 -79.245567321777 -235.198944091797 1.740542531013
-151.439849853516 -82.715942382813 -235.493637084961 3.079216957092
-148.201812744141 -89.766296386719 -232.668365478516 4.978487968445
8.946295738220 -81.119064331055 -232.870086669922 2.532717227936
-44.667285919189 -80.224281311035 -241.199371337891 1.556191205978
15.119820594788 -79.526634216309 -246.261505126953 2.473068475723
-46.650321960449 -82.065895080566 -239.686279296875 4.326045513153
-147.746337890625 -83.928810119629 -251.990310668945 1.948830366135
15.520900726318 -81.497726440430 -251.032409667969 2.364986181259
-147.212463378906 -81.944778442383 -250.021163940430 1.806930780411
-157.475753784180 -80.973487854004 -252.572647094727 4.026671409607
10.154348373413 -78.794296264648 -253.588104248047 3.571516752243
-11.901212692261 -75.414588928223 -249.334350585938 0.999992072582
-12.197121620178 -78.502853393555 -261.419891357422 1.544106483459
-147.448684692383 -85.929794311523 -254.179687500000 0.600020289421
-159.291625976563 -74.070671081543 -255.938079833984 2.139689207077
-147.222778320313 -82.422523498535 -258.094177246094 1.065921545029
-153.839904785156 -76.329460144043 -265.243072509766 3.305427551270
-150.880737304688 -81.408020019531 -262.289031982422 1.464564561844
-11.045902252197 -82.173011779785 -267.386291503906 3.017768859863
-9.726723670959 -79.382392883301 -269.693054199219 1.821858406067
10.364276885986 -79.413619995117 -264.755889892578 4.413168430328
-0.557779014111 -82.044105529785 -275.906036376953 2.729577779770
-1.220456957817 -77.011657714844 -284.911041259766 1.886095404625
-143.059600830078 -76.402748107910 -284.089569091797 2.024253368378
-150.350143432617 -79.117858886719 -287.458374023438 0.669619560242
-57.765239715576 -79.053627014160 -59.413246154785 1.748852849007
-42.839778900146 -78.795417785645 -61.911182403564 1.591849327087
-43.037448883057 -74.822067260742 -63.258705139160 3.101835966110
-42.594833374023 -76.682785034180 -62.421348571777 1.264603972435
-64.086006164551 -85.209724426270 -62.969459533691 6.311047554016
-73.895591735840 -77.780418395996 -66.579437255859 1.182946324348
-37.936695098877 -79.552940368652 -73.665313720703 3.147372961044
-40.006904602051 -83.492904663086 -83.067390441895 1.623429298401
-46.842716217041 -85.998474121094 -84.607009887695 2.330956220627
-83.330650329590 -77.526840209961 -83.559585571289 2.842855215073
-71.521080017090 -83.440086364746 -104.103874206543 3.197888851166
45.053497314453 -78.452270507813 -106.963706970215 2.749196529388
-83.943504333496 -78.879981994629 -104.893501281738 3.144622087479
44.662712097168 -80.313385009766 -120.227539062500 2.433142423630
41.771545410156 -77.673667907715 -123.273506164551 1.783259987831
34.755168914795 -78.017776489258 -120.584289550781 1.462825417519
29.684289932251 -83.729591369629 -125.927078247070 5.872476577759
30.798450469971 -78.017715454102 -132.153457641602 1.605046272278
23.761095046997 -75.657966613770 -144.375320434570 1.952044129372
-48.619449615479 -82.904846191406 -153.156936645508 4.005239963531
30.749763488770 -79.035568237305 -141.259429931641 0.902932882309
24.400915145874 -82.584724426270 -155.164260864258 2.527886867523
-42.361053466797 -81.996467590332 -148.196166992188 3.906189680099
26.080450057983 -79.555816650391 -153.823059082031 1.297017455101
-49.049385070801 -76.162406921387 -156.391937255859 1.208552479744
24.904415130615 -79.367630004883 -164.894866943359 1.622753739357
-62.097526550293 -80.770339965820 -166.550842285156 1.049250245094
-4.574038982391 -82.710975646973 -171.210937500000 2.044691801071
-33.466213226318 -78.654571533203 -170.508834838867 1.845324277878
-9.448524475098 -81.025268554688 -169.703796386719 1.453207135201
-58.415607452393 -79.280464172363 -172.186172485352 1.456230759621
23.053176879883 -82.280227661133 -171.037322998047 3.171260356903
-14.569610595703 -77.421852111816 -182.324386596680 1.885349154472
-25.286556243896 -73.809852600098 -184.303344726563 3.030028104782
-53.122020721436 -75.656532287598 -179.689819335938 1.361295700073
-30.789991378784 -80.359855651855 -184.342132568359 2.051401138306
15.550939559937 -82.403182983398 -190.260940551758 4.095350742340
-149.889678955078 -82.415687561035 -182.217758178711 3.640264987946
-31.056303024292 -79.875465393066 -186.424911499023 1.420499086380
-50.703788757324 -76.045928955078 -186.302291870117 1.490245819092
-151.905441284180 -83.562255859375 -183.529769897461 4.824113368988
-143.830093383789 -80.475257873535 -190.554779052734 2.492750167847
-25.863655090332 -79.183853149414 -195.042984008789 1.656654477119
-24.704109191895 -79.818489074707 -192.472564697266 1.747203350067
-46.840354919434 -77.899314880371 -191.816818237305 1.485615611076
-20.141939163208 -81.583839416504 -192.623138427734 3.005787611008
-49.666896820068 -79.316719055176 -194.931182861328 0.840353548527
-48.647682189941 -79.879837036133 -193.860000610352 1.203254461288
-55.428260803223 -81.924484252930 -196.686477661133 3.570120811462
-21.558456420898 -75.184280395508 -203.826370239258 1.471078634262
-147.071136474609 -79.591308593750 -210.318298339844 1.135283350945
-60.623512268066 -77.100967407227 -206.221984863281 1.572417616844
-61.451694488525 -75.603660583496 -206.474502563477 2.539320468903
-35.147415161133 -72.134552001953 -205.334838867188 1.800626158714
-13.736838340759 -75.553184509277 -204.637283325195 2.105528116226
-36.426452636719 -76.810493469238 -206.810531616211 1.172927975655
-82.308326721191 -78.579231262207 -205.475906372070 5.734491825104
-145.800170898438 -85.735618591309 -203.849960327148 2.716911554337
-35.210346221924 -80.424064636230 -206.380279541016 1.240658283234
3.995556116104 -82.684394836426 -207.031753540039 6.487518310547
-69.358619689941 -81.654228210449 -208.347351074219 2.188752889633
-66.163970947266 -78.360214233398 -211.070266723633 2.565763473511
-27.390012741089 -73.957901000977 -211.876739501953 1.975377202034
-11.589879989624 -86.541618347168 -210.866333007813 5.936891555786
-29.330373764038 -81.499244689941 -214.163604736328 2.781138658524
17.126470565796 -78.354484558105 -213.986984252930 2.406473636627
-153.126831054688 -74.331947326660 -212.674972534180 2.908159494400
-13.946576118469 -85.479522705078 -217.059204101563 6.583010673523
-159.856506347656 -81.528701782227 -220.231842041016 8.156211853027
4.914824008942 -80.181777954102 -229.106201171875 2.425866603851
10.507456779480 -74.471870422363 -225.006881713867 2.320887327194
-3.509179115295 -78.660049438477 -220.703598022461 1.543226838112
13.458626747131 -79.887893676758 -227.400863647461 1.558596134186
-141.996673583984 -84.983642578125 -228.855606079102 2.423921108246
9.315455436707 -80.087669372559 -225.907577514648 3.176672220230
-156.348983764648 -76.964393615723 -222.489089965820 4.015143394470
-147.799270629883 -79.979347229004 -228.329055786133 1.401007175446
-2.733742952347 -80.444084167480 -219.608383178711 1.986420631409
16.187202453613 -82.763778686523 -232.255844116211 2.070115089417
-33.602546691895 -75.346115112305 -235.567794799805 2.486745357513
-148.420822143555 -79.236160278320 -233.484680175781 1.657887935638
-39.486656188965 -77.461410522461 -241.757003784180 2.415556907654
-49.260219573975 -76.989257812500 -237.759841918945 4.063742637634
-39.512668609619 -76.264404296875 -237.316223144531 3.764771699905
16.903085708618 -79.492065429688 -242.664367675781 2.647882938385
-52.860668182373 -72.750991821289 -243.331085205078 2.434753179550
14.672107696533 -79.272804260254 -244.183425903320 3.480682134628
10.631781578064 -76.078071594238 -238.943222045898 1.227722764015
6.412250995636 -80.482086181641 -248.104995727539 1.643845915794
-42.476444244385 -82.751052856445 -244.059005737305 2.800780534744
21.574419021606 -81.550743103027 -245.668701171875 2.490227937698
-145.790603637695 -79.409934997559 -241.411849975586 1.760648488998
17.574592590332 -76.302322387695 -249.752761840820 1.139275431633
-2.637833118439 -83.643348693848 -247.824752807617 3.157430648804
7.556180953979 -78.635154724121 -239.923614501953 1.627310395241
-153.195571899414 -73.894248962402 -248.416137695313 1.558289527893
-149.759140014648 -83.341110229492 -252.242507934570 0.581125259399
-144.918319702148 -79.807945251465 -251.622436523438 2.187659978867
-155.205841064453 -78.657897949219 -253.958602905273 2.171437263489
12.223895072937 -73.562103271484 -262.125213623047 8.651382446289
-158.271057128906 -74.020622253418 -266.142272949219 1.768448591232
-10.386981964111 -79.112022399902 -272.280273437500 1.864486813545
-155.251007080078 -81.127426147461 -261.639739990234 1.773584008217
-147.959823608398 -76.588607788086 -275.877441406250 1.975723028183
-157.596191406250 -74.750228881836 -269.535614013672 1.428821802139
-157.617645263672 -81.560066223145 -278.325012207031 6.499317646027
-134.765640258789 -81.870681762695 -283.770416259766 4.977897167206
-157.456939697266 -79.406768798828 -283.261016845703 3.522671937943
-150.185882568359 -82.304878234863 -285.176269531250 1.078898191452
-150.999710083008 -79.191795349121 -283.995513916016 0.387715995312
-157.480575561523 -81.064308166504 -290.480895996094 2.216089963913
-149.214355468750 -75.794174194336 -286.362213134766 1.780051827431
-156.887252807617 -78.744880676270 -295.249176025391 4.148159027100
-151.714492797852 -80.058235168457 -297.614105224609 1.079957485199
-151.782272338867 -74.147399902344 -299.989990234375 2.128999948502
-54.017871856689 -71.212013244629 -58.157058715820 4.361417293549
-61.961418151855 -78.571311950684 -60.949718475342 2.293814659119
-44.522392272949 -79.039230346680 -58.544525146484 1.219803929329
-22.402517318726 -80.782707214355 -73.646102905273 3.934646129608
-50.121463775635 -82.782287597656 -85.155761718750 2.587554693222
-86.705139160156 -87.332366943359 -93.811271667480 6.679634571075
43.011909484863 -79.890335083008 -106.624740600586 2.834271907806
-73.108757019043 -81.648399353027 -96.576202392578 4.028154373169
45.331764221191 -82.128440856934 -113.700225830078 1.810532808304
42.299671173096 -79.067893981934 -122.415962219238 1.976767659187
41.867702484131 -79.837760925293 -123.618392944336 1.781676054001
36.179576873779 -79.731399536133 -134.407638549805 2.222479820251
32.382839202881 -77.337463378906 -133.807159423828 1.592209339142
34.213096618652 -86.555458068848 -134.403884887695 4.539152145386
32.246879577637 -75.906768798828 -149.937896728516 2.029225587845
-45.434356689453 -74.698524475098 -147.124450683594 1.388486385345
29.731492996216 -81.317893981934 -139.170639038086 2.294747114182
-66.416152954102 -74.593917846680 -149.631301879883 1.598608851433
-35.901470184326 -81.611732482910 -150.134948730469 5.656748294830
-61.559040069580 -80.822731018066 -159.976715087891 2.313103437424
-39.325904846191 -80.588638305664 -155.758209228516 1.505554318428
31.382198333740 -79.822380065918 -156.643768310547 2.294613122940
-36.072006225586 -85.250534057617 -155.303237915039 6.438224315643
-1.758648991585 -79.609680175781 -172.530700683594 2.658728361130
34.045448303223 -72.923614501953 -164.228469848633 2.221101284027
-10.875769615173 -79.451248168945 -169.191696166992 1.402438163757
-58.884582519531 -78.761146545410 -159.703430175781 3.332052707672
-37.883728027344 -75.272926330566 -167.650283813477 2.871595621109
-32.875782012939 -75.464706420898 -171.566223144531 3.646478414536
23.221794128418 -80.579185485840 -176.413940429688 3.374285697937
-54.075317382813 -80.117736816406 -173.287567138672 1.567529320717
-28.373207092285 -74.043251037598 -172.607696533203 0.912769973278
21.487689971924 -78.179107666016 -184.109985351563 1.602742791176
-52.518665313721 -79.870582580566 -182.649017333984 2.564668416977
-25.684160232544 -72.958824157715 -178.375625610352 1.953850865364
-55.449871063232 -75.426834106445 -181.426437377930 2.197039365768
-42.402744293213 -77.612556457520 -192.473434448242 1.096466064453
-30.278459548950 -76.936996459961 -187.270690917969 0.542042374611
-42.506114959717 -80.405616760254 -193.163711547852 0.837867796421
-23.952089309692 -77.941574096680 -190.129882812500 1.355857849121
-139.078338623047 -80.012710571289 -191.475402832031 3.827012062073
19.473291397095 -78.143417358398 -200.041610717773 1.952452063560
-134.787567138672 -76.923736572266 -193.793441772461 3.046888351440
-22.042274475098 -75.465492248535 -194.047470092773 2.118047475815
-21.853404998779 -75.579261779785 -194.658523559570 1.996080160141
-43.257835388184 -79.212257385254 -191.689285278320 1.437278389931
10.727492332458 -75.594589233398 -196.830474853516 1.650565505028
-17.607730865479 -81.510147094727 -196.461029052734 1.540681838989
-57.055946350098 -80.193199157715 -201.898696899414 0.606532216072
-36.144168853760 -78.626899719238 -201.163345336914 0.968001902103
-62.310058593750 -75.508262634277 -203.617874145508 4.301564216614
-70.169509887695 -76.879211425781 -207.465637207031 1.780535340309
15.193554878235 -76.305580139160 -208.429077148438 2.508400678635
-87.943572998047 -77.222488403320 -207.805099487305 4.362227439880
-30.137542724609 -78.624191284180 -212.983139038086 1.228503465652
-81.944831848145 -79.382987976074 -206.116760253906 5.316473484039
-150.813110351563 -79.918098449707 -208.029434204102 2.594453096390
-8.883693695068 -78.471122741699 -213.049041748047 1.905384182930
-8.392958641052 -76.510421752930 -216.275878906250 2.992191553116
10.850687026978 -79.075080871582 -216.081985473633 0.981629788876
10.477034568787 -71.884735107422 -224.848937988281 2.075098991394
-3.324398994446 -79.911621093750 -226.895034790039 1.905843973160
-143.926071166992 -77.326072692871 -214.365646362305 2.680204391479
-151.847229003906 -83.140304565430 -228.771453857422 0.719587922096
-155.850524902344 -75.523170471191 -226.975662231445 3.665218591690
-0.899192988873 -80.801849365234 -234.935989379883 3.758531093597
0.121155001223 -76.400413513184 -235.757339477539 1.389434695244
-26.460964202881 -82.990882873535 -240.239898681641 4.226694583893
-152.933364868164 -76.208274841309 -232.790344238281 2.234102249146
7.580263137817 -79.496643066406 -242.140228271484 2.620680570602
-25.504350662231 -72.442413330078 -239.182571411133 1.193628311157
16.715829849243 -77.817382812500 -235.057250976563 1.780797481537
-55.401447296143 -76.891174316406 -240.389663696289 2.647295713425
-53.151954650879 -78.157196044922 -246.598922729492 1.775483250618
-149.372848510742 -84.076942443848 -239.893508911133 1.265403509140
-64.737045288086 -79.196113586426 -244.973251342773 2.167613983154
-5.324851989746 -77.615684509277 -244.610076904297 1.627461075783
-13.185349464417 -75.241226196289 -252.604125976563 2.710374355316
-150.078964233398 -82.883323669434 -253.194961547852 1.421144723892
-134.868698120117 -76.586326599121 -250.817825317383 5.304314613342
-138.334457397461 -76.204795837402 -252.196990966797 3.456860303879
14.242458343506 -76.806083679199 -257.169555664063 5.367277622223
-149.065673828125 -79.829185485840 -266.267822265625 2.509990930557
14.724470138550 -78.809562683105 -265.336822509766 2.910127401352
-147.872772216797 -76.314697265625 -269.007232666016 2.518012046814
-0.664215981960 -80.043731689453 -275.838928222656 1.642421007156
-145.711227416992 -78.945434570313 -276.265258789063 1.647637724876
-4.485974788666 -80.377433776855 -281.713562011719 3.160627365112
-156.724792480469 -75.884552001953 -278.168457031250 4.297601699829
-147.427291870117 -75.115318298340 -277.400970458984 1.418591856956
-140.131317138672 -82.320159912109 -280.689300537109 5.761428356171
-153.388198852539 -80.989768981934 -288.174835205078 2.190091848373
-24.722377777100 -75.431236267090 -287.994659423828 2.479643106461
-155.244110107422 -77.335510253906 -285.947509765625 1.353795051575
-151.136260986328 -81.685157775879 -289.318511962891 0.998813986778
-155.962036132813 -76.969062805176 -301.690704345703 1.845214128494
-53.126060485840 -76.197395324707 -53.722488403320 3.627563238144
-36.620758056641 -83.663703918457 -60.302585601807 6.056095600128
-73.061141967773 -81.645973205566 -64.060081481934 4.109884262085
-28.154500961304 -76.697868347168 -64.428817749023 2.010976314545
-24.465251922607 -79.760116577148 -68.524978637695 1.902655839920
-84.380943298340 -79.583435058594 -75.316436767578 1.797051906586
87.321792602539 -80.428733825684 -85.487022399902 3.361577272415
-32.985057830811 -76.137634277344 -82.737846374512 3.079314231873
84.244865417480 -82.417297363281 -86.867172241211 3.591615438461
80.819961547852 -78.943275451660 -89.509796142578 2.600034475327
87.142745971680 -78.191139221191 -87.157585144043 2.563405275345
87.597396850586 -76.066307067871 -91.875358581543 1.883243680000
91.976257324219 -77.219329833984 -95.346588134766 2.142641544342
-89.108200073242 -75.150756835938 -89.420867919922 3.947568893433
57.342853546143 -78.455993652344 -105.404594421387 3.993635177612
-94.890342712402 -67.883262634277 -107.444923400879 1.931318163872
48.142066955566 -80.860572814941 -107.510017395020 3.298835515976
51.437511444092 -79.008476257324 -112.981681823730 2.951300382614
40.065441131592 -77.197525024414 -114.074234008789 1.872720122337
34.610153198242 -78.339149475098 -136.778045654297 1.605046749115
27.464834213257 -77.148323059082 -139.902572631836 2.655435562134
22.461790084839 -70.824981689453 -142.637695312500 3.393105506897
33.145030975342 -73.875938415527 -142.183609008789 1.189594388008
-46.267143249512 -80.407196044922 -150.785507202148 2.165339708328
-48.702083587646 -79.053611755371 -147.934234619141 1.862434267998
-40.742126464844 -76.774688720703 -154.972717285156 0.683239519596
23.527933120728 -75.395584106445 -153.113922119141 1.728847980499
29.566156387329 -76.265525817871 -167.146697998047 3.329540729523
-33.426860809326 -74.090675354004 -166.134704589844 1.113819956779
-35.298786163330 -72.684600830078 -156.137054443359 2.922657251358
-45.693626403809 -79.988220214844 -156.028625488281 1.368438601494
1.812669038773 -74.689476013184 -161.681976318359 1.140439867973
25.075244903564 -78.355064392090 -150.260192871094 1.320584535599
33.133377075195 -73.663177490234 -158.786514282227 1.250273942947
28.837377548218 -75.319320678711 -169.478332519531 1.284680962563
-6.554084777832 -76.760353088379 -170.549850463867 1.015898942947
-4.785177230835 -78.209968566895 -168.503555297852 1.481063961983
-58.339370727539 -75.673332214355 -163.241775512695 1.630648732185
-61.042556762695 -76.959274291992 -167.434814453125 1.257564067841
-43.975925445557 -78.829490661621 -166.545928955078 2.558985948563
-38.136043548584 -75.621139526367 -164.630935668945 3.446210384369
21.436201095581 -72.425781250000 -170.184936523438 3.596849441528
-23.423120498657 -81.680427551270 -175.784439086914 4.104610919952
-30.965236663818 -74.324264526367 -178.738113403320 2.865794420242
-62.989624023438 -80.900550842285 -175.601593017578 3.790277004242
97.563560485840 -78.335624694824 -183.201705932617 5.990775108337
20.768699645996 -80.731033325195 -174.073913574219 2.473682880402
-26.319757461548 -77.055038452148 -177.276641845703 2.318225145340
-51.983489990234 -77.269912719727 -175.074600219727 2.548117160797
-21.898361206055 -73.829635620117 -178.172286987305 1.928339123726
111.979286193848 -76.973419189453 -183.376464843750 2.132093429565
-56.140861511230 -79.448486328125 -181.506317138672 1.880489230156
11.765704154968 -78.987541198730 -188.741699218750 3.125429630280
17.395061492920 -77.041511535645 -177.451171875000 1.032796621323
-56.383102416992 -82.746520996094 -173.674194335938 3.043087482452
-25.128353118896 -75.766082763672 -179.992996215820 1.678658127785
-56.329627990723 -80.693389892578 -173.745132446289 1.836434125900
-36.823211669922 -78.942428588867 -174.560546875000 2.387971878052
-29.689638137817 -77.111732482910 -184.748062133789 2.134614229202
19.017364501953 -77.459846496582 -187.306121826172 0.440872311592
-48.997978210449 -78.827575683594 -185.200988769531 0.755493342876
102.703063964844 -75.771873474121 -191.541763305664 1.309555888176
-51.657577514648 -73.682899475098 -186.062973022461 1.173673510551
5.795156955719 -76.289176940918 -201.137649536133 3.151837110519
19.801429748535 -75.725494384766 -197.295959472656 2.331443786621
-50.272499084473 -77.207603454590 -188.207824707031 2.097359418869
-17.345880508423 -77.986991882324 -186.945617675781 2.289027214050
98.814437866211 -76.437614440918 -196.131225585938 1.627326011658
95.362182617188 -80.656356811523 -196.416290283203 5.124297618866
-50.543922424316 -75.938926696777 -183.654510498047 1.312351107597
-150.616119384766 -83.876846313477 -193.387893676758 1.515277981758
-46.570972442627 -76.879814147949 -193.061096191406 2.097935438156
-145.982757568359 -78.669364929199 -190.902755737305 3.239884614944
-136.209976196289 -73.460494995117 -191.660568237305 5.198654651642
-47.572082519531 -80.019409179688 -192.952606201172 2.088385105133
8.483993530273 -78.648406982422 -205.646209716797 2.284674406052
-17.304023742676 -74.323600769043 -202.587615966797 2.716030597687
14.812005043030 -74.301658630371 -199.797348022461 2.818962574005
90.041801452637 -80.427505493164 -213.752334594727 3.613315343857
-36.290763854980 -75.296409606934 -199.415420532227 2.645610094070
-15.463114738464 -75.014350891113 -201.655807495117 1.574895620346
-17.695569992065 -74.519920349121 -211.573669433594 1.358591437340
-36.589233398438 -75.933090209961 -201.479339599609 2.340615272522
4.927182197571 -77.027526855469 -204.616592407227 3.178784132004
-80.800224304199 -78.192733764648 -206.424423217773 4.583734512329
14.630693435669 -77.718170166016 -213.354461669922 1.735368371010
-36.504028320313 -76.031181335449 -202.789047241211 1.923298239708
-146.565078735352 -81.420661926270 -200.994934082031 1.189913392067
-143.243408203125 -73.479187011719 -204.053268432617 1.935040354729
-89.804946899414 -77.749267578125 -208.303085327148 5.250711441040
-36.496772766113 -74.719039916992 -206.330139160156 1.587468862534
-16.395118713379 -81.823280334473 -210.101181030273 2.974734067917
-34.690269470215 -78.039581298828 -203.276275634766 1.275288701057
-92.614219665527 -79.569953918457 -212.450073242188 4.263377189636
-88.595596313477 -78.940223693848 -209.163787841797 4.089995384216
4.506530761719 -82.281631469727 -219.041168212891 4.371982574463
-151.211944580078 -71.965415954590 -206.518508911133 0.659327864647
-16.236274719238 -80.714378356934 -210.317016601563 1.905200839043
7.277916908264 -83.356002807617 -217.356765747070 3.981365919113
-146.190032958984 -75.890548706055 -213.703720092773 2.046467781067
-24.807062149048 -78.545852661133 -213.454025268555 1.720175981522
-0.938926994801 -72.606773376465 -218.017791748047 1.719325184822
-10.082553863525 -77.854553222656 -217.579116821289 1.671518445015
-154.500747680664 -73.264701843262 -216.798065185547 2.440033912659
-141.997802734375 -67.457122802734 -220.069763183594 2.909401416779
-6.299005031586 -77.032958984375 -223.659164428711 1.571355819702
-150.372283935547 -82.574180603027 -220.542816162109 2.681535243988
-1.187731027603 -72.037803649902 -227.523666381836 1.510017991066
15.241909027100 -75.729530334473 -234.140396118164 1.667647957802
-4.284707069397 -79.234428405762 -227.905838012695 1.479167819023
-4.141343116760 -71.056404113770 -230.600173950195 2.015427589417
6.263491153717 -75.208236694336 -230.108566284180 1.972409009933
-154.752914428711 -77.736244201660 -232.850662231445 1.564941048622
-22.063419342041 -74.263923645020 -231.200820922852 4.125241756439
-37.037719726563 -78.911231994629 -235.800277709961 3.748042583466
-0.630434989929 -75.079986572266 -232.781326293945 3.056671619415
0.446891009808 -81.591560363770 -240.899856567383 4.372281074524
-0.658733010292 -74.936805725098 -231.395767211914 3.510622024536
-60.868343353271 -75.980247497559 -238.594589233398 6.069087982178
-151.593231201172 -73.223060607910 -242.538635253906 2.353118181229
-155.881866455078 -76.925354003906 -240.893875122070 3.612081289291
9.014319419861 -78.226310729980 -245.564590454102 1.084978461266
22.498716354370 -78.487159729004 -245.156799316406 2.156893730164
-64.008178710938 -73.528121948242 -243.536590576172 2.294486999512
-145.219497680664 -81.308746337891 -246.035263061523 1.386920928955
-156.281295776367 -80.224952697754 -248.019210815430 5.316716670990
-156.890808105469 -81.006568908691 -250.434783935547 4.288879394531
-146.143859863281 -73.733421325684 -255.820785522461 2.249856233597
-144.564575195313 -77.547973632813 -250.304016113281 1.980093955994
-10.095766067505 -78.073593139648 -254.053558349609 2.595889329910
-148.603591918945 -78.078460693359 -255.849227905273 1.148216009140
-17.627138137817 -77.207160949707 -265.551696777344 4.231016159058
-151.010101318359 -75.199684143066 -265.454071044922 1.639574050903
-151.726287841797 -75.884849548340 -275.872100830078 1.160404205322
-152.089248657227 -74.555633544922 -277.600524902344 1.720460414886
-7.558237075806 -71.308563232422 -283.033294677734 1.200981020927
-152.025222778320 -72.089775085449 -276.652740478516 2.546844720840
-29.734384536743 -77.444442749023 -283.483459472656 3.572679281235
-30.218038558960 -73.132530212402 -282.433441162109 2.851098537445
-17.895206451416 -73.126495361328 -291.137268066406 0.869452953339
-18.223009109497 -72.756355285645 -290.362731933594 1.216688871384
7.963696956635 -78.298194885254 -289.599761962891 1.307805180550
-128.993957519531 -77.978500366211 -284.370422363281 3.419126510620
-65.449523925781 -76.380676269531 -283.323486328125 4.185711383820
-45.771465301514 -72.831108093262 -287.029144287109 2.827766895294
-37.150501251221 -76.586097717285 -284.727203369141 3.060332298279
-12.799972534180 -73.668647766113 -291.502075195313 0.721551060677
1.582523941994 -76.869606018066 -286.135711669922 2.451605081558
-145.978897094727 -76.804443359375 -291.495819091797 2.481612920761
6.574347019196 -76.167335510254 -294.065307617188 0.857794523239
-157.922592163086 -73.422386169434 -296.017303466797 1.708250880241
-158.234619140625 -80.384223937988 -294.722747802734 4.282711982727
-158.032119750977 -71.867919921875 -305.611633300781 2.412654876709
-147.566955566406 -74.982864379883 -303.273345947266 2.931182622910
-47.734523773193 -77.764923095703 -47.112133026123 6.165185928345
-50.994052886963 -81.755073547363 -52.778163909912 6.788860797882
-64.384147644043 -76.015937805176 -50.784629821777 2.762053966522
-37.625629425049 -75.749336242676 -59.158462524414 0.739073574543
-32.813774108887 -78.067733764648 -56.389381408691 4.617793083191
-16.709121704102 -76.829696655273 -67.750114440918 3.261218786240
-78.904685974121 -74.989578247070 -64.835121154785 2.088740110397
87.470069885254 -78.006095886230 -79.023422241211 1.010985016823
-88.274391174316 -75.998886108398 -69.445671081543 3.328801393509
82.842269897461 -75.423767089844 -77.852745056152 2.390508651733
90.222396850586 -72.857482910156 -84.961593627930 4.680981636047
99.664573669434 -74.352813720703 -90.660728454590 2.349404335022
-59.167587280273 -80.395225524902 -92.600547790527 1.607138395309
83.952117919922 -78.604728698730 -96.958572387695 2.316004753113
78.698989868164 -81.770767211914 -91.386619567871 3.221309423447
88.425292968750 -77.244781494141 -91.055503845215 2.100582122803
-57.381156921387 -77.831146240234 -93.756538391113 2.782849073410
50.641960144043 -75.203430175781 -97.552536010742 0.551761150360
47.268871307373 -76.481216430664 -105.972602844238 2.098474740982
41.293525695801 -78.027931213379 -102.890419006348 2.778342723846
37.758934020996 -77.628303527832 -101.109046936035 5.724050045013
-90.308670043945 -73.176643371582 -99.364730834961 4.105389595032
36.670444488525 -75.266181945801 -116.394226074219 2.000987529755
-83.310127258301 -77.684394836426 -102.807968139648 3.490410804749
41.332233428955 -78.230773925781 -126.429283142090 1.447911024094
33.854888916016 -77.960983276367 -119.827209472656 1.426552653313
35.218063354492 -69.393302917480 -120.430816650391 1.499776124954
45.679039001465 -74.902336120605 -116.832473754883 1.109746813774
42.291854858398 -79.650146484375 -127.502342224121 2.664334058762
-50.610710144043 -70.662773132324 -131.500457763672 1.946851968765
38.318119049072 -81.041069030762 -133.370605468750 2.714685440063
36.149150848389 -76.283454895020 -143.130996704102 1.262159109116
-55.168689727783 -74.568534851074 -139.995315551758 1.250913143158
-44.409755706787 -77.000160217285 -136.812591552734 2.776507377625
35.512176513672 -75.149681091309 -141.559432983398 2.498216867447
110.997520446777 -71.672561645508 -141.926696777344 1.716321587563
112.750099182129 -72.698654174805 -147.583862304688 1.335056543350
27.051187515259 -78.097625732422 -140.369674682617 2.228403568268
-39.906314849854 -79.359329223633 -146.416946411133 3.526390075684
116.859558105469 -83.002151489258 -154.143218994141 6.546328544617
-37.140342712402 -74.506195068359 -149.404342651367 3.961324453354
-67.844779968262 -75.598320007324 -158.106124877930 0.742932260036
110.715301513672 -80.596076965332 -157.295593261719 3.540634632111
22.508546829224 -77.310165405273 -164.795623779297 2.127096176147
0.872294008732 -77.197898864746 -160.746566772461 1.649227976799
111.422386169434 -76.357803344727 -154.064865112305 2.173429727554
-64.318962097168 -75.936088562012 -162.167633056641 1.971844315529
-38.768981933594 -77.501838684082 -162.129699707031 1.366621613503
111.344367980957 -76.935577392578 -166.179855346680 1.875121593475
27.740791320801 -71.250320434570 -157.257476806641 2.673195123672
-61.906032562256 -69.992675781250 -160.519958496094 2.996000051498
112.505409240723 -76.439704895020 -167.224151611328 1.644604325294
-65.623893737793 -77.925643920898 -164.872253417969 1.185148477554
-49.593631744385 -79.068748474121 -178.669738769531 0.561601698399
105.846092224121 -75.320449829102 -172.393066406250 0.718325138092
-59.891006469727 -74.659004211426 -168.306289672852 1.406727552414
111.983314514160 -74.894920349121 -179.057418823242 2.865454673767
-61.675811767578 -75.321624755859 -172.335632324219 1.972859025002
-16.265974044800 -73.582969665527 -174.887832641602 4.196417331696
-10.619924545288 -81.315956115723 -179.999938964844 2.865097999573
107.534523010254 -77.950935363770 -168.012710571289 2.932452678680
21.179697036743 -77.426506042480 -169.942932128906 1.152583479881
30.365673065186 -71.390632629395 -168.015762329102 2.630827188492
-58.368225097656 -75.209266662598 -173.631378173828 1.919785857201
16.905708312988 -74.085227966309 -180.212844848633 1.211774945259
-57.884834289551 -76.867851257324 -171.020385742188 1.968911528587
-53.260803222656 -74.407913208008 -189.969497680664 1.496547460556
10.341554641724 -73.630462646484 -182.980026245117 3.555206060410
-56.570613861084 -71.401977539063 -175.696670532227 2.440057992935
105.453704833984 -73.221519470215 -189.446899414063 2.441903114319
25.210931777954 -78.779670715332 -180.632766723633 1.553279757500
-35.749530792236 -73.539443969727 -185.109161376953 1.599821925163
-43.828804016113 -78.397468566895 -186.581497192383 1.479022741318
10.381281852722 -78.029319763184 -189.949981689453 3.799135446548
-20.468750000000 -77.193954467773 -185.486679077148 1.450834870338
-48.595024108887 -77.393142700195 -191.950805664063 0.744375526905
101.305458068848 -79.856613159180 -183.747085571289 3.700087547302
9.083217620850 -79.377494812012 -188.549682617188 5.642867565155
-133.649429321289 -82.066421508789 -194.042221069336 3.375577688217
-49.357856750488 -78.201805114746 -191.941040039063 1.305884480476
93.545768737793 -74.791236877441 -199.496170043945 1.736454844475
-150.682479858398 -82.122726440430 -196.028274536133 1.621210336685
17.198389053345 -76.256019592285 -198.509445190430 1.590159773827
-44.629776000977 -72.711051940918 -202.558944702148 2.125941991806
-31.559730529785 -78.869796752930 -204.041564941406 0.715467274189
-38.382705688477 -76.985946655273 -198.416275024414 1.437683343887
-46.629077911377 -82.115592956543 -194.576126098633 0.987973690033
99.354652404785 -75.441009521484 -205.420120239258 0.693285346031
-22.216758728027 -79.837402343750 -197.624801635742 2.854264020920
-151.360839843750 -76.254745483398 -194.655807495117 1.202114343643
14.652427673340 -78.316749572754 -200.165100097656 2.314214229584
-78.431350708008 -80.408119201660 -201.435180664063 6.232936859131
-145.616897583008 -73.876571655273 -207.335876464844 2.163974046707
92.410865783691 -77.818656921387 -214.250793457031 2.044732332230
-34.324970245361 -74.388755798340 -203.950683593750 1.673348188400
-30.326942443848 -76.431106567383 -208.205795288086 1.786420583725
8.381210327148 -76.388786315918 -208.205123901367 1.406176805496
-73.063774108887 -80.147621154785 -203.707015991211 4.338874816895
-28.520660400391 -83.622711181641 -203.178359985352 5.943942070007
-9.719040870667 -77.220863342285 -214.568817138672 0.977137327194
-71.905372619629 -77.083221435547 -209.875411987305 1.333543300629
-15.694643020630 -76.267120361328 -215.007568359375 2.171392202377
6.232124805450 -67.737205505371 -209.509445190430 3.898131370544
11.060566902161 -78.570037841797 -219.498397827148 1.527693986893
-152.996871948242 -77.967010498047 -211.219909667969 2.971348524094
-10.555313110352 -75.735366821289 -211.862594604492 2.237836360931
-103.127616882324 -72.237297058105 -214.971893310547 5.321251869202
-23.656616210938 -75.353736877441 -216.718292236328 0.748035848141
87.268249511719 -81.187347412109 -212.703720092773 4.766678333282
7.215098857880 -73.801200866699 -222.840194702148 1.710272312164
19.472028732300 -75.377029418945 -214.885848999023 1.767861366272
78.487106323242 -77.112564086914 -214.562728881836 5.496234416962
-0.671121001244 -79.809974670410 -227.773345947266 1.832239151001
83.698684692383 -76.055549621582 -217.198104858398 1.062016606331
-22.764165878296 -71.637008666992 -221.654678344727 0.515826940536
14.732844352722 -72.584655761719 -216.778167724609 1.252284884453
-150.079437255859 -77.672080993652 -212.563613891602 2.344630718231
-27.586608886719 -77.254997253418 -223.313537597656 1.053524017334
-0.084363996983 -73.146865844727 -228.660598754883 2.557456254959
-158.139038085938 -81.490417480469 -218.878829956055 8.142659187317
-139.325103759766 -79.003402709961 -221.832382202148 3.919825077057
1.509034037590 -75.400047302246 -221.480041503906 2.930708408356
-5.618363857269 -72.279159545898 -223.125579833984 3.064981937408
-139.082046508789 -72.504051208496 -223.111846923828 2.290740728378
-149.458648681641 -76.360557556152 -235.394485473633 1.361548662186
-150.913208007813 -76.636222839355 -229.294998168945 1.791123032570
-33.890796661377 -76.961875915527 -233.804779052734 4.499070167542
-144.646224975586 -79.136909484863 -237.022476196289 2.885031938553
13.290578842163 -76.965751647949 -239.749679565430 3.057746410370
3.282912015915 -75.152885437012 -242.726043701172 1.216538071632
-152.932998657227 -70.586433410645 -231.566131591797 2.586675405502
-151.971221923828 -75.515930175781 -238.325622558594 2.161758899689
-48.031112670898 -77.639808654785 -242.251190185547 0.980674266815
-34.018192291260 -76.364578247070 -243.863128662109 1.092879772186
1.814968943596 -75.583335876465 -240.717864990234 1.551051378250
-38.658752441406 -77.614112854004 -242.226409912109 1.944782018661
19.532745361328 -75.751625061035 -244.995162963867 1.191555857658
-8.534427642822 -77.915191650391 -250.353012084961 1.101962089539
-147.139419555664 -76.929168701172 -246.684249877930 0.844392716885
-12.451560020447 -80.672836303711 -250.586090087891 4.931540489197
-150.789688110352 -73.756164550781 -240.668838500977 1.220550298691
-67.893463134766 -77.733695983887 -246.188354492188 2.083322763443
-149.691314697266 -83.155967712402 -252.789031982422 0.994657814503
-130.165557861328 -75.783950805664 -252.391082763672 4.757802486420
-155.503250122070 -75.474395751953 -250.725265502930 3.101709365845
-13.610157966614 -72.820075988770 -264.817413330078 2.363712072372
-148.786026000977 -81.860290527344 -265.912170410156 3.015824317932
-152.254425048828 -76.200309753418 -262.820892333984 2.589588880539
-14.857686996460 -75.864463806152 -268.339630126953 1.724721193314
-147.398361206055 -76.064468383789 -263.799560546875 2.331566333771
-9.585454940796 -74.006149291992 -274.300598144531 3.472279310226
-49.099514007568 -74.597229003906 -280.523162841797 4.573037624359
-138.394653320313 -72.961212158203 -282.352722167969 3.908773183823
-138.990692138672 -74.927726745605 -279.782501220703 6.731161594391
-126.599975585938 -72.190223693848 -276.142639160156 8.431526184082
-55.337966918945 -74.423606872559 -282.631408691406 3.237195968628
-115.436035156250 -73.968124389648 -278.494140625000 7.877609729767
12.781112670898 -74.361625671387 -290.737091064453 2.660744190216
-60.512077331543 -73.229202270508 -284.734619140625 2.395542144775
-144.454299926758 -75.138366699219 -287.025573730469 2.229374170303
-66.821586608887 -73.908554077148 -286.486297607422 1.409373164177
-148.279876708984 -80.661430358887 -287.289245605469 2.037951469421
-120.042182922363 -72.800308227539 -285.431243896484 2.726989984512
-49.455051422119 -77.721847534180 -286.873138427734 0.558148026466
-37.069637298584 -75.121490478516 -288.426971435547 1.613484025002
-141.460296630859 -71.013290405273 -289.939025878906 1.624854564667
-17.386951446533 -69.811080932617 -279.959472656250 6.289308071136
1.273218989372 -74.580406188965 -285.364532470703 2.177462816238
3.184562921524 -73.306892395020 -288.439575195313 2.540346622467
11.645400047302 -75.875831604004 -293.770538330078 1.663821101189
-153.410430908203 -79.701736450195 -291.678619384766 1.982876300812
-148.533905029297 -73.066253662109 -286.950195312500 2.496945619583
-63.505043029785 -75.427093505859 -58.179843902588 1.569975733757
91.561996459961 -78.234039306641 -72.986610412598 3.574803829193
81.328102111816 -77.762969970703 -77.530937194824 2.190375089645
-25.284717559814 -79.393905639648 -73.610000610352 2.799114704132
86.270332336426 -74.990554809570 -74.903060913086 1.017852187157
-35.449516296387 -79.423576354980 -76.690193176270 1.717911362648
85.190559387207 -72.789749145508 -82.151802062988 3.397330045700
98.558746337891 -72.712097167969 -80.507614135742 1.927413940430
-62.532707214355 -70.517395019531 -91.876564025879 2.125363111496
74.834106445313 -76.985427856445 -94.211853027344 1.747756242752
81.916481018066 -74.244468688965 -97.785133361816 1.447305798531
98.609390258789 -79.157829284668 -95.820312500000 5.501281261444
57.287593841553 -78.249038696289 -96.491256713867 3.958218336105
-65.294311523438 -74.297103881836 -97.308692932129 1.912120938301
-72.121444702148 -72.771255493164 -96.850646972656 3.981221437454
52.391399383545 -78.444709777832 -102.892311096191 1.815366268158
-85.913436889648 -78.087165832520 -97.730880737305 4.042159557343
48.568420410156 -73.205894470215 -117.187652587891 2.707572698593
111.976898193359 -75.253143310547 -120.813308715820 0.358189940453
113.982978820801 -77.975379943848 -131.441513061523 2.179762601852
21.669166564941 -73.941001892090 -135.472930908203 4.969019412994
111.417175292969 -77.667098999023 -127.773643493652 1.802132010460
29.632823944092 -73.463485717773 -132.022476196289 0.879042685032
113.840599060059 -70.136528015137 -133.170303344727 1.884986877441
38.056636810303 -73.684082031250 -133.495391845703 2.289324760437
-55.433673858643 -75.646751403809 -136.855667114258 1.927526354790
36.841300964355 -79.524703979492 -144.137176513672 2.578280687332
109.723289489746 -73.789344787598 -135.711105346680 2.012215852737
-45.430118560791 -74.262214660645 -140.388092041016 1.614301800728
32.537052154541 -74.444549560547 -148.895050048828 0.974884033203
-55.941783905029 -70.547737121582 -137.401214599609 1.824971199036
-58.342708587646 -75.769119262695 -140.856613159180 1.363682985306
-52.016468048096 -79.004821777344 -146.449478149414 2.283143997192
-64.022300720215 -78.704887390137 -151.840789794922 3.108462095261
112.555511474609 -79.748641967773 -148.239730834961 2.658703565598
-49.451625823975 -82.171241760254 -151.813873291016 4.318507671356
23.384279251099 -80.552986145020 -154.927780151367 1.902457356453
107.956344604492 -76.276100158691 -162.965042114258 2.121646881104
-65.013122558594 -75.800987243652 -150.757720947266 1.638143181801
-43.292026519775 -77.007804870605 -153.873367309570 1.809456944466
9.387218475342 -73.352363586426 -152.491241455078 1.765164971352
-67.909545898438 -76.299125671387 -151.020141601563 2.242399692535
-63.658477783203 -78.470191955566 -154.701187133789 2.381753921509
0.480001002550 -75.826614379883 -160.188537597656 1.243824839592
-43.855659484863 -72.088096618652 -164.399978637695 1.680985689163
29.028484344482 -73.346092224121 -165.954116821289 2.661846637726
-63.176212310791 -71.852706909180 -164.201766967773 1.835561156273
-55.951385498047 -77.771194458008 -162.914459228516 3.951846122742
15.247068405151 -78.831459045410 -158.230056762695 5.680480957031
-30.264905929565 -74.605186462402 -165.449859619141 2.511422872543
-28.612152099609 -78.327911376953 -163.617080688477 2.873892068863
14.926251411438 -76.941093444824 -172.909622192383 3.508655786514
-43.568279266357 -78.561927795410 -169.581558227539 1.995288610458
-10.671118736267 -77.028144836426 -169.881942749023 1.385679483414
-65.550376892090 -72.494392395020 -167.511260986328 1.198622226715
-7.546408176422 -73.087211608887 -171.541702270508 1.605075597763
-22.053232192993 -75.750480651855 -177.000305175781 1.401509881020
21.950077056885 -72.587699890137 -182.324356079102 3.376298427582
-38.952632904053 -77.336624145508 -169.069091796875 1.916042208672
20.660144805908 -71.587959289551 -174.162796020508 1.566912531853
-23.299158096313 -71.760208129883 -182.664978027344 1.073875427246
-32.357597351074 -78.127777099609 -174.939727783203 2.298051834106
-148.827026367188 -73.009513854980 -185.653076171875 1.132476329803
-18.486536026001 -79.855079650879 -181.301834106445 2.543442726135
-141.358184814453 -74.226501464844 -183.352249145508 2.914753913879
-154.143585205078 -76.094718933105 -180.764266967773 4.855603218079
-50.137718200684 -73.753898620605 -184.969100952148 0.783908128738
97.589744567871 -74.514007568359 -195.393646240234 2.077593803406
-145.495193481445 -77.008209228516 -184.421890258789 1.418544650078
-147.209182739258 -73.849769592285 -189.504638671875 1.688218355179
21.745044708252 -73.546081542969 -194.799209594727 2.453325271606
-139.123855590820 -76.014694213867 -190.125656127930 4.999612808228
12.938744544983 -71.511108398438 -197.230850219727 1.525346398354
