-15.853550910950 -70.592880249023 -292.970153808594 1.384436011314
-41.054431915283 -76.807922363281 -290.814697265625 0.808236539364
-36.776241302490 -73.500572204590 -288.585357666016 1.329205393791
-21.544227600098 -69.336090087891 -288.259033203125 2.009635210037
-75.507926940918 -71.760505676270 -294.571472167969 4.724348545074
-58.656352996826 -72.270095825195 -291.474304199219 2.430119276047
-21.145259857178 -68.838478088379 -291.557952880859 4.235563278198
-16.211837768555 -76.092651367188 -288.548217773438 3.035322904587
-5.839868068695 -73.153587341309 -292.964691162109 2.290016889572
0.386979013681 -69.056724548340 -292.345764160156 1.270474433899
-95.972724914551 -72.652725219727 -294.159942626953 2.901118516922
-140.531295776367 -75.323234558105 -297.381408691406 5.597797393799
-117.786483764648 -73.511245727539 -293.558746337891 1.207441210747
-155.672424316406 -69.084823608398 -294.922210693359 1.220097661018
-152.752609252930 -73.155570983887 -300.679199218750 2.852743625641
-149.555755615234 -68.887382507324 -301.484588623047 2.578384876251
38.382129669189 -68.139274597168 -21.425498962402 3.219339370728
15.008578300476 -75.750816345215 -22.411491394043 7.361751079559
45.000339508057 -67.393318176270 -22.680799484253 2.964760065079
42.212966918945 -73.008399963379 -34.377128601074 2.121457576752
83.755195617676 -72.147659301758 -69.892059326172 0.631588757038
91.493354797363 -74.857078552246 -72.602851867676 1.284605860710
97.013816833496 -72.956504821777 -74.653831481934 1.311341643333
93.931411743164 -72.539344787598 -82.310020446777 3.703225851059
51.381126403809 -73.363693237305 -88.727294921875 2.322881937027
39.378219604492 -79.098075866699 -88.321052551270 11.694654464722
59.149898529053 -71.194427490234 -89.364471435547 0.719764769077
-69.788055419922 -68.895347595215 -94.183723449707 5.657080173492
67.561172485352 -70.673156738281 -85.704025268555 2.582169055939
95.875373840332 -63.778068542480 -97.733947753906 4.665800571442
70.289047241211 -72.626663208008 -100.329330444336 3.351795196533
89.189826965332 -71.200370788574 -101.586212158203 1.959568381310
-90.922370910645 -71.607574462891 -105.559570312500 3.035079240799
41.651634216309 -70.295684814453 -94.734947204590 4.167342185974
-92.162765502930 -72.413658142090 -100.621482849121 4.291161060333
47.602485656738 -73.427223205566 -108.796531677246 1.811286330223
32.358932495117 -79.998062133789 -101.887947082520 8.901868820190
95.508163452148 -71.512725830078 -101.379699707031 1.451275825500
32.466506958008 -72.248619079590 -103.382720947266 8.102500915527
40.728519439697 -74.608245849609 -119.611915588379 3.821263790131
38.331752777100 -72.731155395508 -111.866111755371 1.299354672432
107.462478637695 -71.362831115723 -109.352012634277 2.128805160522
-84.608383178711 -77.355651855469 -122.343505859375 7.096439361572
108.907768249512 -78.471710205078 -120.506790161133 2.794678449631
37.774871826172 -67.204055786133 -124.184448242188 3.444994688034
35.966854095459 -72.082450866699 -118.758934020996 1.920245409012
30.332204818726 -73.120170593262 -118.792098999023 1.489440202713
-58.967327117920 -77.288398742676 -129.424972534180 5.202517032623
25.737150192261 -70.852424621582 -122.210136413574 5.150945663452
-81.745216369629 -67.390640258789 -138.907135009766 2.690116882324
-58.943336486816 -76.281875610352 -132.469879150391 3.836704730988
-83.353462219238 -68.186050415039 -135.346542358398 3.069141626358
32.930145263672 -69.869606018066 -130.910079956055 1.549274444580
-63.901000976563 -73.482398986816 -133.538253784180 4.381445407867
31.412502288818 -71.588890075684 -131.879760742188 0.857775688171
-75.047996520996 -68.751823425293 -139.976776123047 1.699385166168
-63.051406860352 -66.623680114746 -142.553512573242 4.337909221649
19.917123794556 -73.691566467285 -143.595748901367 3.758747339249
108.090980529785 -76.421684265137 -140.856887817383 1.790211796761
111.102081298828 -67.856910705566 -135.610076904297 2.056286096573
26.563020706177 -72.900138854980 -141.818862915039 1.052581429482
-53.737228393555 -74.186798095703 -139.703887939453 1.241708278656
101.391777038574 -70.317070007324 -150.813766479492 8.560518264771
-80.325904846191 -70.988426208496 -142.784896850586 3.021478414536
-62.369083404541 -71.199134826660 -142.247299194336 3.392705440521
27.996637344360 -66.023506164551 -145.084854125977 2.065966367722
-82.142303466797 -73.116058349609 -146.305969238281 5.674992561340
-74.087768554688 -70.642677307129 -150.073150634766 0.648900270462
110.065223693848 -78.798995971680 -147.267807006836 2.350913763046
-68.186599731445 -69.522994995117 -155.907394409180 1.177912712097
-43.280952453613 -67.402503967285 -151.553314208984 2.449603319168
20.666305541992 -70.624671936035 -143.657455444336 2.982637166977
-75.933433532715 -71.954765319824 -144.326995849609 1.316370964050
8.641388893127 -70.845191955566 -148.072967529297 1.824602007866
28.194162368774 -71.975914001465 -157.439147949219 2.868030548096
27.611063003540 -69.225181579590 -150.893218994141 1.473938941956
13.468111038208 -77.550025939941 -152.788345336914 4.847428321838
-54.546432495117 -74.150436401367 -152.994094848633 2.986516237259
19.246360778809 -75.262329101563 -152.261795043945 2.737528324127
-50.812629699707 -70.451362609863 -151.136260986328 1.624240517616
-0.391281008720 -72.234275817871 -153.629470825195 6.503016471863
15.546468734741 -71.160430908203 -149.176376342773 1.245051622391
-70.913681030273 -70.026321411133 -158.762954711914 3.687215566635
-51.103408813477 -67.992507934570 -154.181518554688 2.871096849442
-72.412597656250 -71.203102111816 -152.219558715820 2.281981468201
16.487802505493 -70.759178161621 -157.854797363281 1.159217596054
19.779747009277 -71.264503479004 -149.254074096680 2.953042268753
-1.194865942001 -72.259025573730 -165.936309814453 1.284782052040
18.084487915039 -71.060905456543 -151.240585327148 2.279217243195
26.994886398315 -71.366889953613 -167.867004394531 0.779902815819
-50.949611663818 -72.593605041504 -164.138275146484 3.683063030243
-42.358299255371 -80.869125366211 -164.324996948242 1.238039731979
-45.460094451904 -73.120590209961 -161.092178344727 2.326529741287
23.919931411743 -73.126754760742 -156.638854980469 2.315033674240
-48.321075439453 -68.637191772461 -166.277496337891 4.631891250610
-42.980907440186 -69.796005249023 -168.766174316406 1.961988449097
18.082792282104 -70.251319885254 -164.523376464844 1.966268777847
-43.309398651123 -72.389556884766 -176.374404907227 3.632765054703
23.686153411865 -67.045265197754 -169.235504150391 2.068336486816
106.629913330078 -68.670776367188 -161.550399780273 4.120967388153
-37.995941162109 -71.882308959961 -172.079101562500 1.517339825630
96.501945495605 -69.983489990234 -171.746612548828 9.597203254700
-38.240016937256 -71.366500854492 -177.800552368164 2.444483995438
-41.632270812988 -75.795646667480 -182.028167724609 4.745052337646
19.150758743286 -75.815933227539 -177.471206665039 2.198824644089
102.920745849609 -74.229553222656 -180.132019042969 3.100898027420
-36.706565856934 -69.619583129883 -181.713165283203 2.112490415573
-39.702159881592 -71.417030334473 -179.524017333984 3.542534589767
-26.368902206421 -77.602806091309 -187.188095092773 2.659792900085
-152.716110229492 -70.924194335938 -190.835128784180 2.139766454697
7.568980216980 -71.688728332520 -182.725509643555 6.114841938019
100.563148498535 -71.577178955078 -190.512893676758 2.028656482697
-164.413177490234 -70.092651367188 -193.729553222656 3.978787660599
-24.404148101807 -67.183517456055 -187.866485595703 1.490904688835
-119.145034790039 -73.491050720215 -198.809661865234 3.383415460587
-132.406585693359 -72.907569885254 -195.584472656250 0.630059003830
-110.024742126465 -72.384132385254 -200.935958862305 2.798825979233
-118.276710510254 -69.649223327637 -201.065979003906 3.811053276062
-14.623151779175 -73.434982299805 -195.923751831055 1.447426676750
16.369579315186 -69.895637512207 -195.152420043945 0.846572518349
-19.252164840698 -67.252128601074 -201.776657104492 1.492314338684
-131.718490600586 -70.840850830078 -207.254714965820 3.128545284271
-23.750286102295 -66.898345947266 -200.886520385742 2.869816780090
-131.332489013672 -68.404014587402 -203.955947875977 1.079781174660
-20.102186203003 -71.703269958496 -198.333312988281 2.568836212158
-150.562194824219 -69.087158203125 -202.718460083008 2.495063543320
88.484947204590 -67.594093322754 -204.367324829102 6.389539241791
-167.496688842773 -63.003582000732 -202.660339355469 3.647286653519
-5.092350959778 -73.279510498047 -219.881271362305 2.869845151901
8.955951690674 -74.296737670898 -209.638351440430 2.115288019180
6.985301017761 -76.113441467285 -216.595901489258 1.866276383400
79.114524841309 -73.187980651855 -214.467773437500 4.694736480713
6.272446155548 -73.669586181641 -212.738220214844 0.653102219105
8.160702705383 -71.063102722168 -214.409255981445 1.912699580193
-19.036470413208 -75.610916137695 -214.994003295898 1.971306920052
-93.611877441406 -72.433944702148 -213.314712524414 1.516009330750
-101.715576171875 -71.212356567383 -217.408584594727 2.992020130157
-0.762664020061 -71.245925903320 -217.530563354492 1.994991064072
-169.725906372070 -73.321319580078 -222.707824707031 3.556107282639
13.166396141052 -69.272598266602 -217.319152832031 2.113384723663
-147.876983642578 -69.916717529297 -221.332519531250 2.461241006851
10.614295005798 -72.999763488770 -224.205780029297 2.766651153564
-138.390457153320 -72.973518371582 -226.113769531250 2.203472137451
-118.392219543457 -72.236457824707 -229.301727294922 2.539361238480
14.230271339417 -71.615180969238 -219.442626953125 1.272644639015
76.440650939941 -73.148437500000 -217.923461914063 5.616994857788
3.130667924881 -73.025535583496 -223.074951171875 0.954203546047
-111.746826171875 -69.757743835449 -232.290924072266 0.937858104706
66.598236083984 -74.451988220215 -226.039932250977 5.716037750244
82.632934570313 -74.805976867676 -227.793045043945 2.371703624725
-129.250656127930 -70.530677795410 -237.935104370117 2.709743976593
-121.824920654297 -70.699325561523 -230.904006958008 1.278364777565
-12.243814468384 -67.265914916992 -225.620391845703 2.444721460342
69.106040954590 -73.657882690430 -231.546203613281 0.826095223427
61.640758514404 -73.517517089844 -230.881210327148 6.133970737457
69.153350830078 -72.381004333496 -226.984497070313 3.600161552429
-139.367996215820 -66.101272583008 -234.991729736328 2.979281425476
66.159980773926 -74.537506103516 -229.167465209961 4.116648674011
62.854854583740 -69.667358398438 -233.638748168945 3.194637298584
-168.864318847656 -68.046165466309 -233.075088500977 2.863324165344
-0.791774988174 -80.916381835938 -241.647842407227 4.425568580627
17.864973068237 -74.328224182129 -238.240234375000 2.362749099731
-8.891730308533 -68.543815612793 -241.163482666016 0.430485188961
14.290899276733 -65.288223266602 -238.579589843750 3.298058748245
64.346847534180 -74.113586425781 -236.331665039063 2.456413269043
4.710302829742 -69.554557800293 -244.160522460938 3.017750740051
-14.354522705078 -64.882789611816 -239.872787475586 2.288828372955
-4.649497985840 -68.115379333496 -234.997238159180 1.145220160484
62.045558929443 -73.482376098633 -240.744140625000 1.566853165627
-1.370347023010 -72.232650756836 -241.885452270508 0.527737915516
-8.823992729187 -73.110855102539 -242.691207885742 2.385945320129
11.838915824890 -76.121978759766 -241.152236938477 2.005523204803
-170.408859252930 -73.435417175293 -242.667709350586 4.441217899323
51.489273071289 -74.218605041504 -245.912353515625 2.186915397644
46.093639373779 -64.798591613770 -251.820129394531 1.984071135521
56.930023193359 -73.637214660645 -241.843383789063 1.199353694916
-14.956850051880 -69.301834106445 -247.585540771484 1.662221670151
54.276596069336 -72.017356872559 -243.678497314453 1.959040045738
-77.257514953613 -71.144622802734 -251.370590209961 1.560033798218
47.487926483154 -73.279342651367 -246.923995971680 2.788629293442
-90.176315307617 -70.482116699219 -253.518295288086 1.607937693596
-124.431938171387 -71.970344543457 -259.135650634766 2.862770557404
-134.618576049805 -71.141281127930 -253.373641967773 2.005660533905
44.679317474365 -75.016654968262 -250.286834716797 3.388390064240
-133.366638183594 -74.332481384277 -252.786178588867 2.416170120239
-111.054771423340 -67.949523925781 -254.853988647461 2.311547756195
-120.130218505859 -68.386108398438 -258.857788085938 3.232003927231
-87.082717895508 -71.624526977539 -254.964202880859 1.898957490921
-113.118064880371 -67.594734191895 -259.012084960938 1.717409372330
-126.813827514648 -75.283180236816 -263.714416503906 1.872503280640
-149.783142089844 -67.666351318359 -269.933807373047 3.059180498123
-17.738496780396 -70.025909423828 -267.482330322266 4.230573177338
-176.044479370117 -73.745536804199 -266.520111083984 8.129604339600
-17.326438903809 -70.810249328613 -274.629455566406 3.583654403687
-161.084289550781 -66.206893920898 -268.670593261719 2.958802938461
-155.206802368164 -71.694953918457 -273.748809814453 1.584797143936
-173.345092773438 -70.341842651367 -279.318481445313 6.129446029663
-17.577938079834 -72.883964538574 -281.653625488281 5.730631828308
-130.469711303711 -74.033752441406 -283.848754882813 0.903725564480
-159.308349609375 -70.366760253906 -287.798980712891 1.965845108032
-145.483932495117 -69.429862976074 -281.771148681641 1.541257619858
-137.327682495117 -73.729270935059 -279.138244628906 6.184279441833
-10.487089157104 -64.201438903809 -283.768585205078 4.518504619598
-128.572265625000 -74.712722778320 -283.899963378906 1.948471426964
-143.029037475586 -67.149444580078 -287.135711669922 1.148616194725
-117.693588256836 -75.631912231445 -286.434295654297 0.994010269642
-83.288787841797 -68.254241943359 -289.589965820313 1.974954128265
-62.037467956543 -73.254302978516 -287.115356445313 1.693651199341
-10.313478469849 -73.678031921387 -287.280181884766 1.499388456345
-56.971775054932 -70.068603515625 -283.762481689453 2.987684249878
-59.066844940186 -68.585586547852 -288.851776123047 1.399133443832
-73.606513977051 -69.380226135254 -290.670776367188 2.788351297379
-91.220863342285 -69.506370544434 -295.871307373047 4.317293167114
-95.517364501953 -69.074066162109 -288.516998291016 1.326656937599
-161.570968627930 -70.086029052734 -293.065734863281 1.800232052803
-162.502700805664 -71.432708740234 -296.153350830078 3.177268266678
-126.389793395996 -74.638290405273 -294.401062011719 1.930575489998
-146.622848510742 -70.397491455078 -295.661987304688 1.340267419815
-153.709457397461 -73.447616577148 -306.777954101563 3.057439327240
-154.495208740234 -74.402824401855 -312.911132812500 2.084803581238
42.899429321289 -69.634750366211 -11.797849655151 2.958608865738
9.632132530212 -73.176544189453 -30.806722640991 10.512665748596
37.267200469971 -66.119201660156 -34.178737640381 1.236897110939
-19.505743026733 -74.477775573730 -65.715194702148 0.514014601707
76.716651916504 -69.331481933594 -63.482875823975 1.636432766914
85.640121459961 -66.606536865234 -64.378273010254 1.999179005623
73.754882812500 -77.011405944824 -63.553390502930 7.721235275269
67.206550598145 -73.823844909668 -68.430610656738 6.217330932617
86.177696228027 -73.896492004395 -74.407814025879 1.089945197105
-102.391571044922 -66.003730773926 -70.972984313965 6.226095676422
61.338729858398 -71.907844543457 -73.782920837402 7.285036087036
-41.130336761475 -73.479751586914 -77.663421630859 2.253502845764
93.541793823242 -71.375602722168 -83.665710449219 4.705007553101
57.931716918945 -67.468132019043 -89.247863769531 2.635891437531
103.049331665039 -78.033210754395 -90.381797790527 5.707676410675
94.972305297852 -77.372802734375 -97.103111267090 2.333289384842
68.918121337891 -71.817733764648 -100.067245483398 2.840100765228
-86.335090637207 -67.110778808594 -103.380767822266 2.387271404266
50.006141662598 -70.476486206055 -104.681945800781 1.104198575020
103.801177978516 -67.887519836426 -104.950843811035 1.027503013611
41.595790863037 -71.137649536133 -112.959304809570 0.660607397556
75.148460388184 -70.163322448730 -104.796768188477 1.569856643677
36.934143066406 -70.802703857422 -107.067710876465 2.531537532806
98.123397827148 -71.672912597656 -101.354698181152 2.002093076706
42.931987762451 -71.078781127930 -106.805198669434 0.645023941994
101.471427917480 -79.115127563477 -107.351074218750 6.075051307678
106.271858215332 -76.563858032227 -108.079658508301 2.000348806381
-84.538131713867 -67.369796752930 -114.847946166992 1.122563958168
-87.673797607422 -67.536727905273 -121.090782165527 2.448797702789
39.297653198242 -75.020446777344 -118.604087829590 3.486511230469
109.253936767578 -73.975013732910 -121.090370178223 1.675592184067
108.974258422852 -72.064483642578 -121.596771240234 1.466502547264
-93.323043823242 -68.927040100098 -127.338539123535 4.196013927460
100.732421875000 -74.708229064941 -125.358528137207 7.799129009247
-64.014968872070 -76.294898986816 -132.203033447266 6.804644584656
-90.575210571289 -70.840225219727 -128.547073364258 2.619471073151
-75.168075561523 -71.243659973145 -127.102439880371 1.272578954697
-64.500762939453 -66.156021118164 -127.126358032227 1.644748449326
27.698637008667 -71.140518188477 -130.004501342773 1.817641377449
39.926460266113 -67.840377807617 -134.868606567383 3.177948474884
-75.770523071289 -69.975349426270 -136.653335571289 1.106866598129
24.501516342163 -68.039810180664 -129.057067871094 5.840512275696
108.623947143555 -71.827613830566 -142.939483642578 1.349352240562
-42.383018493652 -71.021858215332 -149.532012939453 2.509138345718
29.133689880371 -73.693992614746 -148.613800048828 2.729949951172
109.028617858887 -69.769805908203 -147.145996093750 3.887034177780
31.867622375488 -72.220146179199 -141.440734863281 2.058804273605
105.595947265625 -70.458290100098 -137.829132080078 2.922554969788
-55.831348419189 -70.118896484375 -149.869140625000 3.132603645325
-77.448844909668 -66.597236633301 -152.028701782227 5.882334232330
-61.538146972656 -70.984085083008 -151.285263061523 4.741693019867
-46.579654693604 -75.802917480469 -165.066238403320 0.785281598568
-0.483188986778 -73.661491394043 -155.186141967773 6.073047637939
104.784179687500 -72.638435363770 -151.179916381836 4.936315059662
104.455154418945 -71.657218933105 -158.966415405273 5.118827819824
6.931580066681 -70.888565063477 -156.202316284180 1.420551776886
-1.931923031807 -70.149475097656 -160.005111694336 4.883986949921
17.169055938721 -69.076751708984 -153.435195922852 2.180267333984
22.013967514038 -69.428276062012 -154.835250854492 1.872068643570
103.424560546875 -71.624900817871 -163.538467407227 4.989216327667
106.955192565918 -76.012084960938 -165.662124633789 2.283216714859
20.291847229004 -67.867630004883 -175.282852172852 1.622912764549
20.291259765625 -74.643035888672 -164.265167236328 1.414971828461
107.608528137207 -69.190238952637 -160.263626098633 4.219876289368
-33.605731964111 -69.085334777832 -178.759628295898 2.716929674149
106.687126159668 -72.476776123047 -165.523284912109 2.370904922485
13.941828727722 -71.438232421875 -164.349670410156 4.477723598480
17.503900527954 -71.173728942871 -168.356735229492 1.052112936974
104.169776916504 -72.454643249512 -170.681213378906 2.859516620636
23.603269577026 -70.056304931641 -169.161407470703 1.696478962898
110.016021728516 -70.326866149902 -183.096038818359 0.887072384357
-42.344497680664 -70.095085144043 -179.439834594727 5.548985958099
20.187099456787 -71.081977844238 -168.659774780273 1.721505641937
104.162330627441 -71.826530456543 -182.844116210938 1.730792522430
18.837358474731 -72.436004638672 -176.299392700195 1.990278959274
-154.959045410156 -67.600479125977 -187.441558837891 1.890617966652
-31.518306732178 -66.934738159180 -189.840682983398 3.502644538879
20.535383224487 -68.018699645996 -184.419723510742 1.239378333092
-118.992759704590 -72.329200744629 -193.203659057617 2.951697826385
-115.377830505371 -66.516883850098 -193.570938110352 1.411112070084
21.269603729248 -72.005249023438 -187.003768920898 1.998712301254
7.165834903717 -67.664436340332 -184.058044433594 8.033455848694
-30.610187530518 -66.626373291016 -190.361236572266 2.820152044296
-32.642948150635 -76.153945922852 -189.155578613281 0.481566399336
-32.528545379639 -71.291595458984 -188.073516845703 0.983247339725
9.292632102966 -68.066719055176 -179.459396362305 6.604120254517
-154.299362182617 -69.541015625000 -197.295257568359 1.381976008415
-149.865325927734 -68.909126281738 -193.578857421875 1.719988226891
-149.934951782227 -74.054862976074 -200.670898437500 2.574066877365
-27.194831848145 -69.521400451660 -191.263946533203 1.465579271317
10.931165695190 -67.698814392090 -199.070098876953 1.603897809982
94.884239196777 -70.177055358887 -190.881011962891 5.112638473511
-117.035659790039 -68.081260681152 -199.336471557617 3.693145990372
17.656330108643 -75.979476928711 -197.037750244141 1.720669507980
-17.315904617310 -69.236328125000 -194.533813476563 1.815456509590
-20.753993988037 -70.521553039551 -198.242904663086 1.857638955116
98.059165954590 -69.994071960449 -198.416961669922 1.489577889442
3.603612899780 -73.977149963379 -197.657226562500 6.054036617279
-25.681362152100 -68.666694641113 -196.530364990234 1.829113483429
-124.071777343750 -73.692817687988 -205.253158569336 2.216880083084
-137.896453857422 -70.261985778809 -204.357177734375 2.866609811783
-117.637641906738 -63.415370941162 -206.937850952148 4.070766925812
-145.681686401367 -73.757431030273 -204.420852661133 2.844103813171
13.307484626770 -70.646301269531 -197.199966430664 1.696540117264
89.203254699707 -73.848335266113 -198.346252441406 5.645958900452
-168.867919921875 -63.256755828857 -201.695449829102 3.880073547363
96.702087402344 -70.846847534180 -199.793090820313 2.403817892075
-26.716241836548 -76.222335815430 -205.108398437500 3.102469682693
91.373977661133 -67.967292785645 -207.669692993164 3.068214416504
84.875793457031 -74.152427673340 -208.019927978516 4.873350143433
7.226119041443 -73.801986694336 -202.740859985352 1.723058581352
17.425197601318 -69.783088684082 -212.178390502930 1.192968249321
10.033848762512 -66.839988708496 -207.667297363281 1.988220334053
-14.039956092834 -70.996894836426 -223.272125244141 1.470420598984
-97.053253173828 -73.439147949219 -220.354217529297 2.638745546341
-15.460506439209 -73.760139465332 -210.925109863281 2.369561433792
84.718902587891 -72.391220092773 -215.859130859375 2.842502117157
-97.617401123047 -73.427299499512 -217.217666625977 1.090428113937
-103.069549560547 -66.221351623535 -222.764923095703 2.139512538910
-99.315849304199 -69.587318420410 -219.747497558594 1.415306448936
85.954246520996 -74.534118652344 -220.899414062500 2.757360696793
-138.930282592773 -70.696426391602 -226.380065917969 2.324774742126
-134.375915527344 -76.547920227051 -228.800003051758 2.293428182602
-119.619789123535 -70.176834106445 -225.660736083984 2.009985208511
-116.508827209473 -66.725700378418 -222.469589233398 2.898756980896
-135.817947387695 -67.217185974121 -229.050827026367 2.609834432602
-116.358818054199 -79.221343994141 -229.090896606445 5.012556076050
-114.383354187012 -69.149154663086 -229.284484863281 1.947452306747
-10.230710029602 -75.757972717285 -223.525817871094 1.596972942352
-18.378347396851 -74.365943908691 -222.863433837891 0.680209755898
-3.852534055710 -67.870986938477 -229.396652221680 1.537056207657
-13.035153388977 -66.839492797852 -226.517807006836 2.060333251953
12.696965217590 -72.317886352539 -233.383956909180 1.878426194191
-23.301038742065 -68.313369750977 -229.236206054688 6.109766483307
-169.992218017578 -67.640983581543 -222.324844360352 3.627522945404
-8.337143898010 -71.757736206055 -233.413452148438 0.966480374336
78.068313598633 -67.489799499512 -230.757980346680 2.769583940506
8.937743186951 -73.664695739746 -232.645965576172 1.440758943558
-8.362916946411 -70.195869445801 -234.972244262695 1.522124409676
-160.045211791992 -66.894073486328 -237.349853515625 1.998246192932
-146.287765502930 -67.701301574707 -229.877670288086 1.645080327988
58.123428344727 -70.315719604492 -235.355072021484 3.412240743637
-8.587957382202 -71.949905395508 -232.813644409180 1.433426499367
7.930092811584 -73.883193969727 -228.620086669922 1.103703975677
66.444389343262 -75.131057739258 -226.158676147461 6.007076263428
73.893203735352 -71.483703613281 -233.206466674805 1.829979300499
68.742965698242 -73.202209472656 -241.041915893555 1.207907199860
-4.919521808624 -75.184959411621 -234.312011718750 2.137399911880
55.626876831055 -68.930397033691 -235.568649291992 5.105262279510
-22.254646301270 -74.595199584961 -239.922790527344 2.416778087616
-17.267143249512 -67.200088500977 -239.515441894531 3.223196506500
4.893324851990 -70.932586669922 -237.942779541016 2.690452337265
61.031253814697 -76.246429443359 -235.439605712891 4.961606025696
64.518501281738 -69.478981018066 -240.137878417969 2.058218240738
45.873970031738 -72.099815368652 -244.644973754883 4.358191013336
58.051052093506 -75.943794250488 -241.356338500977 1.546119213104
-18.148712158203 -77.694938659668 -248.679626464844 6.123765945435
-86.556053161621 -66.425804138184 -257.086334228516 3.574473857880
-79.637161254883 -67.716140747070 -254.091644287109 1.870991826057
41.192302703857 -75.439178466797 -245.958663940430 5.724254608154
-154.557189941406 -71.802658081055 -251.198440551758 2.721142530441
32.632926940918 -71.018661499023 -256.093170166016 1.151225566864
-95.143089294434 -75.861656188965 -252.498428344727 2.526425838470
-159.861679077148 -64.416656494141 -255.463546752930 4.515996932983
-142.532394409180 -60.463260650635 -253.325744628906 3.608849048615
40.642539978027 -70.781463623047 -253.040939331055 1.110985279083
-128.172195434570 -65.437698364258 -259.518798828125 1.564978241920
-120.402824401855 -71.331970214844 -255.556579589844 2.269740819931
-94.318634033203 -65.014259338379 -257.268890380859 1.918858289719
-15.859819412231 -65.919784545898 -247.681411743164 3.311271905899
29.398477554321 -70.825096130371 -255.437622070313 1.597325086594
22.352935791016 -67.768959045410 -258.150085449219 2.011098861694
-162.681030273438 -63.036674499512 -262.381256103516 5.466434955597
-117.223297119141 -73.261024475098 -263.544250488281 2.229141712189
-16.117761611938 -70.860450744629 -261.794158935547 1.946523666382
-134.548828125000 -69.421936035156 -266.835876464844 3.186120748520
-17.064201354980 -69.489379882813 -269.907257080078 3.289462327957
-166.194137573242 -68.955818176270 -272.712921142578 2.151827096939
-8.546241760254 -72.148033142090 -277.969940185547 2.036182880402
-162.382431030273 -70.677864074707 -288.970123291016 2.011382579803
-167.321746826172 -73.231956481934 -279.542327880859 1.713508725166
-144.695510864258 -70.486488342285 -286.216094970703 2.371381044388
-174.071228027344 -72.485488891602 -285.997161865234 5.587875843048
12.072150230408 -74.814079284668 -288.016967773438 2.239915847778
-105.524658203125 -71.699874877930 -287.072174072266 1.872737646103
-89.995269775391 -64.008735656738 -285.984100341797 6.123142242432
-171.012359619141 -65.808654785156 -285.526153564453 5.163611888885
-95.228805541992 -77.084312438965 -282.344970703125 5.933954238892
-158.097106933594 -70.733581542969 -290.325836181641 1.894771099091
-79.344581604004 -72.432968139648 -297.027923583984 6.565254688263
-74.450782775879 -69.618728637695 -289.074371337891 1.685059785843
-85.676071166992 -72.494712829590 -292.308715820313 0.790251791477
-5.854692935944 -68.946594238281 -287.556732177734 0.927787899971
-92.577751159668 -70.270202636719 -287.785797119141 1.997908473015
-101.601264953613 -72.742439270020 -291.037475585938 1.193686008453
-120.792121887207 -70.347648620605 -293.734863281250 3.354502916336
-119.007537841797 -66.011497497559 -293.814971923828 3.405669450760
-136.534027099609 -70.346000671387 -292.300811767578 1.186572909355
-144.601867675781 -69.543182373047 -301.810760498047 0.602945268154
-146.668334960938 -71.434066772461 -313.187194824219 0.726957321167
18.671304702759 -66.454734802246 -13.525891304016 6.217152595520
27.741956710815 -69.265098571777 -14.813633918762 2.412734985352
24.278463363647 -72.719032287598 -16.904443740845 0.864662468433
39.337173461914 -66.588088989258 -18.438302993774 1.635814666748
18.602918624878 -69.325683593750 -30.777629852295 2.155940532684
-79.824256896973 -67.614952087402 -46.835830688477 3.224905490875
84.784927368164 -65.021080017090 -64.738670349121 2.397397518158
-23.858253479004 -66.013458251953 -66.554512023926 1.934732198715
99.407333374023 -70.346496582031 -71.665443420410 1.583061695099
89.131782531738 -75.369949340820 -73.839653015137 1.244140386581
63.614349365234 -71.507255554199 -77.387374877930 4.043420314789
67.271423339844 -75.073226928711 -80.563308715820 4.272363185883
-49.011409759521 -73.344322204590 -81.790359497070 3.576143741608
56.056850433350 -75.885879516602 -79.848564147949 7.487649440765
-98.050834655762 -69.371406555176 -89.390991210938 2.389894008636
-52.271205902100 -66.597190856934 -84.345489501953 1.567546606064
-60.946254730225 -76.312942504883 -85.233657836914 8.379016876221
97.941207885742 -78.236625671387 -96.560485839844 4.399549961090
55.512008666992 -74.318557739258 -89.217422485352 2.569786548615
62.753311157227 -69.775276184082 -89.349067687988 1.175308108330
-98.985908508301 -61.798511505127 -97.697319030762 1.489253163338
103.557968139648 -73.089088439941 -89.268547058105 3.802349090576
38.265300750732 -68.580314636230 -98.019577026367 5.731219768524
97.830299377441 -70.497230529785 -96.367187500000 1.827648758888
102.966850280762 -67.807937622070 -104.416618347168 1.669183492661
95.944976806641 -71.313194274902 -101.789108276367 1.214216709137
69.822105407715 -74.417816162109 -97.593788146973 1.355411410332
82.710517883301 -73.383125305176 -106.020698547363 3.150269746780
46.188674926758 -69.094764709473 -109.836257934570 0.420950859785
106.328399658203 -66.831047058105 -100.354148864746 0.707472383976
43.156078338623 -74.772827148438 -103.087280273438 1.547620058060
34.425617218018 -68.494186401367 -100.813667297363 7.406812191010
109.186836242676 -71.965629577637 -108.403625488281 2.159338712692
-82.406494140625 -64.838195800781 -109.135887145996 2.008559703827
41.495357513428 -69.023948669434 -111.486763000488 0.856607973576
29.201206207275 -73.504272460938 -114.808929443359 4.187577724457
101.801376342773 -68.141952514648 -108.586509704590 3.059980392456
33.497230529785 -67.178855895996 -110.392822265625 5.179193019867
-91.435531616211 -68.686248779297 -111.572494506836 4.391100406647
-99.263969421387 -64.480812072754 -114.740951538086 1.532267808914
98.165061950684 -76.424240112305 -117.864219665527 8.591159820557
-98.949699401855 -69.655693054199 -119.155708312988 3.370740652084
35.355831146240 -74.151100158691 -119.695892333984 1.387305021286
32.583610534668 -70.496604919434 -121.233367919922 1.324101924896
-88.825492858887 -68.834724426270 -124.093132019043 3.008119344711
29.354501724243 -68.166885375977 -132.914169311523 2.659719944000
108.142280578613 -72.625373840332 -129.244812011719 2.077897071838
-56.986835479736 -69.229515075684 -138.035125732422 1.735106706619
-91.809684753418 -67.138526916504 -133.220306396484 1.361836194992
34.305568695068 -75.207374572754 -129.274246215820 2.983042240143
-90.849632263184 -63.514858245850 -136.734939575195 1.425853729248
-92.006866455078 -72.282691955566 -140.919677734375 4.915490627289
-53.969829559326 -69.762641906738 -136.099243164063 3.260810136795
-74.836181640625 -66.322982788086 -138.986312866211 0.527692377567
-54.573844909668 -68.524620056152 -132.354385375977 2.528284549713
113.203277587891 -67.685852050781 -134.629470825195 1.793960213661
-75.916770935059 -71.335983276367 -134.825546264648 1.198140144348
33.518077850342 -71.469306945801 -129.412475585938 1.134978413582
-82.307197570801 -66.842491149902 -141.109390258789 4.500138759613
-76.271148681641 -69.217170715332 -135.374969482422 0.635211229324
-97.403472900391 -66.323600769043 -142.162155151367 2.092229127884
-58.747585296631 -65.445755004883 -145.609878540039 1.581527709961
27.854692459106 -64.839050292969 -144.850906372070 2.916471242905
23.674365997314 -68.524543762207 -147.943008422852 2.095336914063
16.472906112671 -63.662193298340 -143.479522705078 1.634786605835
108.793586730957 -70.432350158691 -144.102478027344 1.798932313919
-95.055404663086 -66.888641357422 -151.963806152344 1.429263830185
7.578217029572 -71.619781494141 -151.454483032227 2.171738862991
-75.287284851074 -68.321601867676 -154.787582397461 4.135066986084
20.059095382690 -68.424667358398 -148.159576416016 2.390607595444
-52.933441162109 -67.835845947266 -155.195739746094 3.493082761765
6.208032131195 -68.308151245117 -152.947418212891 3.325552225113
13.014875411987 -73.358848571777 -158.062393188477 1.018473505974
13.567627906799 -75.931121826172 -162.857376098633 4.680008888245
-54.176113128662 -72.019615173340 -163.187438964844 5.613566398621
-42.209373474121 -67.682472229004 -155.050201416016 1.619644761086
-50.845237731934 -70.371658325195 -161.870758056641 3.868287324905
-106.690368652344 -69.647346496582 -173.314041137695 1.464552879333
18.452192306519 -71.990776062012 -173.795776367188 1.299505949020
-37.173282623291 -69.602897644043 -177.484268188477 1.783318519592
12.114174842834 -75.415618896484 -177.377227783203 4.560307502747
-145.913162231445 -67.560592651367 -177.042907714844 0.843281149864
-34.981433868408 -65.421783447266 -172.164428710938 3.707987308502
-159.603775024414 -75.235816955566 -179.314575195313 8.320403099060
21.360342025757 -63.826660156250 -180.673324584961 3.334424734116
-37.412158966064 -71.390274047852 -170.151260375977 2.740197896957
-110.268928527832 -65.809982299805 -176.645889282227 0.608988821507
-110.279968261719 -74.870620727539 -184.718109130859 5.389567375183
-33.730781555176 -63.284126281738 -185.403656005859 6.936141967773
-27.532423019409 -75.165809631348 -181.153503417969 2.317830801010
9.442858695984 -68.751327514648 -188.208068847656 4.603823184967
13.056865692139 -66.507736206055 -197.803604125977 2.183451414108
10.074071884155 -70.527091979980 -186.526641845703 3.971437215805
-145.800827026367 -66.045242309570 -187.910919189453 1.087285161018
20.614030838013 -65.232162475586 -188.797821044922 3.053005218506
2.843843936920 -69.115455627441 -196.011734008789 5.984337329865
-138.429199218750 -66.268150329590 -194.456420898438 3.873055219650
-116.056686401367 -67.912178039551 -195.976898193359 1.503978490829
11.932700157166 -67.689956665039 -202.602035522461 2.496710062027
-121.418426513672 -66.549003601074 -197.627456665039 1.455458283424
-110.725524902344 -61.339221954346 -193.094757080078 3.789868831635
-169.656295776367 -69.567382812500 -202.821731567383 2.992797851563
-27.453920364380 -67.702301025391 -199.541137695313 2.358240842819
7.983321189880 -67.753494262695 -198.941314697266 1.244421482086
-147.790618896484 -68.928382873535 -205.246093750000 2.407915353775
-140.518066406250 -71.850250244141 -208.141494750977 4.435404300690
-24.538423538208 -67.170616149902 -207.444564819336 4.285296440125
-15.397785186768 -70.637901306152 -204.761138916016 1.625579714775
-16.949731826782 -71.023406982422 -205.367385864258 1.511209726334
-142.059112548828 -73.298225402832 -203.976074218750 2.047370195389
-20.184356689453 -69.392402648926 -212.440963745117 2.967992067337
-12.241200447083 -75.610435485840 -213.985137939453 2.700659751892
15.077653884888 -66.277870178223 -210.361740112305 1.963390469551
-19.795774459839 -75.076957702637 -211.289413452148 1.836149334908
7.325441837311 -71.113677978516 -208.430053710938 0.914444088936
-13.981977462769 -71.327690124512 -214.708251953125 1.544828891754
-26.017242431641 -65.532356262207 -211.303985595703 7.086074352264
8.886997222900 -76.920326232910 -219.924224853516 1.129527449608
-5.297469139099 -76.450218200684 -218.582733154297 0.740577638149
8.337985992432 -65.142776489258 -219.767013549805 4.464318752289
-9.272927284241 -73.124900817871 -227.607543945313 2.321613311768
-163.042938232422 -69.651039123535 -227.923812866211 3.476128816605
77.658607482910 -74.025054931641 -218.011566162109 4.949357509613
-138.471710205078 -65.736351013184 -225.006240844727 3.238714933395
-138.127578735352 -71.251510620117 -223.018920898438 3.384525299072
-10.863355636597 -70.756767272949 -224.585845947266 1.495893001556
4.180228233337 -69.521003723145 -234.476638793945 1.396574974060
-160.842132568359 -68.086677551270 -232.498916625977 3.793556690216
86.490615844727 -68.857955932617 -218.329895019531 1.516947746277
-4.412425041199 -68.240432739258 -225.776260375977 1.737288117409
-2.136619091034 -70.548759460449 -220.878936767578 0.499658644199
71.186874389648 -74.408386230469 -229.217864990234 1.567177534103
-2.361905097961 -66.690292358398 -235.543945312500 1.491830825806
-16.712804794312 -71.495933532715 -224.730026245117 2.446495532990
-130.093261718750 -65.162956237793 -234.910217285156 2.619302749634
-7.832674026489 -69.476448059082 -237.298828125000 1.141096472740
-0.183149993420 -67.126708984375 -229.800781250000 1.245450973511
63.491775512695 -67.452461242676 -236.634704589844 1.534858942032
-160.781417846680 -70.933876037598 -238.843490600586 2.919968605042
-15.797450065613 -68.050514221191 -245.004455566406 3.267667293549
-172.833877563477 -71.613151550293 -240.674057006836 5.389697074890
7.888079166412 -65.095726013184 -240.777786254883 1.361239790916
-166.375625610352 -70.131584167480 -240.365615844727 1.543142318726
-162.731094360352 -70.684593200684 -248.503387451172 2.027719736099
55.341747283936 -71.152709960938 -243.566329956055 1.978068232536
58.500644683838 -73.020919799805 -240.794235229492 1.679294586182
52.984905242920 -71.645042419434 -244.293975830078 2.124736309052
48.882606506348 -70.547256469727 -248.056701660156 1.584139943123
-156.026733398438 -70.180557250977 -244.519882202148 1.069152832031
-158.837799072266 -64.506202697754 -248.432144165039 3.349330663681
-15.276358604431 -74.763694763184 -248.982986450195 3.113303184509
-153.403350830078 -67.816383361816 -248.766708374023 1.911033034325
15.728113174438 -70.794013977051 -250.234573364258 3.479395151138
-173.649566650391 -75.091712951660 -253.078002929688 7.282106876373
-171.314651489258 -66.390815734863 -251.768325805664 5.605669975281
-84.807647705078 -71.586708068848 -247.933883666992 1.773506164551
-173.009185791016 -67.407722473145 -259.972686767578 5.521295547485
-87.662193298340 -68.919029235840 -258.551879882813 2.148052692413
40.362625122070 -69.246154785156 -252.441543579102 0.520186781883
19.259035110474 -73.904518127441 -256.201171875000 3.306082725525
-160.518646240234 -69.995895385742 -264.649658203125 1.519869089127
-103.585876464844 -61.378219604492 -260.815124511719 3.989436626434
37.232814788818 -70.152778625488 -253.759185791016 1.341073870659
-109.360839843750 -78.079437255859 -259.235290527344 4.511693477631
-156.002532958984 -64.701705932617 -267.381378173828 4.008837699890
-106.621681213379 -68.074218750000 -257.840759277344 1.964121103287
-171.696624755859 -71.755256652832 -261.182617187500 3.987936735153
-115.645782470703 -69.991218566895 -264.874816894531 2.494668245316
-156.037490844727 -71.325653076172 -267.760009765625 2.832608222961
-161.767623901367 -65.520095825195 -264.503540039063 3.212218761444
-168.192779541016 -67.543174743652 -265.546325683594 2.944294691086
-167.659255981445 -66.550399780273 -264.001953125000 2.438717603683
-168.245330810547 -68.637969970703 -266.356903076172 2.702340126038
-170.817428588867 -69.460464477539 -262.029022216797 2.819338321686
24.111808776855 -71.801567077637 -264.668609619141 0.743831932545
-150.837341308594 -73.914688110352 -264.239288330078 0.627293705940
-153.542999267578 -68.622200012207 -286.644775390625 1.918184280396
25.244430541992 -70.463569641113 -274.803436279297 4.014225959778
-14.657667160034 -73.075973510742 -274.228088378906 3.209463596344
-127.531227111816 -66.364944458008 -285.965881347656 1.457663774490
-138.632293701172 -69.278320312500 -287.775787353516 2.406769990921
-135.875747680664 -68.222274780273 -290.688323974609 1.651374101639
-130.204315185547 -69.286804199219 -287.076293945313 2.724064826965
-115.265449523926 -67.669609069824 -292.739013671875 1.865447402000
-106.434471130371 -64.424339294434 -285.196929931641 4.460577011108
5.796339035034 -74.344810485840 -294.000244140625 2.011013746262
-86.586921691895 -70.702728271484 -291.300537109375 2.294839859009
-150.995864868164 -69.460235595703 -288.266906738281 1.472834110260
-104.514450073242 -70.170921325684 -291.923309326172 2.468609571457
-134.198638916016 -66.175170898438 -293.728546142578 3.653258323669
7.765872955322 -72.713592529297 -286.910034179688 2.526116609573
-113.243370056152 -61.653675079346 -288.466400146484 5.485015869141
2.068773984909 -70.643653869629 -293.260833740234 1.741740465164
-145.446716308594 -68.477027893066 -288.350952148438 2.303967714310
-154.580047607422 -68.982528686523 -296.823059082031 1.634759783745
-161.124496459961 -67.590850830078 -318.031555175781 8.587635040283
-157.776031494141 -66.725280761719 -312.822113037109 3.757200479507
41.491954803467 -72.617973327637 -23.677553176880 3.150941133499
19.668485641479 -68.754516601563 -36.008228302002 4.020330905914
24.167419433594 -70.256744384766 -35.513053894043 0.473826617002
-47.503131866455 -71.636154174805 -47.165458679199 2.649229526520
-15.790843963623 -66.135055541992 -62.496101379395 2.243833303452
90.170295715332 -70.742210388184 -66.176910400391 2.219125270844
63.763912200928 -63.660911560059 -67.489501953125 3.097376346588
-29.772552490234 -67.707687377930 -73.971557617188 0.644678831100
-104.526000976563 -72.725502014160 -88.750183105469 9.169534683228
-47.215229034424 -68.162376403809 -84.938987731934 1.622172355652
54.165912628174 -69.155227661133 -79.028228759766 6.922816276550
59.937870025635 -73.148963928223 -83.495376586914 3.403993368149
47.386856079102 -66.562728881836 -86.476402282715 4.946310043335
-63.788578033447 -67.299224853516 -90.912788391113 1.339574575424
62.998897552490 -64.430480957031 -87.801712036133 2.012122869492
38.574432373047 -73.833572387695 -97.357582092285 6.267304897308
64.747779846191 -72.443061828613 -93.560722351074 3.567918062210
-65.027885437012 -66.320381164551 -96.713882446289 1.497213840485
46.691024780273 -71.601295471191 -90.646286010742 2.545940876007
42.229980468750 -72.280822753906 -96.953323364258 2.858540534973
98.982505798340 -66.034500122070 -100.461692810059 2.486223220825
-69.621604919434 -68.161132812500 -98.580467224121 2.120157957077
107.163917541504 -69.430839538574 -97.846717834473 1.539720296860
-83.373802185059 -71.777183532715 -101.992889404297 3.860150337219
49.523857116699 -72.698249816895 -105.221023559570 1.228136181831
43.855518341064 -67.624816894531 -100.018981933594 0.827547907829
86.784164428711 -65.823936462402 -102.493316650391 4.574409961700
79.144676208496 -69.886177062988 -104.473518371582 1.691217660904
52.056945800781 -70.496467590332 -103.720146179199 2.539543151855
-81.145492553711 -69.024665832520 -112.546188354492 2.578073978424
-82.321189880371 -67.621627807617 -117.142356872559 2.586254596710
-85.206497192383 -69.280609130859 -118.280975341797 0.766923606396
-98.128372192383 -74.467338562012 -118.174163818359 5.428524494171
99.100944519043 -63.051311492920 -115.601387023926 7.818028926849
-94.419784545898 -71.512153625488 -118.961807250977 0.977558851242
-79.456779479980 -63.183559417725 -121.989562988281 2.288804531097
104.877326965332 -69.040649414063 -114.731101989746 1.214220285416
-64.129058837891 -58.904354095459 -117.476692199707 3.678585529327
109.337059020996 -75.375068664551 -129.567489624023 1.349721312523
105.917030334473 -72.445907592773 -127.748413085938 3.159993648529
101.482261657715 -72.273994445801 -125.694755554199 6.499063491821
-97.694511413574 -68.857688903809 -137.507431030273 4.757621288300
-49.587196350098 -68.617279052734 -141.842803955078 0.922339916229
-84.809844970703 -64.873474121094 -144.015335083008 5.024689197540
-73.129913330078 -68.186103820801 -148.673553466797 1.253003358841
-72.639884948730 -67.102973937988 -149.593551635742 1.836323499680
-58.867309570313 -67.807807922363 -143.843673706055 0.949033498764
-49.926162719727 -74.097732543945 -144.357238769531 2.988060235977
10.104426383972 -69.386886596680 -146.549072265625 3.442157268524
-97.649276733398 -63.349227905273 -141.876937866211 2.989526748657
-50.158721923828 -66.662818908691 -146.385879516602 2.142719268799
-54.927066802979 -59.606140136719 -146.794891357422 7.420542716980
-46.151599884033 -66.030395507813 -154.142028808594 2.723089218140
23.230499267578 -72.430839538574 -159.659454345703 0.812997400761
-54.669715881348 -69.964820861816 -151.595687866211 2.265744924545
-105.903587341309 -61.861156463623 -149.054824829102 7.061509609222
-50.979698181152 -64.504119873047 -155.072631835938 5.493435382843
21.418382644653 -72.806137084961 -145.093963623047 2.809271812439
-99.947593688965 -75.663711547852 -164.186004638672 6.937767505646
19.277059555054 -72.437934875488 -157.077407836914 1.852265954018
-111.690895080566 -63.816341400146 -169.503906250000 4.628574848175
-105.206054687500 -68.606513977051 -164.577194213867 1.972461342812
18.419939041138 -69.685768127441 -165.291198730469 2.299928903580
22.930713653564 -67.336380004883 -166.510177612305 1.233143091202
-114.092224121094 -71.255813598633 -173.838470458984 5.536369800568
-145.929672241211 -64.206489562988 -174.531341552734 1.348161935806
-21.690296173096 -69.656494140625 -190.144271850586 1.452544927597
-31.039312362671 -67.864517211914 -180.184143066406 2.262265682220
-120.267967224121 -69.991111755371 -187.538436889648 7.069604873657
-147.031051635742 -62.847949981689 -187.201416015625 1.541305422783
-105.101737976074 -64.276473999023 -181.832595825195 1.163545489311
-162.847152709961 -67.823616027832 -190.204116821289 5.945892333984
-134.387664794922 -73.612251281738 -196.392379760742 1.552064538002
-136.199996948242 -70.820526123047 -197.280410766602 2.517980575562
-22.696872711182 -66.988021850586 -187.114990234375 2.324026584625
-122.197242736816 -68.883430480957 -199.972564697266 2.026302814484
-121.620948791504 -63.399017333984 -201.038848876953 1.586625456810
-31.791574478149 -72.140098571777 -192.691650390625 2.895353794098
-157.532104492188 -64.498329162598 -196.940536499023 0.822663903236
-135.814712524414 -69.345954895020 -205.944717407227 3.149993658066
-128.040969848633 -64.883323669434 -204.673751831055 0.792882442474
15.364234924316 -73.070121765137 -200.879241943359 2.375522613525
-165.650390625000 -67.950439453125 -203.288589477539 1.417978167534
10.028914451599 -67.386650085449 -215.930877685547 0.753045797348
11.363349914551 -71.305656433105 -214.508789062500 0.888220667839
-18.542549133301 -64.222534179688 -209.840591430664 4.366170406342
-7.913424015045 -69.238548278809 -216.172348022461 0.900595545769
-175.194427490234 -63.911155700684 -212.324645996094 10.329851150513
-162.300079345703 -62.527542114258 -213.667129516602 4.066180706024
-97.813354492188 -67.590370178223 -219.491897583008 1.315346598625
-99.817077636719 -70.822631835938 -222.050964355469 2.063209056854
-163.793273925781 -69.117057800293 -228.006927490234 2.978856563568
-111.644638061523 -65.174926757813 -219.659713745117 4.813648223877
-14.733830451965 -67.042442321777 -211.414520263672 1.553028345108
-131.157394409180 -70.206321716309 -222.246459960938 3.216967105865
-145.948150634766 -68.184249877930 -224.179840087891 2.159163713455
-6.109126091003 -71.974777221680 -220.678329467773 3.728005886078
-137.085388183594 -65.586273193359 -225.173522949219 2.794431209564
-126.603034973145 -73.374870300293 -222.950637817383 2.616007804871
-117.227203369141 -71.693649291992 -224.550369262695 0.649269282818
-4.192740917206 -62.079742431641 -228.561599731445 5.344478130341
-110.371246337891 -65.513137817383 -232.487487792969 2.959746837616
