6.739275932312 -70.124717712402 -250.442321777344 6.582838058472
50.319095611572 -67.909904479980 -251.074920654297 1.544687986374
4.353082180023 -67.646263122559 -247.070419311523 3.797951936722
-4.299156188965 -71.246574401855 -249.626632690430 4.224526405334
-15.559439659119 -67.948516845703 -246.874176025391 2.057966709137
-30.881053924561 -69.662055969238 -249.014892578125 8.969611167908
-11.356668472290 -71.467689514160 -248.516784667969 0.695461452007
-4.585324764252 -74.510787963867 -254.587371826172 5.199208736420
48.331390380859 -71.438262939453 -253.483886718750 1.864490628242
-63.708736419678 -78.049781799316 -248.671478271484 1.722205042839
10.720908164978 -69.157371520996 -257.500396728516 9.636795043945
-66.988891601563 -73.628776550293 -243.643493652344 2.971464872360
-20.065490722656 -71.594505310059 -255.225448608398 5.026089668274
-76.499656677246 -68.027496337891 -252.996292114258 2.674987077713
-95.583038330078 -69.695129394531 -255.058059692383 2.403900623322
-92.033866882324 -74.584510803223 -255.245758056641 1.174987912178
-18.467096328735 -69.943626403809 -263.576080322266 4.123049736023
-133.696395874023 -73.651939392090 -259.517730712891 1.303188204765
-23.762449264526 -71.919601440430 -258.445129394531 9.244458198547
-126.629501342773 -73.468490600586 -253.466033935547 2.038901090622
-127.763504028320 -71.519149780273 -257.413574218750 4.249736785889
-113.537956237793 -73.212997436523 -254.572753906250 3.501560926437
-153.362838745117 -72.510101318359 -256.926666259766 2.281794071198
-155.310241699219 -73.372512817383 -264.665100097656 1.813375115395
-179.305282592773 -74.756256103516 -257.758697509766 12.530901908875
9.016724586487 -73.384498596191 -290.265075683594 1.157186150551
-72.581771850586 -67.963851928711 -287.995361328125 2.628499269485
-80.281448364258 -69.803077697754 -284.694335937500 3.448261499405
-54.348762512207 -72.450195312500 -287.152160644531 1.417498350143
-39.518863677979 -70.405860900879 -292.957611083984 2.418317317963
-108.386817932129 -74.453430175781 -291.060241699219 0.682016849518
-44.153518676758 -67.505897521973 -289.878265380859 4.606528759003
-16.240226745605 -68.741943359375 -293.062408447266 3.101937770844
-179.667922973633 -73.628952026367 -284.336608886719 10.697409629822
-30.904581069946 -72.458961486816 -291.790802001953 1.743426084518
-7.271427154541 -70.244018554688 -296.100036621094 5.627619266510
1.917554974556 -75.058021545410 -289.669342041016 2.226535797119
-69.369377136230 -74.412185668945 -289.133270263672 1.413090467453
-48.065574645996 -71.043937683105 -297.048095703125 7.218383312225
0.956010997295 -65.960411071777 -302.543487548828 9.518477439880
-84.744316101074 -68.367622375488 -295.970153808594 5.339196681976
-55.009609222412 -66.407272338867 -292.348022460938 2.946192026138
-31.015869140625 -66.899452209473 -295.625579833984 6.847470283508
1.253682017326 -71.398117065430 -300.567565917969 7.804957389832
-25.460161209106 -71.623344421387 -302.509124755859 11.507980346680
-8.970714569092 -67.384529113770 -302.856964111328 12.151090621948
1.591899037361 -71.888076782227 -297.876586914063 5.492877006531
-147.828125000000 -71.254737854004 -291.330993652344 2.189954042435
-158.208358764648 -75.118606567383 -294.441772460938 2.695814847946
-167.681152343750 -71.389312744141 -309.005249023438 11.042593955994
53.974308013916 -79.831932067871 -26.477630615234 9.343458175659
39.381813049316 -80.956268310547 -22.864187240601 9.511566162109
49.385696411133 -80.911506652832 -27.015150070190 9.035728454590
31.823877334595 -76.202896118164 -28.465721130371 6.037399768829
54.113849639893 -76.966529846191 -35.444896697998 7.046848773956
34.632759094238 -77.298805236816 -35.677448272705 4.491660594940
31.998916625977 -80.631256103516 -37.252677917480 7.937775611877
33.758945465088 -80.677558898926 -51.561973571777 13.241597175598
45.604576110840 -83.457412719727 -42.818058013916 11.967625617981
33.624561309814 -85.118904113770 -48.457675933838 15.082037925720
51.041137695313 -77.390213012695 -51.610580444336 15.712935447693
39.356258392334 -80.199531555176 -52.269611358643 12.628157615662
48.112045288086 -81.650985717773 -47.448520660400 13.403015136719
37.969852447510 -77.995086669922 -51.138294219971 10.357902526855
52.117755889893 -79.226264953613 -54.299152374268 18.893497467041
40.041610717773 -78.843292236328 -48.898727416992 9.359213829041
-35.348342895508 -80.043815612793 -52.784549713135 6.973848342896
-22.955095291138 -74.787254333496 -56.223377227783 3.539350509644
-83.631080627441 -82.239120483398 -55.165470123291 10.466249465942
-84.458648681641 -82.212928771973 -67.608558654785 6.762214183807
82.337165832520 -80.310432434082 -79.420913696289 2.792855024338
88.835624694824 -75.235916137695 -87.921882629395 2.551114797592
-16.192939758301 -76.891883850098 -81.681213378906 9.245020866394
-82.978950500488 -79.629417419434 -73.622131347656 2.542658090591
-20.561630249023 -77.728080749512 -83.186752319336 7.798989295959
-45.515285491943 -80.938430786133 -89.313194274902 3.354194402695
69.330253601074 -72.439071655273 -99.917449951172 2.957962989807
54.922752380371 -74.579635620117 -106.313430786133 2.815300464630
102.314308166504 -72.585174560547 -107.741149902344 1.191499471664
71.618545532227 -78.254417419434 -110.922187805176 11.239872932434
-66.218605041504 -80.120147705078 -92.217430114746 3.455333948135
-57.189994812012 -75.192474365234 -102.232902526855 8.711004257202
47.203441619873 -75.896499633789 -109.414710998535 1.159518241882
79.794479370117 -73.079917907715 -112.590194702148 8.793433189392
57.299259185791 -84.978355407715 -118.510467529297 12.541073799133
104.313484191895 -74.392562866211 -111.984657287598 2.467797994614
-92.379684448242 -82.387992858887 -108.468849182129 5.124619007111
42.988784790039 -75.190361022949 -121.157745361328 1.782949090004
108.922805786133 -75.347282409668 -126.453521728516 0.895262539387
50.683971405029 -75.511405944824 -123.727226257324 6.159386634827
101.911666870117 -75.678077697754 -127.251304626465 7.591881275177
-83.338996887207 -77.881835937500 -118.646453857422 5.704242706299
37.052204132080 -79.681854248047 -124.073959350586 1.219441294670
108.100379943848 -71.478958129883 -133.421508789063 2.157900333405
105.539695739746 -70.288360595703 -132.622070312500 3.587441444397
105.031791687012 -74.235618591309 -131.702804565430 4.830173015594
112.123481750488 -71.892700195313 -130.992523193359 1.772327184677
42.898960113525 -79.044914245605 -120.013175964355 1.616330742836
33.439140319824 -70.963478088379 -126.365303039551 2.832077503204
40.708526611328 -75.067787170410 -123.936607360840 1.179617643356
105.777389526367 -75.513198852539 -137.665054321289 3.672598838806
41.690662384033 -72.764274597168 -132.971221923828 1.106437683105
109.239410400391 -71.230636596680 -149.416366577148 2.685585975647
109.656188964844 -71.050857543945 -147.935165405273 3.588775157928
34.466739654541 -72.180046081543 -129.400634765625 1.866630196571
-77.492614746094 -78.733558654785 -125.204765319824 8.622758865356
111.901237487793 -68.589103698730 -150.543457031250 3.038846492767
-53.542926788330 -76.878578186035 -141.992706298828 1.670600652695
34.544082641602 -75.538467407227 -145.081542968750 2.941340446472
-73.546661376953 -77.828453063965 -136.036392211914 3.822879552841
25.714420318604 -78.539176940918 -140.330764770508 1.761263489723
-81.572387695313 -78.198944091797 -145.421249389648 7.465178489685
-46.078453063965 -79.810165405273 -146.510116577148 2.289721727371
-75.690017700195 -79.592872619629 -140.756500244141 5.215934276581
108.403068542480 -71.391502380371 -152.856933593750 3.245828390121
118.366477966309 -69.294845581055 -158.668869018555 3.533086538315
117.341079711914 -75.487159729004 -165.242736816406 3.883825778961
-81.055664062500 -77.095321655273 -144.886245727539 6.205167293549
4.978431224823 -69.798469543457 -158.951690673828 1.502242088318
-51.997192382813 -76.797065734863 -151.838516235352 1.186720013618
-53.622516632080 -77.268188476563 -158.717605590820 3.513824701309
103.018333435059 -71.982460021973 -179.567520141602 2.327239990234
-42.060955047607 -78.705635070801 -153.107116699219 1.682388782501
12.079498291016 -70.748893737793 -167.199874877930 6.524368762970
20.263116836548 -76.281936645508 -167.061141967773 2.766786098480
111.188171386719 -69.086090087891 -182.004501342773 1.956818103790
27.142963409424 -71.939117431641 -177.327728271484 2.290947198868
-3.487013101578 -75.908035278320 -171.642486572266 2.083539247513
29.399091720581 -74.165527343750 -170.735427856445 2.034132480621
-69.577758789063 -74.710815429688 -158.636642456055 1.890602231026
-68.631881713867 -76.165016174316 -161.613555908203 2.341726303101
-72.428558349609 -73.437469482422 -168.378265380859 6.198717594147
111.415702819824 -66.470878601074 -178.480270385742 3.726883888245
-47.251384735107 -75.860046386719 -167.297668457031 2.583625316620
13.421756744385 -73.582786560059 -174.160812377930 4.825706481934
-66.961250305176 -73.727462768555 -172.470809936523 2.566914558411
-67.802322387695 -72.630065917969 -174.043258666992 4.292949199677
-45.285984039307 -77.125144958496 -165.251358032227 1.160968899727
-37.535800933838 -78.423294067383 -172.916091918945 1.957301855087
112.049064636230 -73.533584594727 -188.629272460938 3.561526060104
-41.607864379883 -67.276031494141 -186.086868286133 8.496118545532
8.946217536926 -74.472633361816 -181.174789428711 5.894882678986
105.676765441895 -73.396087646484 -202.638534545898 3.830246210098
-150.419799804688 -79.573226928711 -172.097503662109 7.454998016357
-149.292877197266 -76.867111206055 -168.020538330078 8.214948654175
-150.788040161133 -74.648307800293 -177.241394042969 3.352631568909
-145.990737915039 -79.467353820801 -180.522933959961 4.188341140747
-37.151149749756 -71.994926452637 -189.808883666992 5.745743274689
-27.762380599976 -74.249504089355 -191.232147216797 2.111478567123
18.290109634399 -66.557685852051 -201.513504028320 1.131082296371
-144.909194946289 -75.768508911133 -182.884735107422 1.851739525795
-152.162490844727 -77.323738098145 -184.620040893555 4.793150424957
-26.543296813965 -71.119041442871 -191.205795288086 1.440463304520
5.289289951324 -72.590377807617 -191.030731201172 6.162247180939
-155.016998291016 -76.273460388184 -190.980224609375 5.500517368317
-36.354427337646 -73.666313171387 -194.326858520508 4.618618965149
94.702232360840 -70.504936218262 -203.898712158203 2.151885747910
99.997726440430 -67.853927612305 -205.712799072266 4.058467388153
19.472875595093 -65.903877258301 -202.697265625000 2.133688449860
-15.363106727600 -73.003547668457 -195.213241577148 1.381272077560
-33.591533660889 -75.641357421875 -198.214248657227 2.377016067505
-161.496887207031 -78.520156860352 -196.281417846680 7.078440189362
-137.858764648438 -77.115287780762 -193.763458251953 3.598458290100
-130.630661010742 -72.175247192383 -192.000335693359 3.631271362305
-131.204895019531 -74.053184509277 -194.827819824219 1.734908580780
-27.319381713867 -68.010337829590 -200.684585571289 2.238158941269
9.032437324524 -75.236526489258 -200.975662231445 2.137939929962
85.555839538574 -75.640762329102 -216.449600219727 1.593185305595
-156.156860351563 -71.472404479980 -189.546127319336 3.895326137543
-149.548065185547 -72.678482055664 -194.722595214844 2.193454027176
-157.038345336914 -76.114234924316 -196.434707641602 3.180619716644
-159.820037841797 -73.555633544922 -191.462203979492 4.800358295441
-29.669210433960 -71.646850585938 -205.272018432617 4.087177276611
-13.897731781006 -68.940750122070 -201.612365722656 1.678048372269
-150.624023437500 -70.192741394043 -198.517410278320 1.833968162537
-25.940389633179 -71.652923583984 -208.239685058594 4.534540653229
-166.058990478516 -75.657333374023 -196.481994628906 4.998936176300
-139.822845458984 -75.370071411133 -195.928146362305 1.455793380737
8.755517959595 -74.941413879395 -215.833496093750 2.238869190216
-165.346313476563 -71.509765625000 -198.855834960938 2.182665824890
-152.093734741211 -78.038612365723 -202.636932373047 0.921356856823
0.702441990376 -69.124595642090 -212.305572509766 5.212377548218
-159.864013671875 -72.658683776855 -197.334075927734 2.315510034561
-31.305425643921 -71.490196228027 -208.244918823242 2.171660900116
88.298507690430 -71.055633544922 -214.203735351563 1.554376721382
-165.920135498047 -77.520027160645 -205.501174926758 6.666489124298
-169.925552368164 -80.964103698730 -201.007186889648 10.020431518555
-81.896980285645 -71.109497070313 -208.040954589844 3.240395069122
83.329429626465 -68.640304565430 -222.893814086914 2.312062740326
-11.251819610596 -70.305191040039 -226.946533203125 1.258413314819
-162.752716064453 -74.167037963867 -207.705718994141 3.746747016907
-93.672363281250 -74.600181579590 -213.302200317383 1.351716160774
-16.403244018555 -75.748268127441 -217.919708251953 2.003998994827
8.729510307312 -70.300369262695 -227.027008056641 1.085288405418
-151.091964721680 -75.631027221680 -216.917343139648 2.371243238449
-11.283182144165 -77.157073974609 -228.367126464844 1.614751815796
-24.591840744019 -74.252075195313 -222.791992187500 0.924724936485
-22.107452392578 -67.889289855957 -227.581161499023 5.310393333435
83.675376892090 -68.907012939453 -235.970977783203 5.434939861298
-27.035667419434 -70.305557250977 -221.959732055664 3.828717708588
-40.602394104004 -71.424644470215 -222.795822143555 11.745984077454
-115.412498474121 -67.258575439453 -224.166900634766 1.210346817970
-24.216348648071 -69.333564758301 -229.965835571289 6.322845935822
86.242065429688 -66.530197143555 -233.915832519531 8.231566429138
67.490089416504 -70.595245361328 -235.265029907227 0.636478602886
1.156615018845 -72.524665832520 -226.973068237305 0.942250430584
-19.402317047119 -67.450744628906 -232.001205444336 4.352973937988
71.292984008789 -69.274887084961 -235.616027832031 1.547803163528
-128.755233764648 -79.171966552734 -223.429565429688 5.619713783264
-25.659971237183 -69.004333496094 -229.649261474609 7.051655292511
-102.942657470703 -73.008468627930 -223.238876342773 1.062451481819
-108.104339599609 -73.809776306152 -222.406005859375 2.945163249969
-137.236511230469 -76.614585876465 -226.612426757813 1.255763530731
73.200790405273 -69.627418518066 -237.360092163086 2.436170816422
-130.265838623047 -75.096122741699 -225.211898803711 2.323621749878
-3.971322059631 -69.520057678223 -237.157424926758 1.991508364677
73.815200805664 -67.128242492676 -238.795089721680 3.002883195877
-24.864610671997 -72.540107727051 -239.831710815430 0.576150298119
-22.132658004761 -72.331039428711 -231.949768066406 5.831235408783
-8.048188209534 -78.032112121582 -237.988464355469 5.056192874908
3.545789957047 -73.499504089355 -236.459121704102 3.045891761780
82.410652160645 -70.296981811523 -242.608810424805 8.601149559021
0.937357008457 -68.521217346191 -239.333007812500 1.279414772987
-1.349869012833 -69.430107116699 -237.883819580078 0.985157787800
-17.356174468994 -71.588279724121 -238.876937866211 1.595333933830
-14.693328857422 -72.648986816406 -235.352218627930 1.873297095299
11.451718330383 -68.653030395508 -242.606918334961 2.483266353607
-21.029495239258 -67.233970642090 -239.309020996094 3.098337411880
61.549659729004 -69.063217163086 -254.175689697266 6.200889110565
-18.731203079224 -69.078323364258 -246.293869018555 4.765886783600
10.625375747681 -70.941787719727 -244.942428588867 1.615722894669
-169.218032836914 -71.974617004395 -234.186965942383 2.566879034042
-14.716126441956 -67.552970886230 -242.891067504883 3.667359113693
-16.171340942383 -72.620544433594 -246.339385986328 3.479014396667
-176.713043212891 -75.427528381348 -244.394012451172 10.961588859558
-20.437669754028 -67.778152465820 -250.549942016602 5.067965984344
5.257353782654 -66.081954956055 -253.565460205078 6.045171737671
-157.683456420898 -75.532623291016 -247.387390136719 3.366586446762
-85.637802124023 -71.670692443848 -253.364379882813 2.002506732941
-71.570640563965 -73.220321655273 -249.922515869141 1.716642022133
41.473014831543 -65.096725463867 -258.451232910156 1.926324486732
-82.400985717773 -71.191551208496 -247.736755371094 1.595490098000
6.118475914001 -69.832923889160 -258.719116210938 7.654883861542
-82.442466735840 -73.053062438965 -252.497695922852 2.472467660904
-25.180316925049 -67.701530456543 -249.149993896484 8.983459472656
-154.795928955078 -77.204696655273 -248.572708129883 4.026245594025
35.077365875244 -63.560382843018 -261.913696289063 2.254233360291
-91.026069641113 -75.621070861816 -258.061767578125 2.880150794983
-113.276924133301 -68.103500366211 -254.264541625977 2.560020208359
-110.214553833008 -73.911056518555 -253.825912475586 4.347257614136
-131.039581298828 -69.205223083496 -249.094879150391 5.293933391571
-116.382698059082 -67.836921691895 -256.009429931641 0.779673218727
-115.309532165527 -71.127441406250 -256.382354736328 1.467460155487
10.312582015991 -64.074951171875 -266.494232177734 5.288810253143
-141.291320800781 -69.169006347656 -261.938201904297 1.205932617188
-27.348192214966 -69.893539428711 -281.317565917969 5.878663063049
-161.238906860352 -68.187767028809 -279.355163574219 2.141896247864
-181.187606811523 -74.762771606445 -280.538085937500 12.876602172852
-137.369766235352 -72.692871093750 -280.286102294922 4.672824382782
-127.005485534668 -66.929580688477 -284.715026855469 2.060049533844
-88.394477844238 -64.993476867676 -283.942047119141 5.728689670563
-70.831893920898 -71.235267639160 -289.518188476563 1.624795317650
-54.233947753906 -67.543693542480 -289.728302001953 1.864950537682
-28.964515686035 -73.050445556641 -297.503387451172 5.888772487640
-27.534667968750 -64.917495727539 -299.507690429688 11.269499778748
-52.192676544189 -72.224609375000 -295.391174316406 4.606846332550
-47.837615966797 -68.877830505371 -293.380218505859 5.367340087891
-32.793441772461 -64.142639160156 -294.225372314453 8.369544029236
-86.998596191406 -68.336685180664 -295.644958496094 4.438459396362
-69.922035217285 -68.351951599121 -294.155548095703 4.748405456543
-32.725559234619 -63.451374053955 -297.512817382813 10.724312782288
-27.285814285278 -70.659057617188 -295.396484375000 5.079687595367
-17.484184265137 -67.079757690430 -300.576995849609 9.743902206421
-11.369560241699 -62.781326293945 -300.301635742188 11.950335502625
-107.290428161621 -70.052391052246 -293.393066406250 1.475305914879
-151.837280273438 -74.290687561035 -292.624938964844 1.346165180206
-128.907577514648 -71.797698974609 -290.825836181641 3.992357492447
-166.880981445313 -68.794029235840 -288.418701171875 2.792217969894
-164.382369995117 -72.428474426270 -294.646636962891 3.211764097214
-161.422988891602 -68.000686645508 -295.496704101563 4.251116752625
52.037071228027 -75.084136962891 -34.462356567383 4.455922126770
28.947340011597 -83.542335510254 -33.718326568604 10.897701263428
58.477611541748 -74.011962890625 -36.279712677002 8.762597084045
54.788452148438 -79.088783264160 -47.972389221191 15.757551193237
92.730407714844 -74.671409606934 -87.071014404297 2.694278478622
100.264923095703 -76.923881530762 -90.638336181641 4.197702407837
105.498756408691 -74.699569702148 -93.078346252441 4.664951324463
101.693351745605 -73.988632202148 -100.379440307617 2.650409460068
58.779476165771 -76.132598876953 -102.867340087891 3.596169948578
47.070713043213 -82.347206115723 -101.683532714844 4.323064327240
66.374862670898 -73.628723144531 -104.094596862793 7.539783000946
-62.443862915039 -76.133316040039 -96.817222595215 1.948360085487
75.072158813477 -72.977256774902 -101.204483032227 1.744850158691
101.870254516602 -64.333320617676 -115.385444641113 5.270793437958
76.468719482422 -74.025260925293 -116.107795715332 12.300714492798
95.106323242188 -71.792167663574 -119.024375915527 10.819753646851
-84.455322265625 -79.051231384277 -106.325469970703 3.471093177795
48.426555633545 -73.127128601074 -107.761405944824 2.243188619614
-85.194778442383 -80.172286987305 -101.348571777344 2.320084333420
53.123134613037 -75.254638671875 -122.470703125000 7.164003372192
38.833847045898 -82.784042358398 -114.571678161621 3.041582584381
101.422798156738 -71.867073059082 -119.421981811523 4.665486335754
38.536071777344 -74.966629028320 -115.620094299316 1.522292375565
45.300758361816 -76.115570068359 -132.653427124023 4.790251255035
43.585269927979 -74.757308959961 -124.623626708984 1.734712243080
112.557075500488 -70.815521240234 -128.444610595703 1.908850908279
-79.566123962402 -83.627334594727 -123.925529479980 12.905858993530
113.181144714355 -77.246070861816 -140.077011108398 0.576023519039
41.677780151367 -68.595664978027 -136.497802734375 4.794878959656
40.558094024658 -73.828628540039 -131.218948364258 1.476468443871
34.984127044678 -75.083343505859 -130.790267944336 3.000393390656
-54.727348327637 -82.169471740723 -133.334304809570 7.286893367767
30.011863708496 -72.815452575684 -133.631637573242 1.780617952347
-78.623420715332 -72.673042297363 -140.080047607422 3.097612142563
-55.025802612305 -80.998947143555 -136.305160522461 5.553100109100
-79.859565734863 -73.723098754883 -136.437744140625 1.466052174568
36.311794281006 -71.080192565918 -142.888732910156 2.045955896378
-60.154575347900 -78.342323303223 -136.746627807617 3.716878890991
34.768520355225 -72.802536010742 -143.811401367188 2.099288940430
-72.015090942383 -73.710258483887 -141.841812133789 1.484652400017
-60.395427703857 -70.976188659668 -145.390747070313 3.492515087128
22.294254302979 -74.715515136719 -154.514785766602 2.187990427017
110.373245239258 -74.127822875977 -160.111694335938 1.616765618324
113.574485778809 -65.748992919922 -154.680450439453 4.150006771088
29.047712326050 -73.761520385742 -153.318008422852 3.219496488571
-50.601776123047 -78.311508178711 -143.856933593750 1.427571415901
102.558380126953 -67.759231567383 -169.036605834961 6.039333343506
-77.455947875977 -75.996505737305 -144.273742675781 3.583289146423
-59.532089233398 -75.531211853027 -145.413681030273 4.358161926270
29.931325912476 -66.666748046875 -156.300186157227 3.324577331543
-79.524009704590 -77.999473571777 -147.728500366211 6.847687721252
-71.950805664063 -75.011016845703 -152.075958251953 0.682744383812
111.811660766602 -76.074241638184 -166.804336547852 2.435652732849
-66.669647216797 -73.345489501953 -158.356979370117 1.549324393272
-41.550273895264 -70.488739013672 -156.211853027344 2.103365182877
22.929573059082 -71.622756958008 -154.468414306641 1.598236203194
-73.198814392090 -76.704559326172 -146.269012451172 1.000070333481
10.555277824402 -72.074966430664 -157.757217407227 1.835863232613
29.161144256592 -71.927268981934 -168.942687988281 1.383282780647
29.106910705566 -69.561004638672 -162.223037719727 1.628003358841
15.139223098755 -78.319297790527 -163.278335571289 5.857943534851
-52.665672302246 -77.585403442383 -156.990829467773 2.426605224609
20.860269546509 -75.838562011719 -163.157714843750 1.411819934845
-48.900711059570 -73.848976135254 -155.276153564453 1.194027066231
1.089815020561 -73.513725280762 -162.524658203125 1.760568737984
17.331672668457 -72.058593750000 -159.511413574219 2.117975711823
-69.636001586914 -73.799674987793 -160.972137451172 1.560126900673
-49.561729431152 -71.241714477539 -158.134353637695 1.411504507065
-70.468177795410 -75.387901306152 -154.396972656250 1.861372351646
17.433425903320 -71.150115966797 -168.202011108398 1.175466060638
21.539684295654 -71.992088317871 -159.986511230469 2.150576591492
-0.873360991478 -72.901771545410 -174.685073852539 5.974219799042
19.658126831055 -71.747611999512 -161.792480468750 2.171213865280
26.960536956787 -70.800514221191 -179.162124633789 1.131695032120
-50.194477081299 -75.285850524902 -168.311553955078 5.434846878052
-41.383125305176 -83.195472717285 -169.770172119141 4.379640102386
-44.426639556885 -75.761604309082 -165.822204589844 1.294923782349
25.023410797119 -73.286720275879 -167.817962646484 2.904370307922
-47.916141510010 -71.119026184082 -170.452911376953 5.354149341583
-42.799137115479 -71.930541992188 -173.487945556641 2.187631130219
18.372074127197 -70.218742370605 -174.949096679688 1.364390730858
-43.757728576660 -74.118072509766 -181.170089721680 5.378671646118
23.392210006714 -66.544151306152 -179.966690063477 1.642070055008
106.698097229004 -65.328132629395 -180.098968505859 5.289755344391
-38.082004547119 -73.636650085449 -177.362976074219 1.784228920937
95.701263427734 -66.481773376465 -189.372634887695 7.539126873016
-38.883750915527 -72.820938110352 -182.997909545898 3.489609479904
-42.508319854736 -77.143730163574 -187.141998291016 3.117162466049
18.398584365845 -75.025955200195 -188.239776611328 1.726842999458
101.438392639160 -70.011123657227 -198.547271728516 2.592856645584
-37.787662506104 -70.805335998535 -186.928268432617 4.733129501343
-40.499847412109 -72.835166931152 -184.578659057617 5.638447284698
-27.749124526978 -78.067665100098 -193.788314819336 2.068593263626
-154.028152465820 -76.164543151855 -185.332687377930 5.582996845245
6.238056182861 -71.077270507813 -192.152374267578 4.988445758820
98.020339965820 -66.893608093262 -208.494827270508 4.683311462402
-165.968078613281 -75.636764526367 -187.079101562500 11.481667518616
-26.212617874146 -67.557846069336 -194.042984008789 1.448169231415
-121.294532775879 -76.975158691406 -196.515319824219 4.219797611237
-134.203536987305 -77.088554382324 -192.048141479492 4.152632236481
-112.459266662598 -75.397361755371 -199.409240722656 3.925552845001
-120.774673461914 -72.985382080078 -198.616744995117 1.714465260506
-17.031127929688 -72.973945617676 -203.318466186523 3.308388471603
13.757252693176 -68.268119812012 -205.216232299805 2.150641202927
-22.400625228882 -66.668876647949 -208.350997924805 3.584919452667
-134.693435668945 -74.365844726563 -203.593109130859 2.170820236206
-26.803750991821 -66.540740966797 -207.029373168945 5.480945110321
-134.080062866211 -72.098434448242 -200.209091186523 1.020614504814
-22.769250869751 -71.330329895020 -205.106506347656 2.077204227448
-153.072021484375 -73.601905822754 -197.238418579102 2.017267942429
84.557029724121 -62.641269683838 -220.918624877930 6.110430240631
-170.121948242188 -68.199745178223 -195.261886596680 6.986048698425
-9.820830345154 -71.144042968750 -228.006225585938 1.893782615662
5.160067081451 -72.163787841797 -219.183547973633 2.137400150299
2.602802038193 -73.675994873047 -226.022033691406 1.904178142548
74.468467712402 -68.041938781738 -230.414352416992 2.930065870285
2.175529003143 -71.475059509277 -221.980300903320 2.053334474564
3.807518005371 -68.709594726563 -223.665679931641 2.769096851349
-23.152610778809 -74.282798767090 -221.991989135742 1.912305712700
-97.299186706543 -74.130844116211 -213.236251831055 3.731838226318
-105.790718078613 -73.007759094238 -216.485046386719 4.027143478394
-5.359765052795 -69.072738647461 -225.952926635742 1.480154633522
-173.886154174805 -77.493331909180 -215.579040527344 8.995129585266
8.451652526855 -66.568679809570 -226.918197631836 3.297306537628
-152.133529663086 -73.313591003418 -216.037841796875 1.620423436165
5.387520790100 -70.013725280762 -233.742660522461 2.095061540604
-143.043609619141 -75.731628417969 -221.845138549805 2.234948158264
-123.473403930664 -74.038314819336 -226.822647094727 1.607035398483
9.388821601868 -68.748954772949 -229.262710571289 2.246680974960
71.479812622070 -67.919799804688 -233.599639892578 1.359057426453
-1.950306057930 -70.394531250000 -231.927352905273 0.948153793812
-117.228775024414 -71.142074584961 -230.266052246094 1.371334552765
60.963573455811 -69.166015625000 -240.831863403320 1.666724085808
76.763168334961 -68.794738769531 -244.079193115234 8.074427604675
-135.151702880859 -72.293769836426 -234.300918579102 1.743502378464
-127.092567443848 -72.552360534668 -228.008895874023 0.641862154007
-17.683477401733 -65.113014221191 -232.701950073242 5.742390632629
62.910667419434 -67.976318359375 -246.491546630859 1.860973715782
55.541362762451 -68.165344238281 -245.131393432617 1.028713345528
63.345985412598 -66.948127746582 -241.887725830078 1.203375697136
-145.089797973633 -68.431167602539 -230.182876586914 2.767183065414
60.234508514404 -69.098731994629 -243.905090332031 1.180454492569
56.357536315918 -64.126472473145 -247.762588500977 3.058192968369
-174.189193725586 -71.633338928223 -225.659637451172 7.389354705811
-7.342117786407 -77.413192749023 -250.481872558594 0.585484445095
11.318627357483 -70.292663574219 -248.441207885742 3.973783969879
-15.775678634644 -65.412605285645 -248.536331176758 3.766231775284
7.423329830170 -61.394805908203 -247.925796508789 3.224360466003
57.738262176514 -68.357948303223 -250.834213256836 2.618685483932
-2.491810083389 -65.724540710449 -252.832916259766 3.384641408920
-21.213079452515 -62.044261932373 -246.536315917969 6.395125865936
-10.986037254333 -65.153434753418 -242.774841308594 2.687765598297
55.009662628174 -67.578903198242 -254.970901489258 3.907631874084
-8.235358238220 -68.758773803711 -250.163177490234 3.160444021225
-15.697630882263 -69.883773803711 -250.324874877930 0.795452654362
5.108526229858 -72.160774230957 -250.881591796875 7.207263946533
-176.450439453125 -76.550277709961 -235.363174438477 10.202402114868
44.042861938477 -68.447158813477 -259.173645019531 2.806061029434
37.795417785645 -58.939296722412 -264.002868652344 6.977571010590
49.821296691895 -67.874473571777 -255.599014282227 2.939441204071
-22.391975402832 -66.058265686035 -254.402404785156 8.501299858093
46.952625274658 -66.262748718262 -257.084045410156 3.375500202179
-84.672470092773 -70.136398315430 -252.504394531250 1.044632554054
39.934143066406 -67.612113952637 -259.754638671875 1.556834101677
-97.751533508301 -69.865768432617 -253.405227661133 2.553739547729
-132.314529418945 -72.390029907227 -255.904113769531 2.252351284027
-141.932510375977 -72.275444030762 -249.185684204102 2.146907806396
36.880611419678 -69.273162841797 -262.937713623047 3.940911769867
-140.522872924805 -75.442237854004 -248.901855468750 4.863918304443
-118.736656188965 -68.085723876953 -252.654113769531 4.105214118958
-128.130126953125 -68.660110473633 -255.819168090820 2.509295701981
-94.771606445313 -70.805702209473 -255.194793701172 2.415577411652
-121.194999694824 -67.586944580078 -256.575927734375 3.308022499084
-135.005020141602 -75.540298461914 -260.426300048828 0.405332356691
-158.705291748047 -68.504333496094 -264.042694091797 1.609434366226
-27.017606735229 -65.809600830078 -273.964752197266 12.768482208252
-184.303939819336 -75.785835266113 -258.569458007813 17.384759902954
-27.257259368896 -66.187965393066 -281.152648925781 8.782884597778
-169.879241943359 -67.560256958008 -261.656677246094 2.362666845322
-164.325546264648 -72.529609680176 -267.565460205078 3.930733919144
-182.944931030273 -71.588973999023 -271.344818115234 14.688645362854
-28.101652145386 -67.885520935059 -288.231323242188 3.600180625916
-140.590011596680 -73.343978881836 -280.029968261719 4.943099498749
-169.780914306641 -70.602523803711 -281.075439453125 4.243202209473
-155.488021850586 -69.452468872070 -276.309143066406 3.712892770767
-146.977844238281 -73.565071105957 -274.695159912109 2.777678966522
-21.541936874390 -58.829395294189 -290.488800048828 12.024004936218
-138.683944702148 -73.944175720215 -280.295684814453 5.851670265198
-153.630676269531 -66.789566040039 -281.737304687500 2.172082901001
-128.068954467773 -74.296768188477 -283.874938964844 2.512320518494
-94.387825012207 -65.414131164551 -289.770538330078 4.313554286957
-72.840110778809 -69.703300476074 -289.566467285156 2.674741268158
-21.379421234131 -68.087226867676 -294.542602539063 6.188799381256
-67.591094970703 -66.507995605469 -286.518585205078 4.602435112000
-70.207511901855 -64.834213256836 -291.297973632813 5.686901092529
-84.818618774414 -66.098922729492 -291.806121826172 2.706939220428
-102.831512451172 -66.633697509766 -295.352416992188 5.820317745209
-106.425041198730 -66.770271301270 -287.619354248047 1.528472304344
-172.539947509766 -70.125267028809 -286.085113525391 4.621402263641
-173.713348388672 -71.337852478027 -289.145812988281 6.704950809479
-137.508697509766 -73.214118957520 -290.931823730469 1.830242156982
-157.902664184570 -69.708435058594 -290.067535400391 1.968890547752
-165.901519775391 -72.426284790039 -300.637268066406 8.461156845093
-167.231170654297 -73.077194213867 -306.716278076172 10.651499748230
57.493293762207 -76.921691894531 -25.396646499634 8.910234451294
22.716274261475 -80.729042053223 -41.417163848877 10.332319259644
49.652389526367 -72.419929504395 -46.919651031494 9.587803840637
-9.532860755920 -81.275543212891 -73.495269775391 10.766885757446
86.238281250000 -72.485771179199 -79.885978698730 2.700507640839
94.939193725586 -69.368125915527 -81.444709777832 5.304192543030
83.545845031738 -80.260841369629 -80.125297546387 2.910525560379
76.460868835449 -77.072631835938 -84.183242797852 1.653920888901
94.772773742676 -76.076065063477 -91.885017395020 0.873484432697
-92.784172058105 -75.787925720215 -70.560142517090 4.016619205475
70.051216125488 -75.100616455078 -88.849830627441 2.489970445633
-32.212364196777 -80.479705810547 -83.312889099121 4.117082595825
101.137878417969 -72.769187927246 -101.623786926270 2.873632431030
65.047256469727 -69.964935302734 -103.650794982910 6.215735435486
110.188003540039 -78.674072265625 -109.564208984375 4.597135543823
101.493469238281 -77.967208862305 -115.459632873535 5.980103492737
75.102050781250 -73.286178588867 -115.673667907715 11.605884552002
-79.837944030762 -74.502799987793 -104.324676513672 3.253803253174
55.803661346436 -72.439590454102 -118.432807922363 8.499969482422
109.212669372559 -67.730667114258 -123.530158996582 2.435247421265
46.675174713135 -72.979927062988 -125.920433044434 4.122880935669
80.797065734863 -71.134193420410 -120.856163024902 14.185579299927
42.583244323730 -73.148559570313 -119.613159179688 2.628714561462
104.032585144043 -71.925621032715 -119.648460388184 2.073694705963
48.584915161133 -73.202880859375 -119.923347473145 1.655248641968
107.049186706543 -78.894157409668 -126.348609924316 3.698992013931
111.669639587402 -76.120666503906 -127.369911193848 1.299171924591
-79.126342773438 -74.068115234375 -115.904708862305 2.796624898911
-82.831161499023 -74.018791198730 -121.829673767090 3.806077957153
43.986515045166 -76.637718200684 -131.542968750000 3.500544309616
113.317520141602 -72.714210510254 -140.429534912109 0.483755350113
112.926414489746 -70.791450500488 -140.796737670898 1.920775175095
-88.995704650879 -75.288467407227 -127.597488403320 6.138987064362
104.460235595703 -73.548469543457 -143.925765991211 5.802009105682
-60.046047210693 -81.225463867188 -135.571197509766 6.119020462036
-86.311134338379 -77.023902893066 -129.163604736328 7.203546047211
-70.831665039063 -76.900207519531 -129.177047729492 5.925041675568
-60.393581390381 -71.404067993164 -129.894531250000 1.431514859200
31.235677719116 -72.602729797363 -141.577682495117 2.407231330872
42.829132080078 -68.566032409668 -147.354095458984 7.125351905823
-72.377899169922 -75.139839172363 -138.541961669922 1.251767277718
28.039030075073 -69.685897827148 -140.160949707031 1.924368619919
110.550323486328 -69.410087585449 -161.965972900391 2.260529756546
-40.342628479004 -74.174468994141 -154.494689941406 2.374919176102
30.989377975464 -74.083778381348 -160.356155395508 1.753630757332
110.484970092773 -67.112625122070 -166.066024780273 1.511299490929
34.338100433350 -72.895401000977 -153.393890380859 2.493230581284
107.974685668945 -68.440132141113 -156.526779174805 1.544580936432
-53.785396575928 -73.783012390137 -153.532836914063 2.283265352249
-75.617378234863 -71.000389099121 -153.475173950195 4.175819396973
-59.567871093750 -74.793327331543 -154.462203979492 4.645993709564
-45.825401306152 -78.266075134277 -169.823760986328 4.076571941376
0.899581015110 -74.856826782227 -164.145919799805 2.181964159012
105.977836608887 -69.922370910645 -169.848602294922 2.419829130173
104.880355834961 -68.533508300781 -177.501525878906 2.291510820389
8.086386680603 -71.743965148926 -165.682281494141 3.783576965332
-1.117151975632 -71.147918701172 -168.599273681641 2.841250658035
18.472242355347 -69.684692382813 -163.774719238281 2.850137710571
23.172073364258 -69.769271850586 -165.635177612305 0.562176167965
103.421264648438 -68.293479919434 -181.949020385742 3.447025060654
106.882148742676 -72.416938781738 -184.640106201172 1.623223900795
19.470834732056 -67.169540405273 -185.711242675781 1.595948576927
20.743036270142 -74.527938842773 -175.150405883789 2.021014451981
107.811157226563 -65.877883911133 -178.940460205078 5.469924449921
-34.441223144531 -70.310951232910 -184.248535156250 1.975945711136
106.508438110352 -68.907638549805 -184.273178100586 2.094655990601
14.308867454529 -71.574928283691 -174.461654663086 4.259731769562
17.464740753174 -70.953666687012 -178.759262084961 2.037353515625
103.515037536621 -68.704299926758 -189.166015625000 1.527288436890
23.419086456299 -69.555694580078 -180.059204101563 1.572349429131
108.084625244141 -65.677818298340 -201.925064086914 8.382118225098
-43.165756225586 -71.624450683594 -184.174072265625 6.472381114960
20.102550506592 -70.740371704102 -179.303558349609 2.089535474777
102.335395812988 -67.417518615723 -201.219390869141 4.507402896881
18.082786560059 -71.729545593262 -186.850814819336 2.790795803070
-156.051574707031 -73.120559692383 -181.559875488281 4.706787586212
-33.485984802246 -67.481628417969 -195.332519531250 6.538348197937
18.853715896606 -66.814636230469 -194.824844360352 1.849192261696
-120.652061462402 -76.114318847656 -190.889801025391 6.320230960846
-117.287727355957 -70.153244018555 -191.253936767578 3.322099685669
19.475189208984 -70.623123168945 -197.691574096680 1.588580489159
5.574099063873 -67.005493164063 -193.207321166992 6.380575656891
-32.642200469971 -67.110061645508 -195.916229248047 6.456192493439
-34.226787567139 -76.761459350586 -195.079635620117 3.954707622528
-34.175823211670 -71.964294433594 -193.733932495117 5.454409599304
8.138927459717 -67.573089599609 -188.856201171875 6.140214443207
-156.261672973633 -74.495857238770 -191.527862548828 4.452710628510
-151.519912719727 -73.893150329590 -188.207595825195 2.605471134186
-152.085372924805 -78.645004272461 -195.547943115234 1.468066096306
-29.231182098389 -69.815536499023 -197.296829223633 3.244594812393
7.901037216187 -66.076957702637 -208.480300903320 3.814600944519
92.287788391113 -65.699516296387 -208.254257202148 4.803013801575
-119.429542541504 -71.466140747070 -196.921936035156 2.313992023468
15.065849304199 -74.185432434082 -207.560638427734 3.392274141312
-19.721406936646 -68.965873718262 -201.445159912109 1.802785873413
-23.449361801147 -70.181747436523 -204.888076782227 0.991185724735
94.727340698242 -64.983192443848 -216.028549194336 5.698421955109
0.957675993443 -72.705474853516 -206.760040283203 4.910466670990
-28.252752304077 -68.617416381836 -202.622558593750 3.951584577560
-126.799148559570 -77.019989013672 -202.475967407227 4.444018840790
-140.585586547852 -74.188049316406 -200.107589721680 1.158295869827
-120.906311035156 -66.421646118164 -204.152847290039 1.338750839233
-148.218612670898 -77.977729797363 -199.652038574219 1.827740073204
10.542442321777 -69.026107788086 -207.011459350586 1.308806657791
86.053985595703 -69.180183410645 -215.361038208008 0.765604257584
-171.386322021484 -68.558547973633 -194.190444946289 8.449441909790
93.275901794434 -65.812591552734 -217.320083618164 4.656690597534
-29.837285995483 -75.730964660645 -211.489807128906 1.522414326668
87.131629943848 -62.720954895020 -224.490234375000 6.964153289795
80.843437194824 -69.128196716309 -224.593963623047 2.209147453308
4.074844837189 -72.112525939941 -212.138534545898 2.266627550125
13.192657470703 -67.189994812012 -222.231796264648 2.074117422104
6.165589809418 -64.788505554199 -216.893554687500 5.211259841919
-19.121520996094 -69.033599853516 -230.416839599609 2.755674362183
-101.355064392090 -74.886650085449 -219.973220825195 1.684182286263
-19.272657394409 -72.516754150391 -218.171539306641 2.132741928101
79.885711669922 -66.951484680176 -232.270172119141 4.191675186157
-101.619964599609 -75.067260742188 -216.802490234375 4.207871437073
-107.814277648926 -67.790290832520 -221.395950317383 2.472504615784
-103.679687500000 -71.165214538574 -218.938308715820 1.781158566475
80.710700988770 -68.767433166504 -237.518447875977 4.358158588409
-143.683273315430 -73.466384887695 -221.928421020508 1.808042764664
-139.182113647461 -78.994613647461 -225.093307495117 1.905593752861
-124.420234680176 -72.229171752930 -222.970855712891 1.569599986076
-121.140365600586 -68.836959838867 -219.887496948242 5.477545738220
-140.957672119141 -69.727806091309 -224.670471191406 1.124143481255
-121.192977905273 -80.939155578613 -227.204559326172 6.586958885193
-119.588150024414 -70.801551818848 -226.998367309570 2.492784976959
-15.193777084351 -73.620712280273 -231.296478271484 0.865178346634
-23.284759521484 -72.587532043457 -229.803497314453 4.736427783966
-9.671475410461 -65.182388305664 -237.267333984375 1.454940438271
-18.570213317871 -64.669891357422 -233.496124267578 6.786812782288
6.567999839783 -68.753326416016 -243.019485473633 1.842654109001
-28.991210937500 -66.395744323730 -235.333145141602 8.496042251587
-174.307937622070 -71.857002258301 -214.845764160156 7.902488231659
-14.381348609924 -69.018310546875 -241.069427490234 2.244624376297
71.692481994629 -61.513160705566 -246.181518554688 9.789621353149
2.943429946899 -70.284713745117 -242.015670776367 1.478688001633
-14.607568740845 -67.376335144043 -242.526367187500 3.457937717438
-165.858428955078 -69.905639648438 -230.658706665039 1.145814299583
-151.436218261719 -70.576835632324 -224.551193237305 2.105419874191
51.509719848633 -64.865875244141 -249.068130493164 1.168527483940
-14.567605018616 -69.252464294434 -240.461090087891 1.973296523094
2.329252004623 -70.760841369629 -237.933166503906 2.257948160172
60.822349548340 -69.843147277832 -240.974853515625 1.244344830513
67.442581176758 -65.529006958008 -248.459503173828 6.496055126190
61.635433197021 -67.020355224609 -255.870681762695 8.236178398132
-10.949595451355 -72.254936218262 -242.476852416992 1.300626039505
48.958526611328 -63.570045471191 -248.969375610352 2.178961277008
-28.747825622559 -72.042182922363 -246.415466308594 5.940516948700
-23.998376846313 -64.490058898926 -246.045288085938 9.373341560364
-1.674541950226 -67.429878234863 -246.748764038086 3.939193010330
54.596363067627 -70.664558410645 -249.763717651367 1.529150009155
57.391387939453 -63.520366668701 -254.366043090820 5.962327480316
38.503929138184 -66.622314453125 -257.271728515625 1.945547342300
51.061119079590 -70.158317565918 -255.351806640625 3.316256284714
-25.385948181152 -74.498374938965 -255.679061889648 10.896949768066
-94.625091552734 -65.482772827148 -257.052886962891 1.526154875755
-87.414047241211 -66.661270141602 -254.791015625000 2.121739864349
33.835166931152 -70.066581726074 -258.337005615234 1.728627920151
-161.541778564453 -73.835929870605 -245.216033935547 2.281046152115
24.209978103638 -65.441665649414 -267.363525390625 2.199772119522
-102.413818359375 -75.483520507813 -252.242248535156 4.286624431610
-167.473983764648 -66.443122863770 -248.538269042969 3.124787807465
-150.164581298828 -61.934585571289 -247.789062500000 2.243777275085
32.459754943848 -65.056381225586 -265.057220458984 3.772555589676
-136.294097900391 -65.998039245605 -255.561584472656 2.556484699249
-127.988861083984 -71.789283752441 -252.682495117188 1.410786628723
-102.413581848145 -64.369125366211 -256.434326171875 2.550725936890
-23.414379119873 -62.714038848877 -254.218872070313 6.650306224823
21.047372817993 -65.411064147949 -266.401306152344 4.325107097626
13.677009582520 -62.491024017334 -268.268981933594 5.876945495605
-170.980514526367 -64.801292419434 -255.074066162109 6.372126102448
-125.515708923340 -73.155540466309 -261.028167724609 1.561912894249
-24.838491439819 -66.887496948242 -268.508758544922 11.064316749573
-143.195373535156 -69.826301574707 -262.474761962891 1.421055197716
-26.594413757324 -65.116157531738 -276.406646728516 12.683784484863
-175.252273559570 -70.284065246582 -265.360565185547 7.971899032593
-18.792175292969 -66.996795654297 -285.363189697266 5.814575672150
-172.939651489258 -70.969985961914 -281.973022460938 5.940831184387
-176.875061035156 -74.224052429199 -272.291717529297 9.422857284546
-155.088272094727 -70.234443664551 -280.861572265625 1.767358779907
-184.226470947266 -73.393684387207 -278.040161132813 16.338283538818
0.861666977406 -68.302192687988 -297.412689208984 4.266477584839
-116.155677795410 -69.861373901367 -285.408416748047 1.819927573204
-100.863410949707 -61.637130737305 -285.320281982422 7.564803600311
-181.365447998047 -66.637382507324 -277.469665527344 14.200149536133
-105.281707763672 -75.086303710938 -281.973327636719 4.778200626373
-168.802444458008 -70.783790588379 -283.720520019531 2.038858175278
-91.025390625000 -69.024841308594 -297.770416259766 5.987244606018
-85.499443054199 -66.456695556641 -290.154876708984 2.076499700546
-96.876152038574 -69.591148376465 -292.496887207031 2.346492767334
-17.130193710327 -63.176414489746 -294.957061767578 9.044089317322
-103.390487670898 -67.888061523438 -287.233673095703 1.362654685974
-112.591941833496 -70.532318115234 -289.773406982422 2.611531496048
-132.022171020508 -68.749610900879 -290.540069580078 0.608332931995
-130.401580810547 -64.348808288574 -290.534515380859 3.254870891571
-147.548660278320 -69.443611145020 -287.657318115234 0.948412775993
-156.502761840820 -68.442886352539 -296.317382812500 2.102805614471
-159.570968627930 -69.792953491211 -307.543762207031 3.549642801285
33.116355895996 -74.605827331543 -24.688112258911 6.423016548157
42.114704132080 -76.983985900879 -26.970041275024 6.615080833435
38.588306427002 -80.452568054199 -28.927179336548 9.935785293579
53.217212677002 -73.661140441895 -31.491836547852 4.755818367004
31.513483047485 -76.536354064941 -41.996303558350 4.612671375275
-67.992538452148 -77.820365905762 -48.749000549316 5.537945747375
94.000350952148 -67.800224304199 -81.632263183594 6.199481010437
-14.230394363403 -72.955482482910 -73.438026428223 3.994172811508
108.074211120605 -72.163742065430 -90.178665161133 6.238073348999
97.815727233887 -77.461128234863 -91.678764343262 3.437314033508
71.960624694824 -74.415924072266 -92.620292663574 1.525283694267
75.419845581055 -77.657928466797 -96.321662902832 3.054835081100
-40.448608398438 -80.429801940918 -86.677864074707 2.287089109421
64.357345581055 -78.947677612305 -94.620018005371 7.035596847534
-90.093742370605 -77.977691650391 -89.464447021484 2.653604745865
-44.162960052490 -73.687026977539 -88.526473999023 4.684996604919
-52.547897338867 -83.673194885254 -89.167251586914 2.087312221527
104.528030395508 -78.742034912109 -115.244934082031 4.669051647186
62.875495910645 -76.896591186523 -103.792045593262 7.672054290771
69.913246154785 -72.072174072266 -104.330902099609 4.324123859406
-92.067413330078 -70.007530212402 -97.197441101074 2.845791339874
110.631370544434 -73.781547546387 -108.219253540039 2.355940341949
44.688289642334 -71.370178222656 -110.613945007324 1.969871163368
104.172943115234 -71.034873962402 -114.595710754395 1.617398977280
108.430419921875 -67.713005065918 -122.917304992676 1.704306602478
101.811874389648 -71.628616333008 -119.857864379883 4.260485172272
76.323860168457 -75.979232788086 -113.448760986328 10.831970214844
88.314422607422 -73.983535766602 -122.958656311035 17.217096328735
51.470867156982 -70.930946350098 -123.123222351074 6.196571350098
112.126136779785 -66.826950073242 -119.133842468262 2.749553203583
49.285213470459 -77.081695556641 -116.461624145508 2.659071683884
40.600749969482 -71.283226013184 -113.030967712402 0.753880679607
114.382919311523 -71.400779724121 -127.696296691895 2.209917306900
-76.551055908203 -71.768676757813 -110.277900695801 2.502462863922
