-30.374071121216 -61.941955566406 -48.432682037354 2.522438764572
-91.105995178223 -68.226898193359 -51.651626586914 5.203493118286
-90.957672119141 -69.155288696289 -64.086738586426 1.912699818611
76.249557495117 -71.094741821289 -62.671020507813 3.265821933746
83.510429382324 -66.812019348145 -70.988792419434 5.417762279510
-21.694416046143 -66.140556335449 -73.035385131836 2.640904664993
-88.951972961426 -67.074180603027 -70.142578125000 5.231492519379
-25.950580596924 -67.014945983887 -74.816360473633 0.978845655918
-50.417846679688 -70.255874633789 -82.650535583496 3.107074260712
65.073661804199 -64.617218017578 -84.679809570313 1.296682953835
51.163646697998 -66.997138977051 -92.022453308105 1.735587477684
98.555664062500 -65.948745727539 -89.814323425293 4.624059677124
68.077255249023 -71.310974121094 -94.991493225098 3.232003927231
-70.805786132813 -69.304412841797 -87.250396728516 8.694786071777
-60.908306121826 -65.330238342285 -96.860458374023 3.212332248688
43.681427001953 -68.416343688965 -95.619964599609 1.814696431160
76.478309631348 -66.425811767578 -96.391868591309 5.696036338806
54.240245819092 -78.354042053223 -103.162658691406 2.671147823334
100.837196350098 -68.115768432617 -93.734687805176 2.231267213821
-95.662872314453 -72.373199462891 -105.315887451172 1.197841644287
40.415290832520 -68.553237915039 -107.681243896484 2.061235904694
106.539459228516 -70.274749755859 -107.674865722656 0.642983913422
48.278045654297 -69.207878112793 -109.596916198730 1.135848164558
99.606269836426 -70.544036865234 -109.001655578613 3.549527168274
-85.750633239746 -68.832023620605 -115.053985595703 2.118183612823
34.620510101318 -73.153701782227 -110.710609436035 2.147140979767
106.355613708496 -66.946998596191 -114.960845947266 0.337036758661
103.769073486328 -65.653175354004 -114.461257934570 3.039689302444
103.097923278809 -69.507385253906 -113.287147521973 2.371042728424
110.165687561035 -67.240608215332 -112.194313049316 1.746651411057
40.145397186279 -72.304786682129 -106.256927490234 1.335953712463
31.404218673706 -64.578407287598 -113.940818786621 7.315019130707
38.362720489502 -68.607582092285 -110.634330749512 1.349798798561
104.276885986328 -71.258216857910 -119.056121826172 2.294547080994
40.102024078369 -67.032135009766 -119.711097717285 3.562020063400
108.746810913086 -67.964935302734 -130.786148071289 1.223428010941
109.050666809082 -67.677680969238 -129.294464111328 0.875148296356
32.636928558350 -66.045433044434 -116.782920837402 5.994822025299
-79.431274414063 -70.293945312500 -121.041107177734 1.410852193832
111.550140380859 -65.466133117676 -131.895507812500 3.475488901138
-54.205669403076 -70.170906066895 -135.958145141602 3.378249406815
33.860374450684 -70.615592956543 -132.105850219727 1.794929385185
-74.630577087402 -70.304199218750 -131.560958862305 1.326860904694
24.618099212646 -73.082412719727 -127.859413146973 5.016600131989
-81.904762268066 -71.264022827148 -141.500259399414 4.620568275452
-46.482185363770 -73.575416564941 -139.629211425781 0.288999438286
-76.439483642578 -72.393089294434 -136.288635253906 2.623891353607
108.178367614746 -68.378601074219 -134.260131835938 1.647750854492
118.612220764160 -66.915405273438 -139.401931762695 5.701175212860
117.957984924316 -73.581954956055 -145.545288085938 2.237724781036
-81.405540466309 -70.131286621094 -141.011474609375 3.605535984039
5.612826824188 -65.457122802734 -148.686676025391 6.425089836121
-51.893653869629 -70.883384704590 -145.626800537109 3.354890346527
-52.987018585205 -71.860282897949 -152.557571411133 0.846476614475
104.885284423828 -70.953536987305 -161.192001342773 4.086111068726
-41.936439514160 -73.058372497559 -145.949768066406 2.076856613159
13.312431335449 -67.170959472656 -156.245773315430 1.304047942162
21.327394485474 -72.818618774414 -155.033416748047 0.938073039055
113.286636352539 -68.399017333984 -163.183441162109 2.674637556076
29.089113235474 -69.409416198730 -165.019821166992 3.185680389404
-1.976587057114 -72.387458801270 -161.509246826172 2.450751304626
30.769966125488 -71.154815673828 -158.118103027344 1.730798363686
-68.835014343262 -69.025825500488 -153.944427490234 1.236584067345
-67.693931579590 -70.723747253418 -156.716873168945 1.220959067345
-70.884895324707 -68.465301513672 -163.951004028320 5.353180885315
113.299652099609 -65.521682739258 -159.861984252930 4.329358100891
-45.933341979980 -71.236167907715 -160.684555053711 2.136378526688
15.127417564392 -70.561347961426 -162.841094970703 3.104488372803
-65.122810363770 -69.168655395508 -167.560470581055 3.773213863373
-65.812294006348 -68.182502746582 -169.274047851563 5.397804260254
-44.164272308350 -72.372238159180 -158.397552490234 3.181277036667
-35.871520996094 -74.398612976074 -165.298477172852 1.806313395500
114.557525634766 -73.363258361816 -169.360015869141 2.511729001999
-38.637687683105 -64.241363525391 -179.563507080078 7.412217617035
11.194019317627 -71.916305541992 -170.101318359375 6.027512073517
109.304664611816 -74.205726623535 -183.802398681641 1.543552756310
-148.469879150391 -73.507621765137 -173.399078369141 1.948744058609
-147.601531982422 -70.512359619141 -169.463455200195 5.468530178070
-148.318695068359 -68.992538452148 -178.916427612305 3.250731229782
-143.394592285156 -74.135620117188 -181.427932739258 1.229063630104
-34.016250610352 -69.312957763672 -182.547607421875 1.905132412910
-24.600749969482 -71.835319519043 -183.041564941406 2.161454677582
22.283018112183 -65.773780822754 -190.174209594727 4.199556350708
-142.044830322266 -70.651405334473 -183.971099853516 2.982922792435
-149.174972534180 -72.210006713867 -186.155639648438 0.633170425892
-23.313959121704 -68.734100341797 -183.156860351563 2.107475042343
8.364002227783 -70.743621826172 -180.332214355469 6.817675590515
-151.498077392578 -71.608451843262 -192.784698486328 2.409862041473
-32.908493041992 -71.344764709473 -186.847030639648 1.652830839157
98.533439636230 -71.230064392090 -186.150466918945 4.765586376190
104.015571594238 -68.821365356445 -187.733322143555 0.902982652187
23.569776535034 -65.234924316406 -191.306274414063 5.079411029816
-11.902321815491 -71.120124816895 -186.104583740234 7.519089698792
-29.897579193115 -73.664527893066 -190.339767456055 0.606299579144
-157.595001220703 -74.147506713867 -198.398971557617 3.681797266006
-134.199432373047 -72.964302062988 -194.118484497070 1.986984372139
-127.016746520996 -68.029090881348 -192.166381835938 2.679921865463
-127.412368774414 -70.111175537109 -194.879226684570 1.127731800079
-23.273300170898 -66.359878540039 -192.876693725586 2.456054925919
12.809510231018 -74.221206665039 -189.716186523438 2.194915533066
90.277381896973 -77.166969299316 -198.962524414063 5.780269622803
-152.632980346680 -66.691108703613 -191.816314697266 3.008549451828
-145.670120239258 -68.411979675293 -196.342208862305 1.596229910851
-153.082626342773 -71.839149475098 -198.379226684570 0.839386880398
-156.183319091797 -68.852851867676 -193.853973388672 1.728354215622
-25.342515945435 -70.300941467285 -197.346237182617 1.943184375763
-9.845875740051 -67.594223022461 -192.657577514648 6.375198364258
-146.387268066406 -66.210868835449 -200.389175415039 1.803817391396
-21.394340515137 -70.603286743164 -199.997970581055 2.339932918549
-162.058700561523 -71.229682922363 -199.180404663086 2.040854454041
-135.946609497070 -71.358886718750 -196.559661865234 2.184957504272
13.701718330383 -75.079200744629 -204.527877807617 2.585076808929
-161.065048217773 -67.292655944824 -201.799148559570 2.505105495453
-147.715164184570 -74.326812744141 -204.002548217773 2.594884634018
5.536981105804 -68.865425109863 -202.107192993164 2.992606401443
-155.747070312500 -68.415260314941 -199.761901855469 2.345998048782
-26.737222671509 -70.347686767578 -200.443420410156 1.987839221954
92.943504333496 -72.469528198242 -196.861251831055 3.739704132080
-161.259323120117 -73.791198730469 -207.991409301758 4.554255962372
-165.683837890625 -76.804313659668 -203.581680297852 5.374539375305
-77.166885375977 -69.067848205566 -204.304107666016 6.945644855499
88.727172851563 -70.651748657227 -206.078689575195 4.107378482819
-5.260934829712 -70.973396301270 -217.522033691406 2.364063262939
-157.851089477539 -70.675964355469 -210.185577392578 2.890520334244
-88.574104309082 -72.751243591309 -210.206100463867 3.757099866867
-11.229056358337 -75.606109619141 -208.546112060547 1.866807579994
14.660111427307 -71.324180603027 -216.009002685547 1.836642146111
-145.543838500977 -73.056472778320 -218.299468994141 0.992088675499
-5.342769145966 -77.913490295410 -218.414047241211 1.340928792953
-18.974229812622 -74.350936889648 -214.155715942383 2.609633445740
-15.973755836487 -68.424835205078 -219.202667236328 3.045629978180
90.087745666504 -71.942001342773 -219.028091430664 0.857372522354
-21.381866455078 -70.309478759766 -213.824325561523 3.091249465942
-34.864364624023 -71.252922058105 -215.651855468750 4.613408565521
-109.219367980957 -65.899040222168 -223.297897338867 1.438181996346
-17.923297882080 -70.013328552246 -221.630844116211 1.375130653381
92.541305541992 -69.457603454590 -216.962036132813 2.543736219406
73.861488342285 -73.286918640137 -219.488433837891 6.043203353882
7.055812835693 -73.404785156250 -216.389694213867 0.567952454090
-12.921847343445 -68.379173278809 -223.413452148438 3.478067636490
77.710258483887 -72.064590454102 -219.634689331055 4.140949249268
-122.856185913086 -77.483741760254 -222.720718383789 5.214935302734
-19.379079818726 -69.635261535645 -221.456436157227 2.642492532730
-96.999290466309 -71.776329040527 -220.942718505859 2.619693279266
-102.227745056152 -72.419982910156 -220.465454101563 1.216394186020
-131.000076293945 -75.034095764160 -226.755477905273 1.890951991081
79.739692687988 -72.585159301758 -221.189086914063 2.689404964447
-124.126327514648 -73.533287048340 -224.923400878906 1.014842033386
2.811835050583 -71.113189697266 -227.149871826172 1.047626495361
80.523155212402 -70.216445922852 -222.756881713867 2.855134963989
-17.873937606812 -73.966590881348 -231.243698120117 2.764310121536
-15.762201309204 -73.192161560059 -223.207946777344 1.351174712181
-1.387235999107 -79.591529846191 -227.651947021484 1.570940494537
10.155423164368 -75.156982421875 -225.552978515625 2.257191181183
89.313255310059 -73.822326660156 -225.620269775391 3.560842037201
7.897727012634 -70.372764587402 -228.996902465820 1.075719594955
5.483434200287 -71.125923156738 -227.669662475586 1.869729876518
-10.442735671997 -73.074714660645 -229.768569946289 1.716495633125
-8.089275360107 -73.904113769531 -225.972137451172 1.449988961220
18.629766464233 -70.942924499512 -231.402297973633 1.474732637405
-13.967325210571 -68.703720092773 -230.822937011719 0.797868490219
69.455017089844 -73.128532409668 -238.874160766602 1.907573938370
-11.174290657043 -71.126296997070 -237.441238403320 1.476097702980
17.934736251831 -73.391807556152 -233.614944458008 1.748924136162
-162.173431396484 -70.439651489258 -237.187881469727 2.775732278824
-7.402588844299 -69.411018371582 -233.855346679688 1.989582300186
-8.702960014343 -74.705520629883 -237.012268066406 2.392565965652
-168.927108764648 -74.545364379883 -247.667037963867 3.479570865631
-12.511753082275 -70.131874084473 -241.906555175781 1.038691043854
13.373203277588 -69.125122070313 -242.983947753906 1.172781229019
-149.729553222656 -75.215919494629 -249.116622924805 3.424467802048
-77.366119384766 -73.091293334961 -249.606353759766 1.928997397423
-63.651470184326 -74.613883972168 -244.945571899414 1.460619330406
49.873088836670 -69.156646728516 -245.027023315430 1.962157249451
-74.568649291992 -72.232032775879 -243.791503906250 3.193098068237
14.545775413513 -73.280509948730 -247.751464843750 2.522833108902
-74.281791687012 -74.457626342773 -248.384750366211 1.612503051758
-17.346181869507 -69.863563537598 -240.899185180664 1.016470432281
-146.798461914063 -77.025436401367 -249.936965942383 1.995888948441
43.805641174316 -67.783027648926 -249.095520019531 0.648516356945
-82.462448120117 -77.300659179688 -254.403549194336 1.969640016556
-104.758514404297 -69.122375488281 -252.977066040039 2.886059045792
-101.877616882324 -74.930778503418 -251.854095458984 4.114630222321
-122.891921997070 -69.507469177246 -249.171432495117 5.992208003998
-107.711257934570 -68.938224792480 -254.979293823242 0.895221292973
-106.690139770508 -72.266044616699 -255.013473510742 1.989500522614
19.469369888306 -68.219696044922 -255.583679199219 3.785369396210
-132.104782104492 -70.292274475098 -262.756622314453 2.425543308258
-17.044401168823 -74.515640258789 -272.876129150391 4.373802185059
-150.601409912109 -70.321731567383 -281.732757568359 2.042182207108
-170.546157836914 -76.619117736816 -283.997955322266 2.728139162064
-126.845420837402 -75.302261352539 -280.411132812500 4.344837188721
-116.033653259277 -70.083435058594 -284.425933837891 2.358944416046
-77.566253662109 -68.768333435059 -280.726287841797 6.035572052002
-59.773689270020 -75.731483459473 -284.391967773438 2.343112230301
-43.127643585205 -72.358215332031 -283.558654785156 3.978777647018
-17.464752197266 -78.894645690918 -288.851318359375 1.375839233398
-15.691205978394 -70.968711853027 -291.349456787109 1.091431379318
-40.760993957520 -77.500869750977 -288.667297363281 2.370548725128
-36.498706817627 -74.084304809570 -286.576507568359 2.220475912094
-21.327001571655 -69.693046569824 -286.577819824219 2.611876964569
-75.339218139648 -73.036613464355 -291.991516113281 3.225642442703
-58.436412811279 -73.234390258789 -289.148284912109 1.699683904648
-20.986106872559 -69.261177062988 -289.892486572266 3.012264728546
-15.899920463562 -76.376167297363 -286.805755615234 2.438077211380
-5.641689777374 -73.383056640625 -291.445922851563 2.410430431366
0.532387971878 -69.183799743652 -291.012359619141 1.714558601379
-95.779792785645 -74.216728210449 -291.240722656250 1.401192426682
-140.337966918945 -77.602897644043 -293.706481933594 2.872139215469
-117.566612243652 -75.378631591797 -290.279937744141 1.549900293350
-155.530578613281 -71.533218383789 -291.144683837891 0.959365129471
-152.639266967773 -75.684730529785 -296.858215332031 2.125149965286
-149.518875122070 -71.389007568359 -297.804718017578 2.949214458466
42.660030364990 -61.854370117188 -20.801681518555 0.878744542599
19.389719009399 -69.823982238770 -21.258563995361 2.115159511566
49.246406555176 -61.039741516113 -22.176094055176 0.729033112526
46.363685607910 -66.946403503418 -33.704490661621 2.696546554565
87.339019775391 -66.251144409180 -69.875572204590 3.896842956543
95.074081420898 -68.905944824219 -72.648536682129 2.658624887466
100.533607482910 -66.970237731934 -74.825874328613 1.512248516083
97.328308105469 -66.763595581055 -82.440063476563 3.286132812500
54.701534271240 -68.344215393066 -88.171440124512 1.437515497208
42.792747497559 -74.242111206055 -87.454734802246 7.464538574219
62.426548004150 -66.076683044434 -88.976425170898 2.562387228012
-66.590103149414 -65.754493713379 -91.825080871582 2.688661575317
70.884300231934 -65.354286193848 -85.460075378418 5.064589023590
98.905174255371 -58.310733795166 -98.076530456543 2.875039100647
73.416275024414 -67.583923339844 -100.081123352051 2.776263237000
92.272300720215 -65.910903930664 -101.663917541504 4.439152240753
-87.853782653809 -69.018707275391 -102.808082580566 3.983538627625
44.836559295654 -65.548454284668 -94.090370178223 3.277402877808
-89.006195068359 -69.735694885254 -97.835060119629 5.527890205383
50.616916656494 -68.896720886230 -108.173126220703 1.527682065964
35.580368041992 -75.537178039551 -100.887725830078 6.734890937805
98.597000122070 -66.126960754395 -101.549690246582 1.647097468376
35.549907684326 -67.821144104004 -102.549537658691 5.994126796722
43.596195220947 -70.411102294922 -118.851837158203 1.893801331520
41.290882110596 -68.401885986328 -111.111419677734 1.451998710632
110.424102783203 -65.976028442383 -109.709518432617 1.149996519089
-81.713264465332 -75.036247253418 -119.561904907227 3.775888681412
111.803573608398 -73.302818298340 -120.730827331543 1.950297117233
40.463134765625 -63.151226043701 -123.535018920898 2.509079456329
38.811183929443 -67.936836242676 -117.978683471680 1.472460627556
33.192718505859 -69.056724548340 -117.901435852051 3.935758829117
-56.187641143799 -74.749961853027 -127.043647766113 3.957422018051
28.512615203857 -66.930397033691 -121.294891357422 4.902357101440
-79.252754211426 -65.391372680664 -136.377838134766 1.729505658150
-56.225299835205 -73.809303283691 -130.109405517578 1.494180440903
-80.794212341309 -66.132827758789 -132.776290893555 1.608306050301
35.555953979492 -66.031692504883 -130.125396728516 2.703101634979
-61.239795684814 -71.105865478516 -131.159729003906 1.299993038177
34.049320220947 -67.793403625488 -131.034179687500 1.827503323555
-72.553245544434 -66.678001403809 -137.522781372070 1.579976320267
-60.630508422852 -64.432159423828 -140.331924438477 2.819384098053
22.408111572266 -70.315696716309 -142.521118164063 3.268731355667
110.644439697266 -71.705574035645 -141.104858398438 1.742861270905
113.608123779297 -62.986495971680 -136.090347290039 5.898673534393
29.067993164063 -69.389617919922 -140.865829467773 1.222433328629
-51.162429809570 -71.795852661133 -137.467193603516 2.050757169724
103.703407287598 -65.915679931641 -151.084060668945 7.356610774994
-77.839805603027 -69.051216125488 -140.199432373047 0.791795611382
-59.875694274902 -68.989532470703 -139.938568115234 0.761632442474
30.349073410034 -62.565155029297 -144.300292968750 5.637022495270
-79.678184509277 -71.280662536621 -143.645294189453 2.791667222977
-71.719993591309 -68.772689819336 -147.590148925781 1.071012854576
112.555221557617 -74.192100524902 -147.493545532227 1.366918683052
-65.926269531250 -67.693916320801 -153.538681030273 3.623957395554
-40.991008758545 -65.118392944336 -149.621337890625 4.669994831085
23.110630035400 -67.240303039551 -142.660171508789 0.188136756420
-73.457626342773 -69.986816406250 -141.789047241211 0.384011358023
11.024012565613 -67.730842590332 -146.881195068359 2.750294446945
30.445489883423 -68.779930114746 -156.525939941406 2.041807413101
29.922058105469 -65.896995544434 -150.032043457031 3.101073503494
15.876895904541 -74.465332031250 -151.526962280273 2.641006708145
-52.175804138184 -72.058746337891 -150.740844726563 1.079163432121
21.627929687500 -72.083129882813 -151.139999389648 1.421688079834
-48.469295501709 -68.266532897949 -149.021286010742 0.200645819306
1.928815007210 -69.370780944824 -152.264648437500 5.618137359619
17.915279388428 -67.969589233398 -148.085556030273 1.936087489128
-68.689041137695 -68.298446655273 -156.339782714844 2.510863304138
-48.843227386475 -65.878608703613 -152.113555908203 2.254645824432
-70.069793701172 -69.355033874512 -149.750030517578 0.772560179234
18.717351913452 -67.742546081543 -156.784240722656 3.598371505737
22.147949218750 -68.013862609863 -148.227264404297 2.882630348206
0.937045991421 -69.673416137695 -164.554046630859 2.641660451889
20.419586181641 -67.877906799316 -150.190887451172 2.446439266205
29.077522277832 -68.414108276367 -166.944381713867 2.208331346512
-48.773826599121 -70.691299438477 -161.970733642578 1.918935060501
-40.064437866211 -78.843330383301 -162.114715576172 2.032396554947
-43.231021881104 -71.072525024414 -159.000350952148 1.979138970375
26.201595306396 -69.975120544434 -155.634384155273 2.071169137955
-46.237453460693 -66.744354248047 -164.235031127930 3.825595617294
-40.919460296631 -67.879081726074 -166.781616210938 3.325263261795
20.202167510986 -67.355964660645 -163.486312866211 3.814468860626
-41.326034545898 -70.641105651855 -174.326507568359 2.420348167419
25.684375762939 -64.171592712402 -168.353118896484 4.367202281952
108.751251220703 -64.426155090332 -161.934127807617 6.038313865662
-35.955451965332 -69.963973999023 -170.126739501953 2.941800117493
98.488716125488 -66.106025695801 -171.940155029297 9.447655677795
-36.294872283936 -69.575660705566 -175.853408813477 1.454401135445
-39.685413360596 -74.143997192383 -179.931640625000 2.009003877640
21.153964996338 -73.183280944824 -176.327194213867 2.819449424744
104.840515136719 -70.438865661621 -180.332183837891 1.514882087708
-34.847717285156 -67.891708374023 -179.826034545898 3.661087989807
-37.782363891602 -69.684677124023 -177.552291870117 2.168495178223
-24.477809906006 -75.840583801270 -185.289962768555 2.380216836929
-150.951354980469 -71.077384948730 -187.101104736328 1.788368225098
9.432951927185 -69.339279174805 -181.486724853516 5.674892902374
102.284866333008 -68.046180725098 -190.729278564453 3.586087465286
-162.702499389648 -70.478546142578 -189.829238891602 6.312910556793
-22.678644180298 -65.410987854004 -186.221878051758 3.916977167130
-117.472114562988 -73.328498840332 -195.543334960938 1.142633914948
-130.689849853516 -72.867980957031 -192.124191284180 3.924651861191
-108.402938842773 -72.135551452637 -197.835327148438 3.090420484543
-116.695640563965 -69.524185180664 -197.894683837891 2.575152397156
-12.930599212646 -71.692626953125 -194.295608520508 2.694689273834
18.014341354370 -67.687858581543 -194.085388183594 2.538798809052
-17.740139007568 -65.705688476563 -200.206329345703 2.609171867371
-130.211578369141 -71.044425964355 -203.845352172852 0.773294150829
-22.228837966919 -65.398071289063 -199.253677368164 3.569477796555
-129.811264038086 -68.531448364258 -200.605957031250 3.479079484940
-18.471055984497 -70.093170166016 -196.655624389648 0.579305291176
-149.007461547852 -69.466766357422 -199.053298950195 1.671845674515
89.937789916992 -64.539505004883 -204.475067138672 7.496371746063
-166.027557373047 -63.629840850830 -198.860351562500 3.761850118637
-3.771683931351 -71.917106628418 -218.397201538086 1.563459038734
10.445610046387 -72.508460998535 -208.355987548828 1.226071000099
8.395689010620 -74.503669738770 -215.241363525391 2.043084859848
80.497680664063 -70.486022949219 -214.305557250977 3.479469060898
7.705862998962 -71.987541198730 -211.426177978516 1.993846416473
9.529355049133 -69.390670776367 -213.181976318359 1.535777091980
-17.603054046631 -74.344429016113 -213.243484497070 1.977267265320
-92.182907104492 -72.214859008789 -210.465560913086 3.955485582352
-100.365692138672 -71.199890136719 -214.457305908203 3.525257825851
0.562866985798 -69.770500183105 -216.158615112305 3.997202157974
-168.410476684570 -74.410118103027 -218.645034790039 2.538989543915
14.462692260742 -67.591056823730 -216.207534790039 0.774944961071
-146.595993041992 -70.659721374512 -217.685073852539 1.772434711456
11.860912322998 -71.502983093262 -222.972000122070 1.888324022293
-137.139572143555 -73.681198120117 -222.547698974609 3.928170204163
-117.205718994141 -72.723030090332 -226.063308715820 0.747051239014
15.528550148010 -69.963333129883 -218.296768188477 1.207912564278
77.770835876465 -70.560066223145 -217.719024658203 3.695824623108
4.396714210510 -71.612930297852 -221.723892211914 1.495069146156
-110.644493103027 -70.213348388672 -229.208541870117 2.527376890182
67.825546264648 -72.181648254395 -225.650695800781 5.101182460785
83.834968566895 -72.340652465820 -227.646575927734 1.497243762016
-128.219421386719 -71.362228393555 -234.560226440430 1.613551020622
-120.685035705566 -71.270919799805 -227.644210815430 2.971887350082
-11.098839759827 -66.133529663086 -224.151092529297 3.541644811630
70.236541748047 -71.470520019531 -231.211273193359 1.397973537445
62.781074523926 -71.424186706543 -230.432662963867 6.248671531677
70.334838867188 -70.094703674316 -226.679229736328 2.402126550674
-138.355102539063 -67.017532348633 -231.554336547852 3.634762763977
67.340698242188 -72.341156005859 -228.768417358398 2.575017690659
63.895427703857 -67.617362976074 -233.290649414063 3.697799682617
-167.786422729492 -69.348510742188 -229.135055541992 1.465959548950
0.307521998882 -79.959815979004 -240.059967041016 2.604713439941
18.914438247681 -73.029335021973 -237.086578369141 2.034061431885
-7.966906070709 -67.698570251465 -239.713821411133 1.937508106232
15.201722145081 -64.051620483398 -237.563369750977 2.991004228592
65.411811828613 -72.098678588867 -235.910797119141 1.488876104355
5.601078987122 -68.576332092285 -242.901077270508 2.693003654480
-13.463030815125 -64.090171813965 -238.416442871094 2.913886785507
-3.637438058853 -67.075302124023 -233.625320434570 1.218152999878
63.034004211426 -71.596542358398 -240.299224853516 1.787164688110
-0.403524994850 -71.292572021484 -240.474304199219 1.491563677788
-7.854787826538 -72.296119689941 -241.144317626953 1.049248337746
12.871735572815 -74.972953796387 -239.864852905273 1.670654892921
-169.397689819336 -74.965873718262 -238.584777832031 3.698502779007
52.411800384521 -72.597579956055 -245.284637451172 2.119226455688
46.786895751953 -63.386890411377 -251.307525634766 2.130491971970
57.905075073242 -71.849372863770 -241.314697265625 2.072273969650
-14.117875099182 -68.683303833008 -246.022460937500 1.523406624794
55.200054168701 -70.308280944824 -243.142303466797 1.744999885559
-76.435035705566 -71.511795043945 -248.791625976563 2.030233860016
48.381900787354 -71.738609313965 -246.253402709961 2.787378311157
-89.393669128418 -71.083526611328 -250.750564575195 1.984765887260
-123.705543518066 -73.190071105957 -255.797927856445 1.225858449936
-133.813796997070 -72.384529113770 -249.896240234375 3.960047006607
45.548160552979 -73.588851928711 -249.533905029297 2.074122905731
-132.505752563477 -75.543762207031 -249.260269165039 5.638571262360
-110.325462341309 -68.883789062500 -251.813201904297 4.512032508850
-119.453765869141 -69.538589477539 -255.664215087891 3.322050333023
-86.305984497070 -72.211914062500 -252.219909667969 1.783666372299
-112.457328796387 -68.649024963379 -255.945129394531 1.713938593864
-126.107902526855 -76.635414123535 -260.266876220703 0.905885100365
-149.280487060547 -69.489166259766 -266.287597656250 2.736253976822
-17.193267822266 -69.877929687500 -265.853210449219 2.985311746597
-175.393218994141 -75.873687744141 -262.333953857422 9.119379997253
-16.879262924194 -70.810630798340 -272.987487792969 2.864743232727
-160.581359863281 -68.166946411133 -264.879180908203 0.531262934208
-154.701583862305 -73.677665710449 -269.930145263672 2.503832340240
-172.941268920898 -72.708824157715 -275.242950439453 5.532368183136
-17.207628250122 -73.039245605469 -279.960876464844 6.546374797821
-130.090286254883 -75.875038146973 -280.363677978516 3.442158460617
-159.037399291992 -72.713409423828 -283.939605712891 3.357843160629
-145.137603759766 -71.445739746094 -278.150329589844 1.807812094688
-136.878982543945 -75.568321228027 -275.553985595703 8.098954200745
-10.279772758484 -64.302482604980 -282.371917724609 3.883539676666
-128.183975219727 -76.527343750000 -280.430023193359 4.274125576019
-142.799407958984 -69.246505737305 -283.600250244141 1.272001028061
-117.332992553711 -77.343109130859 -283.114074707031 3.887694120407
-83.093986511230 -69.536743164063 -286.965026855469 2.708861589432
-61.735294342041 -74.173049926758 -284.716888427734 1.938372492790
-10.019316673279 -73.849304199219 -285.682159423828 1.593982934952
-56.666645050049 -70.842361450195 -281.512664794922 5.155021667480
-58.861312866211 -69.500358581543 -286.599121093750 2.034765958786
-73.413764953613 -70.545158386230 -288.172912597656 1.362035036087
-91.101989746094 -71.039474487305 -293.093200683594 1.934116959572
-95.291145324707 -70.510597229004 -285.683471679688 3.184646368027
-161.384429931641 -72.579559326172 -289.175109863281 2.025611877441
-162.343307495117 -74.006103515625 -292.218231201172 1.104061961174
-126.164146423340 -76.648414611816 -290.963165283203 0.953519284725
-146.474914550781 -72.730072021484 -291.997772216797 2.534710645676
-153.685089111328 -76.122505187988 -302.933624267578 1.683362483978
-154.550537109375 -77.221466064453 -309.031890869141 2.460136413574
47.346160888672 -63.075489044189 -11.216109275818 3.821809291840
13.847520828247 -67.510253906250 -29.621795654297 7.039569854736
41.319774627686 -60.127056121826 -33.576225280762 2.906219720840
-15.799744606018 -69.989204406738 -64.034080505371 2.092146396637
80.358551025391 -63.399459838867 -63.418758392334 3.382714748383
89.225791931152 -60.565258026123 -64.511833190918 3.167530536652
77.510429382324 -71.121299743652 -63.278499603271 3.569286584854
70.841453552246 -68.135391235352 -68.119743347168 1.104421615601
89.717697143555 -68.061904907227 -74.390220642090 6.091542720795
-98.873184204102 -62.835075378418 -68.174095153809 2.034558534622
64.864433288574 -66.421012878418 -73.419342041016 1.448540568352
-37.617469787598 -69.563926696777 -75.661003112793 1.725714325905
96.900703430176 -65.635231018066 -83.814086914063 4.121168613434
61.155094146729 -62.366817474365 -88.920555114746 2.156631946564
106.401947021484 -72.297836303711 -90.534111022949 5.190338611603
98.213874816895 -71.900314331055 -97.140777587891 0.739665567875
72.037673950195 -66.789489746094 -99.814979553223 2.438099861145
-83.300910949707 -64.409706115723 -100.798095703125 3.437914609909
53.039302825928 -65.823081970215 -104.160766601563 2.626897335052
106.779518127441 -62.459850311279 -105.326972961426 4.497252941132
44.513748168945 -66.785186767578 -112.289428710938 1.897584319115
78.169486999512 -65.147506713867 -104.675773620605 3.237537622452
39.938541412354 -66.390579223633 -106.334106445313 2.060274124146
101.214401245117 -66.248588562012 -101.562202453613 1.078732490540
45.943145751953 -66.573806762695 -106.159660339355 2.491566896439
104.580238342285 -73.769386291504 -107.449569702148 1.359567523003
109.330505371094 -71.165054321289 -108.307647705078 2.308574914932
-81.676376342773 -64.890617370605 -112.283828735352 1.635132551193
-84.904586791992 -65.238059997559 -118.471817016602 0.773899853230
42.187229156494 -70.822135925293 -117.813140869141 1.304805994034
112.073928833008 -68.815246582031 -121.415863037109 1.346932888031
111.758178710938 -66.920379638672 -121.958610534668 1.236714959145
-90.627708435059 -66.845069885254 -124.599197387695 3.608034849167
103.499794006348 -69.764259338379 -125.533454895020 4.164212226868
-61.291496276855 -73.890174865723 -129.762985229492 3.539525508881
-87.870620727539 -68.743858337402 -125.809356689453 2.364593982697
-72.438858032227 -68.892227172852 -124.597755432129 3.690793991089
-61.849895477295 -63.651977539063 -124.897529602051 2.602659463882
30.358400344849 -67.358535766602 -129.111053466797 3.776312351227
42.459835052490 -63.987216949463 -134.235473632813 6.138580799103
-73.206466674805 -67.839714050293 -134.163009643555 0.623870849609
27.130489349365 -64.284797668457 -128.180282592773 5.024044513702
111.077125549316 -67.150382995605 -143.293411254883 3.128353834152
-40.008529663086 -68.679756164551 -147.537338256836 3.582839965820
31.545661926270 -70.292869567871 -147.681610107422 1.322557568550
111.386627197266 -65.178390502930 -147.548812866211 3.909662008286
34.367088317871 -68.624664306641 -140.585403442383 1.828371286392
108.107849121094 -65.714927673340 -138.166763305664 5.778448104858
-53.472377777100 -67.979629516602 -147.683181762695 0.758590698242
-75.170372009277 -64.819717407227 -149.579010009766 4.985950469971
-59.186744689941 -68.958007812500 -148.990966796875 5.016629219055
-44.371437072754 -73.856163024902 -162.898071289063 0.465291202068
1.834251046181 -70.832519531250 -153.788787841797 4.693706035614
107.123901367188 -68.194931030273 -151.453491210938 4.374871253967
106.660964965820 -67.387260437012 -159.253097534180 4.700275897980
9.190567016602 -67.974876403809 -154.979995727539 1.122987270355
0.259786993265 -67.446983337402 -158.658554077148 5.173685550690
19.441240310669 -65.955200195313 -152.412887573242 0.646878242493
24.268798828125 -66.266555786133 -153.880752563477 2.394421577454
105.560012817383 -67.468826293945 -163.808105468750 4.497831344604
109.122421264648 -71.849197387695 -165.892379760742 2.441378593445
22.210313796997 -65.173774719238 -174.327621459961 2.448029279709
22.479312896729 -71.708541870117 -163.168762207031 1.706660747528
109.757087707520 -64.903404235840 -160.652023315430 5.667170524597
-31.710227966309 -67.248733520508 -176.933502197266 2.462841510773
108.804046630859 -68.315986633301 -165.825042724609 2.149769544601
16.082435607910 -68.598831176758 -163.222457885742 3.947973489761
19.578317642212 -68.369392395020 -167.289520263672 1.175403594971
106.207839965820 -68.441978454590 -170.942245483398 2.282283782959
25.647363662720 -67.181205749512 -168.213287353516 1.554886698723
111.830764770508 -66.498619079590 -183.489746093750 4.682204246521
-40.442443847656 -68.399719238281 -177.455078125000 4.969568729401
22.254896163940 -68.245277404785 -167.636413574219 0.603147268295
106.004539489746 -68.077308654785 -183.114196777344 2.488414287567
20.808412551880 -69.783699035645 -175.223236083984 1.818373322487
-153.191116333008 -67.713943481445 -183.744766235352 3.346915960312
-29.825155258179 -65.308273315430 -188.089370727539 3.816987037659
22.315917968750 -65.518905639648 -183.461853027344 2.883183717728
-117.251152038574 -72.043563842773 -189.966567993164 4.639999389648
-113.728996276855 -66.188682556152 -190.514694213867 2.178984642029
23.069545745850 -69.549346923828 -185.971145629883 1.765406608582
8.949698448181 -65.351028442383 -182.898620605469 7.563293457031
-28.929803848267 -64.998092651367 -188.630554199219 3.532200813293
-30.802118301392 -74.525856018066 -187.189559936523 1.057304024696
-30.743358612061 -69.640083312988 -186.213760375977 2.433813095093
11.152509689331 -65.622825622559 -178.326263427734 6.238934516907
-152.653869628906 -69.857406616211 -193.563796997070 1.932846426964
-148.173233032227 -69.080963134766 -189.931625366211 3.057776451111
-148.275192260742 -74.379379272461 -196.909942626953 2.759956121445
-25.486074447632 -67.862083435059 -189.524429321289 1.641363143921
12.484460830688 -65.655487060547 -197.963607788086 3.053857088089
96.580810546875 -66.736938476563 -191.038360595703 6.251547336578
-115.451637268066 -67.901329040527 -196.218780517578 0.852987587452
19.362237930298 -73.791740417480 -195.859970092773 0.731798052788
-15.663776397705 -67.504425048828 -192.953872680664 3.031342506409
-19.138877868652 -68.919357299805 -196.580337524414 1.084888458252
99.636726379395 -66.670951843262 -198.625259399414 3.930819511414
5.273484230042 -72.007507324219 -196.302139282227 3.990465402603
-24.066408157349 -67.099617004395 -194.830978393555 1.215323448181
-122.493545532227 -73.741119384766 -201.903137207031 1.115918040276
-136.352294921875 -70.492759704590 -200.864532470703 1.745716929436
-116.239341735840 -63.410194396973 -203.907928466797 1.466204166412
-144.084823608398 -74.101425170898 -200.731506347656 1.432823657990
14.932692527771 -68.527023315430 -196.068222045898 0.858600556850
90.841163635254 -70.650939941406 -198.333480834961 4.348185062408
-167.379913330078 -63.881961822510 -197.868927001953 4.436893463135
98.271522521973 -67.572906494141 -199.961425781250 3.947901248932
-25.120393753052 -74.853279113770 -203.228073120117 1.743239283562
92.781066894531 -64.942077636719 -207.813491821289 5.349788665771
86.370841979980 -71.227020263672 -207.929504394531 3.727254152298
8.814602851868 -71.889778137207 -201.444442749023 1.388522505760
18.806943893433 -67.928337097168 -211.124298095703 1.300187706947
11.442749023438 -64.995956420898 -206.562118530273 3.509501457214
-12.803151130676 -69.838516235352 -221.695678710938 2.369533300400
-95.716529846191 -73.421966552734 -217.427200317383 1.593334078789
-13.992991447449 -72.354347229004 -209.271621704102 3.384814500809
86.067611694336 -69.638267517090 -215.801193237305 0.635098040104
-96.232620239258 -73.350456237793 -214.283187866211 2.609848499298
-101.875617980957 -66.346107482910 -219.897399902344 2.161722660065
-98.026512145996 -69.591171264648 -216.867736816406 1.108443379402
87.257202148438 -71.871543884277 -220.813186645508 1.598630309105
-137.717163085938 -71.418479919434 -222.854187011719 3.755342006683
-133.114059448242 -77.254219055176 -225.219314575195 2.349998235703
-118.407760620117 -70.603157043457 -222.448471069336 2.860219955444
-115.299812316895 -67.039001464844 -219.381027221680 5.844964504242
-134.698165893555 -67.953010559082 -225.647201538086 0.620696067810
-115.065811157227 -79.671463012695 -225.734878540039 6.099309444427
-113.243347167969 -69.578201293945 -226.174926757813 1.419732093811
-8.927956581116 -74.548164367676 -221.906982421875 2.912698030472
-17.084253311157 -73.260559082031 -221.147094726563 2.046065330505
-2.758395910263 -66.698257446289 -228.044403076172 1.848410725594
-11.910094261169 -65.738151550293 -225.044921875000 3.004555463791
13.792226791382 -70.989646911621 -232.194152832031 1.630950450897
-22.193441390991 -67.419372558594 -227.570144653320 5.750757694244
-168.755218505859 -68.727287292480 -218.379623413086 3.079893350601
-7.245863914490 -70.735687255859 -231.906402587891 2.034129142761
79.117256164551 -65.157363891602 -230.695617675781 4.721904754639
10.065180778503 -72.374610900879 -231.368759155273 2.249989271164
-7.318730831146 -69.208442687988 -233.497680664063 1.800618290901
-159.051986694336 -68.161262512207 -233.571014404297 3.110750436783
-145.171096801758 -68.606842041016 -226.299514770508 2.304309368134
59.148387908936 -68.371322631836 -234.918441772461 3.485533237457
-7.484568119049 -70.918457031250 -231.298767089844 1.584837913513
9.122746467590 -72.520568847656 -227.323837280273 1.659978866577
67.680000305176 -72.865280151367 -225.752441406250 5.101606845856
74.964866638184 -69.263488769531 -232.992416381836 2.218854904175
69.721160888672 -71.225685119629 -240.707717895508 1.256703138351
-3.791902065277 -74.131576538086 -232.784790039063 1.721425771713
56.628555297852 -67.027336120605 -235.122528076172 5.525976181030
-21.217882156372 -73.915054321289 -238.134887695313 1.328693270683
-16.335094451904 -66.441230773926 -237.964035034180 3.435317277908
5.899878978729 -69.816734313965 -236.658874511719 2.538248538971
62.142330169678 -74.259635925293 -234.921508789063 3.466472387314
65.456230163574 -67.545494079590 -239.817565917969 1.604748725891
46.785747528076 -70.533615112305 -243.975158691406 3.227777004242
59.067573547363 -74.128356933594 -240.796005249023 0.899910032749
-17.201143264771 -77.143562316895 -246.886550903320 4.803256988525
-85.889190673828 -67.053222656250 -254.460845947266 1.643639445305
-78.906784057617 -68.177894592285 -251.547866821289 2.526736259460
42.134590148926 -73.968223571777 -245.143630981445 5.240064620972
-153.704696655273 -73.288085937500 -247.395568847656 1.679404735565
33.356090545654 -69.892707824707 -255.235229492188 1.597068309784
-94.263786315918 -76.511283874512 -249.538146972656 4.257778644562
-159.183074951172 -66.073867797852 -251.734252929688 3.150655508041
-141.883666992188 -61.823986053467 -249.953063964844 5.126900196075
41.407165527344 -69.473281860352 -252.314514160156 1.403467535973
-127.547836303711 -66.722236633301 -256.262207031250 1.913554310799
-119.631935119629 -72.416000366211 -252.296844482422 3.888162136078
-93.673759460449 -65.758796691895 -254.552047729492 1.747715950012
-15.072335243225 -65.317581176758 -246.176574707031 3.576594591141
30.129558563232 -69.731979370117 -254.533416748047 2.223720073700
22.998636245728 -66.837844848633 -257.200073242188 0.737423241138
-162.128372192383 -64.884925842285 -258.634948730469 3.551637649536
-116.546981811523 -74.471031188965 -260.290161132813 2.320450544357
-15.473274230957 -70.565612792969 -260.174560546875 2.354791402817
-133.976058959961 -70.955978393555 -263.391632080078 0.925943076611
-16.564281463623 -69.384246826172 -268.299346923828 3.452438831329
-165.711227416992 -71.076560974121 -268.781280517578 2.927870512009
-8.132425308228 -72.092758178711 -276.435607910156 3.031220674515
-162.124114990234 -73.094375610352 -285.055572509766 2.885578393936
-166.879791259766 -75.515357971191 -275.499114990234 2.200808286667
-144.401824951172 -72.586715698242 -282.583465576172 1.250048041344
-173.737808227539 -75.006759643555 -281.861999511719 5.546932697296
12.366787910461 -74.675918579102 -286.744750976563 2.385714530945
-105.235008239746 -73.249549865723 -284.026336669922 2.053468227386
-89.806694030762 -65.312034606934 -283.346343994141 6.697729110718
-170.771575927734 -68.277603149414 -281.581970214844 5.383843898773
-94.789039611816 -78.380424499512 -279.346710205078 8.736944198608
-157.859741210938 -73.117187500000 -286.476715087891 3.007064104080
-79.202682495117 -73.817687988281 -294.372650146484 3.719845771790
-74.229820251465 -70.761299133301 -286.558746337891 1.137999057770
-85.459442138672 -73.869239807129 -289.554687500000 2.232426404953
-5.636054039001 -69.060714721680 -286.129669189453 1.449877023697
-92.323226928711 -71.647842407227 -284.972961425781 4.138451099396
-101.357833862305 -74.320571899414 -288.029327392578 1.617107152939
-120.621253967285 -72.263557434082 -290.476684570313 1.870625257492
-118.902702331543 -67.904701232910 -290.677490234375 0.679941117764
-136.337600708008 -72.459419250488 -288.796752929688 2.433304309845
-144.561370849609 -71.979721069336 -298.194305419922 1.989371538162
-146.773757934570 -74.146064758301 -309.493896484375 3.172287940979
23.049823760986 -60.285667419434 -12.632397651672 3.740157604218
32.140396118164 -62.991249084473 -14.001504898071 0.844063758850
28.696922302246 -66.539520263672 -15.963438034058 1.402152061462
43.637630462646 -60.225227355957 -17.863685607910 2.896079540253
22.759521484375 -63.529834747314 -29.815547943115 3.500530242920
-75.916923522949 -63.595977783203 -44.364158630371 1.410767674446
88.341712951660 -59.000553131104 -64.892654418945 4.421225547791
-20.289840698242 -61.609104156494 -64.986160278320 0.436447471380
102.933647155762 -64.261726379395 -71.931869506836 1.163416862488
92.701705932617 -69.479682922363 -73.836959838867 3.918710947037
67.078308105469 -66.065498352051 -77.066719055176 2.765413522720
70.738800048828 -69.645874023438 -80.222450256348 2.860696315765
-45.562049865723 -69.632232666016 -79.666038513184 3.605643033981
59.549808502197 -70.605590820313 -79.315032958984 4.830436229706
-94.765869140625 -66.537017822266 -86.581481933594 2.551473140717
-48.960491180420 -62.989986419678 -82.313667297363 0.801800847054
-57.502895355225 -72.847602844238 -82.857772827148 7.707130908966
101.203254699707 -72.709007263184 -96.626327514648 1.265224337578
58.838138580322 -69.249389648438 -88.705612182617 2.134518623352
66.008300781250 -64.605369567871 -89.047805786133 0.839673817158
-95.940589904785 -59.159957885742 -95.032348632813 4.412724971771
106.854118347168 -67.323936462402 -89.535041809082 2.825032711029
41.375152587891 -63.953880310059 -97.357559204102 4.424901485443
100.980392456055 -64.969665527344 -96.597023010254 1.263926148415
105.952392578125 -62.380847930908 -104.781585693359 4.610192775726
99.024467468262 -65.930007934570 -101.970062255859 1.663334965706
73.017990112305 -69.322059631348 -97.300888061523 1.354257822037
85.758872985840 -68.282913208008 -105.948715209961 0.464966088533
49.123142242432 -64.608757019043 -109.283088684082 3.521140813828
109.360977172852 -61.267604827881 -100.794067382813 5.354930877686
46.279064178467 -70.182914733887 -102.367485046387 2.226347923279
37.492214202881 -63.983966827393 -100.092414855957 7.487976074219
112.171562194824 -66.533073425293 -108.775543212891 2.762347221375
-79.495223999023 -62.205356597900 -106.661331176758 1.954216241837
44.404529571533 -64.641799926758 -110.861076354980 3.353467941284
32.128768920898 -69.370956420898 -113.893745422363 3.282287120819
104.728202819824 -62.821868896484 -108.924613952637 4.351373672485
36.397598266602 -62.889785766602 -109.681823730469 7.367293834686
-88.502426147461 -66.235893249512 -108.873397827148 3.378465890884
-96.440124511719 -62.214080810547 -112.008216857910 2.712131738663
101.073432922363 -71.354835510254 -117.964866638184 5.481237888336
-96.116775512695 -67.478141784668 -116.315582275391 2.597373247147
38.216651916504 -70.033927917480 -118.861473083496 1.581419706345
35.367214202881 -66.454177856445 -120.433242797852 3.395819902420
-86.082786560059 -66.617286682129 -121.427299499512 1.401694178581
31.925106048584 -64.424819946289 -132.109268188477 1.095652818680
110.817428588867 -67.658607482910 -129.578933715820 1.290908336639
-54.459327697754 -66.851325988770 -135.854263305664 2.360432624817
-89.231460571289 -65.162429809570 -130.540878295898 1.095254778862
37.035423278809 -71.312294006348 -128.397415161133 3.116942882538
-88.379341125488 -61.602085113525 -134.146850585938 3.309714555740
-89.470283508301 -70.474266052246 -138.124328613281 2.976075172424
-51.405399322510 -67.298591613770 -133.954895019531 2.007787227631
-72.362358093262 -64.225486755371 -136.587966918945 1.947946071625
-51.970237731934 -65.988754272461 -130.228393554688 1.134820580482
115.721343994141 -62.763778686523 -135.146636962891 5.901346683502
-73.304450988770 -69.162460327148 -132.304458618164 1.825404167175
36.190479278564 -67.589920043945 -128.603271484375 1.390736222267
-79.856521606445 -64.899208068848 -138.582244873047 1.761118531227
-73.698638916016 -67.061401367188 -132.893478393555 1.355664014816
-94.973205566406 -64.622428894043 -139.409454345703 1.577706456184
-56.392036437988 -63.258274078369 -143.479797363281 2.789536476135
30.193157196045 -61.378101348877 -144.089569091797 6.221039295197
26.021097183228 -65.189926147461 -147.036254882813 3.516759634018
18.817516326904 -60.337215423584 -142.565704345703 2.274726390839
111.208160400391 -65.778282165527 -144.488510131836 3.803478240967
-92.767593383789 -65.365219116211 -149.232330322266 2.419088363647
9.920727729797 -68.593750000000 -150.228317260742 1.386061668396
-73.026000976563 -66.571792602539 -152.333831787109 1.923738837242
22.401844024658 -65.147247314453 -147.198303222656 2.618296384811
-50.690723419189 -65.770507812500 -153.102127075195 3.195461034775
8.478777885437 -65.335433959961 -151.770156860352 3.168352842331
15.280637741089 -70.396247863770 -156.881774902344 0.923696339130
15.797930717468 -73.063346862793 -161.628646850586 2.937169313431
-51.993537902832 -70.143775939941 -160.982009887695 4.448192119598
-39.969142913818 -65.458358764648 -153.127777099609 4.190049171448
-48.667701721191 -68.419540405273 -159.753219604492 2.554266929626
-104.686363220215 -68.753761291504 -170.333892822266 0.952531218529
20.455116271973 -69.290054321289 -172.724014282227 1.858832120895
-35.249721527100 -67.790321350098 -175.591674804688 1.806446671486
14.114480018616 -72.883224487305 -176.131698608398 3.282341718674
-143.988403320313 -67.317794799805 -173.492218017578 1.667871475220
-33.038883209229 -63.463729858398 -170.397506713867 4.750164985657
-157.596755981445 -75.238311767578 -175.384506225586 6.809952735901
23.135887145996 -61.235271453857 -179.819396972656 5.722292423248
-35.349540710449 -69.421928405762 -168.219238281250 3.370555400848
-108.372200012207 -65.041725158691 -173.690689086914 1.778871655464
-108.372467041016 -74.274070739746 -181.565963745117 4.876879692078
-32.023296356201 -61.595035552979 -183.697402954102 7.337469577789
-25.584712982178 -73.290756225586 -179.291442871094 2.160668373108
11.178701400757 -66.494277954102 -187.059555053711 5.115754127502
14.611411094666 -64.406555175781 -196.756317138672 2.997533082962
11.861928939819 -68.223892211914 -185.350601196289 3.875350952148
-144.065261840820 -66.036430358887 -184.390594482422 3.064202785492
22.286022186279 -62.826881408691 -187.899276733398 5.324471473694
4.466920852661 -67.122894287109 -194.749404907227 5.990756988525
-136.792388916016 -66.293838500977 -191.044403076172 3.951145410538
-114.423873901367 -67.645408630371 -192.879318237305 1.263102412224
13.431471824646 -65.708496093750 -201.510147094727 3.370025873184
-119.829948425293 -66.396247863770 -194.474563598633 3.732379198074
-109.147338867188 -60.934944152832 -190.222335815430 3.708115100861
-168.091659545898 -70.226257324219 -198.847381591797 3.866676807404
