17.298768997192 -76.958816528320 -258.252166748047 3.333219766617
-145.780593872070 -81.789161682129 -270.221191406250 2.477025270462
17.948333740234 -79.124580383301 -266.366210937500 2.251905202866
-144.571716308594 -78.319961547852 -273.010864257813 3.129201650620
2.765652894974 -80.726715087891 -277.115570068359 1.152871489525
-142.253509521484 -81.077484130859 -280.172821044922 4.720508575439
-0.945289015770 -81.218818664551 -283.049804687500 2.779800891876
-153.259399414063 -78.165794372559 -282.336730957031 2.390869855881
-143.985168457031 -77.288703918457 -281.418243408203 2.371245861053
-136.562088012695 -84.486717224121 -284.425048828125 2.289772033691
-149.692779541016 -83.441886901855 -292.173675537109 2.113407135010
-21.110473632813 -76.603706359863 -289.794830322266 1.921096682549
-151.623703002930 -79.761299133301 -290.056182861328 2.129525661469
-147.413864135742 -84.138214111328 -293.262023925781 1.729091763496
-152.058715820313 -79.725128173828 -305.813964843750 2.451070070267
-53.760784149170 -72.844375610352 -56.105720520020 2.891734123230
-37.067966461182 -80.279899597168 -62.232002258301 2.961159944534
-73.451622009277 -78.701583862305 -66.685150146484 1.647810816765
-28.595029830933 -73.316497802734 -66.348602294922 3.868731260300
-24.802814483643 -76.425376892090 -70.313507080078 2.531780958176
-84.584068298340 -76.982948303223 -78.183525085449 3.201754570007
87.275482177734 -76.332054138184 -85.245063781738 2.467194557190
-33.096992492676 -73.180061340332 -84.749206542969 5.715964794159
84.243301391602 -78.378959655762 -86.638877868652 1.090801715851
80.833976745605 -74.994071960449 -89.413986206055 4.234888076782
87.105468750000 -74.131088256836 -86.964523315430 4.321100711823
87.625503540039 -72.099113464355 -91.716331481934 5.212615013123
92.077583312988 -73.279586791992 -95.083641052246 2.184568166733
-89.096206665039 -72.887779235840 -92.459388732910 4.890786170959
57.646186828613 -75.066162109375 -105.735076904297 3.119593620300
-94.618827819824 -66.049430847168 -110.731056213379 3.102053403854
48.508602142334 -77.604667663574 -107.955398559570 0.834009349346
51.885150909424 -75.832611083984 -113.404083251953 3.442104101181
40.518039703369 -74.157455444336 -114.738204956055 2.950229167938
35.487651824951 -75.818832397461 -137.507949829102 2.009013414383
28.389276504517 -74.763366699219 -140.784439086914 1.870263099670
23.376600265503 -68.547462463379 -143.739379882813 1.795027017593
34.078483581543 -71.482246398926 -143.030197143555 1.819092154503
-45.098121643066 -78.976730346680 -152.921752929688 1.164399027824
-47.597328186035 -77.589157104492 -150.143356323242 1.016954064369
-39.532840728760 -75.376228332520 -157.083206176758 2.139166355133
24.676689147949 -73.321266174316 -154.097885131836 0.622079074383
30.977119445801 -74.418983459473 -167.998794555664 3.119392871857
-32.041797637939 -72.849334716797 -168.164993286133 1.875106334686
-34.108558654785 -71.257057189941 -158.233871459961 2.993314504623
-44.433391571045 -78.659759521484 -158.161239624023 2.136258125305
3.115056037903 -73.006744384766 -163.067840576172 1.339869976044
26.200061798096 -76.206054687500 -151.156158447266 2.638921737671
34.366703033447 -71.610343933105 -159.631469726563 2.651303529739
30.281850814819 -73.528106689453 -170.362243652344 1.945920348167
-5.068894863129 -75.342124938965 -172.039978027344 1.198590993881
-3.323718070984 -76.731803894043 -169.932647705078 2.056625604630
-56.986534118652 -74.619552612305 -165.688400268555 1.796246170998
-59.600616455078 -76.018035888672 -169.901870727539 1.311851978302
-42.535881042480 -77.700088500977 -168.667678833008 2.306939363480
-36.762710571289 -74.395294189453 -166.714797973633 2.775407314301
22.867433547974 -70.723304748535 -171.261550903320 2.373402357101
-21.792177200317 -80.535804748535 -177.474121093750 2.497443199158
-29.349283218384 -73.317047119141 -180.714553833008 3.211067199707
-61.361110687256 -80.145202636719 -178.019012451172 2.788939237595
99.271903991699 -76.142913818359 -182.782119750977 4.219606399536
22.350151062012 -79.112823486328 -174.989181518555 1.886811017990
-24.705265045166 -75.971000671387 -179.113586425781 1.290148139000
-50.401573181152 -76.395423889160 -177.369430541992 2.631525993347
-20.299335479736 -72.720916748047 -179.996124267578 2.646329641342
113.674751281738 -74.641532897949 -182.725769042969 2.257548809052
-54.420299530029 -78.746688842773 -183.828399658203 2.673440933228
13.599107742310 -77.760154724121 -189.849426269531 1.227384090424
19.003379821777 -75.527053833008 -178.502212524414 2.277580976486
-54.773391723633 -81.885559082031 -175.935333251953 0.668840467930
-23.477035522461 -74.726287841797 -181.834152221680 1.511383295059
-54.738258361816 -79.833877563477 -176.047760009766 1.306497216225
-35.237857818604 -77.906440734863 -176.548324584961 1.393270254135
-27.938035964966 -76.214454650879 -186.641616821289 2.020531177521
20.808536529541 -76.131401062012 -188.315612792969 1.254478812218
-47.217674255371 -78.130836486816 -187.406082153320 1.684391617775
104.537483215332 -73.699943542480 -191.079681396484 1.641464829445
-49.910198211670 -73.031593322754 -188.422042846680 1.757138133049
7.829441070557 -75.376129150391 -202.403945922852 2.278890132904
21.757516860962 -74.594703674316 -198.323486328125 1.615335345268
-48.452728271484 -76.585639953613 -190.468246459961 0.934778749943
-15.548557281494 -77.012023925781 -188.598251342773 2.491182804108
100.739486694336 -74.498298645020 -195.723571777344 0.913782656193
97.333457946777 -78.756065368652 -195.983306884766 3.696620225906
-48.819015502930 -75.226554870605 -185.947769165039 2.294418811798
-148.617279052734 -84.355667114258 -197.312789916992 2.553420543671
-44.666862487793 -76.320777893066 -195.259902954102 1.494626522064
-144.079833984375 -79.052536010742 -194.853042602539 1.493209123611
-134.345092773438 -73.763549804688 -195.542633056641 1.867469429970
-45.639736175537 -79.467269897461 -195.104476928711 0.837569594383
10.622235298157 -77.800559997559 -206.813613891602 0.459412097931
-15.257285118103 -73.670143127441 -204.309432983398 2.914309263229
16.801023483276 -73.272102355957 -200.943130493164 0.960351347923
92.327239990234 -78.935829162598 -213.413223266602 2.287345409393
-34.288406372070 -74.766113281250 -201.459747314453 1.789426565170
-13.427106857300 -74.323318481445 -203.330566406250 1.635214328766
-15.483472824097 -74.054695129395 -213.295089721680 1.314366579056
-34.543201446533 -75.447937011719 -203.515060424805 2.217466115952
7.031963825226 -76.194290161133 -205.881896972656 2.000192880630
-78.633354187012 -78.247406005859 -209.206573486328 1.502685308456
16.898914337158 -76.967720031738 -214.427688598633 1.304650783539
-34.433261871338 -75.572036743164 -204.820724487305 1.188007950783
-144.452224731445 -82.015998840332 -204.894958496094 1.460889577866
-141.151535034180 -74.106361389160 -208.056777954102 4.581799983978
-87.606262207031 -77.931999206543 -211.255630493164 1.838533878326
-34.374156951904 -74.332824707031 -208.387496948242 1.243199706078
-14.140284538269 -81.313034057617 -211.648605346680 2.493222475052
-32.591835021973 -77.571907043457 -205.233581542969 1.560994029045
-90.322135925293 -79.865196228027 -215.413909912109 2.914927482605
-86.370124816895 -79.128303527832 -212.069625854492 1.148628354073
6.923899173737 -81.747200012207 -220.199874877930 2.401960134506
-149.088012695313 -72.722679138184 -210.695709228516 2.041168928146
-13.988144874573 -80.207267761230 -211.884460449219 2.039250612259
9.674338340759 -82.759216308594 -218.444030761719 1.844063639641
-143.899002075195 -76.744377136230 -217.706665039063 2.376617670059
-22.520803451538 -78.188766479492 -215.219299316406 1.922454357147
1.368533968925 -72.107917785645 -219.475036621094 2.220751047134
-7.730997085571 -77.436111450195 -219.092361450195 2.625665903091
-152.176788330078 -74.265220642090 -221.003646850586 1.780681610107
-139.672485351563 -68.402153015137 -224.169464111328 1.171732425690
-3.845539093018 -76.701934814453 -225.119079589844 1.935039281845
-147.892150878906 -83.608139038086 -224.480087280273 0.576352775097
1.287197947502 -71.736625671387 -228.993591308594 3.061280250549
17.868965148926 -75.400054931641 -235.235961914063 2.014528512955
-1.733409047127 -78.969978332520 -229.282363891602 1.054357767105
-1.619227051735 -70.847938537598 -232.142364501953 1.516874790192
8.814146041870 -74.885299682617 -231.377899169922 1.437580704689
-152.094284057617 -79.067504882813 -236.962188720703 2.290977239609
-19.495952606201 -74.244880676270 -232.998687744141 4.229809284210
-34.339054107666 -79.134033203125 -237.769515991211 1.652169823647
1.969048976898 -74.880371093750 -234.176284790039 2.697763442993
3.255994081497 -81.546157836914 -242.137634277344 4.035048484802
1.914194941521 -74.709075927734 -232.794723510742 2.409412384033
-58.141845703125 -76.497741699219 -241.051986694336 4.060994148254
-148.802230834961 -74.722923278809 -246.683120727539 2.130064964294
-153.084503173828 -78.433082580566 -245.039474487305 1.912270069122
11.874281883240 -78.192443847656 -246.716186523438 1.754744648933
25.350912094116 -78.310981750488 -246.060653686523 2.273996829987
-61.214588165283 -74.178833007813 -246.099349975586 1.348681688309
-142.289001464844 -82.814979553223 -249.896469116211 4.213548183441
-153.322738647461 -81.881996154785 -252.101028442383 2.282241344452
-153.880737304688 -82.719032287598 -254.510467529297 1.613081216812
-143.107604980469 -75.451599121094 -259.851715087891 1.636919617653
-141.592529296875 -79.136276245117 -254.229675292969 1.564457416534
-7.078873157501 -78.403678894043 -255.548782348633 1.952758193016
-145.524780273438 -79.820518493652 -259.834442138672 2.182235002518
-14.407855987549 -77.848190307617 -267.195953369141 3.042746067047
-147.783645629883 -77.163467407227 -269.538543701172 1.978414297104
-148.303695678711 -78.069351196289 -279.951354980469 3.081542015076
-148.647857666016 -76.779541015625 -281.713134765625 2.011076688766
-4.079561233521 -72.209884643555 -284.611968994141 2.463671922684
-148.624649047852 -74.294242858887 -280.815612792969 2.797872781754
-26.184215545654 -78.573570251465 -285.333770751953 3.152846336365
-26.728063583374 -74.246040344238 -284.382110595703 1.862533688545
-14.249618530273 -74.296264648438 -292.861175537109 1.194331407547
-14.594972610474 -73.913581848145 -292.100494384766 1.146508574486
11.625290870667 -79.178337097168 -290.752197265625 2.322328329086
-125.401618957520 -80.111152648926 -287.994354248047 3.332446813583
-61.904895782471 -77.861389160156 -285.838134765625 2.637986898422
-42.197525024414 -74.193412780762 -289.262023925781 2.358036041260
-33.584358215332 -77.814598083496 -286.728179931641 1.650992751122
-9.143647193909 -74.795181274414 -293.122985839844 1.744061112404
5.168824195862 -77.742393493652 -287.433776855469 2.432134151459
-142.264633178711 -79.252235412598 -295.446807861328 3.449210405350
10.297073364258 -77.153465270996 -295.285125732422 3.429600000381
-154.155914306641 -76.082420349121 -300.251342773438 0.949148714542
-154.424880981445 -83.018981933594 -298.818817138672 2.896569490433
-154.105804443359 -74.726318359375 -309.876220703125 0.899435222149
-143.655609130859 -77.688575744629 -307.286132812500 2.367038726807
-48.475608825684 -74.222320556641 -49.368457794189 3.206314086914
-51.593292236328 -78.360069274902 -55.008388519287 3.753076553345
-65.071655273438 -72.714447021484 -53.375175476074 1.392096519470
-38.169055938721 -72.354087829590 -61.270179748535 3.801311016083
-33.386417388916 -74.567298889160 -58.367626190186 1.451835751534
-17.090410232544 -73.402809143066 -69.460098266602 1.027652382851
-79.343444824219 -72.120834350586 -67.702743530273 4.647766590118
87.283042907715 -73.775932312012 -78.831375122070 2.291524648666
-88.617691040039 -73.317520141602 -72.459167480469 1.303255558014
82.610260009766 -71.216201782227 -77.797798156738 3.976929426193
90.093574523926 -68.723182678223 -84.824371337891 8.485940933228
99.651679992676 -70.241333007813 -90.320610046387 1.252362012863
-59.053977966309 -77.898880004883 -94.990921020508 2.292859554291
84.097679138184 -74.777366638184 -96.810646057129 1.244295001030
78.774589538574 -77.880401611328 -91.269729614258 1.643977999687
88.449577331543 -73.252235412598 -90.857498168945 4.590598583221
-57.271404266357 -75.341445922852 -96.167411804199 4.979665279388
50.772846221924 -71.719848632813 -98.073799133301 3.025282859802
47.565792083740 -73.203567504883 -106.524902343750 2.901296615601
41.550437927246 -74.745956420898 -103.519325256348 1.838194727898
37.980381011963 -74.344978332520 -101.810455322266 4.126449108124
-90.134475708008 -71.130142211914 -102.461959838867 4.414082050323
37.147491455078 -72.307922363281 -117.158340454102 1.797852993011
-83.031715393066 -75.637893676758 -105.684753417969 2.480136156082
42.019096374512 -75.431381225586 -127.044441223145 1.934224128723
34.420703887939 -75.100425720215 -120.584892272949 1.243242859840
35.712699890137 -66.533828735352 -121.341079711914 3.484268903732
46.158679962158 -71.863731384277 -117.441955566406 1.052907824516
43.011592864990 -76.862876892090 -128.070465087891 2.093553066254
-49.884555816650 -68.882232666016 -133.923736572266 1.239322423935
39.158691406250 -78.413307189941 -133.979187011719 2.769456386566
37.122200012207 -73.878746032715 -143.873382568359 1.881131887436
-54.249786376953 -73.006538391113 -142.416534423828 2.357403516769
-43.527759552002 -75.265411376953 -138.991210937500 3.268541812897
36.445949554443 -72.719345092773 -142.337326049805 2.058753252029
111.888832092285 -68.501243591309 -141.418960571289 3.032615423203
113.753715515137 -69.625755310059 -147.021255493164 1.470921516418
27.993282318115 -75.726112365723 -141.239166259766 2.497815370560
-38.828083038330 -77.776344299316 -148.462127685547 2.548252820969
118.080032348633 -80.020378112793 -153.290985107422 4.352828025818
-36.054744720459 -72.958305358887 -151.499099731445 2.781448364258
-66.584037780762 -74.533546447754 -160.727172851563 1.512285232544
111.971405029297 -77.740608215332 -156.602478027344 1.170909047127
23.888227462769 -75.485176086426 -165.753906250000 2.624564170837
2.181838035583 -75.504661560059 -162.097778320313 1.596324563026
112.579093933105 -73.430122375488 -153.447952270508 1.530661344528
-62.981887817383 -74.919563293457 -164.716751098633 2.198736190796
-37.423023223877 -76.230468750000 -164.186965942383 2.633567333221
112.726913452148 -74.257125854492 -165.547836303711 2.408272504807
28.924392700195 -69.220275878906 -158.249923706055 0.747480809689
-60.656219482422 -68.919921875000 -163.149322509766 2.733431339264
113.901954650879 -73.771278381348 -166.581130981445 2.861481428146
-64.218353271484 -76.977058410645 -167.402648925781 1.336572885513
-47.929660797119 -78.243843078613 -180.883010864258 2.187344551086
107.327339172363 -72.824501037598 -171.891006469727 1.231469154358
-58.455444335938 -73.724815368652 -170.799896240234 1.466168642044
113.580383300781 -72.474899291992 -178.451293945313 2.240406036377
-60.160270690918 -74.487663269043 -174.846115112305 1.926426172256
-14.730216026306 -72.351005554199 -176.616729736328 4.614193916321
-8.918508529663 -80.130821228027 -181.465347290039 4.832348346710
108.960899353027 -75.347656250000 -167.427505493164 0.954263150692
22.654367446899 -75.720306396484 -170.920761108398 1.995549082756
31.745689392090 -69.555252075195 -168.954040527344 3.777818441391
-56.830894470215 -74.369079589844 -176.084213256836 1.042280435562
18.536098480225 -72.633064270020 -181.332824707031 2.314137458801
-56.379238128662 -75.968864440918 -173.431182861328 2.067804098129
-51.435119628906 -73.852493286133 -192.340927124023 2.984647750854
12.019300460815 -72.300369262695 -184.226409912109 1.986377477646
-55.032489776611 -70.587318420410 -178.195205688477 3.666934967041
107.225082397461 -71.079956054688 -188.988922119141 0.990876197815
26.892063140869 -77.252456665039 -181.506088256836 1.264926552773
-34.024219512939 -72.710662841797 -187.185485839844 2.209637165070
-42.028594970703 -77.677848815918 -188.702026367188 2.925236463547
12.227791786194 -76.840721130371 -191.102005004883 1.805195808411
-18.704875946045 -76.220260620117 -187.212432861328 0.459560990334
-46.705776214600 -76.831283569336 -194.175796508789 1.212724208832
103.037460327148 -77.637542724609 -183.228530883789 1.024788498878
10.917421340942 -78.172698974609 -189.697662353516 3.445181846619
-131.659561157227 -82.390693664551 -197.699234008789 1.400594115257
-47.460895538330 -77.647102355957 -194.163024902344 1.847206592560
95.517387390137 -72.973701477051 -199.216064453125 1.269060492516
-148.652374267578 -82.656837463379 -199.989685058594 1.447690963745
19.182161331177 -75.175834655762 -199.572357177734 1.947084546089
-42.593208312988 -72.328720092773 -204.805541992188 3.379595279694
-29.440107345581 -78.386528015137 -205.925109863281 0.383040070534
-36.381935119629 -76.455474853516 -200.463607788086 2.296964406967
-44.647380828857 -81.586860656738 -196.667037963867 2.124151945114
101.438972473145 -73.687194824219 -205.019882202148 1.496201992035
-20.206539154053 -79.129447937012 -199.322723388672 1.232879161835
-149.411605834961 -76.768951416016 -198.751388549805 1.185614585876
16.686532974243 -77.295280456543 -201.230499267578 1.682204365730
-76.334541320801 -80.336311340332 -204.130752563477 3.147024631500
-143.461044311523 -74.594566345215 -211.372604370117 2.063897371292
94.679946899414 -76.314369201660 -213.922897338867 2.279012918472
-32.249233245850 -73.932235717773 -205.976730346680 2.104596376419
-28.155160903931 -76.021682739258 -210.116058349609 1.804765343666
10.544412612915 -75.595062255859 -209.420181274414 1.507178664207
-70.929275512695 -80.069213867188 -206.310607910156 2.063224315643
-26.371957778931 -83.090316772461 -204.909194946289 5.809804439545
-7.428355216980 -76.737205505371 -216.089767456055 2.142406940460
-69.688232421875 -77.120681762695 -212.519271850586 1.536581397057
-13.403832435608 -75.852043151855 -216.655548095703 1.554568529129
8.336830139160 -66.993827819824 -210.941726684570 2.200299501419
13.449400901794 -77.980880737305 -220.615890502930 1.189282894135
-150.729736328125 -78.836914062500 -215.303237915039 2.161823034286
-8.327854156494 -75.204864501953 -213.430343627930 1.261517047882
-100.857521057129 -72.690574645996 -218.275588989258 2.051907300949
-21.341745376587 -75.053047180176 -218.527709960938 0.292011052370
89.542472839355 -79.701492309570 -212.399154663086 2.824092626572
9.619942665100 -73.320037841797 -224.124282836914 2.834892272949
21.744705200195 -74.610549926758 -215.919891357422 4.327372074127
80.758049011230 -75.753089904785 -214.499725341797 3.405869007111
1.882503986359 -79.506774902344 -229.073028564453 1.220285534859
86.006347656250 -74.698692321777 -217.062255859375 1.629366874695
-20.395236968994 -71.429718017578 -223.523117065430 2.531251430511
17.014247894287 -71.904777526855 -217.954513549805 1.679118752480
-147.791305541992 -78.540664672852 -216.600067138672 1.272365808487
-25.132816314697 -77.128166198730 -225.151794433594 2.847401857376
2.421602964401 -72.857780456543 -230.087295532227 1.546594381332
-155.697891235352 -82.567619323730 -222.978820800781 4.596997261047
-136.857971191406 -79.955078125000 -225.644409179688 2.408534049988
3.905626058578 -74.947212219238 -222.834152221680 1.827496409416
-3.220168113708 -71.931663513184 -224.671844482422 2.709835529327
-136.653808593750 -73.481246948242 -227.053527832031 2.015136003494
-146.768035888672 -77.691810607910 -239.438339233398 2.334637880325
-148.330551147461 -77.856689453125 -233.361587524414 1.100999593735
-31.247705459595 -77.112991333008 -235.758529663086 2.658770561218
-141.900497436523 -80.453071594238 -240.921707153320 2.901125431061
16.031856536865 -76.770431518555 -240.852645874023 1.959482192993
6.063098907471 -75.118469238281 -244.045379638672 0.874211728573
-150.366439819336 -71.875129699707 -235.793395996094 1.487290024757
-149.234848022461 -76.932495117188 -242.431030273438 1.431176185608
-45.224975585938 -78.104454040527 -244.442016601563 2.602622747421
-31.197883605957 -76.723510742188 -245.827758789063 3.069979906082
4.563063144684 -75.522178649902 -242.055450439453 2.165653944016
-35.855289459229 -77.985206604004 -244.249221801758 1.913028120995
22.356489181519 -75.602287292480 -246.009048461914 1.174218893051
-5.586667060852 -78.153884887695 -251.824829101563 2.017088174820
-144.238555908203 -78.468925476074 -250.670379638672 2.490724325180
-9.472385406494 -80.954483032227 -252.071166992188 3.002373695374
-148.027770996094 -75.209541320801 -244.788543701172 2.582243680954
-65.010650634766 -78.476295471191 -248.732925415039 1.604543566704
-146.619415283203 -84.844703674316 -256.689880371094 1.069242119789
-127.175460815430 -77.272583007813 -256.093505859375 2.218753099442
-152.541046142578 -77.180480957031 -254.890380859375 2.947728157043
-10.446994781494 -73.407302856445 -266.480499267578 4.367191314697
-145.488067626953 -83.809669494629 -269.818603515625 1.621950864792
-149.066024780273 -78.122161865234 -266.908020019531 2.576067924500
-11.601124763489 -76.535552978516 -269.960815429688 1.611746430397
-144.194503784180 -77.958221435547 -267.801788330078 3.393229722977
-6.239367961884 -74.747703552246 -275.863189697266 2.364386558533
-45.626296997070 -75.858612060547 -282.781768798828 3.934213161469
-134.884963989258 -75.147094726563 -286.250305175781 1.314844250679
-135.508834838867 -77.066276550293 -283.651031494141 3.417811632156
-123.213073730469 -74.131774902344 -279.846405029297 4.778104782104
-51.826759338379 -75.790229797363 -285.005004882813 2.869234561920
-111.991737365723 -75.846633911133 -281.959442138672 5.891848564148
16.424757003784 -75.218307495117 -291.883941650391 0.237950310111
-56.972946166992 -74.690666198730 -287.225189208984 2.602054119110
-140.837570190430 -77.479728698730 -290.985290527344 1.577486991882
-63.242782592773 -75.468429565430 -289.075622558594 2.706930875778
-144.604766845703 -83.044754028320 -291.203369140625 0.632274389267
-116.481925964355 -74.867195129395 -289.000976562500 1.972405910492
-45.836437225342 -79.116249084473 -289.071075439453 3.512950658798
-33.450225830078 -76.425491333008 -290.455413818359 2.265549182892
-137.830627441406 -73.385780334473 -293.929199218750 1.955551147461
-13.976406097412 -70.747299194336 -281.747070312500 4.512776374817
4.823686122894 -75.441040039063 -286.715820312500 1.697112679482
6.778375148773 -74.211982727051 -289.781677246094 1.216503620148
15.358910560608 -76.805641174316 -294.905334472656 2.033739805222
-149.663604736328 -82.226310729980 -295.703216552734 2.227937698364
-144.937484741211 -75.447105407715 -291.026184082031 1.061221599579
-64.063888549805 -72.268783569336 -60.763988494873 5.120658874512
91.266510009766 -73.839317321777 -72.718521118164 0.608406364918
81.112907409668 -73.563224792480 -77.454933166504 2.216617345810
-25.533142089844 -76.171737670898 -75.418930053711 1.007456421852
85.979820251465 -70.688537597656 -74.796539306641 3.417631149292
-35.639503479004 -76.365524291992 -78.680137634277 1.875236153603
85.011062622070 -68.647766113281 -82.107521057129 6.924789905548
98.345787048340 -68.403678894043 -80.225158691406 3.721556663513
-62.525939941406 -68.042160034180 -94.532150268555 2.700875043869
74.916175842285 -73.192649841309 -94.262443542480 2.350344419479
82.035842895508 -70.455413818359 -97.763740539551 3.353451967239
98.736450195313 -75.161453247070 -95.397789001465 3.166518211365
57.426883697510 -74.676910400391 -96.830368041992 1.452019453049
-65.152069091797 -71.959777832031 -99.933670043945 3.430958747864
-72.000671386719 -70.492706298828 -99.630149841309 1.154242157936
52.649990081787 -75.052490234375 -103.313011169434 2.211842060089
-85.722953796387 -75.962226867676 -100.648056030273 5.414605140686
49.037700653076 -70.146324157715 -117.780158996582 2.865735054016
112.518295288086 -71.637924194336 -120.221809387207 1.397977352142
114.743225097656 -74.557624816895 -130.753585815430 0.714677572250
22.483634948730 -71.523521423340 -136.527053833008 3.237246274948
112.108322143555 -74.199638366699 -127.139625549316 1.880577564240
30.378309249878 -70.896263122559 -132.944580078125 0.918936908245
114.557403564453 -66.757705688477 -132.646530151367 2.740031242371
38.829235076904 -71.063392639160 -134.260894775391 1.307359695435
-54.561504364014 -74.022682189941 -139.260513305664 1.136491298676
37.863471984863 -77.132934570313 -144.799652099609 2.669516563416
110.522071838379 -70.502578735352 -135.184814453125 1.446893453598
-44.509052276611 -72.611671447754 -142.640365600586 1.327112317085
33.598106384277 -72.194465637207 -149.738265991211 1.765009164810
-55.108306884766 -68.941238403320 -139.920532226563 3.017243862152
-57.395999908447 -74.255996704102 -143.309738159180 2.076866388321
-50.938480377197 -77.542823791504 -148.719772338867 1.801282286644
-62.846611022949 -77.472785949707 -154.331161499023 2.332646131516
113.638450622559 -76.689300537109 -147.534454345703 1.750128030777
-48.246379852295 -80.793029785156 -153.970489501953 2.008368968964
24.615327835083 -78.515975952148 -155.806915283203 1.315945267677
109.274841308594 -73.565483093262 -162.408813476563 1.308843612671
-63.884666442871 -74.557258605957 -153.326416015625 2.354671478271
-42.099967956543 -75.612045288086 -156.025299072266 2.130117177963
10.508110046387 -71.406188964844 -153.772018432617 2.601024627686
-66.770942687988 -75.089401245117 -153.630508422852 1.058879971504
-62.433094024658 -77.293243408203 -157.188781738281 2.729523420334
1.766378045082 -74.126174926758 -161.575393676758 1.379822134972
-42.519073486328 -70.915222167969 -166.659912109375 1.587378978729
30.389978408813 -71.481178283691 -166.876754760742 3.013285875320
-61.841407775879 -70.867637634277 -166.814071655273 1.329393744469
-54.584960937500 -76.686439514160 -165.274841308594 4.069159507751
16.523429870605 -76.943443298340 -159.289901733398 4.293494224548
-28.888046264648 -73.318267822266 -167.412887573242 1.781568765640
-27.233396530151 -76.986007690430 -165.474044799805 2.893193483353
16.451547622681 -75.357978820801 -174.008834838867 2.879003763199
-42.075675964355 -77.490837097168 -171.700393676758 1.744045376778
-9.194646835327 -75.637016296387 -171.440811157227 1.638841748238
-64.148765563965 -71.600639343262 -170.151733398438 2.028561830521
-6.078071117401 -71.700134277344 -173.125320434570 2.434027910233
-20.457130432129 -74.618751525879 -178.787628173828 2.267260789871
23.603488922119 -71.129173278809 -183.383819580078 1.441531896591
-37.482028961182 -76.209518432617 -171.130462646484 0.823350310326
22.155868530273 -69.975021362305 -175.269226074219 2.486398935318
-21.637916564941 -70.758125305176 -184.555160522461 2.047253608704
-30.774076461792 -77.055450439453 -176.863922119141 2.526771783829
-147.073043823242 -73.314674377441 -189.773635864258 2.093684673309
-16.773746490479 -78.775138854980 -182.938446044922 1.277812361717
-139.635986328125 -74.409980773926 -187.314178466797 3.081180572510
-152.447891235352 -76.351539611816 -184.918411254883 4.882748603821
-48.409870147705 -73.065040588379 -187.299789428711 2.391037702560
99.483261108398 -72.572204589844 -195.048110961914 1.971488952637
-143.726089477539 -77.253990173340 -188.400238037109 0.940781593323
-145.377471923828 -74.217681884766 -193.577255249023 1.157042741776
23.634496688843 -72.345329284668 -195.837829589844 1.077586293221
-137.261871337891 -76.314514160156 -194.007843017578 2.887987375259
14.854825019836 -70.448211669922 -198.469039916992 2.470796823502
-137.162109375000 -78.724365234375 -197.306594848633 3.000904798508
14.227637290955 -70.399642944336 -196.998397827148 2.004812479019
-132.032394409180 -72.569396972656 -194.034530639648 1.790781140327
6.282136917114 -71.003639221191 -201.859359741211 2.685683727264
-150.711639404297 -76.173805236816 -200.353103637695 2.711445569992
96.221511840820 -73.293098449707 -206.500228881836 2.534642934799
-15.719973564148 -77.160446166992 -207.012100219727 2.147177696228
-29.498100280762 -73.694030761719 -207.603012084961 2.233252525330
-11.014089584351 -69.785926818848 -204.424835205078 1.566488862038
-144.592849731445 -80.547828674316 -208.425949096680 3.013660907745
-34.439807891846 -74.779090881348 -202.227127075195 1.492182850838
-82.868446350098 -77.476943969727 -202.202056884766 8.577997207642
-25.822202682495 -76.207191467285 -207.348022460938 3.217258214951
15.758884429932 -74.810203552246 -212.778335571289 1.584967136383
-145.570236206055 -74.114501953125 -212.763885498047 1.704951882362
-88.292015075684 -77.760108947754 -216.994277954102 0.681382715702
-28.411132812500 -73.622894287109 -218.053878784180 1.971120834351
-26.351816177368 -74.673194885254 -219.437072753906 1.288919687271
-7.694068908691 -76.199607849121 -208.573394775391 2.218098402023
-26.352350234985 -73.903160095215 -207.143371582031 4.048409461975
-83.046043395996 -75.824783325195 -219.732376098633 3.077484846115
-88.698089599609 -80.793746948242 -217.786743164063 3.647695541382
-22.074659347534 -74.121070861816 -220.511108398438 1.313342690468
-1.003160953522 -82.535133361816 -223.858352661133 3.247225522995
-154.867935180664 -78.443176269531 -214.840347290039 5.327956199646
-1.521324038506 -76.201316833496 -220.497650146484 0.594601750374
88.424827575684 -77.828941345215 -227.329986572266 4.767009258270
-138.630889892578 -78.831176757813 -220.939697265625 4.768105983734
-3.367732048035 -75.271171569824 -220.501098632813 0.798073351383
-138.565109252930 -77.905960083008 -223.519515991211 3.044881343842
-146.168212890625 -84.573005676270 -222.819778442383 0.818077087402
-5.006666183472 -73.579460144043 -227.475357055664 2.615203142166
22.312475204468 -75.242126464844 -214.148132324219 4.526430606842
-138.235015869141 -74.478843688965 -227.127136230469 2.493647336960
-16.897031784058 -76.474922180176 -226.828872680664 2.109390497208
73.243499755859 -74.769966125488 -225.371078491211 3.732517719269
75.735160827637 -74.124916076660 -233.713745117188 2.806804418564
11.263102531433 -76.566352844238 -229.294326782227 3.273161411285
-32.857982635498 -76.436653137207 -234.762084960938 3.189525604248
-22.728178024292 -82.644454956055 -241.058670043945 3.602981567383
3.540312051773 -73.090553283691 -242.412673950195 1.279440522194
-46.146121978760 -70.978538513184 -242.226684570313 3.572611331940
-20.337476730347 -73.058715820313 -241.883834838867 0.613315343857
10.875988960266 -71.613876342773 -238.368286132813 1.804497241974
-62.480266571045 -76.082908630371 -244.044754028320 2.190638303757
-35.188541412354 -79.952392578125 -242.628295898438 1.502687692642
-38.030353546143 -73.918121337891 -244.202468872070 1.686558485031
-147.332122802734 -74.393074035645 -243.586425781250 2.288156032562
-44.253166198730 -78.396942138672 -247.037109375000 2.159152984619
-52.019271850586 -68.292152404785 -246.022323608398 4.730154514313
-65.091148376465 -75.451133728027 -247.426467895508 2.172672748566
-9.769338607788 -79.193656921387 -245.132308959961 5.567967891693
-78.384620666504 -77.242225646973 -253.373550415039 1.202922105789
-155.784973144531 -82.904479980469 -251.057235717773 4.150232791901
-139.913879394531 -75.424682617188 -251.421142578125 4.743059635162
-120.962516784668 -78.070365905762 -256.539306640625 4.530153274536
-157.757858276367 -73.382476806641 -256.125305175781 3.019969701767
19.742969512939 -81.292442321777 -265.639526367188 1.562822461128
-13.952837944031 -77.599990844727 -267.788513183594 2.291665792465
-154.217727661133 -79.817543029785 -271.616363525391 0.693933963776
-152.135574340820 -83.579490661621 -276.031768798828 1.974836111069
-145.387420654297 -79.585998535156 -283.213531494141 1.981088519096
-58.250312805176 -71.268455505371 -278.671783447266 7.104029178619
-38.411041259766 -70.633827209473 -284.311584472656 2.866519212723
-18.505065917969 -73.048423767090 -288.276031494141 2.844025373459
-8.980699539185 -71.426765441895 -278.283325195313 1.640919804573
-65.692985534668 -79.089126586914 -283.608306884766 4.558709621429
-80.479759216309 -80.317474365234 -284.321594238281 5.306311130524
-1.666851997375 -76.232040405273 -281.818298339844 1.458664298058
3.639507055283 -76.722251892090 -291.136627197266 1.512169241905
-139.254333496094 -75.467094421387 -283.951232910156 3.590072393417
-80.115066528320 -72.935562133789 -284.471252441406 3.622714042664
-146.669692993164 -75.890792846680 -285.160278320313 1.593001723289
-94.039657592773 -84.724388122559 -283.608764648438 10.282421112061
-78.307060241699 -75.536842346191 -284.133361816406 3.799454689026
-85.599014282227 -73.543380737305 -293.776855468750 2.377270460129
-62.566215515137 -75.537467956543 -290.225982666016 2.455636739731
-30.162084579468 -69.334686279297 -293.967132568359 4.142610073090
-7.894523143768 -74.838989257813 -289.609436035156 2.228333711624
-150.908523559570 -70.393699645996 -296.679748535156 1.673473358154
-148.614151000977 -74.855522155762 -298.381469726563 1.559147834778
-143.719207763672 -75.827865600586 -302.663940429688 1.555041193962
-157.449234008789 -76.798416137695 -302.424530029297 2.955202341080
-54.035060882568 -69.289192199707 -54.719036102295 5.173093318939
-45.675804138184 -71.908958435059 -51.581939697266 1.004673600197
-37.013000488281 -73.987037658691 -52.493015289307 1.971773982048
-74.787933349609 -75.693176269531 -60.639427185059 1.446066021919
-26.878059387207 -71.067314147949 -63.556865692139 4.444375514984
-32.230007171631 -72.004501342773 -78.560852050781 3.243615388870
76.731605529785 -75.434730529785 -82.697341918945 1.417423248291
77.431022644043 -71.834808349609 -79.414955139160 3.808171510696
74.814826965332 -69.172897338867 -83.331748962402 6.040012836456
102.176307678223 -67.857948303223 -90.429580688477 1.210250139236
70.777893066406 -74.013557434082 -88.892494201660 1.952634453773
50.465229034424 -74.748451232910 -88.585205078125 3.477538824081
53.865940093994 -77.579948425293 -100.863327026367 1.606756806374
-64.441505432129 -71.747741699219 -100.556121826172 3.871751070023
-72.036254882813 -68.428337097168 -100.903404235840 1.516359090805
46.972995758057 -73.414947509766 -102.654106140137 2.771882057190
-80.018150329590 -79.052131652832 -108.331459045410 2.712044000626
-90.929229736328 -71.793884277344 -108.804611206055 3.940123319626
53.227230072021 -71.976783752441 -108.009902954102 0.618330001831
109.326660156250 -70.381393432617 -115.687118530273 1.327371954918
34.982498168945 -74.475669860840 -124.774635314941 2.066054821014
44.729335784912 -73.827903747559 -118.149993896484 1.283379435539
42.023403167725 -71.002510070801 -122.622520446777 1.207275509834
31.958326339722 -74.109886169434 -121.684867858887 1.927454590797
111.142303466797 -71.579551696777 -121.197166442871 0.874430298805
41.074768066406 -75.310676574707 -130.874618530273 1.865745663643
36.229911804199 -68.432533264160 -131.862228393555 1.533297300339
-42.834690093994 -72.263969421387 -140.847381591797 2.719365358353
-68.509429931641 -76.918792724609 -141.771713256836 3.605556488037
-51.408153533936 -72.538299560547 -147.411178588867 2.992560148239
-72.797256469727 -78.315475463867 -144.307266235352 3.042232036591
-36.974422454834 -73.077575683594 -146.562026977539 4.093321323395
107.775871276855 -72.448463439941 -156.401992797852 3.022814750671
-70.133247375488 -76.220993041992 -154.767059326172 2.504608869553
25.188524246216 -77.752281188965 -145.787216186523 0.666473686695
30.366769790649 -75.441856384277 -149.153030395508 2.861260652542
112.863868713379 -75.249031066895 -162.656967163086 1.447701334953
11.260738372803 -76.318084716797 -158.473129272461 1.977407217026
34.679817199707 -70.306724548340 -154.914474487305 1.203690886497
-61.488288879395 -76.341239929199 -157.884643554688 3.488762378693
-39.059776306152 -75.997726440430 -172.197753906250 1.091780304909
22.898536682129 -72.913658142090 -162.566574096680 2.755014419556
-63.670368194580 -72.911315917969 -155.476928710938 0.849433302879
-68.606193542480 -74.181015014648 -164.095031738281 1.816222906113
115.314201354980 -74.149192810059 -166.312973022461 2.675391674042
-6.766179084778 -74.901702880859 -164.279525756836 2.799055337906
-64.069374084473 -72.640258789063 -170.593765258789 1.192267537117
-33.113891601563 -75.721916198730 -165.856124877930 1.397536754608
-53.002170562744 -72.781463623047 -170.421310424805 4.625637531281
31.773448944092 -72.326408386230 -174.292190551758 3.495529174805
112.674079895020 -69.488739013672 -172.969772338867 1.856518268585
103.483726501465 -70.842033386230 -183.498504638672 1.759871959686
106.072761535645 -71.952384948730 -189.378845214844 1.510390400887
107.913810729980 -69.616828918457 -176.329483032227 2.850593328476
-50.204967498779 -72.851364135742 -190.579086303711 3.293297290802
-46.679172515869 -70.634017944336 -181.884445190430 5.854108810425
28.570764541626 -73.071876525879 -183.020141601563 1.281464576721
-46.815387725830 -72.715286254883 -184.452316284180 3.832711696625
-19.511331558228 -74.082168579102 -182.745956420898 1.660678982735
-49.850982666016 -77.181800842285 -190.015823364258 1.606721401215
-150.779678344727 -74.427169799805 -190.269256591797 2.205291986465
102.237060546875 -74.658134460449 -192.489990234375 1.472385287285
-43.310256958008 -71.211883544922 -193.417831420898 4.084523200989
-11.571330070496 -75.502464294434 -198.052490234375 1.975562214851
-138.452484130859 -74.818229675293 -190.756866455078 5.450189113617
-40.655136108398 -71.582855224609 -197.395202636719 2.637151718140
102.286323547363 -71.112037658691 -196.586425781250 2.739998579025
108.803413391113 -70.151412963867 -185.107192993164 1.990507841110
-42.132385253906 -73.854202270508 -194.300247192383 3.323273420334
-21.341341018677 -81.273223876953 -197.908843994141 3.456782102585
-146.155288696289 -78.818237304688 -197.822235107422 1.598865985870
-23.999975204468 -73.714744567871 -194.463104248047 1.560020923615
-158.391830444336 -76.142959594727 -194.528228759766 4.849689483643
-151.624313354492 -82.963462829590 -202.617904663086 1.572618603706
-143.479995727539 -77.727210998535 -199.509231567383 1.245050907135
-37.493431091309 -74.963607788086 -199.455581665039 2.619236230850
102.724372863770 -73.675682067871 -203.027954101563 1.731389045715
-40.987735748291 -72.064437866211 -198.542068481445 2.243855714798
-141.459701538086 -79.355316162109 -202.532958984375 1.018108963966
-36.508155822754 -70.068138122559 -204.164428710938 4.121860027313
-20.972974777222 -79.589813232422 -208.687347412109 4.111424922943
98.702659606934 -75.421791076660 -205.616622924805 1.322721958160
91.298347473145 -74.431205749512 -214.442764282227 0.930023849010
-35.903556823730 -72.345100402832 -215.908889770508 4.568469524384
-87.222068786621 -76.414871215820 -208.378692626953 3.442775726318
-74.809349060059 -75.922218322754 -210.003280639648 1.063286066055
-18.308490753174 -74.148780822754 -209.322372436523 1.857870817184
-148.947555541992 -77.816452026367 -200.056594848633 1.770418763161
92.284088134766 -72.158149719238 -213.813491821289 2.156705856323
89.343582153320 -69.460182189941 -217.878829956055 0.899187564850
90.697250366211 -73.327674865723 -220.562362670898 1.362910032272
-101.863327026367 -76.176071166992 -216.842468261719 4.917998313904
-153.586730957031 -78.455924987793 -218.655517578125 3.794790744781
-19.527919769287 -72.245018005371 -222.593185424805 2.179973125458
81.293815612793 -69.400207519531 -227.060882568359 2.016791820526
-149.351623535156 -80.058677673340 -219.643554687500 2.670486211777
-28.190664291382 -75.814384460449 -216.196426391602 1.182172060013
-133.507339477539 -73.898841857910 -230.513931274414 1.366184353828
-10.583498954773 -77.048034667969 -230.321945190430 1.421612620354
17.898395538330 -72.602951049805 -227.840301513672 2.299090623856
20.766826629639 -74.760643005371 -232.550567626953 3.135082483292
-154.738876342773 -79.217872619629 -232.810485839844 2.345551729202
-125.861801147461 -71.634117126465 -230.587432861328 3.279730081558
-7.674298763275 -73.739830017090 -234.553543090820 1.157616257668
0.726033985615 -73.124969482422 -236.748001098633 1.341423153877
69.760383605957 -72.857933044434 -231.100051879883 1.104133605957
69.951553344727 -69.625801086426 -238.797958374023 0.821202635765
0.241494998336 -71.715972900391 -239.342880249023 1.252054095268
16.545963287354 -69.462158203125 -239.302566528320 1.964986324310
-30.811313629150 -66.302780151367 -240.213867187500 8.599195480347
-31.949333190918 -83.440101623535 -240.860397338867 3.688913822174
-47.986652374268 -74.564620971680 -234.925582885742 5.017010211945
-39.870620727539 -72.270195007324 -238.716903686523 4.823849678040
-16.006681442261 -75.672340393066 -241.875564575195 0.874551892281
-51.497482299805 -72.728797912598 -242.857360839844 2.786477804184
2.225459098816 -74.718986511230 -244.374160766602 1.580456256866
-67.861740112305 -77.216278076172 -241.342224121094 5.558882713318
21.898740768433 -75.222808837891 -246.498703002930 0.529697954655
-142.021530151367 -78.668418884277 -241.736831665039 3.940179347992
-72.577659606934 -77.999458312988 -251.751495361328 1.489044070244
16.766807556152 -75.049781799316 -249.165832519531 1.963392734528
-160.726699829102 -75.092689514160 -246.825744628906 2.516535520554
13.751069068909 -78.395004272461 -252.849624633789 2.949063062668
-80.042610168457 -69.134544372559 -249.227294921875 1.926258802414
-75.323837280273 -75.658149719238 -248.810592651367 1.899499297142
19.010610580444 -76.019119262695 -253.540237426758 2.475054740906
-89.092834472656 -74.663818359375 -249.264251708984 3.619974374771
-125.499671936035 -72.109870910645 -252.442825317383 2.639459371567
-132.137939453125 -80.023338317871 -258.123016357422 1.857445001602
-135.672561645508 -79.263771057129 -250.435104370117 5.329404354095
-146.568817138672 -78.254455566406 -259.136688232422 1.603241324425
-145.616317749023 -72.684120178223 -250.273391723633 2.251250505447
-133.995574951172 -74.317947387695 -259.493438720703 1.141622900963
-161.506591796875 -72.716690063477 -257.893890380859 1.910085201263
-127.762695312500 -75.955276489258 -264.990020751953 3.137825250626
-136.139465332031 -70.547935485840 -260.708435058594 2.260972261429
-162.377120971680 -73.181060791016 -267.360504150391 3.581505537033
-155.489349365234 -73.503852844238 -262.088256835938 1.260692358017
-147.973480224609 -74.333198547363 -263.340118408203 3.195952415466
-148.503601074219 -77.088417053223 -263.266876220703 1.616640090942
17.333314895630 -76.782333374023 -278.228759765625 1.511776089668
-166.194534301758 -76.596885681152 -263.281890869141 1.665932774544
-151.322265625000 -78.108634948730 -270.980834960938 1.486292958260
-4.845695972443 -82.735565185547 -271.622070312500 1.319609642029
-155.114654541016 -73.796470642090 -272.474029541016 2.928346633911
12.085751533508 -78.016937255859 -282.465179443359 0.396524637938
-152.635314941406 -75.946456909180 -279.029205322266 3.033589839935
-165.870300292969 -78.115341186523 -285.951751708984 3.581278324127
-155.242507934570 -79.473777770996 -275.617614746094 3.974248647690
-164.615570068359 -74.232246398926 -286.460662841797 2.134945154190
0.647121012211 -78.272727966309 -286.188323974609 2.926250696182
7.427108764648 -79.847457885742 -280.767425537109 3.136827707291
-105.056938171387 -73.789352416992 -290.615936279297 0.951952517033
-155.896850585938 -83.128509521484 -285.179321289063 2.600791692734
-148.054107666016 -73.876045227051 -282.747985839844 2.211203575134
-106.113410949707 -74.717842102051 -289.874359130859 2.447076082230
-153.170837402344 -79.942474365234 -290.451538085938 2.473423719406
-148.265640258789 -80.948722839355 -286.245330810547 1.970040202141
-74.822265625000 -79.228652954102 -291.659606933594 3.651927232742
-167.744659423828 -79.214401245117 -286.273223876953 5.140611171722
-122.670265197754 -72.301567077637 -289.393310546875 2.531361579895
-42.795726776123 -79.853401184082 -284.551086425781 2.877151250839
-151.492965698242 -76.149406433105 -285.271514892578 2.006677627563
-131.670089721680 -71.051918029785 -291.509338378906 2.861594915390
-20.054613113403 -72.336921691895 -293.691955566406 3.337732076645
-129.122253417969 -72.111297607422 -290.909149169922 4.043038845062
6.181190013885 -75.796524047852 -294.208801269531 1.113850712776
15.107496261597 -71.670120239258 -291.763916015625 1.542930126190
-133.409103393555 -71.887809753418 -288.711944580078 3.325850963593
-145.551025390625 -78.540565490723 -296.103240966797 2.017101526260
-156.494079589844 -80.437812805176 -312.697662353516 4.649464607239
-69.254981994629 -67.267395019531 -51.309249877930 3.949651241302
-19.441432952881 -65.398368835449 -64.914978027344 4.120563030243
-17.053602218628 -74.731414794922 -64.086021423340 3.404481887817
73.543014526367 -68.213783264160 -78.537681579590 5.420782089233
92.681953430176 -69.672683715820 -76.070289611816 4.435348510742
-34.024684906006 -71.972709655762 -78.783668518066 1.635690331459
78.297218322754 -69.620056152344 -80.816101074219 6.252259731293
92.411231994629 -74.404800415039 -83.041397094727 2.366069316864
68.620521545410 -71.091102600098 -84.187728881836 1.267986536026
75.375022888184 -69.366333007813 -90.617614746094 5.043660640717
-47.835704803467 -72.947669982910 -83.913154602051 2.263590574265
-89.577919006348 -75.622550964355 -87.784225463867 3.857186317444
61.470176696777 -74.068725585938 -93.840957641602 1.808353424072
52.461017608643 -73.613090515137 -99.864639282227 3.104742527008
94.896827697754 -66.695358276367 -101.587409973145 2.780637264252
-88.923553466797 -67.378753662109 -100.108207702637 6.465153217316
82.241394042969 -65.599822998047 -100.500068664551 3.793967485428
73.895339965820 -71.666778564453 -101.338829040527 1.325944662094
93.414955139160 -73.350112915039 -98.347053527832 1.220201969147
85.777191162109 -70.924888610840 -96.798309326172 3.499279260635
82.911750793457 -73.849380493164 -99.160690307617 2.010438919067
-86.134429931641 -74.776542663574 -101.028213500977 5.643227577209
45.943794250488 -68.464302062988 -104.856124877930 2.207003355026
106.868515014648 -72.037101745605 -111.242378234863 1.539579272270
108.879394531250 -71.456016540527 -111.178314208984 0.475618362427
51.575977325439 -74.936553955078 -120.108535766602 4.964344501495
114.889045715332 -74.225181579590 -120.195495605469 1.231333971024
119.048377990723 -74.609718322754 -135.674789428711 2.564547300339
-49.020420074463 -69.783233642578 -128.329650878906 4.042124748230
29.370191574097 -71.379371643066 -134.528625488281 1.520566105843
42.764942169189 -75.498275756836 -133.506622314453 2.609011888504
26.120500564575 -69.110290527344 -141.715927124023 0.878783941269
114.459793090820 -75.030776977539 -137.617370605469 2.064265966415
113.177566528320 -72.472396850586 -130.851943969727 0.807292222977
-72.095939636230 -72.854911804199 -146.928527832031 1.151611685753
-42.047576904297 -71.540168762207 -139.591690063477 3.219472408295
-69.936759948730 -70.964103698730 -151.218475341797 0.993456482887
20.108640670776 -69.894371032715 -147.777709960938 1.912221670151
113.515846252441 -67.947517395020 -148.778610229492 2.472526311874
-52.635829925537 -74.753181457520 -150.901565551758 1.504788637161
-70.864433288574 -71.903617858887 -150.886077880859 1.750194549561
-37.763862609863 -76.064834594727 -150.410369873047 3.166795969009
33.058551788330 -66.120971679688 -153.672683715820 4.541282653809
110.208572387695 -66.981155395508 -151.052215576172 4.558304786682
118.053352355957 -69.900596618652 -162.484771728516 3.016504764557
-66.939254760742 -69.613090515137 -154.766693115234 1.170391559601
-73.437332153320 -75.748771667480 -158.871154785156 2.419137716293
23.274316787720 -76.909744262695 -163.058578491211 1.182166457176
-59.085899353027 -70.431579589844 -165.917648315430 2.940669059753
-31.218090057373 -70.300773620605 -162.539520263672 2.407520294189
9.852648735046 -74.110847473145 -163.518203735352 2.969187736511
