-134.391464233398 -83.227745056152 -193.891433715820 3.669143915176
-32.838111877441 -90.121185302734 -199.747985839844 7.761847019196
-143.771911621094 -79.430763244629 -195.585540771484 2.153031349182
-139.500244140625 -77.188156127930 -205.575851440430 3.426820755005
-47.768665313721 -79.801887512207 -197.798339843750 1.404087424278
-150.234222412109 -83.511718750000 -200.333190917969 1.252495288849
-59.168846130371 -81.097084045410 -200.181091308594 2.719465017319
-147.695602416992 -82.864219665527 -202.769927978516 1.725418448448
-64.313690185547 -80.215377807617 -207.678131103516 1.976043939590
23.228164672852 -84.955223083496 -233.722122192383 7.185452938080
12.766712188721 -82.984878540039 -239.646102905273 1.979943275452
-145.274154663086 -81.554466247559 -235.722366333008 1.996057510376
19.015327453613 -90.918876647949 -245.930847167969 7.659357070923
15.959140777588 -83.637870788574 -245.071868896484 2.489675045013
11.156724929810 -87.706138610840 -252.901550292969 4.211344242096
14.857933998108 -83.788139343262 -253.305725097656 2.268256664276
-154.871200561523 -86.251480102539 -255.369720458984 2.185413837433
-132.653762817383 -78.356353759766 -254.679199218750 3.852586269379
16.666080474854 -83.242218017578 -262.760498046875 2.150394678116
-148.270202636719 -87.091560363770 -271.819366455078 3.382601499557
-145.065124511719 -83.532821655273 -273.255432128906 3.118282794952
4.279321193695 -83.020690917969 -272.294799804688 1.450888872147
-143.544235229492 -81.072593688965 -274.464477539063 3.961849689484
-141.726257324219 -86.891319274902 -287.180145263672 1.673185706139
-146.670440673828 -85.952835083008 -286.112823486328 1.563631653786
-149.932144165039 -87.242195129395 -286.241638183594 1.937861084938
-153.528778076172 -82.025970458984 -294.333557128906 1.744825363159
-131.774917602539 -82.243247985840 -294.549865722656 6.220824718475
-152.044158935547 -79.495384216309 -293.936065673828 1.188501596451
-54.286884307861 -77.541954040527 -67.023101806641 3.022708177567
-56.059009552002 -84.817016601563 -72.652473449707 3.432215929031
-42.015865325928 -84.006118774414 -74.400283813477 1.503087997437
-79.959503173828 -82.710876464844 -81.484283447266 1.310003161430
-37.194717407227 -85.059829711914 -78.607643127441 3.461329221725
-46.092208862305 -79.603607177734 -85.100097656250 2.466837406158
-83.313072204590 -87.256706237793 -105.941238403320 3.056802988052
-73.990470886230 -78.268211364746 -100.357467651367 2.059907674789
30.154161453247 -83.656822204590 -124.457923889160 5.626138210297
34.094696044922 -81.110015869141 -141.677856445313 2.844688892365
-12.662148475647 -83.651458740234 -183.606536865234 4.978179931641
-18.618015289307 -81.699882507324 -182.751846313477 2.223909616470
-23.004434585571 -85.711936950684 -179.817520141602 2.632684469223
-37.067775726318 -85.381103515625 -189.533233642578 1.491516828537
-52.487602233887 -83.249862670898 -190.790390014648 5.078813552856
-32.452911376953 -83.383460998535 -195.473052978516 2.420764446259
-138.989410400391 -77.481208801270 -187.256362915039 4.255430221558
-152.328079223633 -80.056465148926 -197.058486938477 0.829248070717
-152.396667480469 -80.713119506836 -200.454559326172 1.225496530533
-148.593765258789 -79.726074218750 -201.215560913086 2.305285215378
-70.608444213867 -87.231407165527 -210.539123535156 4.068140506744
-59.911479949951 -80.459312438965 -204.861450195313 1.710935592651
-149.090576171875 -81.135292053223 -214.586730957031 2.513027429581
-72.312179565430 -84.069015502930 -211.946151733398 2.070504426956
-71.112586975098 -85.029067993164 -213.430358886719 3.689493894577
-75.786064147949 -79.530609130859 -210.698776245117 1.860121369362
-141.942077636719 -82.873725891113 -225.658432006836 1.309201359749
-144.871948242188 -82.969703674316 -232.112899780273 1.055322647095
-150.170394897461 -84.154159545898 -253.329528808594 1.215265393257
15.276966094971 -80.533103942871 -245.585342407227 2.003398180008
11.464195251465 -80.602432250977 -246.814544677734 1.522238254547
-134.703735351563 -84.020568847656 -260.130187988281 1.619834780693
14.438173294067 -88.108299255371 -253.264160156250 5.009570598602
10.392064094543 -84.709976196289 -255.188735961914 1.079870343208
-149.843399047852 -84.956741333008 -265.198394775391 0.834194242954
-154.075439453125 -79.378822326660 -276.016265869141 2.908711194992
-5.931330204010 -82.490341186523 -273.179992675781 2.805928945541
12.088764190674 -85.664665222168 -279.375610351563 4.763003349304
-153.419708251953 -86.758331298828 -284.102752685547 3.089623928070
-139.954864501953 -86.192672729492 -276.051116943359 6.278048515320
-142.836959838867 -82.580886840820 -305.090179443359 5.490231037140
-42.935665130615 -85.028335571289 -71.651123046875 3.964114665985
-69.234176635742 -78.571098327637 -70.713890075684 2.674038887024
-41.804588317871 -84.818008422852 -71.225677490234 4.145729064941
-29.877611160278 -84.474929809570 -76.432067871094 3.915973901749
-71.615997314453 -79.082778930664 -69.250190734863 1.870508670807
-33.223018646240 -84.681686401367 -74.302589416504 2.990527868271
-45.781295776367 -75.746162414551 -84.093353271484 2.624286890030
-54.536800384521 -76.801765441895 -90.403442382813 0.943134665489
-64.410369873047 -86.829971313477 -90.205909729004 1.691323876381
-61.268878936768 -81.996543884277 -100.521980285645 3.821940660477
-91.903022766113 -81.165519714355 -111.607749938965 3.590453863144
41.320854187012 -81.352088928223 -120.246559143066 1.118117690086
38.484771728516 -87.443939208984 -120.043418884277 6.944552898407
-41.562503814697 -85.594276428223 -167.127975463867 6.609163761139
-41.874675750732 -81.556541442871 -159.589340209961 2.808290958405
-3.880637884140 -82.763099670410 -172.041030883789 2.805881261826
-61.607418060303 -87.887565612793 -167.763824462891 7.049837112427
-59.793209075928 -82.471824645996 -180.476409912109 4.758752346039
-56.882785797119 -82.010269165039 -174.157806396484 2.316676378250
-32.466632843018 -82.598716735840 -172.101028442383 1.786648273468
-57.106220245361 -81.061264038086 -180.681427001953 2.882811069489
-30.830217361450 -80.387947082520 -180.540451049805 1.972123861313
-145.706314086914 -79.073997497559 -184.393676757813 2.178082466125
-51.234535217285 -81.934089660645 -181.974334716797 2.486812114716
-45.787662506104 -80.497619628906 -194.940017700195 1.256027698517
-29.440670013428 -83.255119323730 -182.202316284180 2.272538900375
-32.437385559082 -85.591720581055 -187.912124633789 1.833181738853
-33.200481414795 -79.234352111816 -192.404129028320 0.950128078461
-21.348278045654 -84.756713867188 -188.237380981445 2.534919023514
-47.111557006836 -82.151153564453 -200.438903808594 1.397885203362
-143.886718750000 -74.384689331055 -192.966461181641 1.377681732178
-39.466564178467 -76.275497436523 -193.944961547852 1.806854367256
-38.349185943604 -79.271659851074 -202.893463134766 1.334116816521
-38.883136749268 -84.942794799805 -202.751785278320 4.188971042633
-43.904045104980 -78.996658325195 -200.831436157227 0.876679420471
-132.170562744141 -79.794570922852 -194.950469970703 2.866973161697
-135.170822143555 -78.846298217773 -200.318771362305 1.906921386719
-48.783451080322 -80.835327148438 -203.955444335938 1.572890281677
-59.731056213379 -86.521575927734 -205.364807128906 2.572782516479
-40.751670837402 -82.162277221680 -203.386871337891 3.174664020538
-141.258056640625 -81.903450012207 -205.635513305664 2.681365728378
-68.706993103027 -75.587585449219 -208.049835205078 2.170669555664
-36.920394897461 -85.585319519043 -209.039276123047 6.668540477753
16.591226577759 -84.642601013184 -205.805984497070 4.205111503601
-72.439933776855 -82.979751586914 -213.373031616211 2.464108943939
-28.315338134766 -79.264404296875 -214.125747680664 1.788002729416
13.025805473328 -81.790985107422 -219.722564697266 0.770896315575
-152.693252563477 -80.386688232422 -217.492218017578 3.111208677292
7.484147071838 -81.523529052734 -227.568908691406 3.241233825684
13.200099945068 -83.961524963379 -224.639007568359 3.689456224442
18.563789367676 -80.118530273438 -225.088653564453 2.470992803574
-137.881347656250 -84.931419372559 -226.393157958984 2.041123867035
-144.125549316406 -79.030349731445 -229.250015258789 1.480845093727
12.512681007385 -84.021591186523 -236.247253417969 0.777558505535
17.885702133179 -80.696701049805 -236.671310424805 1.988518834114
15.954026222229 -82.128067016602 -236.859100341797 2.054225444794
-148.224105834961 -83.284645080566 -241.688766479492 1.957512974739
-145.167678833008 -90.345367431641 -238.692276000977 6.305503368378
12.034177780151 -83.919097900391 -234.616149902344 2.218112230301
-41.309654235840 -82.368598937988 -244.445938110352 1.740266680717
18.598541259766 -82.575637817383 -247.848037719727 1.836633563042
-43.360218048096 -84.163665771484 -242.967300415039 3.845433712006
-144.093063354492 -84.748466491699 -258.060821533203 1.897826194763
19.103090286255 -84.609611511230 -252.582580566406 4.717569828033
-143.585327148438 -82.748542785645 -256.100860595703 1.024966835976
-153.758926391602 -81.663421630859 -258.948486328125 1.708510994911
13.848964691162 -81.861778259277 -255.318191528320 2.137201547623
-8.264841079712 -78.120162963867 -251.720367431641 1.127062082291
-8.270498275757 -81.349555969238 -263.772613525391 1.816847443581
-143.763809204102 -86.779724121094 -260.217559814453 2.794545888901
-155.381057739258 -74.776786804199 -262.443542480469 0.686560392380
-143.378967285156 -83.323478698730 -264.164916992188 2.658281564713
-149.706909179688 -77.224372863770 -271.566009521484 0.966835796833
-146.904312133789 -82.308158874512 -268.471588134766 2.074256658554
-7.007597923279 -85.107315063477 -269.661376953125 4.128637313843
-5.584889888763 -82.363616943359 -271.962860107422 1.700154900551
14.359127998352 -82.618713378906 -266.467803955078 2.531069040298
3.713212966919 -85.229202270508 -277.886474609375 3.686434984207
3.372898101807 -80.296928405762 -286.964569091797 3.958659887314
-138.410995483398 -77.677154541016 -290.102691650391 1.571914672852
-145.643875122070 -80.329589843750 -293.641387939453 0.668880522251
-59.418663024902 -78.819824218750 -63.121395111084 0.999126851559
-44.427577972412 -78.802360534668 -65.205337524414 1.309732794762
-44.530467987061 -74.843170166016 -66.604118347168 4.349217891693
-44.138118743896 -76.699714660645 -65.733100891113 2.468835353851
-65.726737976074 -84.928596496582 -66.780265808105 5.351607322693
-75.324302673340 -77.405731201172 -70.748619079590 2.939789772034
-39.212306976318 -79.770767211914 -76.808647155762 3.509281635284
-41.078010559082 -83.794288635254 -86.218132019043 3.475034952164
-47.904022216797 -86.221572875977 -87.918281555176 2.748126029968
-84.280853271484 -77.223983764648 -87.986862182617 4.303345203400
-71.993469238281 -83.550720214844 -108.123718261719 6.930984020233
44.675441741943 -80.242904663086 -107.792312622070 2.348280906677
-84.322120666504 -78.825675964355 -109.312332153320 2.068068981171
44.625301361084 -82.258232116699 -121.039253234863 4.385559082031
41.858013153076 -79.614944458008 -124.195190429688 1.337351918221
34.765613555908 -79.827552795410 -121.698684692383 1.636983036995
29.762708663940 -85.531311035156 -127.113677978516 5.808696269989
31.131223678589 -79.911277770996 -133.372817993164 1.580614328384
24.469841003418 -77.600120544434 -145.812728881836 1.055810689926
-47.736820220947 -83.930572509766 -156.522521972656 4.442637443542
31.320043563843 -81.038139343262 -142.464111328125 1.891191601753
25.308128356934 -84.664894104004 -156.498077392578 4.870435714722
-41.605743408203 -83.050788879395 -151.400238037109 2.879453659058
26.993431091309 -81.644027709961 -155.146041870117 1.902852654457
-47.979610443115 -77.222267150879 -159.846710205078 0.984965324402
26.127307891846 -81.572875976563 -166.247772216797 2.707429170609
-60.806575775146 -81.767906188965 -170.310775756836 1.148185014725
-3.210117101669 -84.575981140137 -173.343307495117 4.599578857422
-32.049072265625 -80.104187011719 -173.493896484375 2.537234783173
-8.099625587463 -82.803604125977 -171.992340087891 1.866786360741
-56.948875427246 -80.398231506348 -175.858322143555 2.363914728165
24.405029296875 -84.532974243164 -172.405014038086 5.645384311676
-12.816676139832 -79.280853271484 -184.791915893555 3.788393974304
-23.421436309814 -75.542160034180 -187.110733032227 0.669019341469
-51.397750854492 -76.940155029297 -183.253341674805 1.592224478722
-29.015682220459 -82.013862609863 -187.226394653320 2.411458015442
17.437051773071 -84.782028198242 -191.827438354492 4.964993476868
-148.145767211914 -82.363449096680 -188.397491455078 0.764104723930
-29.217189788818 -81.550933837891 -189.321304321289 1.409041285515
-48.803192138672 -77.443382263184 -189.790863037109 1.632901906967
-150.140777587891 -83.497207641602 -189.751693725586 2.805300235748
-141.830245971680 -80.609443664551 -196.584533691406 2.047738075256
-23.778423309326 -81.036682128906 -197.798828125000 2.613924026489
-22.699790954590 -81.656555175781 -195.189865112305 1.922342658043
-44.815685272217 -79.417503356934 -195.173614501953 1.158701539040
-18.161163330078 -83.487785339355 -195.192657470703 3.530952215195
-47.575065612793 -80.832359313965 -198.348754882813 1.692700982094
-46.594142913818 -81.396835327148 -197.243103027344 0.764618158340
-53.322658538818 -83.379577636719 -200.233352661133 1.320839643478
-19.174335479736 -77.204528808594 -206.504928588867 2.305339097977
-144.509613037109 -79.918395996094 -216.439651489258 1.934536695480
-58.181655883789 -78.598655700684 -209.965560913086 1.288590669632
-58.980827331543 -77.092979431152 -210.258499145508 2.245712518692
-32.670856475830 -73.981811523438 -208.426925659180 1.234372138977
-11.339402198792 -77.693496704102 -207.093231201172 1.735635638237
-33.975914001465 -78.656707763672 -209.883010864258 1.550170302391
-79.897895812988 -79.761734008789 -209.806777954102 1.448490738869
-143.507110595703 -86.001525878906 -209.867156982422 3.742293119431
-32.824485778809 -82.281616210938 -209.376892089844 3.399207830429
6.347692966461 -85.102539062500 -208.909301757813 7.476028919220
-66.919380187988 -83.053543090820 -212.280197143555 2.522444486618
-63.603328704834 -79.838027954102 -214.951309204102 4.792509078979
-24.762393951416 -75.993225097656 -214.728424072266 1.309042215347
-9.179634094238 -88.785491943359 -213.131362915039 8.035621643066
-26.747356414795 -83.533485412598 -216.980300903320 3.455289840698
19.727331161499 -81.042549133301 -215.546020507813 4.526483535767
-150.421157836914 -74.602951049805 -219.025344848633 2.093187808990
-11.348340988159 -87.765052795410 -219.399490356445 7.484604358673
-157.042175292969 -81.794700622559 -226.682296752930 4.222078323364
7.913969039917 -82.879692077637 -230.977264404297 3.639261245728
13.472785949707 -77.200195312500 -226.790618896484 2.248647451401
-0.716652989388 -81.137985229492 -222.830963134766 2.224701166153
16.410617828369 -82.685813903809 -229.038070678711 2.828718423843
-139.002120971680 -85.605072021484 -234.764175415039 5.152021884918
12.225230216980 -82.809082031250 -227.658584594727 1.268344402313
-153.407943725586 -77.307907104492 -228.894042968750 1.861466050148
-144.744201660156 -80.513427734375 -234.457946777344 1.543818831444
0.002316999948 -82.919441223145 -221.693832397461 2.866829872131
19.230794906616 -85.658279418945 -233.781250000000 5.770824432373
-30.335844039917 -77.579429626465 -238.565567016602 2.770381927490
-145.211944580078 -79.823814392090 -239.637207031250 0.241228774190
-36.076221466064 -79.686027526855 -244.891204833984 2.955708742142
-45.948898315430 -79.027839660645 -241.173706054688 2.302159070969
-36.207920074463 -78.435272216797 -240.467147827148 1.342144370079
20.281816482544 -82.522827148438 -244.203262329102 1.554898023605
-49.332107543945 -74.806732177734 -246.892181396484 0.725721120834
18.097160339355 -82.290458679199 -245.786331176758 1.395244956017
13.959810256958 -78.976043701172 -240.698394775391 1.032151341438
9.932478904724 -83.430320739746 -249.922164916992 2.973940372467
-39.077167510986 -84.960350036621 -247.213729858398 5.073051452637
25.004348754883 -84.683303833008 -247.052032470703 5.821964740753
-142.365982055664 -80.130317687988 -247.485443115234 2.998095273972
21.195352554321 -79.428634643555 -251.306930541992 2.845240592957
0.833406984806 -86.459976196289 -249.857315063477 4.992664813995
10.875942230225 -81.501129150391 -241.734176635742 1.194396734238
-149.493728637695 -74.595634460449 -254.757217407227 2.530246496201
-146.089416503906 -84.135513305664 -258.375854492188 1.189524769783
-141.217117309570 -80.663764953613 -257.662414550781 1.944341301918
-151.418319702148 -79.396980285645 -260.297576904297 2.956088542938
16.229467391968 -76.762695312500 -263.854797363281 4.090149402618
-154.077651977539 -74.864273071289 -272.615234375000 3.319921255112
-6.169272899628 -82.115203857422 -274.570465087891 2.710632085800
-151.286392211914 -81.958129882813 -267.947662353516 3.000358343124
-143.538940429688 -77.694755554199 -282.028686523438 1.829403638840
-153.319686889648 -75.644218444824 -275.979705810547 2.433889865875
-153.196044921875 -82.558631896973 -284.686218261719 1.281526803970
-130.208862304688 -83.257301330566 -289.488769531250 5.859615802765
-152.867630004883 -80.467544555664 -289.640594482422 2.179923057556
-145.588912963867 -83.490844726563 -291.318572998047 1.371861457825
-146.390106201172 -80.352569580078 -290.197357177734 1.454685568810
-152.715225219727 -82.211578369141 -296.838531494141 2.011410951614
-144.491012573242 -77.009277343750 -292.552856445313 2.411983966827
-151.956665039063 -79.958457946777 -301.615142822266 1.605224847794
-146.739898681641 -81.373100280762 -303.819519042969 3.407658100128
-146.656509399414 -75.491004943848 -306.265228271484 2.333731174469
-55.594692230225 -71.017265319824 -61.852882385254 6.540761947632
-63.563278198242 -78.296928405762 -64.779716491699 3.005652427673
-46.206123352051 -78.981773376465 -61.884250640869 1.879798173904
-23.703994750977 -81.219245910645 -76.342262268066 4.384666442871
-51.119537353516 -82.966300964355 -88.595672607422 1.409574627876
-87.511352539063 -87.103919982910 -98.213470458984 6.014679431915
42.604698181152 -81.647827148438 -107.493598937988 2.886039257050
-73.762977600098 -81.646110534668 -100.664634704590 1.704114317894
45.087055206299 -84.003654479980 -114.475097656250 2.682363271713
42.342002868652 -81.006027221680 -123.307052612305 2.524409294128
41.932426452637 -81.784179687500 -124.511993408203 2.153892278671
36.547409057617 -81.727775573730 -135.456039428711 1.669713973999
32.770458221436 -79.273437500000 -134.989562988281 1.576287388802
34.483261108398 -88.522872924805 -135.427444458008 6.448455333710
33.101943969727 -78.035720825195 -151.133422851563 2.509298801422
-44.601860046387 -75.697814941406 -150.499816894531 1.889472842216
30.211471557617 -83.280502319336 -140.378021240234 3.109905242920
-65.502487182617 -75.327461242676 -153.591354370117 1.705116271973
-35.090065002441 -82.780647277832 -153.162643432617 5.631008148193
-60.451168060303 -81.748558044434 -163.724029541016 3.211221456528
-38.342327117920 -81.777267456055 -158.890686035156 2.212349653244
32.366859436035 -82.019371032715 -157.814636230469 4.475957870483
-35.169925689697 -86.478775024414 -158.290863037109 5.405458450317
-0.314776003361 -81.530860900879 -174.620208740234 5.545962333679
35.338462829590 -75.250892639160 -165.402175903320 3.953767776489
-9.517631530762 -81.203544616699 -171.538604736328 1.319156885147
-57.755821228027 -79.721763610840 -163.400405883789 3.359071731567
-36.494773864746 -76.626312255859 -170.799179077148 1.272392153740
-31.383594512939 -76.935966491699 -174.571563720703 3.629839658737
24.747022628784 -82.899482727051 -177.794326782227 2.987955570221
-52.592292785645 -81.309883117676 -176.828506469727 1.786713838577
-26.833850860596 -75.590843200684 -175.503707885742 1.818333864212
23.261548995972 -80.568222045898 -185.563186645508 2.841526508331
-50.773578643799 -81.197692871094 -186.145202636719 1.834945201874
-23.970722198486 -74.614143371582 -181.206710815430 1.358722805977
-53.673053741455 -76.698608398438 -185.056716918945 1.892731308937
-40.357913970947 -79.201316833496 -195.709609985352 1.418711066246
-28.373876571655 -78.634147644043 -190.179306030273 1.867729663849
-40.482444763184 -82.000770568848 -196.369873046875 2.123257398605
-21.985916137695 -79.762306213379 -192.849197387695 1.720334529877
-137.048629760742 -80.225120544434 -197.377731323242 2.327862024307
21.689853668213 -80.696350097656 -201.544082641602 3.816528558731
-132.651168823242 -77.225189208984 -199.611206054688 2.506615161896
-19.932792663574 -77.360862731934 -196.740676879883 0.961096882820
-19.728734970093 -77.484649658203 -197.344863891602 0.512614548206
-41.257400512695 -80.779220581055 -194.930984497070 2.052339315414
12.896194458008 -77.985832214355 -198.607849121094 1.055166602135
-15.520844459534 -83.496162414551 -198.959045410156 5.067951202393
-54.780208587646 -81.688522338867 -205.508743286133 1.463638186455
-33.876384735107 -80.408638000488 -204.209335327148 1.095429897308
-59.916503906250 -76.951011657715 -207.428207397461 2.066037893295
-67.685356140137 -78.257270812988 -211.477203369141 2.063033819199
17.671020507813 -78.899665832520 -210.068405151367 3.172620296478
-85.446296691895 -78.353836059570 -212.307754516602 1.566330671310
-27.545314788818 -80.633300781250 -215.856414794922 2.305679321289
-79.528442382813 -80.578216552734 -210.427825927734 1.674961209297
-148.317871093750 -80.164718627930 -214.252273559570 2.194732904434
-6.297801017761 -80.780899047852 -215.331878662109 2.210174322128
-5.689633846283 -78.866394042969 -218.566436767578 0.713945865631
13.502224922180 -81.699768066406 -217.806518554688 1.782988429070
13.475356101990 -74.611175537109 -226.663787841797 3.034124135971
-0.378567993641 -82.466659545898 -228.999832153320 4.231340885162
-141.221298217773 -77.746765136719 -220.423950195313 3.422901391983
-148.823577880859 -83.622070312500 -234.976043701172 1.059495091438
-152.764678955078 -75.928100585938 -233.381500244141 2.642643213272
2.255285978317 -83.487968444824 -236.959152221680 4.016989231110
3.361428022385 -79.111602783203 -237.803054809570 1.556942701340
-23.178731918335 -85.380004882813 -242.947326660156 6.635756492615
-149.697799682617 -76.724411010742 -239.104248046875 2.159080982208
10.948961257935 -82.389549255371 -243.939071655273 1.129082441330
-22.099569320679 -74.834098815918 -241.986938476563 2.263519048691
19.908161163330 -80.753990173340 -236.624374389648 3.360256195068
-52.012882232666 -78.874862670898 -243.974578857422 0.870019972324
-49.610805511475 -80.247329711914 -250.103561401367 4.546267509460
-146.055908203125 -84.727661132813 -246.013137817383 2.232214450836
-61.250263214111 -81.103004455566 -248.789306640625 3.778789997101
-1.854300975800 -80.356658935547 -246.789306640625 3.413933992386
-9.455294609070 -77.968170166016 -255.026458740234 2.352752447128
-146.376083374023 -83.684791564941 -259.342132568359 1.459374308586
-131.148162841797 -77.574775695801 -256.615753173828 3.518510103226
-134.568527221680 -77.161064147949 -258.095306396484 1.040989041328
18.062969207764 -79.974800109863 -258.807312011719 2.316008567810
-144.957153320313 -80.803215026855 -272.416412353516 1.895598649979
18.742002487183 -82.083282470703 -266.934020996094 3.054425001144
-143.638229370117 -77.339225769043 -275.162384033203 2.398304224014
3.633850097656 -83.226860046387 -277.845733642578 2.394168853760
-141.314727783203 -80.087577819824 -282.326141357422 3.908951282501
-0.028171999380 -83.577476501465 -283.820251464844 4.300304412842
-152.226013183594 -76.894805908203 -284.571075439453 2.507924795151
-142.943206787109 -76.247619628906 -283.553863525391 2.178302288055
-135.663742065430 -83.593826293945 -286.553314208984 2.323091745377
-148.687652587891 -82.166961669922 -294.420318603516 2.255601882935
-20.009340286255 -78.422431945801 -290.720092773438 1.648005008698
-150.551559448242 -78.460273742676 -292.288391113281 3.260084152222
-146.415161132813 -82.907798767090 -295.492614746094 1.562117815018
-150.827865600586 -78.273727416992 -308.048675537109 2.655092716217
-54.898105621338 -75.960861206055 -57.337303161621 0.724579036236
-38.326423645020 -83.738136291504 -63.367378234863 5.905400753021
-74.615837097168 -81.251998901367 -68.162048339844 2.469518899918
-29.649457931519 -76.942741394043 -67.337120056152 1.549673438072
-25.892784118652 -80.105934143066 -71.292884826660 3.043191909790
-85.588607788086 -79.165939331055 -79.752746582031 3.029711484909
86.299804687500 -82.556198120117 -85.124626159668 4.369704723358
-33.962520599365 -76.535377502441 -85.778923034668 4.569221973419
83.233894348145 -84.517662048340 -86.566680908203 5.403312683105
79.933998107910 -81.027809143066 -89.344062805176 3.398374795914
86.199417114258 -80.336616516113 -86.825531005859 2.780694484711
86.815177917480 -78.275497436523 -91.553283691406 1.306090235710
91.271385192871 -79.531982421875 -94.887458801270 2.976439476013
-89.858947753906 -74.837532043457 -94.034179687500 3.454487085342
56.915569305420 -80.401191711426 -105.891441345215 5.268481254578
-95.034194946289 -67.707206726074 -112.295928955078 3.947102308273
47.742862701416 -82.700958251953 -108.224205017090 5.249311447144
51.214969635010 -80.961692810059 -113.623168945313 4.598103046417
39.904850006104 -79.003807067871 -115.053222656250 1.907958030701
35.064498901367 -80.342231750488 -137.885345458984 1.078763365746
28.026388168335 -79.088500976563 -141.221435546875 1.509931087494
23.192825317383 -72.728675842285 -144.168502807617 1.255476593971
33.814228057861 -75.924346923828 -143.381347656250 2.455136060715
-45.415275573730 -81.437927246094 -154.115783691406 1.848724842072
-47.908447265625 -80.015815734863 -151.349456787109 2.871623277664
-39.724548339844 -77.934516906738 -158.189529418945 2.220500946045
24.482585906982 -77.439941406250 -154.556900024414 1.016030788422
30.893922805786 -78.564247131348 -168.404876708984 4.261082172394
-32.064983367920 -75.488861083984 -169.173904418945 1.935781359673
-34.192565917969 -73.935981750488 -159.249389648438 1.820825815201
-44.690788269043 -81.090385437012 -159.345413208008 3.797613143921
3.025393009186 -76.530982971191 -163.734344482422 2.578888893127
25.907382965088 -80.386306762695 -151.626831054688 1.401423931122
34.265449523926 -75.911796569824 -159.979492187500 3.204585552216
30.243732452393 -77.636062622070 -170.766799926758 2.450918912888
-5.121592044830 -78.590469360352 -172.807128906250 1.734376549721
-3.431144952774 -80.040100097656 -170.695571899414 1.445484042168
-57.068302154541 -76.684867858887 -166.957992553711 1.617093086243
-59.672615051270 -77.983047485352 -171.209426879883 1.025385022163
-42.665931701660 -80.082992553711 -169.823577880859 1.689952135086
-36.835613250732 -76.934478759766 -167.784179687500 2.495921611786
22.907510757446 -74.647132873535 -171.713058471680 3.281641960144
-21.908466339111 -83.334869384766 -178.451934814453 1.284706473351
-29.258895874023 -75.909217834473 -181.700256347656 2.457201719284
-61.449466705322 -81.994720458984 -179.380737304688 4.492061614990
99.272888183594 -81.787025451660 -182.533767700195 6.240952014923
22.228128433228 -82.988456726074 -175.521942138672 4.724077701569
-24.695583343506 -78.687423706055 -180.078140258789 0.969485521317
-50.410877227783 -78.513626098633 -178.589675903320 1.140435814857
-20.204975128174 -75.535758972168 -180.887817382813 1.171627759933
113.706085205078 -80.630538940430 -182.322677612305 6.014426708221
-54.419555664063 -80.710777282715 -185.108871459961 2.175853490829
13.660903930664 -81.295249938965 -190.454223632813 4.339273929596
19.002933502197 -79.292732238770 -179.034713745117 3.269481658936
-54.926197052002 -83.910324096680 -177.248580932617 2.653786897659
-23.410926818848 -77.448272705078 -182.775100708008 0.977215111256
-54.841140747070 -81.859153747559 -177.341949462891 1.507462382317
-35.296382904053 -80.393531799316 -177.633926391602 2.419028282166
-27.857727050781 -78.786720275879 -187.639389038086 1.738634347916
20.891324996948 -79.852798461914 -188.835083007813 2.274505615234
-47.168876647949 -80.235336303711 -188.610076904297 2.510072946548
104.677864074707 -79.396858215332 -190.756744384766 2.356634140015
-49.729030609131 -75.064422607422 -189.605819702148 1.551717519760
8.075519561768 -78.662689208984 -203.042373657227 2.144787311554
21.976703643799 -78.250350952148 -198.818756103516 3.251614332199
-48.336116790771 -78.633941650391 -191.669967651367 1.781892299652
-15.471770286560 -79.862487792969 -189.481796264648 4.306670665741
100.908622741699 -80.063011169434 -195.444686889648 3.628354787827
97.405036926270 -84.235755920410 -195.776580810547 7.807153701782
-48.715190887451 -77.306709289551 -187.141082763672 0.639262378216
-148.583618164063 -83.948890686035 -199.565719604492 2.360015630722
-44.497257232666 -78.416992187500 -196.421707153320 1.799121379852
-143.946151733398 -78.777687072754 -197.013397216797 2.008940696716
-134.081939697266 -73.716735839844 -197.559341430664 0.728124380112
-45.546211242676 -81.540611267090 -196.304519653320 1.453460574150
10.853839874268 -81.113845825195 -207.446426391602 2.274197578430
-14.943858146667 -76.389068603516 -205.158233642578 1.744068384171
17.079544067383 -76.786552429199 -201.474639892578 1.550652265549
92.570655822754 -84.141067504883 -213.255615234375 7.315223693848
-34.023227691650 -77.055572509766 -202.505172729492 1.892952322960
-13.139624595642 -77.094429016113 -204.167495727539 1.292243957520
-15.089188575745 -76.688255310059 -214.148803710938 1.619977474213
-34.273586273193 -77.712829589844 -204.569030761719 0.726786434650
7.293652057648 -79.430648803711 -206.535293579102 2.836119413376
-78.358680725098 -79.408027648926 -210.717346191406 1.128992199898
17.224441528320 -80.363502502441 -214.990753173828 2.871412754059
-34.153568267822 -77.827911376953 -205.874618530273 1.284823656082
-144.288406372070 -81.642074584961 -207.085083007813 1.774952054024
-140.769012451172 -73.785736083984 -210.142150878906 5.069524288177
-87.300582885742 -78.860267639160 -212.851226806641 0.541345298290
-34.029308319092 -76.558830261230 -209.429199218750 2.289772987366
-13.935596466064 -83.990936279297 -212.555511474609 4.611609458923
-32.356201171875 -79.867431640625 -206.287658691406 1.676154017448
-90.019920349121 -80.691047668457 -217.053359985352 3.653880357742
-86.085174560547 -80.078468322754 -213.663940429688 1.959358930588
7.196818828583 -84.851966857910 -220.903701782227 4.137440204620
-148.643524169922 -72.189552307129 -212.845962524414 1.903178572655
-13.754840850830 -82.887069702148 -212.779785156250 3.791784763336
9.904694557190 -85.944923400879 -219.130294799805 4.941946506500
-143.481750488281 -76.271553039551 -219.842163085938 3.554976463318
-22.203262329102 -80.635856628418 -216.179473876953 1.587572813034
1.865360975266 -75.089599609375 -220.145416259766 3.699023723602
-7.361719131470 -80.202186584473 -219.900482177734 1.921837091446
-151.664810180664 -73.566261291504 -223.197296142578 2.160088062286
-138.993515014648 -67.975547790527 -226.186904907227 2.012625455856
-3.399775028229 -79.507476806641 -225.881912231445 0.867122292519
-147.569061279297 -82.977554321289 -226.716674804688 1.166647911072
1.888146996498 -74.631927490234 -229.660537719727 2.057644367218
18.439712524414 -78.634643554688 -235.773361206055 2.853087425232
-1.300637006760 -81.788230895996 -230.044830322266 3.797755002975
-0.964655995369 -73.646148681641 -232.829376220703 2.092240810394
9.361544609070 -77.938125610352 -231.999633789063 1.900516033173
-151.536865234375 -78.227165222168 -239.197402954102 2.980820417404
-18.907661437988 -76.607521057129 -233.891693115234 4.174115657806
-33.814376831055 -81.098274230957 -238.852050781250 2.109752893448
2.546853065491 -77.744888305664 -234.864761352539 1.809733867645
3.754473924637 -84.368499755859 -242.873580932617 6.062612533569
2.482264995575 -77.584609985352 -233.482284545898 1.479516267776
-57.513668060303 -77.865303039551 -242.343292236328 2.442504405975
-148.045257568359 -73.876243591309 -248.845596313477 3.591395854950
-152.430801391602 -77.497543334961 -247.277877807617 1.644619584084
12.495491981506 -81.180992126465 -247.336730957031 1.755500435829
25.958250045776 -81.627113342285 -246.550354003906 4.872039794922
-60.479709625244 -75.428939819336 -247.399139404297 1.993605613708
-141.694549560547 -82.092643737793 -252.068679809570 3.345460653305
-152.680343627930 -80.876914978027 -254.372589111328 1.477564215660
-153.233947753906 -81.678947448730 -256.794921875000 0.919337570667
-142.238082885742 -74.623664855957 -261.963897705078 0.486469358206
-140.867416381836 -78.393272399902 -256.361114501953 2.593018770218
-6.367972850800 -80.861122131348 -256.356079101563 0.671581506729
-144.758544921875 -78.933601379395 -262.010131835938 2.425530910492
-13.564734458923 -80.027336120605 -268.068939208984 3.029760599136
-146.856338500977 -76.137260437012 -271.711273193359 2.898297309875
-147.293548583984 -76.937919616699 -282.136505126953 1.422957539558
-147.589279174805 -75.624664306641 -283.889739990234 1.423529386520
-2.931452035904 -74.482749938965 -285.330841064453 1.360085606575
-147.515930175781 -73.148704528809 -282.969390869141 2.017823696136
-25.172899246216 -80.310142517090 -286.327056884766 3.910877466202
-25.623142242432 -75.979484558105 -285.341339111328 0.548151791096
-13.065195083618 -76.252326965332 -293.697937011719 1.955656766891
-13.408942222595 -75.868278503418 -292.937194824219 1.303390145302
12.663845062256 -81.769393920898 -291.380249023438 4.582041740417
-124.367179870605 -79.454460144043 -289.973114013672 2.920938968658
-60.859680175781 -78.740760803223 -287.174743652344 3.810884714127
-41.037357330322 -75.514137268066 -290.371856689453 1.354229807854
-32.538562774658 -79.362327575684 -287.786895751953 1.948578119278
-7.970172882080 -76.870666503906 -293.914245605469 2.972893476486
6.210477828979 -80.209228515625 -288.112243652344 2.866605281830
-141.129562377930 -78.126960754395 -297.582214355469 5.896332263947
11.429604530334 -79.673187255859 -295.907318115234 4.220514774323
-152.893371582031 -74.631546020508 -302.473876953125 2.222846269608
-153.341613769531 -81.572158813477 -301.107360839844 1.553599476814
-152.714706420898 -73.191574096680 -312.085021972656 2.221475601196
-142.364379882813 -76.425407409668 -309.419860839844 2.887613773346
-49.714897155762 -77.524414062500 -50.561450958252 4.462700366974
-52.873531341553 -81.536270141602 -56.269149780273 4.085475444794
-66.229438781738 -75.585151672363 -54.716590881348 2.736733675003
-39.248226165771 -75.797157287598 -62.344135284424 1.540606617928
-34.548877716064 -78.149627685547 -59.415187835693 2.889410495758
-18.119588851929 -77.276092529297 -70.336456298828 2.909214019775
-80.338966369629 -74.523658752441 -69.177238464355 3.108797550201
86.303985595703 -80.058074951172 -78.688125610352 3.147858381271
-89.590980529785 -75.456245422363 -74.034980773926 1.344140172005
81.683311462402 -77.396781921387 -77.677062988281 1.960634112358
89.293754577637 -75.020828247070 -84.606979370117 2.499887943268
98.867568969727 -76.717887878418 -90.022972106934 3.182766199112
-59.920612335205 -80.541862487793 -96.316970825195 2.145118474960
83.275802612305 -80.823387145996 -96.706123352051 4.246668338776
77.825218200684 -83.847534179688 -91.246131896973 5.470338821411
87.602943420410 -79.455558776855 -90.696975708008 2.377300262451
-58.066020965576 -78.017379760742 -97.452575683594 4.718818187714
50.047451019287 -76.959907531738 -98.267639160156 1.819292426109
46.890747070313 -78.291488647461 -106.762931823730 1.674528002739
40.810626983643 -79.716445922852 -103.830596923828 3.141739845276
37.234195709229 -79.245529174805 -102.153182983398 5.281837463379
-90.754951477051 -72.966812133789 -104.029991149902 2.746889591217
36.603645324707 -77.052886962891 -117.489280700684 1.578466415405
-83.729545593262 -77.614067077637 -107.224052429199 2.193194866180
41.498264312744 -80.203826904297 -127.355270385742 2.240605592728
33.845630645752 -79.748931884766 -120.967697143555 1.769023776054
35.348552703857 -71.209251403809 -121.633041381836 1.355091691017
45.625236511230 -76.821487426758 -117.680564880371 1.803827047348
42.466640472412 -81.649444580078 -128.384536743164 3.903782367706
-50.150108337402 -71.401199340820 -135.074279785156 1.045988082886
38.637279510498 -83.054878234863 -134.344619750977 2.649765491486
36.808361053467 -78.385253906250 -144.216506958008 2.157020330429
-54.527000427246 -75.344490051270 -143.646682739258 0.827276885509
-43.896564483643 -77.889076232910 -140.137252807617 3.467172145844
36.144542694092 -77.223724365234 -142.676635742188 0.568014442921
111.653427124023 -74.816589355469 -140.981048583984 1.996628761292
113.547004699707 -75.935493469238 -146.574829101563 1.626772403717
27.612174987793 -80.037445068359 -141.688781738281 1.659840345383
-39.163402557373 -80.427268981934 -149.584213256836 3.253970861435
117.687355041504 -86.374336242676 -152.896438598633 9.783639907837
-36.245979309082 -75.650039672852 -152.549804687500 2.483357191086
-66.710220336914 -76.413795471191 -162.090393066406 1.199783921242
111.668136596680 -83.920028686523 -156.246658325195 6.984189033508
23.759563446045 -79.480766296387 -166.239334106445 1.116711854935
2.023355960846 -79.014419555664 -162.796295166016 2.008527040482
112.346595764160 -79.653480529785 -153.047149658203 3.960482358932
-63.078521728516 -76.850257873535 -166.047882080078 1.613193511963
-37.564662933350 -78.775741577148 -165.279785156250 1.528240680695
112.595787048340 -80.376243591309 -165.152053833008 3.572636604309
28.867986679077 -73.404823303223 -158.629562377930 3.338175535202
-60.626586914063 -70.922027587891 -164.403076171875 0.887204468250
113.792343139648 -79.909431457520 -166.169311523438 2.498237133026
-64.336639404297 -78.853698730469 -168.764404296875 1.809478998184
-47.948596954346 -80.389251708984 -182.095596313477 2.353796243668
107.295578002930 -78.758796691895 -171.534469604492 2.452140808105
-58.464282989502 -75.709938049316 -172.075241088867 2.154394626617
113.620506286621 -78.500343322754 -178.029739379883 2.882316827774
-60.146194458008 -76.395881652832 -176.144760131836 2.393046617508
-14.662732124329 -75.328971862793 -177.450820922852 2.297944307327
-8.989510536194 -83.201957702637 -182.313034057617 5.491652011871
108.823898315430 -81.359794616699 -167.078384399414 4.325921535492
22.572231292725 -79.640457153320 -171.419952392578 0.533776044846
31.787500381470 -73.711959838867 -169.308151245117 2.119741916656
-56.802715301514 -76.345840454102 -177.349060058594 1.788782954216
18.632982254028 -76.363372802734 -181.843261718750 1.306208610535
-56.415817260742 -77.979454040527 -174.706436157227 0.285162597895
-51.233753204346 -75.813827514648 -193.546768188477 2.569438934326
12.155231475830 -75.849472045898 -184.797393798828 2.194611549377
-54.893817901611 -72.589492797852 -179.407760620117 2.605719804764
107.405967712402 -76.860473632813 -188.615951538086 1.813439607620
26.878005981445 -81.179252624512 -181.976806640625 3.428548812866
-33.853088378906 -75.133911132813 -188.210861206055 2.297611951828
-41.957782745361 -79.894882202148 -189.850952148438 2.940979957581
12.324453353882 -80.332237243652 -191.711730957031 3.876210451126
-18.622072219849 -79.007926940918 -188.119781494141 2.757847785950
-46.558483123779 -78.888282775879 -195.362319946289 1.596429109573
103.006095886230 -83.367118835449 -182.956893920898 6.317976951599
10.968777656555 -81.644973754883 -190.332489013672 5.571579933167
-131.580932617188 -82.386039733887 -199.768142700195 2.000101089478
-47.332889556885 -79.685920715332 -195.364395141602 1.643667340279
95.759483337402 -78.383186340332 -198.974105834961 2.436828613281
-148.551483154297 -82.225997924805 -202.227233886719 1.950438976288
19.400880813599 -78.758705139160 -200.098022460938 2.432286500931
-42.233791351318 -74.390937805176 -205.909774780273 3.352428436279
-29.217981338501 -80.750907897949 -206.955673217773 2.527958393097
-36.166213989258 -78.703239440918 -201.545043945313 1.182334065437
-44.588970184326 -83.669326782227 -197.876556396484 1.551106691360
101.720207214355 -79.186279296875 -204.725921630859 2.828197240829
-20.071241378784 -81.772720336914 -200.270233154297 2.592878580093
-149.182815551758 -76.332901000977 -200.942764282227 2.832592248917
16.872261047363 -80.803131103516 -201.799804687500 3.467428207397
-76.161125183105 -81.596252441406 -205.638534545898 2.812298774719
-143.056182861328 -74.189170837402 -213.484756469727 2.935082435608
94.990036010742 -81.572113037109 -213.718292236328 5.841702938080
-31.919691085815 -76.230522155762 -206.994186401367 0.864028811455
-27.835260391235 -78.380279541016 -211.112106323242 1.774526119232
10.854596138000 -78.884048461914 -210.033401489258 2.290703773499
-70.729484558105 -81.438934326172 -207.762802124023 1.578167438507
-26.272918701172 -85.535453796387 -205.952713012695 7.434523105621
-7.072600841522 -79.537406921387 -216.888824462891 1.775983691216
-69.356582641602 -78.465835571289 -213.931869506836 1.865184783936
-13.019367218018 -78.504821777344 -217.504989624023 1.777457952499
8.867591857910 -70.219375610352 -211.497985839844 1.467730045319
13.813907623291 -81.238990783691 -221.221420288086 1.204305410385
-150.384033203125 -78.221656799316 -217.524917602539 0.490873128176
-7.961964130402 -78.007713317871 -214.224456787109 2.437239646912
-100.352478027344 -73.241760253906 -219.952529907227 0.644555509090
-20.916891098022 -77.499916076660 -219.447448730469 1.676326632500
89.758445739746 -84.848999023438 -212.275894165039 7.943563461304
10.131713867188 -76.457054138184 -224.724487304688 1.152409553528
22.139625549316 -78.109550476074 -216.413864135742 4.753530025482
81.091903686523 -80.673469543457 -214.426284790039 5.316444396973
2.299206018448 -82.413063049316 -229.804992675781 3.200120925903
86.389175415039 -79.721961975098 -216.927581787109 3.398267984390
-19.834506988525 -73.855979919434 -224.400085449219 2.124424219131
17.495473861694 -75.273628234863 -218.469955444336 1.352007865906
-147.426559448242 -77.984153747559 -218.790161132813 2.468700170517
-24.689769744873 -79.424987792969 -226.126998901367 4.644961833954
3.006448984146 -75.770088195801 -230.753250122070 0.187719523907
-155.362457275391 -81.764335632324 -225.282501220703 3.279257297516
-136.440002441406 -79.578811645508 -227.739517211914 2.440971851349
4.367681980133 -77.958709716797 -223.505279541016 3.375724077225
-2.665608882904 -74.757667541504 -225.385086059570 2.203852415085
-136.067810058594 -73.099449157715 -229.087463378906 2.371730089188
-146.154861450195 -76.957107543945 -241.608612060547 2.284004688263
-147.781600952148 -77.138603210449 -235.549224853516 1.922165393829
-30.696107864380 -79.169570922852 -236.792526245117 2.400871276855
-141.339797973633 -79.820518493652 -243.069366455078 3.907752275467
16.626827239990 -79.910812377930 -241.420028686523 1.634679079056
6.732644081116 -77.992980957031 -244.695037841797 1.625855445862
-149.650177001953 -71.088768005371 -237.946197509766 3.321026325226
-148.572845458984 -76.112541198730 -244.618270874023 1.810810208321
-44.605400085449 -79.749816894531 -245.621170043945 0.768418192863
-30.536262512207 -78.691947937012 -246.856811523438 4.100980281830
5.203588008881 -78.378417968750 -242.723663330078 1.052637815475
-35.237930297852 -79.856048583984 -245.335540771484 3.091500997543
23.028745651245 -78.848251342773 -246.503372192383 1.539918422699
-4.907590866089 -80.680122375488 -252.615570068359 0.886165499687
-143.532318115234 -77.694572448730 -252.821975708008 2.511888265610
-8.856172561646 -83.384841918945 -252.925491333008 2.071524858475
-147.301589965820 -74.398033142090 -246.948043823242 2.314327001572
-64.350379943848 -79.610969543457 -250.108856201172 1.035861492157
-146.003814697266 -83.957954406738 -258.922393798828 1.376893520355
-126.392166137695 -76.857879638672 -258.066619873047 1.392070055008
-151.759155273438 -76.170814514160 -257.111175537109 2.910964965820
-9.506709098816 -75.688819885254 -267.274230957031 3.447575807571
-144.716827392578 -82.833625793457 -272.029449462891 2.839542388916
-148.187423706055 -77.088394165039 -269.102264404297 2.009170532227
-10.700040817261 -78.757583618164 -270.794097900391 0.444875806570
-143.304672241211 -77.032890319824 -269.946777343750 3.403854370117
-5.238469123840 -77.045898437500 -276.627105712891 2.600718498230
-44.569454193115 -77.154495239258 -283.940917968750 2.926944732666
-133.746734619141 -74.281066894531 -288.276824951172 2.386117935181
-134.442062377930 -76.207817077637 -285.701416015625 1.484892606735
-122.118659973145 -73.601676940918 -281.749938964844 3.985940933228
-50.743972778320 -76.918327331543 -286.224090576172 1.444452285767
-110.920722961426 -75.565147399902 -283.768524169922 4.495578289032
17.567241668701 -77.915191650391 -292.428771972656 2.690594196320
-55.840065002441 -75.676513671875 -288.484436035156 2.198841571808
-139.705459594727 -76.428733825684 -293.090972900391 2.800412178040
-62.107799530029 -76.287872314453 -290.403198242188 1.784473896027
-143.601593017578 -81.900062561035 -293.396667480469 1.770789027214
-115.315643310547 -74.416252136230 -290.844451904297 2.106502056122
-44.794075012207 -80.350181579590 -290.261474609375 4.366785526276
-32.334129333496 -77.943756103516 -291.499847412109 2.092606782913
-136.572662353516 -72.381767272949 -295.967803955078 3.245182991028
-12.818876266479 -72.809776306152 -282.549774169922 3.400030851364
5.913016796112 -77.906753540039 -287.376739501953 1.761676311493
7.926974773407 -76.697532653809 -290.411987304688 1.238330721855
16.494228363037 -79.449714660645 -295.474792480469 3.056885480881
-148.594238281250 -80.921119689941 -297.938171386719 1.270040154457
-143.755233764648 -74.298515319824 -293.153472900391 1.843969106674
-65.137458801270 -75.098052978516 -62.090808868408 3.530709981918
90.223442077637 -80.270858764648 -72.537384033203 5.197039127350
80.127189636230 -79.710327148438 -77.370292663574 3.950585126877
-26.565738677979 -79.789581298828 -76.402687072754 2.069634675980
85.034263610840 -76.976409912109 -74.638259887695 2.313284873962
-36.640705108643 -79.713005065918 -79.764358520508 1.612930536270
84.187538146973 -74.848213195801 -81.939460754395 2.672264337540
97.504791259766 -74.939338684082 -79.924446105957 1.027039170265
-63.161525726318 -70.609519958496 -95.802352905273 2.510810852051
74.109550476074 -79.042587280273 -94.233612060547 3.904891729355
81.327003479004 -76.445137023926 -97.639907836914 1.830687761307
97.886413574219 -81.569450378418 -95.153526306152 6.688518524170
56.616481781006 -80.085945129395 -96.986129760742 4.304870605469
-65.825912475586 -74.415168762207 -101.264839172363 2.842981815338
-72.640373229980 -72.787742614746 -101.015029907227 1.181618094444
51.897121429443 -80.289741516113 -103.518402099609 2.160232067108
-86.478012084961 -77.918777465820 -102.217117309570 3.098885774612
48.547534942627 -75.170387268066 -117.974876403809 2.942226886749
111.995918273926 -78.155601501465 -119.808227539063 2.977485656738
114.256057739258 -81.033912658691 -130.343902587891 5.250499248505
22.157180786133 -75.746520996094 -136.992721557617 3.989871978760
111.594383239746 -80.645233154297 -126.752799987793 4.176892280579
30.028291702271 -75.339805603027 -133.327529907227 1.341240048409
114.274795532227 -73.215270996094 -132.167358398438 1.802072048187
38.485599517822 -75.696975708008 -134.562484741211 2.639556884766
-54.894371032715 -76.380889892578 -140.503265380859 2.338433265686
37.481243133545 -81.647850036621 -145.165115356445 4.664411544800
110.177124023438 -76.840026855469 -134.779083251953 1.727025389671
-44.777881622314 -75.180351257324 -143.771499633789 1.356624364853
33.384204864502 -76.565261840820 -150.100021362305 0.967004895210
-55.313507080078 -71.282180786133 -141.122222900391 1.556554436684
