81.084197998047 -75.474578857422 -224.437896728516 2.127269029617
-122.815498352051 -74.443046569824 -224.235061645508 2.305105447769
4.073967933655 -73.171333312988 -228.877685546875 1.568802356720
81.860389709473 -73.084556579590 -225.976699829102 2.039114475250
-16.713418960571 -75.754158020020 -232.621459960938 3.482766151428
-14.440235137939 -75.149154663086 -224.615280151367 1.166423320770
-0.216236993670 -81.599143981934 -229.454299926758 3.354089736938
11.407206535339 -77.312744140625 -227.498245239258 2.051538467407
90.558357238770 -76.718750000000 -229.075927734375 7.206997871399
9.130392074585 -72.444358825684 -230.809036254883 2.393154144287
6.734837055206 -73.199417114258 -229.449325561523 0.972291529179
-9.246921539307 -74.959541320801 -231.274536132813 2.103907823563
-6.829126834869 -75.881416320801 -227.540390014648 1.653621077538
19.808176040649 -73.070198059082 -233.432205200195 2.432630300522
-12.748440742493 -70.536857604980 -232.179702758789 2.005944967270
70.456802368164 -75.592521667480 -241.927215576172 3.354637145996
-10.106785774231 -72.861976623535 -238.894409179688 1.671814441681
19.046974182129 -75.470878601074 -235.675674438477 1.368346452713
-161.059341430664 -70.765502929688 -235.700393676758 2.305324792862
-6.250372886658 -71.249107360840 -235.351348876953 0.763516962528
-7.662598133087 -76.471549987793 -238.579421997070 3.743611335754
-168.052749633789 -74.612129211426 -246.120437622070 3.890886545181
-11.520065307617 -71.772178649902 -243.313873291016 0.563926279545
14.347973823547 -70.988121032715 -244.874298095703 1.823833584785
-148.894012451172 -75.435432434082 -247.954132080078 2.963074922562
-76.536117553711 -73.980125427246 -249.807800292969 1.558414816856
-62.749900817871 -75.717567443848 -245.442672729492 0.927629053593
50.799827575684 -71.323593139648 -247.625000000000 1.814191937447
-73.619209289551 -73.255416870117 -244.033447265625 2.961963176727
15.388251304626 -75.064910888672 -249.739364624023 2.550673961639
-73.442329406738 -75.397781372070 -248.671600341797 1.080795645714
-16.331405639648 -71.477371215820 -242.208175659180 1.478361964226
-145.996963500977 -77.256759643555 -248.864334106445 1.705637097359
44.668972015381 -69.817749023438 -251.549087524414 0.600594997406
-81.764381408691 -78.051597595215 -254.581970214844 2.406733274460
-103.948318481445 -69.692733764648 -252.573028564453 3.203531265259
-101.103012084961 -75.547752380371 -251.613296508789 4.427823066711
-122.008148193359 -69.978645324707 -248.424209594727 7.088574886322
-106.937057495117 -69.443717956543 -254.513885498047 0.945587277412
-105.949203491211 -72.779747009277 -254.629150390625 2.045824527740
20.209430694580 -69.905639648438 -257.571044921875 4.210326194763
-131.487533569336 -70.424270629883 -261.840332031250 2.983946561813
-16.689373016357 -75.536476135254 -274.265197753906 4.814525604248
-150.344772338867 -69.927467346191 -280.451568603516 1.801035404205
-170.389663696289 -75.994491577148 -282.445159912109 3.058080196381
-126.617347717285 -75.154060363770 -279.682769775391 4.906166076660
-115.834472656250 -69.962989807129 -283.809722900391 2.943675279617
-77.292121887207 -69.077377319336 -280.833099365234 5.701473712921
-59.641849517822 -76.137527465820 -284.970733642578 2.250149011612
-42.950843811035 -72.936447143555 -284.398406982422 3.156996488571
-17.459178924561 -79.613433837891 -290.307159423828 1.649355530739
-15.656955718994 -71.659378051758 -292.692840576172 0.641529202461
-40.732925415039 -78.005134582520 -289.645812988281 1.897169589996
-36.398220062256 -74.668136596680 -287.575469970703 2.508930683136
-21.187351226807 -70.419944763184 -287.790130615234 2.026964426041
-75.323577880859 -73.156051635742 -292.216094970703 3.282005071640
-58.371986389160 -73.565040588379 -289.705291748047 1.530742645264
-20.906024932861 -69.929702758789 -291.102264404297 3.693845987320
-15.830909729004 -77.148216247559 -288.246307373047 3.263422489166
-5.635107994080 -74.165557861328 -293.028625488281 2.155153751373
0.586710989475 -70.033119201660 -292.637603759766 0.455144166946
-95.756462097168 -74.158370971680 -291.090911865234 1.415560960770
-140.384613037109 -77.080482482910 -292.754119873047 2.072958707809
-117.531066894531 -75.133781433105 -289.729431152344 1.388192176819
-155.465438842773 -70.917434692383 -289.786834716797 1.230822563171
-152.724960327148 -74.988861083984 -295.630859375000 1.918759226799
-149.581695556641 -70.705703735352 -296.558410644531 2.182557106018
47.967914581299 -68.126052856445 -23.205513000488 1.892787098885
24.616708755493 -75.867416381836 -23.357757568359 3.161969423294
54.534275054932 -67.347740173340 -24.692152023315 5.406633377075
51.373256683350 -73.011680603027 -36.269306182861 2.487486124039
91.650825500488 -72.027656555176 -73.209213256836 1.703352212906
99.304992675781 -74.702774047852 -76.180076599121 1.736962676048
104.740242004395 -72.778137207031 -78.426856994629 4.737667560577
101.391380310059 -72.399879455566 -85.972358703613 2.420950412750
58.649002075195 -73.474182128906 -90.904197692871 2.055791378021
46.699390411377 -79.272560119629 -90.065437316895 6.780037879944
66.378814697266 -71.264549255371 -91.816932678223 3.678976058960
-62.659503936768 -69.680702209473 -92.156806945801 2.200322389603
74.909194946289 -70.686950683594 -88.452545166016 3.704423904419
102.749649047852 -63.672775268555 -101.478141784668 1.204405903816
77.137954711914 -72.667861938477 -103.158523559570 2.181550979614
95.975463867188 -71.142425537109 -105.075592041016 2.888838291168
-84.161033630371 -72.540702819824 -102.783660888672 4.341385841370
48.699779510498 -70.476509094238 -96.578224182129 2.176470279694
-85.224601745605 -73.339241027832 -97.803276062012 5.663798809052
54.175632476807 -73.616256713867 -110.829696655273 3.596015453339
39.217971801758 -80.249916076660 -103.377616882324 4.286263942719
102.298789978027 -71.419822692871 -105.088027954102 2.133463859558
39.230636596680 -72.504356384277 -104.896141052246 1.939824581146
46.936618804932 -74.865905761719 -121.396331787109 2.347831487656
44.800117492676 -72.979507446289 -113.576972961426 2.114315032959
113.967826843262 -71.227951049805 -113.471496582031 1.799012541771
-78.402389526367 -78.302833557129 -119.761383056641 7.203933715820
115.063941955566 -78.361061096191 -124.650550842285 4.977818012238
43.784912109375 -67.491142272949 -125.883384704590 4.321754932404
42.193561553955 -72.363586425781 -120.385139465332 2.335662364960
36.566993713379 -73.432029724121 -120.219589233398 2.668533563614
-53.023666381836 -78.116592407227 -127.730155944824 6.268809318542
31.843450546265 -71.199195861816 -123.481918334961 1.599101185799
-76.171760559082 -68.370315551758 -136.441390991211 1.258305907249
-53.111076354980 -77.118759155273 -130.776763916016 3.704446077347
-77.650871276855 -69.164161682129 -132.824905395508 1.405092954636
38.724224090576 -70.202423095703 -132.429290771484 0.984236717224
-58.118293762207 -74.349388122559 -131.679687500000 2.192893266678
37.183341979980 -71.932731628418 -133.340988159180 2.116123199463
-69.508323669434 -69.698143005371 -137.739532470703 2.516161918640
-57.620483398438 -67.512237548828 -140.737518310547 2.901850700378
25.299581527710 -74.131744384766 -144.644515991211 1.338886857033
113.529129028320 -76.374343872070 -144.965408325195 2.763684988022
116.673286437988 -67.778190612793 -139.849594116211 3.965840339661
31.998731613159 -73.299057006836 -143.101913452148 2.182193756104
-48.171176910400 -75.016319274902 -138.193023681641 1.589020967484
106.454277038574 -70.335052490234 -154.699813842773 2.413768053055
-74.868164062500 -71.971519470215 -140.356414794922 1.492162108421
-56.902610778809 -72.083007812500 -140.442855834961 1.565352559090
33.279895782471 -66.424194335938 -146.434310913086 3.139609336853
-76.794013977051 -74.119171142578 -143.806457519531 1.683135509491
-68.889076232910 -71.612915039063 -147.858047485352 1.748798131943
115.292526245117 -78.759391784668 -151.434646606445 2.043509244919
-63.200504302979 -70.478012084961 -153.896911621094 3.543354272842
-38.170707702637 -68.209526062012 -150.417083740234 4.537232875824
26.029176712036 -71.061012268066 -144.740509033203 1.598311185837
-70.526649475098 -72.918403625488 -142.047668457031 1.677505731583
13.859485626221 -71.359695434570 -148.734695434570 1.367836117744
33.080928802490 -72.411117553711 -158.771896362305 0.925379812717
32.710441589355 -69.644699096680 -152.217102050781 2.648640155792
18.556474685669 -78.051773071289 -153.596908569336 4.574641704559
-49.441925048828 -75.022766113281 -151.447113037109 2.000995874405
24.336778640747 -75.731170654297 -153.277740478516 2.185841798782
-45.666351318359 -71.298088073730 -149.730209350586 1.879245281219
4.647006034851 -72.813934326172 -153.970046997070 2.649326562881
20.723690032959 -71.640556335449 -150.076644897461 2.585723876953
-66.022338867188 -71.004425048828 -156.654586791992 1.699489593506
-46.076389312744 -68.849662780762 -152.770141601563 1.923024177551
-67.286430358887 -72.170417785645 -150.059875488281 1.800862312317
21.360639572144 -71.259277343750 -158.783599853516 2.372367382050
24.952222824097 -71.721832275391 -150.301193237305 2.101689100266
3.416384935379 -72.878623962402 -166.241378784180 3.006627321243
23.187854766846 -71.533195495605 -152.228088378906 1.257360696793
31.516651153564 -71.838768005371 -169.153350830078 3.278181791306
-46.243217468262 -73.478607177734 -162.713775634766 0.729885399342
-37.617900848389 -81.707778930664 -163.176712036133 2.107118129730
-40.648326873779 -73.966926574707 -159.858947753906 1.797505021095
28.843528747559 -73.582870483398 -157.820388793945 3.382501840591
-43.712551116943 -69.514160156250 -164.953750610352 3.185468196869
-38.455760955811 -70.651100158691 -167.623443603516 0.723398268223
22.720092773438 -70.762023925781 -165.504928588867 0.935532331467
-39.034076690674 -73.268371582031 -175.208633422852 1.826669335365
28.138486862183 -67.539176940918 -170.417648315430 2.486689805984
111.306953430176 -68.691329956055 -165.616455078125 0.431556940079
-33.577453613281 -72.719825744629 -171.102020263672 2.755116462708
100.838195800781 -70.088569641113 -175.450820922852 4.783143520355
-34.023059844971 -72.221893310547 -176.812911987305 1.794725775719
-37.535606384277 -76.681617736816 -180.908065795898 4.062596321106
23.368257522583 -76.358146667480 -178.466995239258 2.477328062057
106.985122680664 -74.323875427246 -184.042816162109 1.648637294769
-32.636196136475 -70.477973937988 -180.781173706055 1.875192642212
-35.543907165527 -72.285354614258 -178.484359741211 1.480533003807
-22.450994491577 -78.420639038086 -186.590621948242 0.974742889404
-148.883666992188 -72.439880371094 -185.860885620117 0.850189149380
11.588212013245 -72.309196472168 -183.326599121094 2.831920623779
104.253562927246 -71.714378356934 -194.342575073242 2.602475643158
-160.678680419922 -71.680328369141 -188.349136352539 6.673674106598
-20.568712234497 -67.992828369141 -187.365020751953 2.930738449097
-115.596305847168 -74.847137451172 -194.990768432617 2.940297842026
-128.740783691406 -74.326477050781 -191.308059692383 5.046697139740
-106.561676025391 -73.696784973145 -197.435836791992 5.496641635895
-114.828193664551 -71.007186889648 -197.286270141602 0.714779913425
-11.039159774780 -74.214256286621 -195.740570068359 2.814880132675
19.941591262817 -70.504188537598 -196.056762695313 1.194900035858
-15.902926445007 -68.073616027832 -201.445663452148 2.221140623093
-128.470108032227 -72.289779663086 -203.000717163086 3.069086074829
-20.369287490845 -67.741737365723 -200.400650024414 0.805255770683
-127.983207702637 -69.841354370117 -199.723953247070 4.335387229919
-16.608121871948 -72.519348144531 -197.962860107422 1.730858087540
-147.154220581055 -70.625503540039 -197.816833496094 1.604239106178
91.679344177246 -67.837097167969 -207.779434204102 3.123970031738
-164.109893798828 -64.633979797363 -197.186416625977 3.861194372177
-2.347660064697 -74.076194763184 -220.015289306641 1.092895269394
12.053523063660 -74.987396240234 -210.264251708984 2.318808078766
9.852370262146 -76.834892272949 -217.144149780273 1.513069987297
81.994689941406 -73.511039733887 -217.532867431641 2.831344366074
9.260484695435 -74.383811950684 -213.270629882813 1.436500787735
11.075074195862 -71.771934509277 -215.013336181641 1.575727701187
-16.100402832031 -76.469268798828 -214.639907836914 2.315789222717
-90.588859558105 -73.693107604980 -210.377532958984 2.924275398254
-98.836570739746 -72.527442932129 -214.190490722656 2.711112976074
2.049777030945 -72.012306213379 -217.822021484375 3.593997240067
-166.977264404297 -75.021575927734 -217.116363525391 3.155951023102
15.966634750366 -69.962646484375 -218.100326538086 1.247673511505
-145.112930297852 -71.494232177734 -216.510681152344 2.094683408737
13.197433471680 -73.723526000977 -224.883972167969 2.528255939484
-135.781509399414 -74.513198852539 -221.610580444336 4.157380104065
-115.910514831543 -73.676605224609 -225.493850708008 0.867138326168
16.969028472900 -72.305534362793 -220.253173828125 2.500240802765
79.202163696289 -73.496025085449 -220.893600463867 2.178382396698
5.757878780365 -73.786735534668 -223.493591308594 1.430939316750
-109.386840820313 -71.170433044434 -228.718963623047 1.379952788353
69.091011047363 -74.876541137695 -228.659439086914 3.332777023315
85.056816101074 -75.148376464844 -230.967987060547 4.155924320221
-127.071693420410 -72.054870605469 -233.749084472656 2.177761316299
-119.405281066895 -72.162803649902 -226.979965209961 1.772440314293
-9.727423667908 -68.118194580078 -225.518524169922 2.612304925919
71.401519775391 -74.084724426270 -234.251678466797 2.200999259949
63.963188171387 -73.983039855957 -233.327926635742 3.639956712723
71.600257873535 -72.794425964355 -229.697830200195 1.563247323036
-137.104995727539 -67.672065734863 -230.467712402344 3.564942598343
68.544815063477 -74.973480224609 -231.769592285156 1.894459962845
65.059394836426 -70.134315490723 -236.136398315430 1.376277685165
-166.505691528320 -69.771804809570 -227.521514892578 0.999455273151
1.236127972603 -81.752433776855 -241.897521972656 4.304369449615
19.963268280029 -75.053085327148 -239.158386230469 1.663419365883
-6.910473823547 -69.422767639160 -241.165252685547 2.392312765121
16.329568862915 -66.033676147461 -239.397674560547 2.810612916946
66.481498718262 -74.580131530762 -238.867538452148 1.776572823524
6.584582805634 -70.368171691895 -244.630630493164 2.571832418442
-12.345298767090 -65.787788391113 -239.695297241211 0.803832590580
-2.458959102631 -68.953445434570 -235.151397705078 1.184850335121
64.024803161621 -73.974205017090 -243.199035644531 1.771332144737
0.601584017277 -73.072708129883 -242.138305664063 2.089841604233
-6.870584964752 -73.993759155273 -242.682067871094 1.778094291687
13.849678993225 -76.888000488281 -241.854278564453 2.938333272934
-168.352783203125 -75.197074890137 -237.040054321289 4.032429218292
53.299530029297 -74.782768249512 -247.995132446289 1.953543305397
47.649787902832 -65.409355163574 -253.737152099609 2.584377527237
58.875091552734 -74.160041809082 -244.119338989258 2.003014564514
-13.190813064575 -70.232315063477 -247.370483398438 1.078771710396
56.150569915771 -72.559944152832 -245.865463256836 1.519561648369
-75.574234008789 -72.424850463867 -248.982330322266 1.172306418419
49.260307312012 -73.868209838867 -248.869567871094 1.342741847038
-88.563331604004 -71.838821411133 -250.681381225586 2.204957723618
-122.984718322754 -73.529571533203 -255.100387573242 1.688173890114
-132.969406127930 -72.739273071289 -248.989959716797 4.795737266541
46.346195220947 -75.630485534668 -252.128021240234 4.381414890289
-131.680160522461 -75.921897888184 -248.437759399414 6.629077911377
-109.489295959473 -69.423698425293 -251.297241210938 4.402773380280
-118.695838928223 -69.921203613281 -254.981918334961 2.981349229813
-85.515571594238 -72.968566894531 -252.230865478516 1.434105992317
-111.697776794434 -69.092155456543 -255.382019042969 2.559400320053
-125.505905151367 -76.868522644043 -259.584594726563 0.712415575981
-148.719299316406 -69.394744873047 -265.022216796875 2.670221328735
-16.658155441284 -71.029006958008 -267.156524658203 3.268233537674
-174.812088012695 -75.606773376465 -260.681182861328 8.495907783508
-16.490377426147 -71.831741333008 -274.311492919922 3.147826671600
-159.977615356445 -67.993133544922 -263.370819091797 2.075646638870
-154.249862670898 -73.463790893555 -268.635467529297 2.660384654999
-172.577972412109 -72.225456237793 -273.574829101563 5.434606552124
-16.974334716797 -73.927085876465 -281.317047119141 5.116471767426
-129.866119384766 -75.697196960449 -279.582977294922 4.183399200439
-158.844482421875 -72.198539733887 -282.538085937500 2.272189855576
-144.824340820313 -71.169052124023 -276.997070312500 1.079801321030
-136.557846069336 -75.416404724121 -274.637725830078 8.449081420898
-10.009439468384 -65.212280273438 -283.700714111328 3.641326189041
-127.967872619629 -76.365982055664 -279.698303222656 4.904837608337
-142.570007324219 -68.890830993652 -282.449890136719 2.281070947647
-117.178916931152 -77.233306884766 -282.606811523438 4.371318817139
-82.945922851563 -69.677787780762 -286.976593017578 2.649452686310
-61.594081878662 -74.555007934570 -285.228790283203 1.459143161774
-9.905504226685 -74.697898864746 -287.190643310547 0.641672074795
-56.432647705078 -71.332130432129 -282.062652587891 4.774506568909
-58.711490631104 -69.875244140625 -287.080047607422 1.773170471191
-73.300964355469 -70.754211425781 -288.390319824219 1.621000051498
-91.084434509277 -70.991180419922 -292.974945068359 1.805554628372
-95.125099182129 -70.560997009277 -285.476898193359 3.340363502502
-161.290267944336 -71.945343017578 -287.723724365234 0.883989274502
-162.321258544922 -73.305992126465 -290.773437500000 1.406400561333
-126.152084350586 -76.310028076172 -290.269073486328 1.188239097595
-146.439910888672 -72.183006286621 -290.837249755859 3.047228574753
-153.891525268555 -75.303733825684 -301.691864013672 0.993987500668
-154.884643554688 -76.280921936035 -307.791412353516 1.595041751862
52.825260162354 -69.569107055664 -13.736729621887 6.418982028961
18.937601089478 -73.346702575684 -31.567913055420 2.581368923187
46.399307250977 -66.148941040039 -35.917686462402 1.554672956467
-11.388121604919 -74.907272338867 -65.438636779785 4.798871517181
84.823783874512 -69.231292724609 -66.566833496094 1.690575718880
93.695526123047 -66.460449218750 -67.779266357422 2.651180982590
81.903907775879 -76.927375793457 -66.513603210449 5.274021148682
75.172500610352 -73.789596557617 -71.168807983398 2.123287439346
93.924591064453 -73.776329040527 -77.801719665527 2.148061990738
-94.452247619629 -66.899391174316 -67.834495544434 2.953759193420
69.111709594727 -71.921012878418 -76.319030761719 2.369129657745
-33.420059204102 -74.061416625977 -76.630485534668 3.379851579666
100.948455810547 -71.242195129395 -87.316818237305 2.244865179062
65.144805908203 -67.544609069824 -91.668106079102 1.423410177231
110.253570556641 -77.867378234863 -94.341384887695 7.826396465302
101.944320678711 -77.270332336426 -100.779586791992 4.101493358612
75.772514343262 -71.865638732910 -102.851112365723 0.955313503742
-79.525772094727 -68.012741088867 -100.777801513672 1.808630228043
56.704448699951 -70.640617370605 -106.809143066406 3.096173286438
110.442497253418 -67.759902954102 -108.955093383789 2.481724262238
48.015323638916 -71.371429443359 -114.787284851074 1.115985393524
81.825477600098 -70.191047668457 -107.798835754395 3.088630914688
43.559444427490 -71.044822692871 -108.738113403320 1.772614121437
104.914161682129 -71.565704345703 -105.153526306152 1.266373634338
49.564224243164 -71.287513732910 -108.683540344238 0.535892903805
108.092941284180 -79.006896972656 -111.242568969727 4.052129745483
112.850952148438 -76.431671142578 -112.144485473633 3.949996948242
-78.126983642578 -68.295127868652 -112.299781799316 1.280006766319
-81.476730346680 -68.497154235840 -118.429359436035 2.868798255920
45.543941497803 -75.282974243164 -120.338256835938 1.503736257553
115.364723205566 -73.864257812500 -125.257942199707 1.150083422661
115.057044982910 -71.956748962402 -125.759475708008 0.329683244228
-87.331893920898 -69.936218261719 -124.473159790039 1.240997910500
106.704223632813 -74.656143188477 -129.225265502930 3.681049346924
-58.170227050781 -77.158592224121 -130.333724975586 4.767430305481
-84.617164611816 -71.837913513184 -125.771324157715 2.053914070129
-69.167137145996 -72.153366088867 -124.862121582031 7.028583526611
-58.535430908203 -67.007888793945 -125.270622253418 0.857388556004
33.534458160400 -71.499145507813 -131.338958740234 1.450099110603
45.567413330078 -68.146621704102 -136.634124755859 7.845837593079
-70.108131408691 -70.915969848633 -134.389694213867 3.004688024521
30.355075836182 -68.413146972656 -130.289321899414 3.029338359833
113.963966369629 -71.783477783203 -147.077667236328 1.793108224869
-37.183052062988 -71.818084716797 -148.418457031250 3.018777847290
34.336074829102 -74.098548889160 -149.979934692383 1.029956936836
114.210807800293 -69.735664367676 -151.301239013672 0.945274531841
37.309421539307 -72.589126586914 -142.910263061523 1.080562829971
111.107849121094 -70.415878295898 -141.868850708008 1.823054671288
-50.639770507813 -70.989257812500 -148.290267944336 1.616922855377
-72.338417053223 -67.591484069824 -149.706481933594 1.473607182503
-56.387454986572 -71.889556884766 -149.504791259766 3.374073505402
-41.890449523926 -76.666770935059 -163.784423828125 1.705898284912
4.508959770203 -74.246124267578 -155.518707275391 2.544552803040
109.844703674316 -72.638984680176 -155.177413940430 2.457876920700
109.239868164063 -71.682075500488 -162.950378417969 1.677655339241
11.868474960327 -71.435859680176 -156.799530029297 1.199496984482
2.874218940735 -70.755981445313 -160.293869018555 2.162143945694
22.185739517212 -69.560409545898 -154.394912719727 1.704771757126
26.980945587158 -69.889617919922 -155.961608886719 2.463473796844
108.050849914551 -71.668579101563 -167.483901977539 1.482949495316
111.529777526855 -76.042610168457 -169.717178344727 2.163414955139
24.540683746338 -68.397468566895 -176.341110229492 2.577480316162
24.960477828979 -75.140899658203 -165.311813354492 2.530205011368
112.332550048828 -69.201744079590 -164.363098144531 1.134971141815
-29.437599182129 -69.918334960938 -177.938674926758 1.162343740463
111.247138977051 -72.508430480957 -169.578643798828 0.550711095333
18.594299316406 -71.970939636230 -165.184173583984 0.442779123783
22.013452529907 -71.698646545410 -169.313354492188 2.983976125717
108.551979064941 -72.514892578125 -174.645980834961 2.654113054276
28.074897766113 -70.550392150879 -170.332595825195 0.875058531761
113.951408386230 -70.391242980957 -187.262252807617 5.123866558075
-38.189002990723 -70.977561950684 -178.311935424805 2.635174989700
24.683952331543 -71.593177795410 -169.709732055664 1.748466014862
108.118392944336 -71.921989440918 -186.802917480469 1.059712290764
23.077062606812 -72.976600646973 -177.294128417969 2.473105430603
-151.025695800781 -69.118614196777 -182.400375366211 2.809019565582
-27.748447418213 -67.788452148438 -189.091369628906 1.181351542473
24.467393875122 -68.573616027832 -185.480484008789 1.661529898643
-115.255744934082 -73.668281555176 -189.396606445313 5.579967975616
-111.687980651855 -67.837478637695 -189.905029296875 2.076516151428
25.133430480957 -72.563560485840 -188.077713012695 0.716932892799
11.116730690002 -68.291023254395 -184.655166625977 4.643773555756
-26.860685348511 -67.476661682129 -189.644012451172 1.592995285988
-28.797548294067 -77.011611938477 -188.342697143555 0.640971064568
-28.672531127930 -72.145606994629 -187.278396606445 1.338089585304
13.404244422913 -68.668449401855 -180.132171630859 2.874946117401
-150.698104858398 -71.084007263184 -192.265777587891 2.391970396042
-146.141159057617 -70.417266845703 -188.707489013672 3.125224351883
-146.428710937500 -75.583778381348 -195.778915405273 2.771850109100
-23.462789535522 -70.355659484863 -190.657089233398 1.837152481079
14.358242034912 -68.348312377930 -199.788909912109 1.067340731621
98.557632446289 -70.346229553223 -194.516830444336 2.010039091110
-113.536483764648 -69.427505493164 -195.605194091797 2.074624538422
21.195709228516 -76.586364746094 -197.969238281250 2.950852870941
-13.705186843872 -70.026321411133 -194.269195556641 2.501682281494
-17.262926101685 -71.340927124023 -197.853042602539 2.002952337265
101.467697143555 -70.167762756348 -202.159057617188 1.784862756729
7.119081974030 -74.662300109863 -198.105194091797 3.773291349411
-22.138000488281 -69.507957458496 -195.975234985352 1.732423663139
-120.742790222168 -75.094322204590 -201.258514404297 2.770600318909
-134.546768188477 -71.736152648926 -199.891723632813 1.493820667267
-114.428077697754 -64.786949157715 -203.193618774414 1.068848967552
-142.310043334961 -75.274063110352 -199.675247192383 1.275694012642
16.814395904541 -71.277412414551 -197.994583129883 2.153642654419
92.641067504883 -74.069915771484 -201.770111083984 2.298839330673
-165.445343017578 -64.891815185547 -196.173767089844 4.593120574951
100.068359375000 -71.031883239746 -203.484878540039 1.486735701561
-23.428503036499 -77.093872070313 -204.491683959961 2.319577932358
94.453887939453 -68.204124450684 -211.179214477539 1.522711515427
87.981796264648 -74.425491333008 -211.286636352539 1.470757603645
10.561715126038 -74.482124328613 -203.312149047852 1.806638002396
20.404270172119 -70.435111999512 -213.109375000000 2.484771728516
13.157967567444 -67.519233703613 -208.352005004883 1.733331322670
-11.420195579529 -71.852088928223 -223.099166870117 1.608213305473
-94.267173767090 -74.737358093262 -217.290405273438 1.366003513336
-12.395503044128 -74.587318420410 -210.702819824219 3.719573736191
87.542831420898 -72.687828063965 -219.120361328125 1.582891106606
-94.722038269043 -74.719505310059 -214.136184692383 1.318091988564
-100.403472900391 -67.559379577637 -219.509963989258 1.437084436417
-96.528610229492 -70.896156311035 -216.615783691406 1.897648811340
88.614128112793 -74.838539123535 -224.194747924805 2.861957788467
-136.342849731445 -72.239860534668 -221.864089965820 3.832853078842
-131.843017578125 -78.073463439941 -224.425094604492 3.128179550171
-117.022201538086 -71.613166809082 -221.817947387695 3.159905910492
-113.821372985840 -68.135955810547 -218.746231079102 6.686340332031
-133.344512939453 -68.751480102539 -224.650833129883 0.527383804321
-113.832374572754 -80.649681091309 -225.334976196289 7.252215385437
-111.920623779297 -70.567504882813 -225.624328613281 0.757095992565
-7.595767021179 -76.593086242676 -223.472290039063 0.683086156845
-15.723047256470 -75.243484497070 -222.530792236328 1.491948366165
-1.469218015671 -68.688529968262 -229.582580566406 1.889194726944
-10.551819801331 -67.698684692383 -226.389022827148 1.692839026451
14.956089973450 -73.056861877441 -234.130828857422 1.742435455322
-20.897655487061 -69.236221313477 -228.744903564453 4.536300659180
-167.261550903320 -69.341697692871 -216.739685058594 0.789689719677
-6.069119930267 -72.611206054688 -233.430526733398 0.969370424747
80.351486206055 -67.865737915039 -233.792160034180 4.201370716095
11.232297897339 -74.421958923340 -233.258941650391 1.817813634872
-6.157692909241 -71.054008483887 -234.991699218750 0.620347142220
-157.846969604492 -68.584129333496 -232.103393554688 2.229910850525
-143.833908081055 -69.294914245605 -225.111862182617 1.290142893791
60.274845123291 -70.813362121582 -237.685440063477 1.474236130714
-6.297871112823 -72.803001403809 -232.821853637695 1.458980321884
10.366383552551 -74.634292602539 -229.199890136719 2.166436433792
68.936889648438 -75.556770324707 -228.770919799805 3.620015144348
76.115982055664 -71.889343261719 -236.083236694336 0.561148405075
70.706161499023 -73.658477783203 -243.730239868164 3.821448326111
-2.665867090225 -76.022377014160 -234.438125610352 1.901852965355
57.764747619629 -69.442260742188 -237.815826416016 3.056339979172
-20.188499450684 -75.543121337891 -239.444396972656 1.452494978905
-15.230870246887 -68.119850158691 -239.230667114258 2.383442878723
6.991191864014 -71.727210998535 -238.419296264648 3.380887985229
63.210765838623 -76.728385925293 -237.855010986328 3.397678852081
66.495124816895 -69.955680847168 -242.689926147461 1.346941947937
47.720020294189 -72.690902709961 -246.539001464844 2.799120426178
60.025119781494 -76.459068298340 -243.665344238281 3.197344303131
-16.372255325317 -78.645774841309 -248.330291748047 6.039737224579
-85.091758728027 -67.773216247559 -254.384078979492 1.201439023018
-78.065948486328 -69.017242431641 -251.628250122070 2.089164018631
43.014083862305 -76.059455871582 -247.680130004883 5.373846054077
-152.816421508789 -73.502792358398 -246.121093750000 2.615329742432
34.083354949951 -71.714866638184 -257.522827148438 3.160037517548
-93.461814880371 -77.242324829102 -249.474929809570 4.387666225433
-158.306732177734 -66.158111572266 -250.219146728516 2.617951393127
-140.935760498047 -62.104358673096 -248.695785522461 6.584743499756
42.192760467529 -71.425285339355 -254.751556396484 1.727511882782
-126.772132873535 -67.018501281738 -255.370880126953 1.285314917564
-118.837249755859 -72.858947753906 -251.665283203125 4.211158752441
-92.863693237305 -66.404441833496 -254.300445556641 1.968894839287
-14.115277290344 -66.855514526367 -247.444046020508 1.565352201462
30.872617721558 -71.537002563477 -256.755737304688 1.596712470055
23.720260620117 -68.527084350586 -259.229858398438 0.981338620186
-161.372375488281 -64.813476562500 -257.038360595703 3.998895168304
-115.926597595215 -74.793754577637 -259.753417968750 2.203007936478
-14.836135864258 -71.838279724121 -261.525909423828 1.334932088852
-133.377029418945 -71.058486938477 -262.451080322266 1.418014645576
-16.071516036987 -70.495826721191 -269.604858398438 2.340281963348
-165.209564208984 -70.781471252441 -267.225616455078 2.908918142319
-7.824295043945 -73.131401062012 -277.951599121094 2.007131338120
-161.955627441406 -72.529739379883 -283.600799560547 3.845744609833
-166.550125122070 -75.083396911621 -274.000122070313 2.394699096680
-144.185012817383 -72.234214782715 -281.463867187500 0.934079527855
-173.523864746094 -74.392311096191 -280.218383789063 6.254974365234
12.446949005127 -75.714294433594 -288.702148437500 2.442433834076
-105.061447143555 -73.237014770508 -283.677947998047 2.258204221725
-89.546447753906 -65.458412170410 -283.151184082031 6.588038921356
-170.487487792969 -67.697608947754 -279.872039794922 5.730702877045
-94.577896118164 -78.551681518555 -279.297058105469 8.782238960266
-157.719772338867 -72.566070556641 -285.104522705078 3.673128843307
-79.239501953125 -73.856475830078 -294.535858154297 3.881002187729
-74.087913513184 -70.992683410645 -286.764892578125 1.161309242249
-85.402725219727 -73.939010620117 -289.599212646484 2.150162696838
-5.485282897949 -69.943092346191 -287.634765625000 0.593232691288
-92.155273437500 -71.739013671875 -284.845123291016 4.121633529663
-101.272514343262 -74.269668579102 -287.774444580078 1.458464860916
-120.558479309082 -71.987106323242 -289.809478759766 2.551474332809
-118.801788330078 -67.641563415527 -289.963256835938 1.073567271233
-136.240814208984 -72.066925048828 -287.829010009766 2.574440002441
-144.638580322266 -71.335487365723 -297.054870605469 1.745715618134
-147.088638305664 -73.270454406738 -308.347412109375 3.871666669846
28.534482955933 -66.525917053223 -14.629989624023 1.636191129684
37.570327758789 -69.290611267090 -16.224714279175 2.492495298386
34.055442810059 -72.769363403320 -18.184518814087 1.073856234550
49.017581939697 -66.561073303223 -20.257522583008 1.289669632912
27.882524490356 -69.447044372559 -31.861110687256 1.340143442154
-71.051216125488 -68.318077087402 -44.492244720459 2.954857826233
92.819557189941 -64.880722045898 -68.113998413086 4.300594806671
-15.813962936401 -66.469215393066 -66.148971557617 3.121694087982
107.221672058105 -70.146522521973 -75.530548095703 5.952274322510
96.904747009277 -75.232048034668 -77.332633972168 2.078655481339
71.258438110352 -71.518470764160 -80.001487731934 1.242616415024
74.822624206543 -75.073661804199 -83.293006896973 1.163920760155
-41.440414428711 -73.980773925781 -80.481292724609 2.050828456879
63.644332885742 -75.945228576660 -82.186614990234 6.399498462677
-90.735595703125 -70.296615600586 -86.383125305176 3.513334035873
-44.824337005615 -67.258888244629 -82.939750671387 1.795212030411
-53.471092224121 -77.024208068848 -83.499549865723 5.512115001678
104.935020446777 -78.116424560547 -100.338180541992 3.901202678680
62.765579223633 -74.407974243164 -91.535064697266 2.179937124252
69.972671508789 -69.825775146484 -91.930648803711 2.554357767105
-92.000671386719 -62.752964019775 -94.672325134277 6.059725284576
110.773208618164 -72.917366027832 -93.259841918945 5.784627914429
45.191905975342 -68.789085388184 -99.747756958008 1.924342751503
104.788047790527 -70.377220153809 -100.162033081055 1.401314258575
109.626815795898 -67.683311462402 -108.392410278320 1.969771027565
102.719993591309 -71.219093322754 -105.512908935547 1.803449392319
76.776275634766 -74.453605651855 -100.403572082520 2.287986755371
89.358146667480 -73.373199462891 -109.276229858398 5.672393321991
52.702583312988 -69.294578552246 -111.831329345703 3.621257305145
113.122047424316 -66.676414489746 -104.451911926270 3.965984344482
49.937828063965 -74.969520568848 -104.965698242188 1.109406113625
41.257026672363 -68.731910705566 -102.406890869141 1.975441694260
115.727409362793 -71.818611145020 -112.582008361816 3.070370912552
-75.812187194824 -65.735473632813 -106.672142028809 2.379951953888
47.954421997070 -69.254066467285 -113.317855834961 1.524009943008
35.577239990234 -73.810768127441 -116.198486328125 2.572388410568
108.319007873535 -68.035705566406 -112.518341064453 2.416921615601
39.989048004150 -67.449340820313 -111.951492309570 2.599383115768
-84.899009704590 -69.639595031738 -108.782974243164 0.835986077785
-92.855987548828 -65.485984802246 -111.688690185547 5.083543777466
104.408386230469 -76.364425659180 -121.641632080078 4.526686668396
-92.666671752930 -70.671813964844 -116.097724914551 2.504737854004
41.561805725098 -74.438232421875 -121.294708251953 2.578585863113
38.717647552490 -70.803321838379 -122.744728088379 1.877228975296
-82.724861145020 -69.810066223145 -121.386337280273 2.765732049942
35.071723937988 -68.524978637695 -134.312454223633 1.053474664688
113.962905883789 -72.544258117676 -133.372436523438 1.764880180359
-51.388225555420 -70.071983337402 -136.425674438477 1.101535439491
-86.033767700195 -68.156509399414 -130.408798217773 1.291343688965
40.185188293457 -75.527877807617 -130.827865600586 1.000813007355
-85.216506958008 -64.537849426270 -133.964447021484 1.808642983437
-86.469909667969 -73.323898315430 -138.082733154297 4.904113769531
-48.302864074707 -70.583091735840 -134.594436645508 1.162832140923
-69.275657653809 -67.265327453613 -136.763595581055 3.432387113571
-48.783222198486 -69.337554931641 -130.834197998047 1.708926200867
118.806304931641 -67.592872619629 -138.943084716797 5.272217273712
-70.183242797852 -72.272087097168 -132.554260253906 2.981664896011
39.372692108154 -71.794570922852 -130.948715209961 1.359446525574
-76.812957763672 -67.831596374512 -138.624237060547 1.894433379173
-70.568222045898 -70.156829833984 -133.096740722656 2.489408493042
-91.939338684082 -67.397865295410 -139.152923583984 0.936138629913
-53.432060241699 -66.319763183594 -143.944839477539 0.698112964630
33.139610290527 -65.239860534668 -146.198776245117 4.190997600555
28.874824523926 -68.956954956055 -149.133712768555 1.477618217468
21.806013107300 -64.120964050293 -144.435699462891 1.970604896545
114.085357666016 -70.390678405762 -148.249618530273 1.574999451637
-89.930206298828 -67.978446960449 -149.028732299805 3.497421503067
12.683749198914 -72.149826049805 -152.075103759766 1.074734210968
-70.264526367188 -69.312026977539 -152.534164428711 1.184660077095
25.253711700439 -68.877365112305 -149.224731445313 0.469729483128
-47.941398620605 -68.705879211426 -153.720550537109 2.276212215424
11.244199752808 -68.850021362305 -153.528427124023 0.855159401894
17.897039413452 -73.878387451172 -158.863311767578 1.974658966064
18.297061920166 -76.461463928223 -163.667648315430 2.579430341721
-49.437858581543 -72.919425964355 -161.652893066406 2.516055822372
-37.219764709473 -68.493766784668 -153.948348999023 2.929426670074
-46.072410583496 -71.249580383301 -160.457260131836 2.231372117996
-102.284629821777 -70.862091064453 -169.954025268555 2.293241739273
22.776670455933 -72.526237487793 -174.779846191406 3.439613819122
-32.955757141113 -70.451606750488 -176.538665771484 0.808803856373
16.337080001831 -75.995841979980 -178.129531860352 2.335709095001
-141.624267578125 -68.999473571777 -172.322647094727 3.270315408707
-30.603544235229 -66.243278503418 -171.309555053711 2.278648376465
-155.342864990234 -76.755577087402 -174.096252441406 6.835206508636
25.398824691772 -64.366340637207 -181.776351928711 4.810770511627
-32.929763793945 -72.219055175781 -169.196990966797 3.176701068878
-105.998008728027 -67.053894042969 -173.169799804688 3.108274936676
-106.239395141602 -76.137741088867 -181.212265014648 6.468982696533
-29.825571060181 -64.137123107910 -184.589965820313 4.100658416748
-23.417577743530 -75.972579956055 -180.525833129883 1.717777848244
13.254145622253 -69.377510070801 -188.878890991211 3.093205690384
16.520044326782 -67.142036437988 -198.600296020508 1.677847623825
13.953229904175 -71.144943237305 -187.215652465820 1.440844893456
-141.898056030273 -67.514953613281 -183.192047119141 0.638174176216
24.378423690796 -65.799354553223 -189.866165161133 3.995005607605
6.390049934387 -69.800071716309 -196.447418212891 2.610381603241
-134.757232666016 -67.716682434082 -189.989242553711 3.847103595734
-112.442306518555 -69.243392944336 -192.282150268555 1.481346964836
15.236371040344 -68.344215393066 -203.353546142578 0.508701384068
-117.865631103516 -67.914176940918 -193.748992919922 3.289291858673
-107.050682067871 -62.633239746094 -189.604843139648 3.144605875015
-166.237426757813 -71.209869384766 -197.254913330078 2.693178653717
-24.019426345825 -68.561927795410 -198.925155639648 1.590558886528
11.417000770569 -68.418647766113 -199.557556152344 0.773855328560
-144.473068237305 -70.458961486816 -200.439712524414 2.693438053131
-137.289474487305 -73.349586486816 -203.578308105469 2.774993658066
-21.383325576782 -68.037239074707 -206.926574707031 1.948596477509
-12.135902404785 -71.446983337402 -204.553192138672 1.267410874367
-13.705821037292 -71.842674255371 -205.104080200195 2.046291828156
-138.676803588867 -74.793876647949 -199.357925415039 1.425615072250
-17.193284988403 -70.249740600586 -212.065307617188 1.711258292198
-9.274284362793 -76.428909301758 -213.867919921875 1.492621541023
18.101903915405 -66.937469482422 -211.221679687500 1.697690248489
-16.733455657959 -75.928749084473 -210.912628173828 0.482088297606
10.448391914368 -71.809768676758 -209.008590698242 1.134601593018
-11.062821388245 -72.157806396484 -214.541625976563 3.007077455521
-23.004417419434 -66.418205261230 -210.736648559570 4.710357666016
11.641694068909 -77.641036987305 -220.534393310547 1.154994249344
-2.489972114563 -77.244209289551 -218.701843261719 0.390041977167
11.033287048340 -65.866241455078 -220.389984130859 2.619021654129
-6.794997215271 -73.966651916504 -227.591934204102 1.780604362488
-160.500015258789 -71.330093383789 -222.571426391602 1.170891523361
80.421165466309 -74.366249084473 -221.021621704102 1.763833403587
-135.864273071289 -67.273414611816 -220.520431518555 4.062231063843
-135.420776367188 -72.780853271484 -218.531402587891 6.510746002197
-8.292543411255 -71.598487854004 -224.523178100586 1.196682691574
6.391170978546 -70.309509277344 -234.934295654297 1.152970194817
-158.468215942383 -69.767021179199 -227.224487304688 3.181999206543
89.208038330078 -69.152145385742 -221.660751342773 3.284201622009
-1.900905966759 -69.050552368164 -225.943939208984 0.933652460575
0.556455016136 -71.332298278809 -221.122482299805 1.330840229988
73.566131591797 -74.817169189453 -231.995071411133 1.788860917091
-0.199671000242 -67.517517089844 -235.781143188477 1.686975002289
-14.139289855957 -72.369873046875 -224.461914062500 1.287855625153
-127.838378906250 -66.683090209961 -230.711227416992 2.707538127899
-5.712611198425 -70.338447570801 -237.337234497070 2.152081251144
2.179729938507 -67.925476074219 -230.116043090820 1.297236800194
65.579551696777 -67.924659729004 -239.158645629883 1.067523002625
-158.612258911133 -72.632164001465 -233.559616088867 1.635813713074
-13.948124885559 -68.978126525879 -244.765121459961 1.632057547569
-170.717117309570 -73.382270812988 -234.968215942383 4.115291595459
9.853259086609 -65.882362365723 -241.372467041016 1.274252295494
-164.260345458984 -71.864715576172 -234.888504028320 2.246130466461
-160.897796630859 -72.421417236328 -243.146545410156 3.338078975677
57.214172363281 -71.689193725586 -245.792739868164 1.626437783241
60.477790832520 -73.532180786133 -243.127105712891 2.236145734787
54.836227416992 -72.196441650391 -246.436676025391 1.808729052544
50.599636077881 -71.131866455078 -250.057449340820 1.136930108070
-154.061950683594 -71.869407653809 -239.399887084961 3.124898433685
-157.038635253906 -66.221755981445 -243.227371215820 2.788365602493
-13.528449058533 -75.699844360352 -248.741241455078 2.416460990906
-151.600860595703 -69.503295898438 -243.741729736328 1.751813650131
17.391355514526 -71.565231323242 -251.080673217773 2.174796342850
-171.944076538086 -76.901054382324 -247.326873779297 6.634615898132
-169.613265991211 -68.183837890625 -246.122665405273 3.379348754883
-82.997810363770 -72.898056030273 -245.284027099609 4.247011661530
-171.586242675781 -69.233657836914 -254.260375976563 3.640218257904
-86.234344482422 -70.276641845703 -255.803527832031 1.408527374268
41.925350189209 -69.889793395996 -254.146942138672 0.870305657387
20.729967117310 -74.673713684082 -257.158020019531 1.980216383934
-159.251632690430 -71.767364501953 -259.361755371094 3.553601980209
-102.268562316895 -62.829120635986 -257.532135009766 2.151326894760
38.756710052490 -70.817237854004 -255.352508544922 0.997316300869
-107.892593383789 -79.556861877441 -255.707427978516 5.284566402435
-154.862548828125 -66.456604003906 -262.263122558594 2.802205085754
-105.162055969238 -69.532905578613 -254.435989379883 2.065926790237
-170.292449951172 -73.577468872070 -255.503479003906 4.085541248322
-114.414398193359 -71.519279479980 -261.146850585938 1.751138687134
-154.873962402344 -73.081710815430 -262.622436523438 2.006006240845
-160.519531250000 -67.298011779785 -259.184387207031 0.924350559711
-166.965744018555 -69.359016418457 -259.997711181641 1.305099010468
-166.384368896484 -68.358894348145 -258.475494384766 1.812602281570
-167.040359497070 -70.456420898438 -260.803009033203 0.877089858055
-169.455932617188 -71.280380249023 -256.386138916016 2.813447952271
25.273845672607 -72.568885803223 -265.794677734375 1.154534935951
-149.540359497070 -75.632240295410 -259.277648925781 0.680632233620
-153.052246093750 -70.419319152832 -281.589721679688 1.007282853127
26.046167373657 -71.254043579102 -275.966339111328 4.680377960205
-13.796767234802 -74.081756591797 -273.997070312500 3.003504037857
-127.045486450195 -68.018676757813 -281.821655273438 3.777831077576
-138.186447143555 -70.997596740723 -283.236663818359 2.143477916718
-135.538665771484 -69.934997558594 -286.246093750000 1.392921209335
-129.739318847656 -70.958221435547 -282.830596923828 4.108090877533
-115.015457153320 -69.276176452637 -289.013610839844 1.119418382645
-105.945816040039 -65.961143493652 -281.791870117188 6.300354003906
5.964501857758 -75.296463012695 -294.464843750000 1.581116080284
-86.287902832031 -72.149101257324 -288.564849853516 1.724169850349
-150.558425903320 -71.248168945313 -283.297149658203 3.596800327301
-104.228919982910 -71.716613769531 -288.565399169922 2.730753660202
-133.979568481445 -67.887603759766 -289.348327636719 1.622806787491
8.170177459717 -73.634071350098 -287.451843261719 1.881487011909
-112.879447937012 -63.237010955811 -284.830108642578 6.834275722504
2.244451045990 -71.613517761230 -293.606323242188 1.408770322800
-145.021072387695 -70.235046386719 -283.576751708984 1.469284892082
-154.440368652344 -70.814697265625 -291.724792480469 1.364396691322
-161.725463867188 -69.519935607910 -312.696624755859 5.226335525513
-158.202835083008 -68.621109008789 -307.609100341797 3.584416866302
51.022346496582 -72.594261169434 -25.552225112915 1.571782350540
28.762502670288 -68.885208129883 -37.127113342285 2.688544273376
33.284175872803 -70.361503601074 -36.784599304199 1.095725774765
-38.739292144775 -72.164367675781 -45.934497833252 3.506896734238
-7.609842777252 -66.535202026367 -62.373172760010 2.438323736191
98.183280944824 -70.576606750488 -69.723152160645 2.543040513992
71.708435058594 -63.642856597900 -70.136009216309 3.737477540970
-21.972967147827 -68.217018127441 -73.351318359375 0.807184040546
-97.165916442871 -73.684013366699 -85.508537292480 2.541324377060
-39.783451080322 -68.798255920410 -83.704437255859 3.951923370361
61.745815277100 -69.222618103027 -81.319206237793 2.021168470383
67.381072998047 -73.197799682617 -85.973526000977 3.103899002075
54.697772979736 -66.688560485840 -88.534172058105 2.033924818039
-56.558910369873 -68.042526245117 -89.100746154785 1.595123410225
70.242286682129 -64.475273132324 -90.407196044922 4.468879699707
45.552932739258 -74.038642883301 -99.082733154297 1.459136247635
71.834320068359 -72.494834899902 -96.201881408691 2.052251100540
-58.004459381104 -67.087211608887 -94.857864379883 5.017049312592
53.885360717773 -71.742874145508 -92.663719177246 1.789010882378
49.211666107178 -72.464874267578 -98.809997558594 2.282915353775
105.772552490234 -65.920150756836 -104.306152343750 1.937592387199
-62.650012969971 -68.958305358887 -96.558647155762 3.850325584412
114.058578491211 -69.264366149902 -101.968040466309 4.380024433136
-76.492256164551 -72.658943176270 -99.481117248535 1.138783931732
56.216030120850 -72.866516113281 -107.325126647949 2.922101020813
50.703891754150 -67.808975219727 -101.942878723145 1.195462465286
93.510002136230 -65.781806945801 -105.913024902344 1.444529652596
85.828918457031 -69.891242980957 -107.615463256836 2.283716440201
58.787517547607 -70.646667480469 -105.919174194336 3.735015153885
-74.647300720215 -69.924858093262 -110.112899780273 2.330848693848
-75.989753723145 -68.541526794434 -114.669189453125 2.120461702347
-78.903656005859 -70.219459533691 -115.702331542969 2.129051923752
-91.785110473633 -75.476058959961 -115.132339477539 2.769474983215
105.348289489746 -62.980125427246 -119.448806762695 5.419254302979
-88.122550964355 -72.503044128418 -116.056411743164 1.736171603203
-73.320137023926 -64.101974487305 -119.625007629395 2.549567699432
111.184494018555 -68.935417175293 -118.763710021973 2.272927284241
-57.868766784668 -59.726444244385 -115.659317016602 1.384216427803
115.160957336426 -75.288337707520 -133.729019165039 1.951322197914
111.790046691895 -72.372573852539 -131.800064086914 2.016585111618
107.428443908691 -72.218856811523 -129.593933105469 2.518735885620
-92.054412841797 -69.920036315918 -134.484069824219 1.707994341850
-44.128875732422 -69.430519104004 -140.489959716797 1.804609656334
-79.425933837891 -65.884628295898 -141.446731567383 3.207824945450
-67.896774291992 -69.147132873535 -146.499237060547 1.716354608536
-67.445014953613 -68.064018249512 -147.438629150391 2.326931953430
-53.477256774902 -68.677307128906 -142.169158935547 1.783279895782
-44.524673461914 -74.919975280762 -142.976272583008 0.782404601574
15.366500854492 -69.889053344727 -147.266510009766 2.687299489975
-92.191543579102 -64.424064636230 -138.867370605469 0.799659490585
-44.868743896484 -67.492324829102 -145.015670776367 1.807272791862
