# This PCD file was generated using the MATLAB® pcwrite function
# from Computer Vision Toolbox®.
# .PCD v.7 - Point Cloud Data file format
VERSION .7
FIELDS x y z
SIZE 4 4 4
TYPE F F F
COUNT 1 1 1
WIDTH 1462
HEIGHT 1
VIEWPOINT 0 0 0 1 0 0 0
POINTS 1462
DATA ascii
-5.499827 237.165131 -69.661026
-23.524462 250.911133 -70.619080
-6.766885 234.610352 -69.586792
38.077419 21.248362 -57.194443
-55.179371 133.373596 -58.231346
2.079888 254.908905 -69.885994
-17.762867 81.156654 -65.134827
-41.596169 295.645630 -71.849182
-153.230713 216.029541 -63.868629
-32.164333 91.760841 -68.079933
-147.818619 215.928467 -58.996346
-146.567215 216.155304 -56.069241
18.660921 237.257645 -72.303413
-145.423477 242.200958 -66.245079
-91.205292 300.031281 -61.885342
-145.595474 244.642822 -61.921234
-149.423660 244.349625 -58.002056
-161.106720 227.822189 -69.194557
-6.996597 240.190750 -70.313248
-67.477592 131.025497 -55.576225
-132.534866 236.184525 -62.034988
0.469701 248.185989 -70.498795
-149.425583 254.752853 -68.010078
12.215070 214.454041 -68.530487
-18.625153 248.722458 -72.854790
4.647534 227.279648 -69.742172
-52.464867 251.442383 -75.435982
-45.562836 255.059738 -70.988640
-150.773529 256.762146 -71.184647
-154.462952 256.993591 -62.702808
-106.297630 206.130554 -63.124355
-150.129852 271.907104 -73.301437
-158.301956 276.208008 -62.142090
-82.598717 72.911522 -67.273224
83.770607 234.856750 -70.611237
-61.135571 100.138290 -61.704712
25.231007 163.174362 -67.263962
-126.186752 299.031097 -67.389000
-156.508026 279.502991 -71.730354
-147.274963 284.533142 -69.951431
-152.980606 278.147430 -63.598354
-108.086197 295.253326 -64.556267
25.732018 158.223511 -59.956623
-151.336929 268.924469 -57.029522
79.267708 241.885468 -61.553032
21.950598 35.657658 -58.304005
-8.182851 270.578979 -62.888031
-7.478334 279.089142 -73.504547
-5.441562 291.989166 -71.448708
7.020537 294.248108 -70.098396
-69.373627 121.430054 -54.996944
-161.961639 303.390594 -65.676697
-156.583664 299.828430 -73.515923
-143.532578 316.804840 -68.688362
-113.874474 270.024994 -65.911911
-111.584038 271.097961 -66.512268
98.986534 206.934204 -68.384140
-27.065161 298.900696 -70.517296
-21.103163 297.621887 -71.182526
9.455179 282.328522 -52.781784
-39.346558 304.440826 -74.729095
-32.507977 295.192505 -68.269669
115.334366 163.999756 -64.819267
-11.313266 297.416229 -70.220444
-19.226963 298.943848 -71.486717
12.102652 303.680603 -68.581070
-104.399345 232.503922 -68.523712
-49.527843 70.900566 -73.129761
15.561998 289.715820 -69.125008
-63.595901 68.015717 -71.300491
113.931427 172.160919 -64.209038
-1.650869 295.803467 -70.999054
-51.845207 66.703522 -75.308357
-9.817004 300.219299 -69.368500
24.453291 277.210571 -58.975170
-40.953487 71.048401 -71.212440
99.601265 208.401443 -70.310081
-75.262985 113.403198 -61.563057
-164.813202 299.443604 -63.358017
-142.748428 316.315277 -66.169708
72.610504 238.506638 -73.077415
-80.745537 76.465569 -71.849640
-8.155527 269.391876 -61.276505
68.269279 105.715271 -58.077305
-17.313824 62.532196 -61.145741
-22.119514 71.411148 -67.915230
-24.024271 82.095810 -69.244896
-24.908676 86.103287 -71.726311
18.312710 255.280655 -66.480965
107.979408 202.941727 -63.918762
34.850883 48.237431 -62.022984
105.420349 118.543442 -62.372562
-60.366520 146.488647 -66.816154
9.005497 213.927963 -65.846359
-34.631557 93.766197 -69.055748
-85.371513 225.908676 -68.783997
81.980843 89.106117 -72.780167
95.993553 109.689072 -58.677139
-3.172965 280.337036 -61.883560
-118.057709 302.903870 -64.490013
-140.758591 272.918030 -67.746544
-91.270058 69.196289 -57.924488
84.186974 92.444916 -73.186844
74.332420 90.471207 -70.152840
69.713692 112.090630 -57.368652
-41.750443 92.294083 -69.191208
78.642181 95.200180 -73.217865
-12.760780 276.141327 -72.905151
14.838005 304.166321 -71.807053
84.912048 96.047272 -72.252556
-61.881035 95.946663 -57.615788
82.649483 103.783485 -68.888435
73.863838 93.802246 -69.636230
-95.018959 71.462242 -56.234493
29.966097 51.783268 -58.147861
87.089813 98.557343 -71.812775
75.332031 105.166389 -65.552216
-7.971238 283.676575 -68.267258
-86.617477 74.769447 -63.652512
-65.664520 104.925072 -73.927368
45.505230 116.912392 -70.468018
78.831131 85.024574 -72.616615
-43.418179 151.941208 -70.707260
15.317339 219.203476 -72.226669
-46.969475 159.222382 -70.428543
-168.515076 249.437897 -60.879627
-134.715805 214.244949 -60.559006
-101.066628 267.971588 -61.042759
-165.684860 208.276352 -60.295498
-41.469204 161.487350 -68.173164
41.870811 129.807465 -55.503300
-59.942631 170.557556 -69.833282
-19.010870 215.956802 -69.050972
-121.894196 234.171890 -67.280510
-124.884895 245.370163 -60.368919
-67.143402 166.851700 -68.559029
26.712498 164.377136 -69.270271
-69.620522 170.994278 -70.654503
-16.114243 221.318726 -69.285255
-8.038361 213.306412 -72.612190
108.973595 177.481659 -70.017036
-56.210361 185.013565 -69.586502
-20.840784 211.149673 -73.147095
6.490124 232.458618 -64.058212
-79.653732 143.374313 -62.118927
114.205338 183.524353 -69.736656
-63.746075 180.466248 -72.361328
111.763390 181.322083 -70.213631
-17.725706 184.454239 -71.351639
-33.422600 167.490631 -76.527527
110.618195 190.909409 -69.459137
23.581017 198.500076 -72.423546
15.654826 207.420258 -71.185669
-47.466038 301.050110 -68.390671
-145.463257 196.168060 -71.323509
15.257747 251.293121 -55.428383
-23.676039 84.694908 -60.829514
-18.198664 82.973648 -62.876400
-78.103172 125.327065 -60.563641
104.045540 197.651749 -70.152527
-152.661530 219.520126 -67.366608
-139.854004 207.411072 -69.278915
-152.089462 223.517853 -59.723778
-125.577110 240.540359 -56.316353
-145.341095 224.891220 -57.325928
40.609016 124.760208 -62.425014
-102.537483 271.580475 -62.609833
-90.719124 129.125122 -60.471760
58.242149 255.370163 -64.581413
-48.433811 209.673721 -71.641006
11.792917 205.238174 -72.355591
-103.202591 178.947342 -57.360088
25.840511 210.522385 -70.492607
40.917641 34.277489 -59.613441
-102.135422 171.172333 -54.026512
-11.086192 212.981750 -69.723259
10.341455 235.843430 -65.971748
-22.748508 209.432404 -69.006927
-128.192703 214.214188 -68.306091
-123.154434 215.403854 -66.212517
18.434341 207.593643 -70.926224
95.944382 209.753876 -72.862427
96.319199 211.619308 -73.617935
-69.849159 217.656219 -71.022964
-61.271942 175.719711 -66.818413
-16.660917 220.597610 -72.134224
-152.984283 241.035858 -62.352173
-74.072639 299.552917 -68.793961
-143.954056 229.581955 -72.810242
42.830879 46.931061 -54.628323
-29.016356 231.301361 -70.749931
-72.863747 154.032166 -72.142456
-4.727392 228.510315 -71.655663
4.652888 249.148819 -55.328133
3.960756 231.112518 -68.640404
-32.437511 254.643158 -67.495071
-16.209314 236.670120 -67.396545
15.232634 212.102371 -61.886314
-59.741974 138.448792 -64.116287
-148.862900 237.026321 -72.641739
-153.117783 236.824158 -66.125069
-140.274155 242.406586 -72.098015
-127.931831 206.777328 -55.788704
-5.872487 245.044556 -69.720222
-10.969572 243.256775 -62.630352
-149.307831 243.537659 -67.934509
-105.924904 194.711624 -58.264427
-154.957108 244.776138 -64.014503
-66.378296 305.431488 -66.245132
-57.854225 253.390839 -69.327599
-77.384468 146.849976 -57.559589
-1.177331 257.982391 -72.681541
110.947838 162.371796 -64.842209
23.352772 267.296204 -73.568314
111.668877 160.589539 -64.738892
-52.585857 67.376938 -73.414589
-93.574493 109.040245 -72.242813
20.670685 281.636444 -70.831116
21.415892 278.673981 -69.439926
-81.291138 267.051575 -70.406441
-45.811409 296.232574 -73.094276
-72.100067 261.582977 -67.261017
-112.987724 244.036224 -59.899048
-42.595024 294.382111 -72.127304
-39.087151 297.151337 -69.072357
-26.781876 75.958519 -66.791191
42.435707 266.660065 -61.286469
115.185440 162.862854 -69.170753
-12.457050 298.235748 -68.964935
115.127670 164.355835 -63.575115
-11.095558 300.862244 -72.357910
-25.881763 300.597168 -70.869583
-147.779053 282.471985 -69.575920
78.439880 242.608154 -70.083473
-84.734047 73.975761 -70.035309
-132.538025 299.574066 -69.039711
68.718651 113.903564 -56.702942
114.032639 166.602676 -67.054199
-8.704778 297.655396 -69.665176
-2.707183 295.706573 -75.648567
22.661180 280.786804 -55.292736
28.166456 278.996613 -56.405399
-63.646500 60.505566 -65.962776
93.574287 226.598206 -63.968536
-54.827156 301.464661 -69.883423
-147.111954 209.581284 -67.390373
-108.112564 234.976273 -60.076603
8.228552 297.842529 -73.184769
-84.606651 88.051086 -68.864334
-112.945313 303.692505 -63.624718
83.387566 225.086517 -66.160004
-124.099030 296.931274 -65.206604
-147.634964 280.393341 -68.892830
-127.378288 299.993439 -69.191101
-85.799675 224.686325 -70.012833
-144.481918 268.863678 -59.545330
-72.987305 69.382431 -70.659050
83.040405 234.797638 -69.412033
-58.071980 96.164391 -61.037643
14.136272 300.751953 -67.923195
-79.749916 77.092934 -70.243172
-88.200760 95.327629 -65.723160
26.937683 267.418762 -62.903511
48.746487 119.553322 -63.982952
62.877766 102.470024 -67.051216
83.436592 225.422195 -69.266228
25.514103 266.104492 -57.817032
-35.997845 55.162693 -53.071941
-76.149490 65.502403 -64.146225
20.181078 298.024750 -55.237762
75.774612 101.239655 -69.854202
21.968840 283.338989 -72.351112
-93.545372 100.951630 -70.435486
38.266064 125.278404 -66.939262
53.041344 101.643333 -66.767563
56.619545 105.846336 -68.795761
23.808056 159.976624 -65.374397
-139.464386 263.604126 -66.537201
-152.965546 283.718079 -68.098244
-146.825668 277.705292 -70.542770
75.077011 100.077690 -67.272690
-154.753952 281.902527 -66.573097
-144.855850 264.712067 -63.532154
-112.375916 296.236664 -64.213921
26.103544 163.878357 -65.282753
-110.570236 300.791931 -61.392342
-48.087029 93.683456 -52.672417
-148.670593 265.417450 -54.480606
73.966156 244.646866 -69.321770
-72.063377 64.845268 -67.678726
-77.927582 109.958183 -62.853050
-82.985146 121.256783 -65.839912
112.249725 141.408737 -73.156303
112.218559 145.516144 -71.566376
7.833645 207.887497 -67.975830
-50.556229 149.744919 -72.257141
-80.562538 222.974808 -67.483910
112.401131 142.880676 -71.289185
115.772339 149.148743 -67.483635
-52.655380 154.126541 -68.474541
116.635414 154.867676 -68.306213
113.838615 153.279861 -67.947365
-52.826344 153.134384 -67.224083
-66.650177 258.970306 -68.665260
-41.854820 155.519470 -70.742538
108.607651 152.203857 -71.821152
105.772118 160.311966 -68.116890
68.447845 79.400276 -53.027252
25.609205 270.665436 -55.079723
107.258720 172.860291 -67.256721
0.108452 176.366287 -65.668655
-41.341114 87.336227 -66.840012
-95.734917 236.223175 -67.642685
112.453430 181.414688 -67.171005
48.456791 103.524185 -62.173058
54.267967 109.800941 -57.634251
-84.206429 122.109749 -58.786289
-48.685413 89.393372 -56.106899
107.534264 192.119110 -72.882759
102.364326 188.351044 -71.537537
104.366783 197.318420 -70.506477
109.585052 197.859772 -70.899879
101.656471 201.872391 -73.307030
-157.161423 246.921982 -66.196205
12.963862 204.164352 -68.160789
-147.276993 246.258240 -59.459972
-141.048782 212.181122 -71.957764
-56.774670 296.295807 -69.561844
-35.555046 88.497536 -64.003136
107.955048 203.219284 -72.686462
-156.221313 212.665680 -63.897015
-29.425493 86.542229 -66.188217
-151.033401 212.260040 -69.586334
-33.793758 88.052780 -62.524406
-81.438187 138.474213 -64.602898
-79.032753 134.213776 -53.848534
-59.449238 299.875305 -71.739243
-145.390320 214.725494 -70.668755
112.277161 146.994736 -67.477089
116.259216 145.168121 -64.107307
-79.392570 217.966553 -70.008858
99.241241 218.835770 -70.943260
16.806675 157.149704 -56.996891
-53.203247 100.089195 -69.856682
-71.948288 225.461807 -69.325111
-128.910126 239.610855 -70.568695
-68.693886 298.248291 -69.790154
-145.180527 223.725937 -68.470581
-153.840347 205.015656 -57.483112
-140.692886 207.182190 -56.166359
-145.600113 203.435638 -54.021301
-10.698160 69.531097 -56.078419
16.441463 227.281662 -72.985626
-76.143730 70.123962 -70.392540
90.365601 225.741196 -72.829536
-18.290638 228.664078 -69.277084
-13.925425 236.212265 -71.297195
48.057621 40.235130 -62.684631
16.752312 237.998962 -75.270302
-138.904343 238.754730 -67.959221
-4.806347 243.055038 -64.756371
-150.362946 227.450439 -66.156952
-5.696806 243.231339 -63.967545
-154.758820 231.581039 -60.789230
-90.145012 301.014313 -69.468193
-146.313721 246.342529 -73.477196
-92.259720 298.891296 -71.339554
-147.155121 247.065918 -73.333107
-56.841789 250.257736 -68.713272
-42.153950 257.575470 -70.393585
-48.271118 98.583336 -65.523872
-80.336174 225.574677 -70.849899
-48.020901 256.170990 -67.753876
-6.208578 273.157501 -60.190552
-12.103718 259.751617 -68.760284
-12.846209 267.780914 -69.481880
113.566338 132.113068 -60.864071
28.500364 40.980503 -59.273624
-147.402603 274.957275 -64.810783
-137.272629 271.610107 -63.275944
-83.680054 60.558895 -59.738720
-9.137017 286.869781 -68.387146
22.699215 37.251274 -60.084591
-133.632553 298.547302 -70.935417
-145.752686 290.288177 -65.797821
28.293629 23.699944 -62.287346
22.782848 28.124826 -57.890614
5.202621 293.689362 -69.339844
-109.187775 231.625839 -67.363525
-80.491356 262.974731 -64.196747
-141.120056 214.008301 -71.570480
-51.157925 298.552185 -68.125633
-123.980270 238.805908 -67.173988
-155.312378 204.386978 -65.220383
-66.749725 294.999359 -71.602234
-8.962981 71.301712 -56.576870
-123.788017 266.912415 -67.742050
-144.290741 313.266113 -67.417488
-142.760269 307.511017 -73.535126
-148.295624 297.091492 -69.573036
-124.850632 265.726349 -60.103817
-153.484314 295.412415 -62.077358
93.553642 76.864525 -61.219059
0.945424 302.390869 -69.341125
73.561485 112.095100 -67.002762
79.072487 116.851860 -60.583740
-147.606552 318.738037 -69.387489
68.069878 82.054741 -58.554066
-3.668053 180.002533 -69.336884
-153.327148 319.737305 -66.110695
-152.234726 319.899384 -65.227242
88.236038 220.401093 -69.315842
-70.252983 67.704323 -70.986198
1.645479 248.891327 -65.136597
-36.072174 70.709373 -66.986664
-89.055962 84.624054 -70.166199
72.548882 104.872787 -67.567719
-132.080902 266.566895 -69.230522
-34.948029 90.165466 -68.895386
26.738365 25.447485 -66.035255
30.744726 24.260975 -64.736748
73.925560 94.364723 -70.858299
70.318375 84.265305 -59.831161
-3.430612 291.134583 -63.297188
91.059715 69.261292 -57.403358
-78.525612 111.961586 -72.996796
17.821043 154.336014 -58.682045
-90.763695 117.703934 -65.883430
-82.104446 114.537025 -67.466988
103.133560 182.606201 -68.123253
-90.794403 119.849350 -68.157890
-98.732224 126.623856 -68.446991
12.348415 197.624603 -62.778278
107.656441 119.756233 -69.141685
116.564110 130.131302 -69.582855
-14.252692 264.126770 -64.536102
-95.811638 84.834778 -56.644108
112.710297 138.859283 -71.416855
10.569987 213.806625 -72.103638
-50.331223 143.479797 -63.712357
-46.180637 148.321716 -69.577217
107.943367 147.015274 -72.661621
-56.135857 155.397888 -71.377373
-2.596092 291.161987 -56.091709
-13.125647 298.505005 -66.567848
21.136621 262.536652 -66.406570
-98.824265 116.190666 -53.940094
-14.213785 295.885406 -68.107704
118.093842 166.314407 -67.703545
18.185507 176.534500 -64.595795
94.790176 209.684296 -70.110611
-118.546387 269.646637 -67.288513
-50.651936 195.645615 -68.323959
105.189171 199.056915 -67.558319
-46.847546 161.213120 -63.015499
-14.505303 205.565323 -62.752285
-44.642830 158.336151 -64.296997
0.230470 252.559128 -54.169178
100.830521 209.676651 -65.561058
-78.915718 131.318222 -52.719158
-64.460373 302.300842 -70.308998
-145.552750 224.515289 -65.667168
-148.447708 210.120865 -68.851547
-156.393799 208.085526 -60.987682
-146.473831 220.826767 -54.871223
-135.865875 209.123047 -72.072975
104.893814 209.843292 -69.291870
-15.132134 229.898697 -70.111778
-43.288067 172.639938 -66.064682
-52.314949 162.827972 -68.217552
-13.718754 196.573563 -67.813408
-81.222191 131.144028 -64.481697
-46.218285 159.068573 -62.456924
-76.134682 140.255600 -65.872536
-89.713562 265.476135 -69.134544
18.127493 230.305588 -65.357849
-8.916213 228.975540 -65.863121
-71.576721 155.584610 -65.111404
-3.608977 232.519897 -60.487034
-51.697437 138.624084 -62.839069
-59.501366 140.707642 -68.129280
19.510506 219.883575 -65.299713
-156.283600 233.136398 -66.508255
-152.348816 235.390610 -69.796547
-159.011551 256.787933 -70.258766
-83.862877 298.586853 -69.274490
-145.753098 242.911942 -72.717545
-121.721573 207.487976 -57.729061
-11.822493 244.774521 -68.065414
-7.795358 244.700882 -64.059654
6.036455 241.541870 -67.340294
-32.188839 56.795223 -60.412186
-59.818592 134.702759 -63.138241
-17.233994 248.004410 -67.013550
-38.383835 251.809616 -70.614044
-15.263259 254.869904 -68.689079
-13.292280 275.064575 -70.544991
-80.043762 296.458588 -71.335136
-116.783211 211.442551 -65.294518
-156.867905 245.521255 -67.660080
-148.550446 245.904495 -60.400661
-141.184082 246.931625 -56.102119
-74.114548 297.185242 -71.429375
-3.824709 240.663010 -66.808083
-154.901459 228.493042 -63.734043
-154.165649 226.346191 -58.968277
-145.734436 225.270966 -58.162483
-85.073181 300.721649 -69.133705
-59.664974 140.198715 -55.064926
-148.072479 239.498764 -69.575180
-82.842224 297.903992 -67.235237
-108.799606 206.741470 -58.085213
93.538300 211.248764 -66.063454
-60.150402 60.214828 -65.525749
22.673635 261.509949 -59.771736
20.542221 267.437561 -67.471954
-41.243813 59.708870 -64.775948
-41.796482 65.585114 -71.013512
80.239952 82.646767 -66.995392
55.408901 108.523666 -62.740181
-75.254906 111.447861 -58.794796
70.848747 85.982063 -67.889374
101.264046 97.847023 -66.987953
-81.196388 58.135460 -52.433823
98.651283 97.161522 -65.499512
72.069687 106.623459 -68.557137
77.240921 106.103523 -69.854530
65.167694 91.165031 -60.929493
10.871757 298.996368 -58.863148
66.668663 88.102036 -60.289165
10.269072 298.364807 -56.518787
72.246521 104.368385 -64.114403
24.615499 179.368408 -63.442940
-161.403015 285.701843 -70.308281
8.760029 164.471771 -68.986580
-68.026611 109.374176 -70.168556
28.523647 176.123825 -61.554539
-161.894180 287.119293 -67.166786
66.377510 244.024551 -66.970200
73.041740 91.408035 -65.460106
88.261330 111.646034 -66.139206
42.697117 51.371975 -67.782990
107.489532 113.852043 -69.874176
107.269684 126.490562 -69.139618
25.359159 31.030935 -62.493610
-58.341827 151.012848 -65.816139
116.011452 153.236526 -69.238350
-14.076674 251.028427 -66.160454
-98.268402 173.858170 -62.192734
-46.382931 149.169861 -65.844933
-97.704765 296.615326 -69.327255
-97.569801 295.659302 -64.804298
-150.364166 249.607758 -53.238590
-42.389942 158.668762 -65.536606
110.299644 158.812302 -62.777576
-56.898521 150.333649 -65.436981
108.849945 108.289299 -63.104687
45.948196 44.445908 -60.566219
105.619011 156.740189 -69.307190
32.076389 167.653671 -68.715004
4.636801 251.774216 -68.176086
-34.061794 218.074234 -71.624428
-49.150002 170.370621 -65.229042
104.887039 177.201843 -67.679016
-38.063137 167.920303 -66.173874
-56.790356 185.189407 -65.959755
-66.479088 172.741592 -64.481735
112.572861 185.360352 -70.257713
-28.272673 183.528275 -65.890495
-34.734375 175.089844 -63.252533
-27.411772 186.112411 -70.227127
-23.709890 187.865982 -63.288647
-37.076794 180.448517 -62.845554
103.404465 190.763428 -69.240509
-85.942696 124.238823 -55.697945
49.886944 258.123291 -58.811867
-34.941540 298.735565 -68.476860
-145.115204 192.296402 -68.469513
-143.565720 196.030899 -59.078030
-152.355118 194.585342 -59.483799
29.479763 269.284637 -56.867508
21.723066 268.031036 -65.548599
-53.888851 193.058060 -68.911385
-147.619400 262.326416 -66.323380
-115.181465 205.833817 -65.646065
28.087069 194.162369 -65.419014
-28.322300 197.150864 -63.838535
-12.578775 233.546768 -70.672348
22.778311 203.804169 -69.245247
59.944275 95.928757 -56.758617
-44.627953 58.626690 -64.270874
23.244747 272.767883 -66.347557
98.527695 200.168930 -68.309090
-54.095440 295.998901 -66.227448
-144.295929 205.605774 -67.514992
-147.264359 207.481201 -58.194927
-153.134583 209.247757 -53.761417
-91.570808 222.857529 -65.979263
-39.099091 213.349533 -68.316833
-62.507133 61.977985 -65.352882
94.889877 217.304977 -66.392494
-29.064623 222.945343 -68.333527
-62.461185 181.728485 -65.790337
-22.793308 213.724777 -66.727859
10.439737 251.019913 -67.168831
67.172501 251.362335 -65.502594
97.231934 219.480194 -65.561020
8.919207 220.175720 -67.951920
-61.028065 182.246231 -65.278404
-33.382694 221.511673 -66.946693
-21.566002 213.570572 -63.081306
10.627826 247.221298 -62.253101
55.307365 252.930496 -65.295891
-42.842579 88.467110 -59.905983
17.978090 290.231964 -68.001892
22.964544 288.677246 -69.235405
91.204323 221.020325 -65.719963
59.807671 257.436096 -64.370766
89.798927 223.516510 -67.357628
21.398813 193.643082 -63.693966
-15.498132 231.040283 -65.285400
-30.254864 228.270340 -68.506599
-149.723557 232.917145 -67.337196
-149.505020 233.806183 -59.373016
85.831429 234.664642 -66.883873
94.994293 114.062637 -51.796478
70.418350 240.624420 -63.670868
-73.546066 158.442581 -62.841030
-147.831558 242.537674 -67.916458
-6.705821 226.048203 -63.077423
-155.460052 239.863541 -61.908943
-2.923943 228.775238 -61.780209
-143.083282 236.739136 -56.709373
-11.707601 238.399658 -64.888855
47.104706 41.667381 -61.749832
-111.258537 204.967590 -64.729836
-139.816147 242.923645 -63.139664
-155.359085 242.850143 -56.637390
-9.111927 242.051346 -65.519821
-13.426923 215.955429 -64.818314
-16.876915 211.658203 -62.767616
20.193308 250.516098 -70.587540
-50.750961 140.565918 -57.221497
-34.765663 249.192154 -67.693214
65.963799 249.202347 -66.998718
2.289762 304.611389 -61.391975
2.136547 299.483002 -56.581970
-102.239128 188.258011 -57.916576
-59.784302 256.903870 -68.723007
-56.348003 55.535095 -60.593372
-82.050758 259.235107 -66.995590
-105.817566 234.769012 -61.856049
-11.633053 263.792145 -66.126564
-95.748383 263.994629 -68.000214
-11.348515 269.478943 -67.919098
-123.206558 271.125946 -69.621239
-128.166870 270.147797 -61.196598
-130.500122 274.763336 -66.067505
18.192926 274.211517 -67.639244
-13.677038 279.480286 -64.956863
-13.510831 280.829987 -68.628937
24.944616 41.784012 -53.744320
-166.592392 288.566742 -69.916969
65.469772 256.583923 -64.619789
-168.520264 290.245850 -66.039139
-151.911438 291.982178 -67.280121
-160.485947 292.119263 -66.619835
-148.539749 291.907471 -62.491989
2.170285 171.042603 -66.552246
-159.158356 222.925644 -64.990616
-136.730713 206.483124 -65.758957
-49.922688 296.789642 -68.703659
33.685604 146.334610 -62.885624
-49.989532 298.257782 -63.496216
-113.704300 238.590988 -60.706608
-147.958038 208.730698 -56.586216
-148.867233 206.375916 -54.977589
-88.557899 120.950836 -66.556000
-26.759344 297.347595 -67.633530
-18.580315 295.849060 -67.942368
-98.018204 298.832062 -69.935356
-115.522743 205.941833 -60.535618
86.570869 233.573318 -64.615120
14.714803 299.060394 -69.831825
17.494360 294.934418 -61.135979
-142.478027 214.388718 -71.900391
-58.254253 302.582428 -67.565498
-139.370163 216.658981 -66.751160
-152.648575 211.659927 -58.752190
-151.806229 215.331787 -53.940502
-144.105820 252.981476 -67.340118
-99.312836 302.957306 -68.879906
-97.386162 297.839569 -64.404312
-42.886295 154.507248 -61.999611
104.174744 189.601273 -64.306709
-18.426670 298.303284 -69.031914
3.898578 301.636871 -69.367363
66.474648 247.446198 -62.293125
25.805462 22.313309 -53.809174
23.312105 25.770229 -52.282257
-27.066368 63.765022 -65.698746
-130.199768 235.568268 -68.050163
-18.867027 74.824501 -65.084526
79.752625 78.388565 -64.588631
79.661957 74.592995 -62.885468
73.812210 246.217041 -65.237411
-90.087791 80.063530 -62.910610
65.884048 102.033287 -63.118664
81.183868 82.061676 -68.716072
79.638336 86.616997 -70.690788
74.696632 78.007866 -63.485081
38.400791 113.524757 -66.392700
98.452621 84.603386 -66.312584
28.300571 139.923615 -55.161724
28.262659 146.952179 -57.186783
-134.935730 264.395905 -69.050377
-38.887177 86.678024 -66.396721
-61.443748 98.183945 -61.184650
-66.626953 101.915543 -65.207184
55.618984 113.106094 -63.477783
84.959457 73.000854 -64.521431
97.034286 78.957672 -66.833366
26.115604 153.030609 -65.954536
71.399559 240.148132 -65.208809
7.342484 299.966675 -60.681015
64.500153 90.243111 -55.748680
9.108421 302.452515 -58.016014
93.755363 106.890045 -70.285393
-94.939171 113.822746 -71.209816
9.181093 273.980865 -53.506889
59.236835 107.374161 -65.619843
-62.735706 94.632042 -54.267937
87.835915 112.687904 -69.511429
45.752029 47.962910 -66.239365
110.335602 115.272469 -65.033600
51.021168 32.359913 -63.478615
-16.040161 240.583633 -66.955452
25.754690 201.293243 -67.429039
-93.942795 118.148254 -62.586246
39.623016 47.213043 -67.202881
108.924667 119.115227 -65.107208
-60.773849 144.930939 -62.305946
108.999573 122.506584 -68.375504
29.426590 48.240177 -66.162788
106.111725 124.345581 -65.745094
-55.858768 97.145187 -61.793251
105.161736 133.357178 -67.713028
108.848328 134.226746 -62.832657
109.061241 142.549591 -68.587242
115.131020 138.667892 -62.915077
-21.852825 83.430115 -70.161362
39.547710 144.074829 -62.457584
-27.510056 80.805046 -60.533260
-78.745682 127.258629 -55.889549
36.974506 144.855194 -65.502747
-165.813400 226.251099 -63.451435
11.314957 209.085037 -72.360054
-47.511799 149.599625 -69.936272
12.833289 230.337616 -64.125107
-78.239052 149.423065 -64.052147
-48.194580 157.454102 -64.844406
9.828153 240.838196 -66.495178
-28.031113 207.341629 -67.611771
31.587093 264.777283 -60.795517
-19.220263 210.368805 -59.184956
-72.658577 154.722824 -64.014763
-1.996651 232.783203 -64.191330
29.995659 165.411606 -68.140381
15.623458 157.502197 -63.146385
29.489193 170.781799 -63.045082
-7.290352 217.769348 -70.417412
-69.271339 164.079834 -69.567230
-35.020123 171.959244 -66.631081
110.077820 166.487885 -66.051178
-47.790527 161.699127 -64.789757
-45.788578 157.915665 -61.297623
-82.162445 125.095840 -62.641922
18.600702 259.276733 -64.321495
100.932365 199.081757 -67.995972
-17.026148 220.413727 -63.808041
110.616997 193.486542 -66.797401
-67.706886 169.460480 -63.368092
-11.921289 222.827377 -61.147083
35.037045 162.356354 -67.217903
20.564081 177.293686 -67.106476
16.096025 169.563309 -61.644360
-62.516434 175.364014 -68.307434
-68.039780 168.838455 -63.933456
-14.282175 220.282379 -64.798210
17.620461 258.000214 -58.164982
-35.389412 173.739929 -67.445282
23.439171 184.658569 -60.262093
1.465698 175.599503 -67.433876
-21.278978 187.108093 -68.972656
-30.133322 178.536774 -65.006561
-33.367104 177.396317 -68.368469
-31.784605 178.953384 -61.843914
16.377079 161.519135 -60.482380
-3.696842 177.217590 -66.198990
19.272968 161.659073 -59.340000
113.021111 181.026367 -68.547997
109.053200 179.941803 -65.887207
110.831390 174.754166 -60.695618
44.529694 263.028198 -59.486603
11.815512 225.357101 -60.455540
-23.061661 189.736771 -65.408752
-40.625420 183.209625 -66.573944
-27.780149 188.720520 -63.413090
-38.482059 173.960678 -64.630974
21.920055 180.235672 -65.046021
18.566231 178.610367 -62.364170
108.260658 187.686264 -68.730019
-33.789749 191.325974 -65.141205
-37.850651 186.562149 -68.623085
-32.683365 184.379639 -63.098110
-70.936897 148.665344 -62.104362
-30.355013 194.836121 -61.223385
-32.272064 297.133209 -64.052597
-30.672256 294.046692 -66.712585
-146.244202 189.764969 -70.463631
-142.553513 188.106583 -59.129055
-147.359528 181.141708 -59.326359
-152.798630 189.346375 -55.801773
-82.694145 115.968857 -61.056683
-150.090302 182.767685 -58.847149
5.448192 270.297607 -57.670033
-18.913387 196.042252 -66.295357
-37.051498 175.169525 -61.254845
-23.097858 194.692871 -66.334267
45.608604 261.770508 -64.409111
14.036141 227.273346 -64.103760
-73.591599 144.215607 -65.656403
-74.071861 152.999512 -65.245461
-32.268139 196.602966 -65.114784
-35.733597 187.842422 -65.453789
-152.714355 192.335388 -68.573494
-155.119568 196.288376 -61.855461
-139.737213 194.296158 -58.078896
-19.416660 79.024475 -57.053791
52.225185 262.156830 -66.340851
-29.588156 198.159241 -64.413361
-28.409967 196.875168 -63.782757
97.024254 200.112564 -64.697701
-53.310600 142.008926 -65.954300
14.336244 206.185165 -65.697212
25.549641 199.012344 -65.726372
101.353432 205.690491 -64.572159
-127.859451 209.559952 -68.978523
-123.102776 210.711227 -68.161736
-154.441528 237.214508 -59.807411
-109.689735 201.819550 -58.277634
-20.947290 223.324661 -68.764351
-63.764622 179.795151 -65.422974
8.812340 255.088364 -67.302696
100.099731 213.143906 -64.892220
-64.532837 301.723419 -67.081825
-146.499588 222.691910 -64.308403
-148.635468 217.887985 -54.688763
21.250288 218.839142 -67.557472
89.859665 229.124771 -65.950989
19.140976 223.051971 -65.605286
100.864449 95.733360 -54.145660
-70.427727 167.553101 -66.214317
-14.614650 226.565933 -65.710396
-96.682198 227.311066 -64.530807
-137.455872 267.318481 -64.169762
-77.194397 148.592224 -68.571548
1.722981 235.283997 -69.032677
-26.517189 230.877838 -69.058372
-117.859863 303.322388 -68.787109
-150.179169 275.948822 -60.249424
86.666389 234.433243 -66.208656
-20.844900 232.987061 -62.815979
14.999451 195.303894 -62.481770
-122.205780 209.371643 -59.055378
-6.301465 234.771896 -66.369835
-8.962799 236.181198 -62.817123
80.563309 234.776901 -65.287575
-138.348038 242.719650 -68.331795
10.598144 251.749664 -67.220970
16.860891 239.235840 -64.971931
-74.167374 299.304169 -66.558960
-141.761154 227.126083 -59.933880
-149.485779 227.722870 -57.011772
-156.716110 242.660004 -68.054451
46.683136 27.789522 -61.162899
-143.768784 250.134338 -64.989746
-16.384727 250.392990 -62.287952
-165.292816 242.645584 -66.958786
7.188139 220.005692 -68.602501
-99.332710 299.830322 -66.795113
-149.269485 250.798859 -66.709618
-153.487320 251.590805 -64.607277
45.869202 28.374846 -55.644409
20.968924 149.550842 -56.981979
60.865074 255.138687 -71.115654
8.341271 213.486847 -62.470882
-61.629169 140.680084 -63.040520
-25.477455 250.488358 -67.270714
25.391216 28.844868 -63.147194
27.208715 20.324911 -58.527477
-91.612755 91.619034 -64.576622
70.174393 248.660324 -68.155937
-157.294495 251.707077 -71.231056
-6.436420 248.973068 -64.988487
-10.310847 247.942078 -58.933086
-21.043510 251.275620 -66.927872
-132.591934 212.797699 -63.871922
-168.395294 250.689240 -69.633827
-160.169693 253.017990 -68.244133
8.379283 251.266693 -66.676178
-168.890289 253.594513 -64.975502
-43.698692 300.896545 -64.259102
-144.198685 202.313721 -60.286579
-148.227615 197.520538 -57.366280
0.075642 254.276306 -70.654381
19.295374 256.502655 -64.132622
-1.777790 255.399185 -69.239700
-92.848351 160.245361 -66.034866
-10.245441 252.642075 -65.689140
-135.651962 205.843719 -55.448452
-155.147430 254.378998 -69.279839
-152.645905 251.297729 -60.938648
-146.603134 252.475281 -60.586590
-157.147964 258.579407 -68.544479
-77.761848 260.093170 -67.055893
-59.383408 255.501068 -65.380737
-95.948936 223.052841 -69.225456
-100.027870 266.348022 -71.204933
-15.158641 269.770081 -67.620583
-59.954216 294.570374 -64.101883
-141.935822 213.821426 -65.691566
-143.054062 215.010651 -64.818733
-148.394333 213.842285 -55.311050
-93.322243 264.867157 -69.226585
-79.585808 294.430664 -65.371002
-149.591644 240.622894 -57.662342
-124.252274 211.510895 -54.312969
-93.691765 297.571167 -63.318611
-94.591682 298.267883 -64.382553
-143.633255 250.464111 -61.799763
-117.556068 215.483566 -56.215458
-149.755966 247.803696 -59.211571
47.381100 25.472292 -62.670811
13.845117 297.500488 -64.623787
-106.617096 181.997543 -63.134811
12.752723 300.081421 -62.858620
-82.850693 302.656769 -65.889320
-109.469208 200.655945 -60.267345
-144.954010 235.026123 -62.503998
-154.189362 237.905243 -56.862022
-126.964569 215.422974 -57.151398
-146.772263 234.011322 -56.253826
-144.682922 233.904022 -68.834831
-78.355469 304.478607 -65.422768
-147.542572 230.912857 -59.365532
-134.909103 300.899414 -66.323509
-152.824310 294.064850 -60.964565
-2.043945 304.273865 -68.179718
-1.013701 299.065216 -53.016403
96.540131 115.869164 -57.310722
72.049919 100.095352 -65.795593
-6.775194 283.184052 -65.179367
13.749379 306.361145 -70.614769
-104.607529 178.280991 -57.271370
22.251015 24.282911 -63.487617
-62.348251 118.130798 -55.088589
27.814341 30.882030 -67.167549
-10.194354 263.587891 -59.580357
21.958481 35.782055 -67.546143
-69.042793 58.035229 -61.844154
112.340141 125.703331 -64.783524
31.327265 45.375599 -63.396019
113.621162 130.595718 -66.900764
22.483728 40.389488 -68.433342
115.432564 130.508957 -69.335197
26.066227 43.046295 -66.267517
112.983772 129.165222 -65.939064
-34.392670 61.295246 -61.606018
-2.514619 268.495667 -58.715435
3.477898 271.875366 -57.396694
70.754601 71.246231 -59.449230
93.993370 80.333290 -67.991615
-41.958630 91.331680 -65.257263
98.977783 103.209702 -60.303177
-59.965088 101.920822 -64.733276
-11.446914 289.273041 -63.884144
104.834877 107.327751 -61.768307
8.578735 301.689453 -66.286255
86.800346 107.474312 -66.114479
103.434334 110.576637 -68.286438
35.941048 45.893665 -64.070930
109.750351 118.952797 -64.138870
31.278177 135.163727 -63.726768
35.004662 136.784286 -68.987335
33.762562 139.012634 -67.223183
13.368610 232.692612 -62.599518
-80.759460 143.017471 -67.200584
13.688263 224.105713 -66.947662
-101.271538 181.559113 -62.595741
-61.472084 148.200806 -64.186409
-0.786332 227.188110 -66.578781
-75.211418 152.557632 -67.856712
35.037388 266.999512 -61.895729
-65.260536 155.046051 -64.523766
-45.272438 153.355194 -63.824986
28.154499 148.184113 -64.605148
41.943508 263.186371 -59.036125
-7.500920 220.694397 -66.884094
-67.825645 160.505859 -63.350262
-11.892902 225.282669 -61.655193
8.085795 162.688354 -67.875229
24.207226 174.819778 -66.462395
13.130605 162.862930 -62.721825
24.113791 179.620010 -61.095245
66.829033 102.085747 -62.834000
104.678917 172.717072 -65.416649
112.181183 178.439041 -66.524910
107.153740 180.683456 -65.214775
-43.651302 173.181152 -68.059280
-20.888630 199.466705 -65.659973
-25.179346 201.540482 -62.124317
-42.211555 182.468430 -63.874985
-20.262222 196.481323 -63.353653
-41.452431 176.526962 -60.842979
28.582357 184.380646 -68.635254
109.301323 192.774078 -65.847061
26.300552 183.704636 -64.062263
27.398636 187.345810 -59.907619
27.180721 191.243118 -65.626556
26.695667 184.838074 -64.420952
17.440948 190.453934 -69.053490
-151.695862 195.092972 -67.660454
-151.510345 197.585678 -60.930893
-146.622894 200.057297 -57.876347
-161.100998 208.543442 -65.654327
-152.882767 205.862244 -64.660927
-29.506966 83.429230 -61.203983
-151.758255 201.874329 -60.809498
-146.537109 204.438751 -59.093388
-115.556450 237.737076 -59.793636
43.747845 41.111561 -62.263607
19.807911 210.722137 -65.101288
-136.761536 206.908478 -69.434731
-147.704239 219.809647 -66.310806
-154.475525 220.817947 -64.135880
-135.804688 240.614365 -66.737419
-164.103012 218.185440 -69.347862
-163.654495 220.025497 -66.362045
-166.622849 238.413712 -65.120872
-23.078342 229.739365 -63.023071
17.607878 223.930786 -70.259041
-71.201157 144.114349 -66.452118
7.929883 227.265839 -66.107658
36.284992 131.288483 -51.981903
-28.333363 63.908081 -62.699902
-163.260117 232.373459 -63.917992
-98.735748 170.183243 -57.141495
-11.411520 230.361038 -61.495190
-149.508896 231.575562 -64.778618
-148.877045 230.573776 -63.062431
-147.043091 232.766937 -56.239994
-18.809330 238.143570 -65.865601
21.067793 201.340103 -59.095844
-80.019806 129.791718 -53.456051
-119.629257 241.757050 -67.998329
-131.749069 246.408966 -67.778412
-156.868881 207.306961 -63.914726
14.967617 245.508484 -67.236267
-6.960749 251.150955 -66.742294
-97.980614 156.328415 -63.873608
-62.779102 257.673920 -67.995522
-9.562179 257.653870 -63.961414
82.585938 229.869705 -62.547153
10.927268 294.661194 -64.293907
-135.161865 297.841553 -66.918091
-136.638351 300.243286 -59.659168
-149.622131 291.703308 -59.185497
-76.870934 296.740112 -68.436409
-80.358955 298.810089 -61.924351
-140.319077 232.499069 -62.193356
-147.796326 230.534851 -56.718353
-63.382690 296.418762 -64.745468
-143.332489 220.582962 -60.692757
-148.449249 217.910004 -56.519760
-28.255632 303.536743 -65.326408
-34.461506 297.788788 -66.829643
-144.653946 186.187729 -65.026543
-145.066040 192.678619 -61.267818
-152.307251 189.708572 -59.201984
37.821167 21.152945 -66.331093
37.384415 23.983067 -66.873421
-58.433018 125.456467 -57.221298
104.488297 100.150558 -55.915009
38.798721 25.939407 -66.461914
104.980904 102.547150 -53.578098
44.461174 26.079216 -68.158600
36.445171 29.249922 -62.385208
-60.467415 125.735062 -51.899696
44.427444 27.156784 -66.262939
48.983974 32.510777 -69.662811
44.995926 31.910275 -65.341728
102.823158 93.140442 -61.136684
-66.893425 135.094955 -57.840675
48.039871 41.393005 -67.080940
48.117641 37.232651 -64.915886
44.578136 43.215576 -65.682877
-13.485288 75.898766 -65.334030
68.008171 93.776421 -62.547192
-58.303562 101.876007 -66.620163
30.126091 46.154526 -62.075420
105.447029 109.103424 -67.181366
-55.162064 158.393661 -58.314655
9.982296 210.784439 -64.214607
107.148468 118.253441 -65.625183
26.819981 172.169083 -68.970116
22.312792 167.580002 -64.056404
16.819609 158.868286 -61.386982
5.487211 169.429871 -65.433098
106.267006 178.658356 -65.152122
113.466347 178.627960 -66.139633
19.767406 178.941528 -66.290894
104.337326 197.729050 -66.040726
-152.382416 197.184250 -65.152550
-153.513245 197.052719 -64.622841
-98.286110 156.639725 -57.051620
-130.387726 204.640625 -63.546322
-118.475906 206.861771 -63.233799
-135.315033 214.299942 -64.754196
-157.066452 217.917740 -67.107681
-156.628464 221.153641 -66.336662
-153.325134 220.789032 -61.108097
-145.421783 216.891495 -57.555347
15.718768 204.460876 -56.509457
-73.451263 159.031860 -68.256668
-3.742699 230.312881 -62.372501
-11.813463 231.692535 -63.284096
-49.087788 154.607483 -65.912315
-19.537535 232.347092 -65.622795
-137.014832 238.631744 -65.932121
32.178703 267.500977 -56.165413
-27.872213 57.428288 -58.601841
11.314414 243.036041 -65.256943
47.411198 124.816910 -55.728569
42.333225 35.852261 -53.375912
-14.590805 253.921997 -61.774807
-145.526794 291.241791 -67.596573
-136.968994 296.493805 -60.585003
0.621133 301.645081 -67.897110
94.476158 117.003136 -60.441921
-100.094406 300.753113 -68.195305
-153.406494 251.377441 -66.807083
-40.020603 59.462009 -64.398788
-31.908663 61.312092 -66.884529
36.931416 124.100693 -64.146149
-24.057697 68.458656 -63.359268
-94.691437 79.054230 -65.353745
96.811371 86.907013 -67.843300
20.897535 289.034241 -56.792660
17.458252 294.883270 -58.007195
-40.957321 87.717262 -65.223213
-94.744865 233.196869 -65.821739
-97.920303 102.395569 -56.564022
105.970192 108.918015 -61.450462
108.907310 112.312920 -65.779793
47.648689 43.538586 -61.791164
73.714836 107.368736 -64.139038
-95.675545 114.585632 -64.391777
111.951790 121.474373 -60.198269
32.026180 44.663269 -64.318024
-144.603790 191.948441 -59.607922
-24.296577 78.792725 -58.139809
-16.633310 76.731377 -52.462925
-86.887680 122.818817 -68.342651
48.697361 262.995697 -66.532936
33.218174 127.103310 -65.300652
-82.062721 127.887627 -61.954773
-45.818249 158.612961 -61.601162
-78.030792 127.186356 -66.908516
-48.524975 164.886078 -63.163078
-82.702507 134.825348 -65.495110
-53.811371 53.327843 -60.650467
29.954119 153.004410 -64.461014
14.208589 165.417831 -62.209686
20.316065 159.247696 -62.700592
23.272087 169.974609 -61.545010
-41.663261 171.106812 -63.076973
24.428059 169.619797 -64.019028
109.828156 193.466827 -65.797981
-107.012222 205.543610 -61.463257
-164.822891 210.645493 -64.768883
13.466225 219.731705 -65.989998
-99.908112 232.535721 -63.571037
-73.239410 259.867554 -62.623558
112.944687 173.333908 -65.980797
100.245049 78.816116 -56.054764
-9.315237 237.959534 -64.879128
-0.663976 238.626266 -63.836185
3.954632 294.277954 -51.901775
1.498865 297.441833 -55.792004
72.403290 239.637436 -63.358574
-109.400154 184.772003 -58.539364
15.025622 234.489380 -61.367073
-75.944832 141.636703 -62.891956
-11.912067 246.869751 -63.617619
10.874429 252.757538 -61.198799
-64.369812 51.356533 -60.062763
41.496655 265.561279 -63.701584
22.090551 254.718140 -57.126747
-101.713455 269.026825 -63.958618
-13.530941 277.760101 -66.462883
-104.557236 187.575378 -57.920738
4.458941 304.599701 -63.025139
-2.863798 249.626556 -57.797241
-95.137482 157.762497 -57.615444
35.576416 27.609682 -60.923149
-57.333466 126.393005 -56.279869
42.006004 42.390816 -63.200500
-74.309074 60.543659 -60.442036
17.883636 293.304993 -54.648510
-84.784241 72.579849 -64.020775
-10.583766 72.115295 -60.652000
79.847206 69.911049 -53.289547
8.166684 269.097137 -52.749027
92.842590 77.648987 -61.988617
-13.522162 82.975403 -62.379669
-99.115852 90.047043 -60.529793
64.367264 252.477768 -61.794876
27.716892 273.778168 -55.285374
55.903709 93.174561 -62.905106
0.696907 299.108521 -57.079235
-2.352015 298.471832 -59.538094
95.902763 121.240402 -51.217464
67.504776 101.169090 -60.759109
86.860634 114.569916 -60.875343
-96.491318 103.298347 -61.154510
48.596447 255.309448 -62.582264
-64.519135 108.355820 -59.720959
106.808609 108.265137 -62.585438
45.460892 47.276604 -58.253502
47.450260 112.400764 -60.195328
76.797714 72.430504 -57.709545
45.694424 107.498100 -64.202644
-96.630821 114.767700 -63.298820
47.952774 113.943924 -64.232285
66.498802 99.757874 -61.560181
102.771660 117.552597 -61.124584
38.741665 116.431839 -67.505112
50.440430 101.665230 -61.530617
56.814934 108.708916 -59.600971
-81.370087 122.597374 -64.854591
-90.733932 127.796310 -62.778175
40.481464 129.152420 -64.723000
45.991730 117.057159 -62.715359
64.363083 105.207291 -60.020657
25.797411 263.224731 -60.209774
0.977403 293.595825 -61.982910
28.528517 270.874176 -65.943100
-80.255409 140.073029 -63.779812
-126.042892 244.219498 -55.048592
-83.688332 126.580605 -63.442459
-40.328018 175.504623 -61.286419
-116.836166 239.494415 -56.784546
-76.486626 130.110535 -61.131138
32.174629 131.691620 -61.962479
-100.650856 268.281067 -58.559738
38.557629 135.472733 -60.840996
115.641899 136.551529 -62.549084
22.301998 37.474045 -58.233711
-64.704613 138.745071 -60.942989
16.663160 221.974854 -61.288059
-53.632298 139.221741 -60.036217
21.116917 209.960709 -65.419472
112.963676 138.561584 -62.829700
111.095940 142.191055 -61.564846
-166.655014 221.433884 -58.836216
-19.590004 83.037788 -59.662243
-91.484100 144.941010 -61.728134
5.625181 241.892517 -58.489300
-38.646275 89.370674 -59.195889
30.826139 148.522858 -63.589897
-78.232010 149.324997 -62.118374
39.041985 130.450150 -56.219795
-1.886467 242.463440 -56.335632
-20.070705 62.934441 -57.701435
-73.449135 148.382568 -63.084377
8.213047 227.225449 -63.869781
48.312656 265.771606 -60.636589
112.834221 147.199570 -64.478722
113.441551 158.026474 -63.339024
110.976227 150.135376 -65.708519
-56.019958 152.833542 -61.286289
-57.106403 152.487411 -64.325394
-69.966080 154.900833 -64.844482
110.649712 170.776505 -63.432785
8.911377 171.422943 -64.892097
21.000525 166.053986 -59.605465
16.138149 166.255569 -61.900291
22.148178 172.739594 -59.606346
-43.677311 89.765457 -55.279305
5.748352 306.656342 -57.469841
-108.737373 189.879776 -67.352814
14.461229 194.050873 -61.844738
-114.412888 198.118362 -63.761166
37.850723 138.603577 -56.485115
-21.270456 209.460205 -66.131126
-86.627731 146.470306 -61.214409
-23.634983 205.600159 -61.904430
39.809116 266.934143 -60.048481
11.166562 205.474792 -65.566597
-52.235973 143.776718 -61.271297
21.109846 207.289993 -66.958557
12.313489 210.227005 -58.742504
-16.563950 215.789734 -61.597576
94.102753 217.222458 -63.900547
10.303741 219.072540 -60.515400
-62.239159 140.366867 -62.243805
88.001373 225.225800 -62.637405
-12.599539 230.040665 -61.756496
14.986111 222.928818 -65.770172
106.276497 97.628998 -58.890858
-164.055664 226.426651 -63.611565
-55.228809 146.168411 -57.491924
-164.862747 233.326447 -61.984863
-107.710052 238.883392 -66.508377
-86.238823 261.089722 -61.965603
-10.321098 248.392258 -62.358643
59.546326 257.952545 -58.803814
-164.721130 253.348557 -61.476887
39.428822 261.263428 -59.846920
-94.267250 261.622742 -64.157814
-133.632889 264.934967 -57.259708
-38.747540 85.799698 -62.711666
28.910221 142.681198 -55.168919
58.047932 105.963066 -61.579479
-115.963333 267.290405 -61.515656
-11.552764 273.824432 -63.014366
21.363674 288.901428 -65.048927
21.398005 284.568634 -63.599300
-96.626732 100.256668 -58.924110
57.236103 251.107529 -60.732166
36.890411 21.708805 -62.328770
21.555826 28.972227 -61.066299
20.314615 26.716707 -57.131851
-103.149002 169.525284 -62.079090
45.548401 36.591537 -59.858158
19.575329 37.020184 -57.993107
25.481094 32.889984 -64.141823
-15.307233 265.288757 -63.613743
41.980709 39.763748 -63.890079
39.962284 41.918571 -63.147038
26.959616 48.881046 -60.975491
107.429634 126.112442 -61.408962
-10.642602 72.873955 -60.989449
106.278091 85.733749 -60.029713
54.997578 97.294250 -62.288864
58.605614 101.001457 -63.531971
2.222770 287.894928 -56.965405
37.143063 21.951801 -59.079617
-59.387821 130.129791 -61.845905
107.355103 106.913658 -64.210648
103.399422 112.120255 -64.986229
109.540306 132.809006 -61.840157
-93.749008 129.529312 -61.116947
-88.146637 133.943085 -64.235649
-54.857506 50.669407 -54.577209
114.642876 145.857529 -63.275829
-11.251887 73.415077 -53.242981
-86.663925 140.719254 -59.395908
35.354225 265.466400 -63.813641
-48.805599 149.580917 -65.379425
-59.416439 149.258682 -59.931641
-102.918762 179.127396 -64.513107
12.820425 227.771286 -62.972576
32.819542 149.991211 -60.583370
30.814785 155.632813 -63.272591
-49.086788 155.933792 -57.436317
32.921432 155.639648 -62.349323
-92.952675 160.876740 -62.611416
25.539801 169.673721 -63.808933
-101.261925 166.037476 -64.467720
-13.972178 253.137405 -62.844269
-62.875965 133.138809 -61.445297
-100.064316 165.067596 -62.983131
-9.525680 258.443787 -57.201790
-39.906773 170.766891 -65.982208
27.520838 171.098343 -62.384491
-104.293198 172.178268 -59.158188
43.137089 31.840143 -55.160084
-34.202251 173.186340 -64.270271
-99.600609 96.241203 -58.624027
-131.898361 275.002869 -56.071384
22.158747 148.537781 -58.603741
-109.746941 186.680191 -63.510075
-110.298584 189.677185 -60.397701
-106.107819 197.539536 -61.181190
20.726738 200.254471 -62.143433
14.126940 200.849915 -61.166092
-51.421371 145.088287 -65.864555
-135.499664 207.793320 -63.362495
-101.358040 158.727768 -59.848843
-165.761703 212.093811 -64.476357
-20.500847 215.483414 -62.120262
-10.593751 221.960373 -64.614456
-13.943945 220.486801 -64.951462
-97.016068 229.517624 -62.361423
-138.932327 268.061707 -60.031235
2.627363 234.606018 -60.666775
4.585369 242.208405 -61.573311
-33.920139 58.629086 -57.764923
96.991859 115.920647 -56.962620
76.866501 237.870789 -63.389275
65.986916 84.578964 -61.742649
-159.057510 250.476929 -62.193523
11.555704 253.966644 -61.926468
-160.637436 252.335190 -60.429085
-160.097900 257.634857 -60.761444
51.614983 260.807953 -61.590172
-93.983124 264.334686 -58.767933
32.928219 138.519562 -57.666389
38.529331 261.438171 -62.106438
-13.428275 277.227386 -64.952148
29.197769 39.973701 -57.585976
-8.794828 289.170868 -60.847874
38.423077 19.539093 -59.987007
26.279602 25.679634 -63.319733
31.019583 25.633661 -61.662319
-54.864059 139.386887 -57.531380
104.949516 92.284996 -56.746662
47.428898 24.462801 -64.054962
50.291622 30.789282 -59.800434
43.000698 41.224331 -53.907131
19.050882 36.986874 -63.684494
38.560638 46.982014 -60.063065
-56.550888 52.833286 -60.766171
-43.775005 56.369923 -59.238033
-16.624191 70.280731 -62.004269
26.089317 274.079407 -50.418789
63.199478 92.822380 -59.291756
102.359283 100.471664 -61.304596
-75.671135 55.384792 -55.766998
60.296684 109.535629 -61.655830
109.935707 130.974091 -59.388027
29.766603 42.033428 -60.768253
-96.821938 127.724060 -58.752739
-76.101418 128.358780 -62.143322
-79.392105 140.647934 -60.406746
-80.224037 130.415390 -61.201496
-89.621834 137.283096 -60.538177
-91.417000 143.651886 -60.178535
-73.735825 152.584579 -58.808479
-49.807766 153.913712 -62.664051
41.412312 23.622225 -63.300419
-129.546387 205.856537 -58.925240
71.884979 245.258438 -61.484406
58.779728 249.110214 -58.625011
-76.504967 110.058693 -60.985706
14.627767 256.507599 -61.204380
-93.092598 264.427521 -62.280678
-7.676557 278.194611 -61.630436
41.187359 31.032875 -59.569630
47.877327 45.458313 -55.725681
