# This PCD file was generated using the MATLAB® pcwrite function
# from Computer Vision Toolbox®.
# .PCD v.7 - Point Cloud Data file format
VERSION .7
FIELDS x y z
SIZE 4 4 4
TYPE F F F
COUNT 1 1 1
WIDTH 1454
HEIGHT 1
VIEWPOINT 0 0 0 1 0 0 0
POINTS 1454
DATA ascii
63.740288 -59.025909 -79.972740
-53.442699 -58.069794 -78.930588
104.880989 -59.978786 -83.557281
63.065247 -57.530952 -82.743805
85.831673 -57.627178 -88.805946
84.879791 -55.722584 -86.500046
76.360733 -56.920830 -88.602783
74.429001 -57.171299 -93.058456
90.352737 -55.880558 -90.095634
-68.337151 -61.736954 -93.652153
85.787949 -57.388752 -94.390160
67.321167 -56.434658 -97.676399
66.429512 -58.068058 -97.729752
62.912090 -56.686554 -98.123802
81.536774 -57.488926 -98.107574
77.288071 -56.044273 -99.512665
87.405067 -58.396236 -97.973442
94.022591 -56.039234 -99.778481
70.152679 -57.966061 -100.690247
103.513191 -57.334610 -100.465919
58.468948 -58.786476 -101.314880
102.089424 -59.546482 -102.478729
91.765587 -57.296551 -102.710007
-62.985542 -58.070934 -103.514023
-67.401497 -58.210285 -104.370689
86.703133 -55.574791 -105.072372
-61.417088 -57.306507 -105.468941
-63.648724 -54.991051 -105.593666
-76.163399 -58.723038 -108.977043
49.961357 -57.182850 -108.584198
49.358078 -54.932148 -107.744087
97.538048 -56.578758 -107.107079
87.806450 -55.020454 -109.895584
-60.080708 -55.120705 -107.928543
-61.712818 -56.206493 -106.250465
-74.039513 -55.375256 -109.875679
-71.162033 -57.332748 -110.173294
45.949371 -57.998100 -110.672050
-58.979507 -58.160801 -111.092285
-60.494957 -56.317142 -113.107445
-79.871971 -57.405918 -115.011322
40.468651 -56.160744 -115.395477
47.176414 -57.732498 -116.947235
-67.735710 -56.320988 -117.005569
-57.623024 -57.807209 -120.565117
42.329586 -57.443707 -121.010460
-59.053341 -57.119133 -123.791451
38.102654 -56.981022 -118.308884
35.540073 -54.797127 -123.116127
-91.424744 -57.020790 -122.555824
40.429607 -55.553791 -123.762291
-59.221008 -58.847198 -126.015984
32.507004 -59.025635 -126.559990
35.837280 -55.356018 -127.140892
-63.394485 -58.185184 -129.666336
33.791435 -55.666142 -126.874748
35.393509 -55.878189 -129.291016
-61.305656 -58.972801 -131.873352
-59.831356 -54.950478 -129.198639
-2.042395 -57.913593 -238.237030
3.903242 -55.681759 -241.065948
20.151474 -58.421898 -242.415924
6.883644 -57.514839 -241.246445
12.645968 -58.245583 -246.624298
12.329114 -53.709408 -247.618362
6.043027 -55.752007 -247.949219
23.335474 -58.309387 -253.660706
-20.709040 -55.734272 -250.624298
-14.031541 -55.413166 -251.919434
-19.829773 -57.389919 -257.040222
23.728226 -56.376160 -255.265060
-16.740107 -58.072304 -254.896378
12.421385 -55.660416 -252.963531
23.558378 -57.044010 -256.224762
-18.072315 -56.654865 -256.765564
-16.944504 -56.776398 -261.124329
-17.264561 -56.606953 -260.500732
-17.578667 -57.135757 -264.608826
-19.693087 -57.844418 -262.385529
-18.313293 -57.607979 -267.663025
-15.727358 -58.156013 -266.736938
-12.558823 -56.217392 -270.374817
-13.208362 -56.882641 -270.178345
-17.285645 -56.310379 -272.334198
-14.150848 -57.111698 -273.517151
-16.425474 -56.015480 -274.865326
-9.819613 -57.890266 -273.426941
-13.865679 -55.388157 -276.060181
21.902719 -57.355408 -278.818054
-13.511881 -56.204418 -277.596283
9.714204 -56.783585 -277.695648
-12.757163 -55.051720 -280.312164
-11.452595 -57.591141 -283.325134
-11.398497 -56.649891 -281.549164
-9.805439 -57.595825 -278.202942
-10.958898 -56.444523 -280.337097
-9.812134 -57.347374 -281.072754
-9.967738 -55.777317 -281.245911
-5.138265 -56.372921 -283.923767
6.045986 -57.922508 -283.663574
10.994082 -56.716888 -286.769745
13.121147 -59.170166 -291.627716
-3.941374 -57.200024 -287.078979
-3.280417 -55.817608 -285.702911
-1.043725 -58.022770 -291.293793
3.658237 -55.110676 -292.787384
32.248154 -61.129986 -11.985002
26.765068 -55.842754 -13.823228
35.555721 -63.701515 -17.582390
36.752373 -52.730591 -17.216175
46.045090 -56.957779 -17.812887
48.864750 -54.065903 -19.420870
26.422020 -52.386574 -21.613007
26.446436 -52.627525 -23.822979
43.761230 -55.474499 -29.059557
20.004025 -60.973824 -29.766022
20.726116 -61.401287 -31.674994
28.029606 -57.074078 -35.100731
45.829468 -59.821018 -34.930584
42.109894 -57.540356 -40.865620
-77.248848 -59.258007 -43.453590
-46.729755 -57.487282 -45.511688
-80.973190 -55.410946 -46.299351
-38.861202 -58.477844 -46.841591
-93.355705 -56.656265 -54.824337
79.497643 -56.420818 -58.272758
82.534996 -59.047619 -57.963402
89.703087 -53.777092 -58.596882
-16.805019 -54.862541 -61.557613
-12.471354 -54.111771 -60.741432
-27.254795 -54.015739 -63.634361
67.101761 -55.266674 -63.237423
-29.782936 -55.390774 -65.203590
100.148712 -58.384842 -64.229301
-34.224472 -56.610668 -68.443840
-66.191383 -54.337940 -67.943184
-62.228760 -56.596634 -71.007240
-67.255394 -55.982307 -71.192734
64.779358 -55.431671 -72.299652
-99.538055 -53.972996 -79.020645
104.797287 -55.455341 -74.768440
-50.750801 -58.253788 -77.405487
-40.657871 -55.667316 -78.497231
-47.463886 -54.464958 -78.305870
81.552406 -55.987186 -81.027328
79.995773 -55.675262 -84.326752
-100.094925 -56.911018 -88.330566
75.273811 -55.596706 -86.072433
86.633385 -55.140587 -83.402641
77.599205 -55.513660 -84.755478
-60.828384 -56.873142 -86.933556
72.579964 -56.067341 -88.543945
86.543053 -56.080215 -84.451019
-63.646553 -55.298248 -87.615540
91.055984 -53.927315 -88.191628
-65.112701 -56.689713 -89.988159
64.587906 -56.715523 -90.061401
72.308113 -54.859470 -93.505943
64.148911 -55.112465 -92.653854
65.390633 -56.725830 -93.139893
103.746445 -57.537807 -95.373268
66.185356 -54.633911 -91.990318
-100.222832 -56.579762 -90.327698
67.160179 -54.950012 -94.734283
93.123413 -56.254868 -94.871422
95.666382 -53.826462 -95.929146
70.858841 -55.622223 -96.114868
104.129471 -54.589417 -94.359169
-99.958580 -53.691521 -97.078346
61.991150 -55.434780 -98.909485
102.546341 -54.534283 -99.260963
77.801476 -55.112263 -99.362183
87.251282 -54.024845 -99.398544
55.770752 -54.888435 -102.421783
101.203789 -55.530899 -102.077812
94.858421 -56.748180 -101.618263
95.435181 -56.196159 -103.899254
65.598000 -55.376938 -103.407852
60.091080 -56.341663 -106.483086
92.549835 -55.119370 -106.353996
87.365471 -55.264370 -107.434319
94.510117 -55.580002 -107.007797
92.684181 -56.357433 -109.228912
91.457115 -55.078602 -107.084610
55.341297 -56.543507 -110.608162
-74.839172 -54.587482 -109.295853
50.745754 -57.539268 -113.295822
-71.596649 -56.950851 -115.364494
-98.653000 -61.407764 -116.541420
-77.979492 -56.881096 -113.918983
-69.821907 -54.286125 -115.880592
50.321194 -56.280724 -115.293213
42.735107 -55.088024 -113.470901
-81.667892 -55.563248 -117.083916
40.468075 -56.215794 -115.928047
-69.785515 -55.320881 -118.800385
-61.033112 -55.637058 -116.771439
43.211353 -56.110409 -120.690933
-66.079796 -56.809864 -118.487923
-65.068382 -57.081985 -123.122704
-58.663593 -55.223663 -117.308716
-66.389656 -55.977592 -124.508415
-62.215248 -54.518719 -122.164055
39.314083 -54.342804 -119.212410
35.442486 -54.144447 -122.958946
41.654362 -54.957664 -122.424301
-62.324738 -55.491730 -126.156845
-64.549545 -55.063217 -125.172791
-62.625328 -54.992203 -127.937576
-57.619141 -55.161224 -127.182449
0.801377 -56.417477 -237.946823
3.931611 -55.838100 -237.517014
6.493263 -56.820465 -237.268402
6.300251 -55.565445 -240.749939
-0.241338 -57.311211 -240.104111
-10.476314 -54.642979 -239.622711
6.153556 -55.629799 -243.685410
0.147173 -54.378010 -240.117905
-0.051440 -57.573315 -242.045761
19.028465 -56.585072 -241.330658
-16.475424 -54.232727 -241.582062
12.278226 -57.711208 -243.516754
21.908735 -56.664589 -245.864456
-18.565845 -55.551041 -246.223801
9.239496 -54.893810 -246.195908
-18.560665 -56.743332 -249.181686
21.591089 -53.769932 -248.966965
-16.996346 -55.227913 -250.657715
-16.595306 -55.393570 -255.348129
28.045931 -56.406853 -250.419983
9.825867 -58.816517 -254.668259
24.366085 -55.136436 -252.390152
-16.317188 -54.998440 -254.352127
-19.787571 -55.342083 -255.272842
-19.018782 -54.649414 -257.018127
-14.912477 -56.251534 -256.766968
-15.143002 -55.878288 -261.280884
26.369461 -55.366341 -260.913116
-13.816612 -57.692085 -260.610748
26.070253 -54.963699 -263.538483
26.388433 -56.923466 -266.636658
-15.081866 -57.168968 -264.483063
-12.133585 -56.065159 -270.970123
23.264605 -55.191872 -275.063690
22.649221 -55.910393 -276.828552
-11.664805 -56.814144 -275.238037
-11.126830 -56.358444 -273.975372
-10.582385 -56.033314 -283.558533
19.003410 -55.250839 -277.136292
17.586630 -55.121956 -279.619171
-8.791842 -57.148052 -279.320587
22.549868 -55.110718 -278.590179
10.585646 -56.380867 -284.899811
15.281210 -56.023674 -283.881744
-5.004314 -56.000320 -284.787872
-9.855692 -56.379063 -282.484283
-3.987296 -56.707283 -286.772308
-7.529869 -55.908188 -285.941437
15.614914 -55.260742 -289.546875
16.578135 -54.875900 -289.271545
-1.183173 -57.644882 -293.080872
12.915315 -54.989285 -293.171204
7.118693 -55.699001 -293.226715
6.333358 -54.783592 -292.990936
11.312624 -56.305420 -295.290314
29.743345 -55.985413 -13.721691
33.622837 -51.392639 -15.984518
26.488453 -59.201939 -21.771353
47.786854 -56.507332 -20.243526
43.650166 -61.961430 -22.211693
20.499229 -55.467999 -29.554302
25.629635 -56.972488 -30.105293
26.468826 -57.604996 -32.952049
48.074894 -60.665741 -32.643940
41.891644 -55.756748 -32.611313
20.824455 -61.687199 -34.677055
39.736206 -55.519077 -34.782700
38.603676 -54.533264 -35.454414
36.765350 -62.129070 -37.371922
29.750854 -54.812004 -40.942142
-64.486443 -56.529942 -42.997055
-72.197525 -57.644520 -44.246590
-68.432732 -52.920845 -42.640709
-78.715225 -57.295361 -44.253147
-52.134544 -54.689434 -44.995087
-50.366871 -54.025513 -46.333321
-86.949944 -53.963451 -48.239227
-42.627296 -57.370239 -46.959957
-89.111008 -50.382450 -49.416840
-25.635954 -55.641708 -48.746468
-89.651428 -57.220295 -50.947826
75.399666 -55.396008 -56.845280
70.066597 -53.393787 -59.436253
-97.174377 -55.763329 -62.833572
70.432236 -55.189129 -61.333637
95.166801 -56.318447 -61.135170
-65.624886 -54.931782 -64.850937
102.018188 -54.117283 -70.200691
-61.213585 -54.976128 -69.222198
-63.185085 -54.957291 -72.965576
-35.636372 -56.146729 -70.730949
63.020405 -56.570263 -77.056473
81.885529 -52.991058 -78.701149
-38.716503 -57.806034 -79.931519
83.795746 -54.174225 -79.479126
79.671913 -54.599106 -80.539696
87.698479 -55.034187 -81.812782
73.978584 -55.156273 -82.873260
106.531258 -55.167137 -83.632874
62.804028 -55.321930 -81.787498
69.576859 -54.375984 -85.779915
105.001083 -55.545662 -87.274590
64.137894 -56.079395 -87.586876
92.192810 -54.455662 -85.705704
65.165787 -54.476402 -88.177155
68.844131 -53.855011 -86.097351
67.108223 -54.472427 -89.220230
69.193199 -54.670567 -93.203255
92.933861 -54.790447 -90.499809
97.273636 -51.978683 -91.031654
83.096298 -53.764385 -93.052216
90.524483 -55.732407 -93.986565
96.841370 -55.402790 -97.752739
72.398315 -55.303242 -99.611763
98.256828 -54.614769 -99.886330
-99.716049 -55.949768 -101.013405
68.856560 -54.068611 -102.609360
99.036293 -53.385483 -103.057045
65.385452 -55.362133 -104.249168
50.896309 -56.062119 -104.862068
-61.162895 -54.909527 -104.902054
-71.865479 -52.793739 -107.819382
-71.651482 -56.228786 -107.750153
-73.138672 -52.828114 -108.173622
-64.063942 -55.410824 -106.264229
-74.265289 -54.994282 -111.676285
-70.820923 -54.639866 -111.843437
47.440651 -54.312630 -110.015785
-63.531677 -55.333340 -112.277214
46.604809 -54.933811 -117.574493
47.026108 -55.426983 -115.328377
-58.130554 -55.714073 -114.456184
43.693531 -54.330162 -114.771576
-63.431892 -54.032394 -112.861809
43.670269 -54.339111 -117.667389
-65.215759 -53.938648 -119.058586
42.164013 -54.693535 -117.665421
-86.925423 -56.662109 -118.847290
-12.053204 -55.731960 -238.714233
10.783434 -54.236694 -239.126221
-2.889632 -54.248020 -239.304230
19.509272 -54.831055 -239.012497
-8.533558 -56.039547 -240.002136
3.905746 -54.656807 -240.674774
-13.776340 -54.385365 -241.945480
-11.224709 -54.151260 -242.845306
2.934824 -56.024422 -242.455368
13.827991 -54.032528 -242.523621
17.819969 -55.834064 -241.983948
18.719091 -54.735184 -241.556274
-15.825405 -55.787735 -241.784607
22.545639 -55.302025 -242.712097
21.724434 -53.876564 -247.575623
-18.455299 -55.208767 -247.190384
26.027046 -54.604214 -250.152374
-12.987910 -54.648357 -252.107956
-17.399197 -54.590691 -252.262268
25.642658 -54.595097 -252.778763
28.340233 -56.111668 -254.745926
-14.227709 -55.884266 -255.423309
25.554544 -54.569271 -254.231262
26.314184 -55.229740 -258.227203
24.714964 -54.760063 -259.575806
22.352015 -54.176365 -257.080261
9.520578 -57.571770 -259.006561
27.576197 -53.724201 -258.322937
-16.155432 -54.523636 -262.668457
-13.261739 -53.473248 -261.164551
14.743948 -53.872578 -269.424622
-15.152554 -55.268536 -266.716278
25.167761 -54.342846 -267.843750
22.836025 -52.731522 -269.329956
-11.959223 -54.464394 -270.824585
-13.195387 -56.279388 -270.920502
12.159554 -56.542408 -275.635956
-12.449081 -54.334259 -271.783844
25.075062 -54.852741 -269.045288
21.014389 -55.817303 -275.676971
27.268667 -54.135151 -274.237915
23.472553 -54.468494 -280.226532
-8.774175 -54.832470 -277.889435
-9.248899 -54.114498 -277.963776
15.890749 -55.419807 -281.034851
13.894556 -54.587742 -279.517914
-7.738422 -54.904804 -278.887299
13.542089 -54.950218 -284.004272
21.766876 -55.085033 -283.379974
-10.369310 -54.419662 -282.876556
18.606262 -54.539627 -289.287476
-4.510237 -56.253181 -286.270569
19.356363 -54.711315 -285.759125
1.301733 -56.052288 -290.698944
-9.058714 -52.806320 -286.417511
-6.427667 -54.429527 -288.323120
-2.421560 -54.534691 -290.213318
-5.161309 -55.077812 -290.411926
0.895464 -55.504669 -291.642487
11.386049 -55.343365 -292.526031
1.022493 -56.021339 -294.331696
7.559319 -53.820129 -293.987000
24.667828 -56.160164 -15.453116
20.556519 -55.717800 -21.370275
26.855871 -50.590641 -20.246090
43.917240 -57.175037 -24.824688
27.125450 -56.768044 -32.179279
21.429649 -53.211922 -35.168262
31.612917 -57.316257 -37.678238
33.240772 -58.078266 -38.259644
33.702759 -57.074596 -40.114689
-58.124989 -55.480289 -43.892143
-40.186737 -55.902546 -48.566883
-19.463877 -56.296284 -49.738632
-9.835192 -54.105858 -52.382744
-93.581841 -56.731186 -57.358707
88.800705 -54.419720 -58.511971
86.148315 -55.030327 -59.756477
-97.419479 -56.576157 -58.160286
-9.653939 -59.035046 -62.000458
-20.448765 -55.688740 -61.552162
-61.263287 -55.711437 -66.838341
102.061394 -55.206299 -65.881844
-99.219048 -56.215912 -67.548363
-63.342319 -53.228611 -69.078453
-66.383614 -54.926922 -71.645065
64.095657 -53.131252 -69.222961
-64.665489 -54.509850 -71.234337
-99.449028 -51.406109 -69.707405
64.545685 -52.109497 -70.426460
65.499260 -52.822300 -73.590630
-38.161190 -55.031918 -78.436272
64.329269 -53.287502 -75.674240
86.187469 -52.757000 -77.666840
87.005188 -53.269814 -75.716660
-42.780491 -53.230797 -79.129631
74.981842 -53.470200 -78.185005
74.643822 -53.756027 -79.282417
88.752472 -52.773228 -77.360237
90.159233 -53.909950 -80.337646
105.516701 -55.749390 -79.402931
63.336887 -53.667492 -79.550339
66.477936 -54.084045 -83.387367
92.227600 -54.894081 -82.996223
-55.466278 -56.476425 -82.974861
65.499664 -53.154095 -84.716537
-55.966244 -55.219543 -85.017059
104.132179 -53.932346 -90.068550
105.132530 -55.710541 -92.784309
82.816772 -52.829926 -94.903137
76.157555 -53.749954 -94.370232
94.022110 -53.933258 -95.002792
97.029228 -51.571404 -94.370636
-70.527313 -57.340721 -96.502502
96.576241 -55.766312 -97.814941
66.329407 -53.037251 -97.086647
96.043495 -53.665752 -97.937546
80.737160 -53.914242 -98.509041
88.270889 -55.025326 -98.661026
99.624840 -53.798740 -101.877655
60.662239 -54.479465 -98.537552
-98.549110 -56.407169 -103.663574
55.599232 -53.154160 -103.352318
54.064034 -51.610809 -106.718742
61.983105 -52.701962 -103.864494
57.644035 -54.265118 -106.000587
-69.594147 -53.424774 -108.607704
56.939781 -52.879299 -106.535606
-65.847191 -53.508854 -105.968208
53.431252 -52.420586 -108.215813
-69.708862 -53.841076 -111.998245
-61.038300 -54.968937 -110.204659
53.894939 -54.549110 -109.112206
50.826157 -53.448326 -108.347267
46.713909 -53.816887 -113.137230
-77.506332 -56.158455 -110.992897
-67.073685 -52.634876 -110.104309
-65.781059 -52.815685 -114.092438
-72.093109 -54.601357 -115.333984
-85.251076 -54.104206 -118.699219
-95.996735 -56.520050 -120.962456
-69.499817 -53.710476 -118.821381
-58.673878 -55.845490 -124.954636
-93.422997 -55.062000 -122.428513
-60.031120 -53.642559 -121.196640
-65.680832 -54.481815 -120.595573
-6.741062 -53.063038 -237.203644
-14.079422 -54.146561 -239.166153
-0.417021 -54.511471 -238.728897
9.420270 -55.380131 -237.094788
-8.543877 -53.890160 -238.453812
-5.656127 -52.403637 -238.535355
5.172569 -53.720615 -239.734207
18.099373 -55.603092 -239.093628
-3.220774 -54.793209 -239.571365
3.843357 -53.838955 -240.441559
8.111507 -55.187824 -239.991669
15.728712 -54.463631 -238.005859
-13.789259 -53.256176 -239.563309
-9.307575 -53.982315 -241.327911
10.260955 -53.113487 -241.382965
-17.288782 -53.357628 -241.948471
-4.122064 -54.931496 -242.688782
-15.056889 -54.827442 -241.830460
-12.929529 -53.082718 -243.718521
22.159801 -52.453064 -243.661499
22.738583 -53.914101 -241.379166
-16.574739 -53.501556 -241.851303
-12.037762 -55.002098 -248.176102
8.360106 -55.407795 -247.048782
9.532439 -54.334671 -248.885513
-16.227791 -53.954193 -248.555344
23.757189 -54.660698 -252.212906
29.503132 -53.396847 -251.488358
27.345491 -53.956993 -251.596695
-14.387731 -54.491184 -254.049744
-13.367506 -53.474442 -258.059418
23.929760 -53.784267 -256.442749
14.909993 -52.123783 -258.716461
24.263479 -52.930576 -260.101471
29.419508 -52.612843 -263.972046
-14.094716 -54.442116 -266.233276
28.088968 -55.282310 -266.583862
-10.967516 -53.712280 -266.616394
-14.618957 -54.674244 -267.641724
27.614601 -52.011429 -264.265015
27.666845 -54.712105 -267.253784
26.927092 -53.048725 -271.381165
-7.998966 -53.593048 -272.694489
24.105860 -56.395821 -271.312134
24.108650 -53.936947 -269.392426
21.508772 -53.065140 -273.718903
22.242245 -54.346127 -277.326691
-9.363462 -54.075718 -278.904846
-6.113931 -53.788376 -279.197205
-5.525768 -52.086502 -279.287415
17.663319 -52.773991 -280.042175
24.237158 -52.897900 -281.671082
-4.184105 -53.052837 -283.775421
-5.652911 -53.059620 -278.974640
-3.493509 -52.693420 -283.252319
20.035622 -54.926289 -280.865692
-5.489208 -53.920174 -282.044800
21.019239 -53.350674 -285.368774
-2.066444 -52.870354 -288.589661
2.583396 -53.282444 -285.143799
-2.787915 -53.916740 -287.010315
17.804152 -53.766342 -287.491302
-5.652632 -54.322746 -289.659790
0.564254 -54.305843 -290.598541
3.878325 -52.425312 -291.208069
11.428861 -56.540413 -291.923553
-1.608800 -52.937069 -293.562042
3.763395 -54.674297 -293.410828
6.117302 -53.928936 -293.936829
5.259916 -55.822941 -296.622498
13.178221 -53.407459 -294.118835
33.497265 -51.571545 -12.307985
29.025988 -52.369064 -13.185398
25.865112 -53.337082 -15.062272
30.735167 -52.054901 -18.932272
39.714420 -53.714638 -19.418541
21.243408 -51.952572 -19.150814
21.646917 -52.851471 -20.200638
21.200417 -51.275047 -22.550898
18.782221 -54.449291 -24.485786
43.978176 -56.894356 -25.951469
25.573215 -52.170589 -27.796902
19.306999 -52.311871 -28.287992
25.418919 -53.095810 -32.437523
27.915905 -52.565521 -34.058922
46.619846 -54.114628 -35.724865
31.472952 -52.772957 -36.659710
24.411598 -51.675800 -37.089180
24.115196 -52.671963 -39.035477
33.960972 -52.685436 -37.238091
26.894560 -51.906296 -39.930649
35.795963 -52.568954 -37.817905
39.467724 -51.532959 -41.311069
33.132786 -52.025963 -41.323315
-76.437920 -54.401554 -44.354465
-73.749748 -52.622402 -42.989105
-36.230885 -55.358997 -47.093201
-10.440260 -54.057503 -53.089550
-93.372383 -53.101696 -52.915218
-7.186311 -56.681602 -56.776524
76.360077 -54.283112 -58.212696
83.586617 -53.672482 -57.536373
-62.653778 -52.529388 -61.237240
69.528374 -53.522228 -59.727867
-62.007095 -54.044430 -63.413090
-99.311302 -56.325935 -65.353897
-31.186104 -53.740307 -64.645744
-61.212376 -53.444984 -66.103897
-35.445438 -52.329399 -66.378189
103.258942 -55.577362 -71.468590
76.595734 -51.397816 -71.608353
-40.248310 -52.213566 -76.699051
78.563728 -52.856918 -73.572723
80.927437 -52.995785 -76.945824
73.926537 -52.295021 -76.087158
73.141350 -50.724144 -75.151291
105.981712 -51.575985 -74.554031
65.708641 -52.908413 -76.089821
66.500694 -53.428638 -80.532013
90.448547 -52.673035 -77.232010
-45.462429 -53.635197 -78.859985
66.121681 -54.291157 -79.914368
66.917831 -52.294762 -78.721710
104.693054 -52.671822 -79.529442
-48.470314 -54.168289 -80.552910
96.715721 -51.970337 -84.260811
-57.922432 -52.986015 -85.597305
-66.678139 -55.205078 -92.015930
-68.525948 -53.607483 -94.174126
-68.337128 -53.798889 -94.792221
72.378967 -54.691204 -95.953323
87.664551 -53.881603 -96.250298
89.398010 -52.697868 -94.766617
75.474121 -52.126556 -96.729515
80.838615 -52.385265 -95.247543
102.595367 -52.770992 -98.195938
-70.089905 -50.090088 -97.603134
68.929436 -52.286194 -97.060516
78.460495 -53.110195 -96.812340
90.679840 -51.737820 -97.800377
75.261429 -53.026165 -98.100426
86.407990 -51.860378 -97.628410
77.553581 -52.931938 -100.579216
76.470673 -51.619576 -98.893112
65.537582 -52.379360 -101.530281
69.363846 -52.791950 -100.347427
61.944279 -50.214897 -101.179726
-75.259781 -54.931236 -103.854179
58.662373 -51.757160 -104.825165
-74.738106 -54.348648 -106.402908
-67.518005 -51.600933 -108.098335
-63.026085 -53.471039 -105.804970
-78.420242 -52.101128 -111.738365
-98.174240 -51.270496 -111.458824
-61.919018 -52.154423 -109.442108
-71.979713 -53.191944 -113.361794
-60.835567 -52.397991 -116.593445
-80.125633 -54.833973 -115.087685
-65.460220 -53.268562 -114.890503
-61.894817 -52.873787 -116.431557
-67.572998 -51.757813 -116.307396
-62.846863 -52.798794 -120.291481
-89.091934 -55.619289 -122.212379
-91.938637 -53.149406 -120.940979
-4.062976 -54.536690 -236.272491
-1.521969 -52.539028 -237.673187
0.494961 -51.458836 -237.285370
13.506145 -52.887547 -238.463455
-8.847920 -52.784843 -238.343765
-8.246460 -51.635040 -239.852081
-11.049380 -53.584789 -237.278198
2.830890 -54.685471 -238.826797
7.356879 -52.379467 -238.989258
0.373556 -53.620129 -239.159576
6.936121 -51.732666 -240.035675
-8.033358 -53.193958 -240.746658
-3.375410 -52.818375 -240.275833
16.537678 -52.705132 -239.081177
-4.853800 -54.177105 -240.845840
1.568835 -51.717613 -241.237274
-15.970205 -53.535023 -240.768524
14.133148 -53.152664 -241.326157
-11.451964 -51.577511 -242.188644
0.742549 -55.231987 -240.757462
16.721861 -52.888382 -242.025085
17.487495 -52.130016 -242.686462
14.901250 -53.235439 -244.838409
24.562155 -53.503899 -245.588867
27.468298 -52.735226 -248.049835
27.711035 -52.785770 -248.201447
14.507262 -51.602116 -250.763184
28.835739 -53.611004 -250.616669
-12.292194 -52.500927 -252.594864
-14.191225 -53.188923 -250.335159
-13.781300 -52.335064 -254.921341
-11.366888 -51.870472 -253.915359
25.749260 -52.938705 -254.732559
30.889360 -51.727261 -254.973892
26.708900 -53.688946 -256.375153
-12.067750 -54.323708 -256.480713
-13.554495 -51.567451 -256.905121
-13.711483 -53.375271 -256.957672
-12.689903 -53.601391 -256.812500
-13.440969 -52.978207 -261.039398
26.648092 -53.294056 -259.664093
28.106871 -53.111938 -257.419891
-14.491285 -54.096668 -260.592010
27.817127 -53.844906 -263.011475
27.685358 -53.499420 -258.195557
-11.905574 -51.993324 -257.209808
-14.202119 -52.953583 -260.807434
28.214905 -54.229996 -264.210724
28.177061 -53.206936 -264.864349
24.285728 -52.133602 -268.721649
27.071468 -52.196800 -266.596954
-8.172551 -51.810616 -270.790710
23.889866 -53.267033 -270.330658
24.277063 -50.492989 -271.184235
23.568024 -51.493240 -271.366821
26.413328 -53.130924 -269.937805
25.620476 -54.337456 -270.288879
-3.651389 -53.224846 -276.944000
-9.577522 -53.385532 -273.948944
15.032029 -52.729332 -276.547455
18.726891 -52.231339 -277.207306
22.999849 -52.144657 -274.565643
16.839285 -51.415676 -277.881561
21.338699 -53.847721 -278.337067
22.180529 -51.489716 -277.121826
21.456251 -52.354500 -279.190033
23.417454 -51.464218 -276.437134
21.212927 -51.456944 -279.778900
14.276687 -52.075531 -280.451355
22.686211 -53.255383 -280.697723
25.408482 -53.784454 -273.281036
-6.085914 -52.491848 -278.488892
-7.056342 -53.588734 -280.579773
-6.315106 -53.313519 -280.721588
24.122522 -53.789486 -278.938690
0.102939 -51.130939 -280.374664
18.632271 -53.069416 -287.067047
22.400333 -52.175716 -282.023987
15.133591 -53.612232 -288.011078
19.196596 -52.710754 -282.600891
10.244315 -50.269711 -286.319519
-4.348827 -51.708153 -285.444214
0.241510 -52.113342 -283.596436
15.109274 -54.112827 -290.218079
18.098011 -52.155510 -289.585541
4.326962 -52.679218 -289.321716
12.780551 -53.072090 -289.279724
1.520544 -54.954037 -292.739899
9.179656 -53.241337 -290.632721
1.760122 -52.041218 -291.858887
-2.243504 -53.888229 -289.139282
8.083408 -53.241634 -292.101563
0.599299 -52.748398 -292.172791
11.184307 -53.802151 -293.808289
15.047812 -53.183182 -293.000488
1.186404 -53.233776 -294.688171
39.700359 -52.510365 -11.332229
35.421368 -50.935780 -13.021637
41.428570 -52.390667 -15.606740
29.347925 -50.297073 -13.112617
44.497028 -53.611801 -15.319098
24.767218 -52.452671 -15.868005
46.744743 -52.017494 -17.396587
21.609222 -52.573322 -18.476875
28.458042 -51.808723 -18.520121
45.549133 -52.190804 -18.221962
25.323088 -51.557701 -21.161469
41.359200 -52.130962 -20.135971
48.344803 -52.204899 -22.817284
43.976357 -52.223614 -22.867496
20.812218 -51.619587 -22.704723
43.457367 -51.452366 -24.986832
49.015648 -51.057774 -26.061018
43.514626 -50.467476 -26.739223
19.864035 -52.929401 -25.147449
20.344553 -51.685238 -31.224821
24.847723 -50.811577 -27.007168
23.374996 -51.941078 -27.125753
42.969372 -52.227455 -29.938082
48.409592 -52.746944 -30.824781
24.640564 -51.558128 -29.942648
49.272282 -52.178513 -32.067005
20.681334 -50.042290 -29.360319
25.320463 -49.629574 -37.420181
24.376692 -50.424107 -32.757530
41.333687 -51.782116 -33.657364
19.822710 -51.319973 -32.996510
28.758915 -51.525780 -34.761078
29.486607 -50.692780 -36.366169
38.473602 -51.873451 -34.086742
35.505043 -52.476337 -37.154964
46.524879 -52.394306 -35.561062
24.845310 -51.812489 -37.240929
26.521816 -53.538795 -38.590477
34.394978 -52.624516 -39.161087
30.136038 -52.289860 -41.036137
30.018600 -52.757648 -41.886024
34.781311 -52.268696 -40.924755
36.080757 -53.245995 -40.997532
-66.652344 -50.861279 -43.794754
-89.359253 -52.989120 -49.043331
-41.454460 -51.567101 -50.229023
-29.100973 -55.541943 -49.475883
-21.131845 -53.558975 -52.324257
-16.573126 -50.269768 -51.922306
-15.190987 -56.092579 -49.680962
-93.979324 -50.827747 -55.434082
80.524918 -55.529446 -57.867466
78.116035 -53.406071 -57.627598
-62.383087 -51.973789 -57.678604
-8.203306 -55.692959 -59.670731
79.086784 -47.931404 -58.812443
86.972214 -52.444450 -57.673042
93.558998 -51.113876 -59.754887
-7.899575 -55.273708 -59.835667
-63.708721 -51.493042 -56.978321
92.979782 -53.626904 -59.747635
70.365471 -50.392544 -59.524883
96.814140 -52.630531 -61.792664
-98.461006 -53.535549 -62.433983
-59.683147 -52.467594 -58.167442
98.205467 -52.474449 -64.380951
-65.904091 -52.132778 -67.783066
65.174622 -54.171703 -67.168755
103.196686 -53.541584 -68.016953
66.063522 -51.172245 -71.838799
-38.278160 -51.651627 -70.653641
71.551201 -53.178780 -71.064392
80.250648 -52.323902 -71.241821
85.203262 -52.319466 -74.880661
71.586227 -51.620087 -72.728119
67.041176 -49.976055 -75.938759
88.501152 -50.922165 -73.777214
98.516342 -50.590023 -77.196358
96.368500 -51.043591 -80.111488
99.370697 -51.050259 -81.574738
93.120239 -50.940609 -79.113800
-101.770576 -54.022774 -81.813995
62.318943 -51.785664 -77.783348
-50.551273 -53.491714 -82.579231
100.885033 -50.161285 -81.617416
104.466454 -53.982430 -85.200821
95.835121 -53.712727 -87.538918
62.956512 -51.057533 -93.255226
102.543495 -52.112694 -89.319801
103.494087 -52.261066 -93.159630
103.000824 -51.427158 -94.723824
99.883186 -54.531918 -98.875206
102.142090 -52.413826 -98.468910
-63.123829 -52.482006 -106.341080
-63.873009 -50.697342 -107.023804
-98.110954 -56.259140 -104.424057
-72.274124 -53.027409 -111.211006
-97.933861 -52.172039 -113.684875
-63.638916 -51.608711 -113.087219
-96.485542 -55.776604 -119.398735
-96.321999 -51.484047 -117.139519
-91.502029 -51.522541 -120.660591
-89.959229 -53.446301 -121.929665
2.439260 -52.664948 -235.683746
-1.128844 -51.027321 -235.921738
-3.050056 -51.182747 -236.909775
0.059734 -51.753410 -236.937286
4.683012 -51.325245 -236.328964
10.096404 -51.833260 -236.480774
11.319868 -53.817493 -237.501129
5.107152 -51.494480 -238.091034
13.477960 -53.785175 -239.162903
20.862495 -53.300941 -239.343796
4.768432 -50.662285 -238.331467
4.577394 -53.736568 -240.523224
13.207666 -52.136581 -239.565216
20.235067 -52.537201 -240.896744
-5.147278 -53.286465 -241.113861
8.970945 -52.816982 -241.879425
20.424000 -52.859295 -241.085342
4.744628 -51.655590 -241.423325
-11.189746 -52.666683 -243.390747
-6.137104 -53.598679 -242.900970
7.667539 -54.252510 -242.390701
16.530924 -51.212105 -243.466232
18.834171 -51.034184 -244.914703
22.332331 -52.602512 -246.918747
24.339861 -51.663067 -245.374771
21.135265 -49.650738 -245.737076
-12.389232 -50.235344 -246.380890
27.565432 -50.942928 -245.888580
-11.614023 -52.835018 -244.913452
-13.885440 -51.926849 -248.063782
24.266708 -52.486225 -245.881699
13.976769 -53.246494 -248.300095
21.793325 -53.323277 -246.307465
-12.349131 -51.093697 -249.859344
29.709339 -52.542179 -248.879822
-12.997734 -53.095779 -248.499756
-12.995441 -53.265991 -250.129028
-12.790668 -52.148342 -250.894913
-11.692696 -50.485687 -250.120941
-12.948448 -51.046822 -251.031738
26.395739 -53.217129 -250.514526
-12.592917 -52.976078 -252.449677
31.328228 -53.551201 -251.136047
-14.457235 -52.734097 -252.393478
-13.085153 -50.253788 -253.084259
-12.938286 -51.707645 -251.608139
-12.755898 -51.462067 -253.616562
-13.402846 -50.330769 -252.689133
-11.642290 -51.987411 -253.637894
25.159393 -49.980019 -253.894714
29.551048 -50.519630 -255.880737
16.724764 -52.257908 -252.237961
-15.320245 -51.617794 -253.608444
18.145554 -52.126495 -255.176819
16.390591 -51.305603 -258.535248
-12.844337 -52.157192 -257.282257
17.716043 -50.770618 -264.615753
17.617033 -51.446529 -255.745438
27.050659 -51.806038 -258.489014
8.048473 -52.664982 -260.537537
-12.135365 -52.388451 -261.984467
26.058939 -51.719147 -263.469971
29.019255 -52.203197 -261.782867
17.402634 -51.854080 -262.193939
28.350620 -51.614853 -264.971832
-12.271341 -52.013668 -263.594849
-6.966320 -50.478653 -261.047119
10.575048 -52.755859 -262.664032
-10.900122 -52.022495 -261.620728
4.193914 -50.987686 -263.380585
28.080875 -52.662766 -268.778778
-2.587349 -52.591415 -269.267487
27.813614 -52.410908 -268.400146
-10.129840 -51.710800 -270.598145
-5.789618 -49.263287 -268.360809
-1.428300 -51.216671 -265.950287
27.849625 -51.674030 -269.908020
8.598853 -51.077728 -269.572845
1.994906 -51.461632 -274.133392
5.488431 -51.870167 -271.494812
15.180023 -51.259548 -270.882843
28.024883 -51.880276 -271.934113
26.574755 -50.066189 -273.069733
27.201540 -52.144608 -276.096924
15.468746 -50.546680 -277.670563
17.853922 -51.795273 -270.925323
19.687305 -53.535549 -275.929138
24.079128 -52.951923 -271.992157
8.750873 -51.287186 -277.966675
-5.624106 -50.698730 -272.559296
-5.618929 -52.130554 -273.359894
3.541123 -52.572292 -280.288727
25.449360 -50.972652 -279.797577
11.664727 -52.554138 -282.582367
18.496538 -51.816654 -282.016052
14.344263 -51.930843 -281.540070
22.707645 -52.293636 -280.850098
16.063822 -51.317390 -285.944641
25.193178 -51.255535 -283.927429
19.448084 -51.487186 -286.061066
-0.500436 -52.301556 -284.057495
5.932572 -51.064266 -287.162872
21.125053 -51.804184 -285.424957
12.471004 -52.017735 -289.272675
3.425523 -52.908646 -289.651093
18.253550 -53.534954 -290.442505
14.703300 -51.721695 -289.038300
12.134687 -53.721401 -291.690399
5.351593 -52.540314 -291.781464
8.841452 -50.768673 -291.492035
13.759718 -53.924053 -291.722321
9.074848 -51.798290 -294.261292
3.022285 -50.208721 -294.303894
5.422082 -51.979572 -296.645111
40.736797 -50.188374 -14.475009
38.181755 -51.564445 -15.069901
28.261000 -50.568825 -15.609931
39.483570 -51.842525 -16.396988
34.374992 -49.108543 -17.018675
39.056969 -50.350574 -18.860733
29.823174 -50.649136 -16.991066
32.058376 -51.274475 -16.729588
23.732561 -50.287079 -19.489799
27.299753 -51.324787 -19.091810
43.542000 -51.096405 -20.361721
45.094837 -49.742237 -17.246666
24.826223 -51.962547 -21.185776
47.493065 -51.774849 -22.296597
43.139671 -50.448307 -21.924286
49.486725 -50.208172 -22.932354
50.420010 -52.435898 -29.668911
44.283348 -52.337269 -29.147173
45.260292 -49.800323 -27.435854
47.368824 -49.741653 -32.601967
48.703613 -49.971340 -33.391964
43.231682 -50.751453 -32.993759
40.020840 -50.728226 -34.762131
30.876001 -51.160873 -38.309483
32.357365 -53.191189 -36.284164
36.875931 -50.039299 -39.001480
27.762497 -51.654610 -38.873653
44.342861 -50.637070 -37.161636
43.640652 -49.915501 -36.941303
43.734783 -51.891472 -38.464787
31.463068 -50.704430 -39.829834
41.599304 -50.260468 -38.895966
36.328415 -50.836601 -40.768494
-79.203812 -52.319267 -45.385891
-90.449120 -50.982204 -49.877171
-36.527504 -51.791664 -51.397209
-8.159980 -54.989742 -56.282909
-96.115410 -52.031929 -56.456375
-7.838691 -48.469704 -54.992874
-65.274086 -51.247635 -61.572910
-98.220428 -52.429302 -60.575073
96.100830 -51.727982 -61.513809
-26.803078 -55.202789 -62.324028
-60.947193 -53.294464 -64.181664
66.376488 -52.530979 -62.042149
98.282318 -50.653721 -62.723507
99.681183 -52.790932 -64.765411
-62.662369 -52.068119 -67.395081
-100.484306 -53.616131 -67.340263
67.633446 -50.250179 -69.068626
84.567627 -50.348915 -70.674812
67.599281 -50.426762 -69.090591
75.399902 -50.687992 -69.476707
102.784218 -51.923378 -71.012207
81.134041 -52.767551 -71.016319
90.440163 -50.858723 -70.507591
62.399605 -51.912491 -75.181526
65.581841 -49.778637 -69.792473
103.655266 -50.472836 -74.084618
98.896477 -50.838860 -76.426750
103.854973 -50.728317 -78.255699
88.429649 -50.604481 -73.538200
-40.017807 -52.616398 -78.676300
100.140266 -50.263638 -77.623367
63.115540 -51.380726 -76.419365
103.192436 -51.734482 -85.598534
61.949509 -50.776146 -82.951912
98.538361 -50.594646 -84.553551
100.101601 -50.223946 -88.195709
102.298347 -52.038734 -87.307442
99.010040 -51.488503 -91.963120
62.895199 -52.458317 -90.638145
64.155258 -51.239731 -86.503746
101.748154 -51.270378 -93.554932
63.550529 -50.819054 -96.838699
-70.996330 -56.009632 -98.797997
65.986870 -51.214226 -98.524864
65.472496 -51.618176 -102.268387
66.160599 -50.604465 -101.877495
-98.343094 -52.123386 -106.824226
-75.145241 -52.116611 -108.053780
69.104805 -50.015743 -107.737480
68.770195 -51.259228 -104.864555
75.616020 -49.901478 -107.240570
-69.247200 -51.039913 -110.720245
-66.882576 -50.488434 -108.534538
-78.329895 -54.950401 -113.406952
-94.286819 -55.079350 -121.067764
9.988876 -50.659264 -236.013199
5.086519 -51.414799 -237.290588
13.419375 -49.690979 -236.101181
9.184239 -50.323776 -236.634003
7.882180 -51.833767 -237.771957
3.913876 -50.189156 -237.038574
14.897233 -50.254906 -241.724579
13.526219 -50.576275 -240.810928
-9.574233 -52.417419 -241.419022
9.036229 -49.607437 -242.700592
15.843309 -50.892273 -241.219177
23.921257 -50.537792 -241.023941
-0.339490 -52.083733 -240.919098
0.194196 -50.069736 -241.344666
16.471878 -50.930897 -242.629288
15.893517 -52.465794 -241.993713
4.103781 -49.820141 -244.218079
-12.215603 -51.171139 -244.133331
-3.976479 -51.690277 -242.784424
-0.685937 -51.218861 -242.493713
1.276324 -49.786819 -243.168579
4.448854 -52.386497 -244.395020
19.647760 -51.461395 -245.023392
16.748867 -49.848103 -244.693802
17.510900 -51.346752 -244.923203
17.250998 -52.147720 -245.641785
17.188227 -50.510872 -243.008102
9.630681 -51.438457 -243.016235
15.132886 -50.452950 -246.169037
7.788286 -50.714806 -243.854156
23.528788 -50.924198 -243.199921
-14.537865 -51.112228 -244.853638
4.557730 -50.940125 -243.992050
15.308824 -52.032242 -243.217056
29.593685 -50.631241 -248.821518
-11.985953 -50.896473 -247.276230
-10.064933 -50.347023 -246.199509
25.068487 -51.087555 -244.902908
-12.345157 -50.320950 -246.521774
-12.103971 -50.478275 -246.135452
-13.858765 -50.876778 -247.852356
27.532513 -49.725269 -245.413956
21.661661 -51.518925 -248.554230
27.440912 -51.055359 -247.734970
-11.337091 -51.029716 -249.666260
-11.036288 -50.381405 -250.084106
-11.378104 -50.412552 -252.370148
-11.805814 -50.242317 -250.254242
0.987072 -50.428009 -247.287109
5.791202 -50.778736 -248.967529
-12.751649 -52.114834 -250.187378
-9.708034 -50.578083 -249.413651
14.684872 -50.962429 -249.589401
-13.053389 -50.029930 -253.174408
7.861423 -50.304413 -251.706375
2.396505 -49.891960 -251.027542
16.828033 -49.848087 -253.468750
28.582018 -51.146042 -252.016602
-12.668826 -49.996155 -254.569336
-9.601563 -48.805225 -257.859009
31.349262 -50.857922 -251.339828
-7.733227 -50.299438 -254.357208
6.510855 -50.074551 -255.282120
27.970760 -51.951637 -253.723526
-3.935367 -49.673126 -255.754654
25.938993 -52.057011 -257.127167
27.561003 -50.445568 -258.335785
-12.044500 -53.463398 -257.420380
25.360123 -51.184624 -260.091156
-9.160283 -49.949661 -259.567841
-4.111696 -50.451134 -257.936005
2.962808 -50.846088 -256.574432
1.179151 -51.544300 -260.302338
30.489546 -51.277657 -257.664917
-0.733005 -50.740643 -261.777527
29.609268 -49.328644 -263.586182
23.839483 -49.695995 -263.685303
-5.525133 -50.376316 -264.646057
21.901266 -49.849350 -266.202026
-3.947046 -49.401539 -272.660431
6.015169 -50.849239 -272.374084
18.493755 -49.801174 -272.483398
23.621628 -50.329342 -272.068176
2.033750 -51.207977 -274.711090
0.363314 -51.789104 -278.496857
10.874648 -50.818924 -275.217987
26.485949 -51.791271 -277.284515
-2.168860 -52.777145 -278.390137
17.854631 -52.197754 -275.283417
21.656618 -50.136703 -276.694763
26.109825 -52.257774 -279.799683
5.251616 -50.203335 -280.521515
14.147479 -50.028061 -280.038910
23.067453 -49.814312 -283.114624
17.695591 -50.872238 -281.908569
21.680370 -50.497646 -286.306244
11.903246 -50.129932 -284.106140
7.775964 -50.856449 -285.780609
21.611124 -51.689636 -285.613708
20.018724 -49.657066 -290.546234
16.235554 -50.636627 -290.046295
16.190449 -49.828335 -293.365356
15.457102 -51.537601 -293.098816
12.221674 -51.669636 -293.843323
12.751831 -52.191097 -294.539520
7.046289 -52.053806 -294.783447
11.479749 -50.621677 -294.977203
7.762588 -51.777721 -296.595764
-77.149696 -48.321609 -44.061924
-81.345894 -52.407337 -45.270290
-48.228573 -51.398464 -47.115444
-90.378258 -45.845692 -51.496330
-33.899414 -50.268784 -52.057659
-27.331156 -50.595364 -50.286026
73.415062 -52.346043 -56.825695
79.484062 -49.074142 -57.937538
-59.553856 -51.040264 -57.215607
-8.534138 -50.977215 -58.293091
83.423103 -53.051426 -60.105606
-17.517069 -53.542812 -59.801136
85.881958 -50.607086 -58.195057
-22.110029 -49.014545 -61.596550
-60.686024 -49.586136 -60.989952
-23.358047 -52.839516 -60.103176
-65.890251 -51.881153 -64.849754
-61.258644 -51.986328 -66.101402
65.010414 -51.233059 -65.982788
82.835243 -48.698666 -67.439003
100.929962 -50.328667 -66.959389
75.574753 -49.750870 -67.509758
-37.571266 -50.105461 -66.616913
78.311737 -48.102207 -68.027290
88.936569 -48.663754 -70.722282
64.367889 -48.776245 -72.716789
101.130737 -50.131775 -73.786034
95.928627 -50.008804 -74.065468
101.673904 -51.533360 -76.512535
-41.075844 -51.273056 -80.851212
-43.167347 -52.594719 -80.244270
64.633217 -48.898148 -78.804718
61.940552 -50.739456 -87.883110
60.822056 -49.933868 -84.766075
-101.312454 -50.517937 -85.701576
63.799515 -50.072853 -88.599014
61.820435 -48.785435 -90.088577
61.161972 -50.331623 -92.864967
66.168121 -50.690838 -94.012169
-72.313065 -51.480881 -100.444038
-97.970772 -53.580605 -109.273254
80.645401 -49.699486 -108.748230
72.458618 -50.681282 -109.591972
-98.224609 -50.941101 -108.897636
74.439026 -50.812531 -111.328499
-96.034874 -52.647507 -115.898582
-84.264984 -50.142174 -116.597641
-89.715019 -48.471424 -119.549278
13.373332 -49.201862 -237.738892
17.057749 -49.409962 -236.662292
18.088255 -49.332165 -237.603821
22.330292 -50.265785 -240.187607
17.037813 -48.861641 -237.282303
20.158833 -49.148746 -240.042709
-0.153751 -50.508907 -240.877792
9.800849 -51.566719 -240.156616
21.875055 -49.555950 -240.542297
-5.447406 -50.210648 -243.723862
17.121490 -50.802189 -241.141876
18.028933 -50.646530 -243.429672
22.100588 -50.106270 -243.601807
7.661604 -49.437412 -242.745010
-10.489127 -50.895092 -243.439835
-9.457157 -49.689220 -242.471603
-0.133125 -49.228386 -244.494690
-8.972034 -49.653034 -247.963699
3.573936 -50.268337 -244.812119
-7.827784 -49.106403 -243.880478
14.370872 -49.900127 -246.460632
18.487455 -51.045349 -247.795654
-11.526266 -50.341335 -245.641693
-11.932211 -49.073437 -245.386948
-5.871091 -50.523571 -246.034607
-4.112921 -49.970295 -251.573349
14.694703 -49.962719 -249.062012
8.036658 -48.634644 -246.285858
18.018009 -48.439777 -249.267731
-11.189237 -49.640739 -249.470642
-11.777568 -49.987373 -249.768661
19.433891 -50.326752 -252.074371
2.812797 -49.004852 -248.398148
17.411716 -49.338844 -250.828552
-11.159658 -49.525993 -251.540756
2.661564 -50.247341 -254.140396
-9.873056 -48.012501 -255.720139
14.256661 -49.621593 -254.831314
14.183386 -50.371651 -259.946320
24.173704 -49.486656 -251.632614
9.275409 -49.517101 -253.728989
21.185026 -49.650097 -253.562912
2.550601 -48.987911 -257.450226
-2.195235 -49.891830 -255.928619
18.160057 -50.143093 -261.771942
1.122234 -50.319042 -262.367798
9.984365 -49.748871 -260.583832
20.985216 -49.704960 -261.510834
-4.571768 -49.176437 -261.670105
-1.971520 -51.257339 -265.606476
9.899480 -48.962780 -265.359955
6.392019 -49.831249 -267.160065
15.491879 -49.807308 -265.974976
-1.702739 -50.678940 -271.413635
15.133751 -50.480148 -270.208435
14.063791 -50.844978 -270.541840
3.663111 -49.550186 -271.633545
9.969423 -50.065811 -273.768799
-58.882568 -50.789139 -45.246902
-54.921185 -50.300938 -45.354923
-44.417568 -53.904274 -45.882584
-20.836960 -49.418442 -52.790043
-12.988480 -49.616653 -51.581539
76.605171 -49.340378 -56.157833
80.392151 -48.585884 -56.584515
-65.883545 -50.004044 -59.497658
75.938576 -50.056866 -58.228451
-10.912138 -49.904816 -57.606903
-10.932405 -51.039749 -60.294327
81.687645 -49.116730 -57.928963
95.229919 -52.071388 -61.054409
-63.581432 -48.095802 -58.638489
72.270729 -48.305408 -62.562702
69.258110 -49.295959 -66.620972
70.362991 -48.934052 -64.572144
83.279816 -48.969242 -67.774170
101.360367 -48.675133 -71.074493
69.657692 -50.279671 -66.739578
67.598991 -49.876583 -70.144852
89.318878 -48.607948 -68.173584
94.410439 -48.625828 -71.516571
99.576546 -49.001816 -72.350708
65.375359 -49.658768 -74.634682
-99.778809 -47.268162 -75.210838
61.449757 -49.806591 -77.070053
-43.054523 -48.381451 -79.607376
64.537926 -48.111496 -84.783089
61.647907 -48.157608 -78.348534
-55.951054 -50.210533 -85.780434
-57.006618 -53.176830 -85.626389
62.278748 -49.883293 -85.393799
63.113770 -48.863766 -80.193115
64.223022 -49.382526 -90.210800
65.679153 -48.861969 -89.991631
64.642487 -49.506989 -89.961311
66.073692 -48.012676 -91.450394
60.897728 -48.361530 -90.273170
-101.196892 -50.884808 -93.216110
63.718468 -50.096722 -95.523499
66.975861 -48.793903 -99.109406
-99.832512 -50.640640 -98.552551
63.454453 -49.131866 -99.936729
64.134674 -48.312595 -99.756729
-70.114830 -50.354706 -98.638245
70.462006 -50.817066 -104.845901
66.656372 -47.636261 -103.858841
-74.636986 -50.910461 -104.117928
67.356667 -49.903580 -105.449661
74.161766 -51.158291 -108.291771
75.560753 -48.670563 -107.449638
70.577576 -50.196602 -106.886787
84.794914 -49.077057 -107.950668
82.811508 -49.970551 -109.684540
82.613304 -48.397472 -109.621574
-83.105003 -50.987560 -113.645950
-88.956741 -50.525749 -119.527771
-92.657410 -47.041557 -117.318161
-6.412457 -48.930656 -245.001343
-4.454926 -48.884472 -246.126205
-9.286111 -48.890209 -242.655334
0.478063 -49.569321 -243.855072
-8.616503 -49.014137 -247.164612
-0.073245 -49.262459 -254.000793
-4.732501 -47.957584 -253.217041
-79.193291 -48.101524 -44.662903
-60.290047 -46.693829 -46.649414
-57.970985 -45.562889 -46.326176
-87.153297 -49.487015 -48.379177
-48.912815 -48.547047 -49.212204
-60.141403 -50.702705 -55.009163
-42.280048 -49.990417 -50.994652
-61.952732 -51.141098 -53.535076
-62.610020 -50.668892 -54.923630
-64.268242 -49.590660 -56.661747
71.140106 -49.280205 -57.736477
-59.758633 -48.606613 -56.769047
88.313988 -50.448406 -57.692078
91.331535 -49.309841 -58.152977
83.493050 -48.386425 -60.548752
70.584412 -47.894600 -59.679825
-63.847481 -49.381908 -64.388092
94.663315 -48.584614 -60.098610
74.124077 -48.093040 -62.964737
64.076416 -50.311871 -67.150558
80.838127 -49.342583 -65.367271
68.100975 -49.869141 -64.895279
68.924446 -48.956402 -66.049126
68.738510 -48.458939 -67.828644
88.649460 -48.742676 -66.526657
65.573570 -48.487408 -69.126060
96.257080 -46.263882 -68.461708
91.615662 -47.904270 -67.389732
67.007370 -48.653942 -68.300911
101.450958 -47.671623 -69.486511
66.017494 -47.915482 -73.451797
-40.114227 -49.671658 -71.973648
60.718765 -47.122440 -73.763748
64.394310 -49.180882 -73.365135
66.125977 -48.065228 -78.695534
-46.031845 -48.471588 -81.424629
63.616264 -47.379120 -77.961914
59.441917 -48.114948 -80.237808
-53.009270 -49.825344 -83.347923
60.971333 -46.920773 -82.365395
61.176857 -49.630985 -81.866653
65.464607 -48.375134 -81.127228
63.031143 -48.866825 -85.906441
59.265038 -48.836521 -85.450806
64.344498 -49.672218 -89.274643
65.509354 -48.685200 -90.758301
63.478981 -46.448368 -90.377129
65.700233 -47.442905 -86.300766
59.975258 -47.657948 -88.818443
63.101864 -48.346119 -89.595184
65.555290 -48.426014 -90.147644
64.560455 -47.105335 -89.859726
65.900963 -47.855038 -89.153694
66.774605 -48.376431 -90.151276
66.651871 -47.141129 -90.961304
59.438179 -47.923851 -90.782539
-66.075989 -53.713043 -92.864380
61.083656 -47.950138 -92.258553
67.213326 -47.040413 -95.659233
-68.347855 -49.837906 -95.057648
63.278084 -48.901070 -93.122467
66.554810 -48.726089 -94.878342
60.294632 -48.110714 -95.774193
65.048119 -48.621170 -99.650200
-73.050652 -48.537605 -100.953674
68.084145 -47.942627 -99.401657
69.430641 -48.896080 -100.493080
67.067558 -46.786907 -98.922523
69.167274 -48.309635 -101.373093
68.537132 -48.683765 -98.880211
63.687351 -47.745255 -99.389656
65.665817 -48.464546 -101.480316
-99.585785 -51.112560 -103.690895
62.549931 -48.756454 -100.657806
70.411659 -48.550468 -102.148232
65.192749 -47.455296 -103.201927
96.177574 -48.631874 -107.254570
-77.843666 -42.952953 -105.659088
71.298485 -47.888115 -104.242096
69.249374 -49.224552 -105.412079
76.550285 -48.297325 -106.944527
-77.610619 -49.623203 -106.111328
74.239120 -46.945663 -106.197418
66.618362 -47.498096 -103.661530
75.236084 -47.469410 -108.505791
75.152275 -46.510731 -107.157318
80.483147 -47.398220 -108.844620
93.543839 -47.932877 -109.502007
-77.080956 -50.291901 -109.358246
88.515694 -47.915104 -109.845673
68.752831 -46.546406 -108.973549
-83.273346 -47.852390 -110.630608
72.194527 -49.323555 -108.053848
79.884865 -48.787674 -109.254913
96.737183 -47.770760 -109.584091
75.674309 -48.540791 -108.187202
80.304504 -48.622280 -110.851471
81.281960 -46.251312 -111.295746
85.231087 -48.778015 -111.342781
87.737503 -49.189346 -111.142014
-97.223625 -48.291054 -113.927963
-84.613770 -49.094193 -46.883545
-44.403164 -48.505894 -49.679203
-59.781391 -47.238647 -53.884819
-63.949017 -47.566036 -52.080276
-36.896488 -46.408264 -51.063309
-28.646824 -49.669910 -51.776623
-26.829430 -46.570129 -54.041264
-20.700047 -47.689503 -54.916031
-11.265956 -49.535728 -52.255409
-63.542934 -46.762672 -54.824360
-93.793648 -48.220722 -53.347240
73.903450 -45.857887 -57.032707
-95.804176 -47.246578 -57.956669
-62.304867 -48.362698 -61.466854
