# This PCD file was generated using the MATLAB® pcwrite function
# from Computer Vision Toolbox®.
# .PCD v.7 - Point Cloud Data file format
VERSION .7
FIELDS x y z
SIZE 4 4 4
TYPE F F F
COUNT 1 1 1
WIDTH 1461
HEIGHT 1
VIEWPOINT 0 0 0 1 0 0 0
POINTS 1461
DATA ascii
-150.577316 267.783783 -78.860542
-33.945873 174.668533 -65.248749
-148.178802 204.054825 -65.677475
88.150970 78.929741 -65.559746
55.853592 98.327324 -60.724442
68.699959 79.342026 -61.407589
-59.897629 143.234695 -62.930244
-65.683716 117.024063 -55.230804
-75.830238 218.196243 -74.635292
-60.631973 299.284698 -65.347359
-144.381790 182.248505 -60.888222
-151.713074 272.215607 -58.003487
-81.513878 119.928398 -61.175060
-11.278872 76.679405 -57.603130
75.914330 99.755363 -71.330208
-141.108719 236.410675 -71.175980
17.544712 204.608093 -70.248055
1.215717 280.371368 -57.236240
69.738182 85.602379 -63.268776
21.807764 250.895721 -53.216782
84.777634 116.897446 -62.294834
-144.778214 227.882843 -77.137680
-61.211807 215.346497 -77.231049
-95.180397 98.816086 -65.445999
-68.571480 57.372391 -64.389038
-67.974350 150.085800 -64.917542
-162.932388 211.078400 -60.340134
-91.920303 74.926270 -63.607006
-153.400208 285.426666 -61.604305
-62.710285 138.898483 -58.255611
-8.968840 215.987686 -67.798782
-65.899475 160.672638 -70.243553
-147.797028 200.226532 -59.602276
-165.359039 253.008530 -66.749992
-151.905899 294.906128 -78.653809
81.818993 70.521149 -52.832794
81.669037 70.042389 -61.118530
-25.012634 246.479294 -70.908005
33.241482 45.117874 -56.799500
62.543438 103.910904 -57.083427
30.653336 139.390320 -69.170990
-146.329086 272.375397 -59.522720
-54.796017 97.944061 -61.581337
-13.505445 249.599274 -70.199219
-151.682327 253.678436 -68.007706
-107.631905 190.187714 -56.287670
-83.065933 120.953529 -69.201462
-29.711491 55.833279 -58.199322
94.060135 92.937790 -71.485283
-148.514618 274.816956 -77.694038
-84.445091 120.558197 -68.956154
-57.752819 257.673279 -74.120758
-45.823788 173.588577 -66.083176
-104.266609 227.379608 -63.865414
-150.537109 204.009918 -66.898613
2.219866 238.571777 -68.209541
17.691193 185.007217 -68.978928
-145.934784 186.707916 -57.989761
-147.949966 266.012177 -77.364296
-44.434708 206.666946 -80.235802
-132.823669 268.659149 -58.602772
-7.202042 242.377014 -67.264740
-140.711792 206.861359 -66.073502
-28.106247 195.802399 -73.013405
-70.891441 219.907516 -70.609482
-137.887619 212.452332 -57.699608
-19.859575 227.983871 -65.523720
-23.400698 231.692810 -63.792946
-24.465752 207.340561 -66.269714
20.323469 198.433395 -65.840363
-156.384521 267.943512 -67.897995
-15.271080 300.763245 -66.559265
27.485249 154.162567 -73.739014
-135.303040 236.593903 -71.584320
-122.263756 215.135880 -60.912170
102.449867 113.084595 -64.261841
-19.506163 221.200150 -68.882660
-162.096375 267.910400 -61.696190
-41.727306 161.848846 -63.683292
42.277439 138.259186 -70.429771
-87.949959 122.423798 -59.599724
-152.156860 208.940735 -61.840359
1.639977 247.145493 -62.054340
-37.482403 56.386395 -55.188732
27.710320 183.372269 -68.256203
89.118401 101.035797 -68.126236
-3.566799 178.847534 -74.417564
-149.567093 297.801300 -63.432926
13.350887 208.506271 -71.076797
-148.767929 322.359650 -71.045258
14.941719 161.589355 -57.829021
-100.009468 299.375610 -66.833168
24.633375 202.699081 -63.601265
7.933692 171.432541 -66.829735
19.496239 33.712498 -58.085735
-45.298031 148.783325 -64.058601
-6.988027 227.049515 -64.181229
-168.868484 288.301758 -70.330811
-94.267258 163.347076 -56.632900
-35.877907 247.890976 -71.999352
-62.800251 106.292732 -71.604141
102.096153 98.671127 -67.201187
101.520691 90.124405 -59.716145
-146.057831 322.067719 -65.899979
2.349732 284.682709 -74.953049
-14.107025 272.714935 -68.128357
-149.740356 197.926117 -66.024040
-25.420635 207.764969 -69.730408
-64.059570 186.822723 -71.104530
-52.929268 164.577484 -66.318649
21.206661 219.487274 -66.789421
17.145723 180.362503 -67.131226
98.442116 214.013229 -68.378265
21.086834 249.534500 -65.675087
-58.805225 298.816437 -64.365105
-150.242432 213.932449 -66.721985
-15.916143 212.523544 -60.040104
-131.587051 264.380524 -63.246838
89.340416 218.441895 -70.626953
54.337261 251.495010 -61.003582
-89.182693 63.086693 -57.953476
-78.432098 72.547447 -70.841934
-35.834156 180.210480 -61.451511
-3.635436 300.782593 -70.545036
-165.314041 214.832474 -58.665264
-64.658379 261.239258 -69.353828
-86.554314 68.854713 -63.416805
26.961868 168.691345 -62.033211
21.105188 215.511826 -70.741486
12.228681 225.930222 -76.497162
-1.518573 292.530029 -61.085289
5.294446 248.564590 -56.157997
-165.324341 261.918762 -64.252121
-122.605743 241.161133 -65.302795
-28.600809 187.651337 -64.769638
-59.042538 128.236694 -62.214001
-20.806896 227.182037 -72.593254
-75.566689 56.626202 -55.451027
-14.507098 202.580872 -72.235161
34.893414 47.812496 -56.086716
-35.002182 188.187134 -63.588070
-13.203473 260.271820 -67.806053
-145.515152 274.775818 -57.702801
-130.530716 242.911819 -69.597542
-36.503704 175.743134 -65.003746
3.662113 274.554352 -79.522835
69.555779 70.531662 -52.869228
102.308395 195.350159 -73.089333
95.647408 216.513718 -62.943142
-149.686874 198.163773 -79.059364
92.642502 84.635658 -68.283821
-62.338882 137.611710 -62.293598
13.200086 267.355957 -76.652206
-152.967850 194.037903 -61.427624
108.680893 189.184570 -66.874855
43.410336 38.160931 -55.502525
-150.294769 286.403564 -70.932762
-20.499350 230.031723 -69.574760
-42.807735 89.264717 -77.999229
37.191925 132.353775 -57.889233
22.429977 170.705307 -72.684990
110.168526 141.884567 -63.368362
98.915062 111.915596 -57.111031
-74.916031 94.218246 -75.795769
-86.029068 129.308578 -59.915794
-147.009796 274.840057 -63.434032
-6.750365 244.259003 -63.441036
113.323837 177.197983 -62.462486
-24.827740 205.876892 -64.789024
102.752060 97.112892 -58.480476
-67.155762 259.530273 -68.868187
12.547435 238.412369 -70.502831
-160.641785 221.026993 -59.432346
-77.383698 144.507309 -68.845436
90.588417 232.082382 -65.195313
-49.674950 203.310760 -72.613472
116.134430 135.157059 -65.625687
-71.629486 164.134567 -63.877640
-59.069202 190.671280 -72.818436
26.487597 175.521606 -60.767281
-15.711363 225.711899 -63.945267
74.481232 242.811752 -70.555214
-139.367096 238.612930 -56.647007
-8.010028 218.287354 -69.751953
18.029123 185.254211 -68.837425
-152.334732 214.370651 -65.056732
23.625662 256.575653 -76.072113
35.463596 131.653885 -53.462502
-93.938080 262.297943 -64.363739
102.590813 101.535286 -60.138706
32.169792 47.863495 -55.352230
-123.439056 214.372711 -58.834209
4.422695 302.388519 -61.477043
18.924841 194.356323 -66.311958
-156.804367 207.483948 -61.548351
-85.760010 71.980522 -64.556274
-22.726252 191.815262 -77.097076
98.676720 213.469635 -66.931709
-145.347565 276.658966 -66.879616
10.887987 266.327332 -81.073242
-98.041138 125.094154 -56.649254
-66.622261 170.541992 -71.804398
27.239281 150.515320 -65.144775
-159.144241 271.307678 -67.072533
14.317241 245.938675 -65.782394
22.317396 260.704651 -53.274536
-66.120636 100.508156 -53.996307
33.504223 154.273712 -76.232445
-46.271648 169.068481 -61.843067
43.837688 134.450470 -70.171173
-60.806393 150.193375 -63.500149
-140.339462 274.513245 -68.050369
22.796171 200.487946 -67.065735
73.316437 104.012268 -71.491737
-33.195641 171.974823 -63.630692
-158.356567 299.948120 -61.978725
-13.468007 270.779388 -71.607956
-21.164063 215.076233 -65.556961
-119.713013 299.149231 -71.350792
-92.422935 131.519516 -57.185009
-17.241575 213.312836 -66.151314
-48.889488 149.135361 -58.958527
14.678190 299.158630 -58.894936
-41.627617 93.658531 -71.537926
63.826073 248.219284 -66.792755
-150.314911 209.583023 -61.353279
-46.361568 201.374680 -77.292023
13.169365 162.769318 -61.503994
-127.742332 238.453339 -56.917023
-15.275812 222.502731 -65.189705
-130.320496 271.895782 -72.177269
116.252602 128.668976 -63.833393
23.083584 191.585693 -71.774002
87.743828 102.204994 -70.622673
-43.088829 258.932373 -69.356827
7.133131 166.254074 -61.641205
-79.053711 131.226837 -60.000221
101.687111 82.132355 -58.075253
-7.393919 295.091156 -67.216583
-70.811081 79.025528 -72.117783
13.817171 241.315842 -76.875404
32.001431 175.195145 -62.420307
28.953688 40.943325 -62.833431
38.414688 114.738808 -69.750206
100.241211 95.966278 -68.086174
-141.244949 205.316650 -67.528671
-64.371277 93.891594 -52.785458
42.645203 28.077671 -67.797318
-21.675772 203.732040 -74.307030
-15.911543 265.430359 -71.991432
-154.254196 315.549042 -65.484207
7.577197 252.667816 -70.631523
17.570234 221.527924 -75.420654
-72.046455 149.348816 -65.212761
47.625896 106.652016 -62.196316
-23.408890 251.410217 -63.902592
-55.012104 54.160435 -62.531982
-60.464172 140.649460 -62.838749
-62.356308 79.761063 -77.274788
45.968590 33.785145 -62.629246
-68.072197 120.212044 -57.040096
-148.069290 210.239899 -52.355293
-110.375229 191.737289 -63.563515
-145.582855 197.810730 -56.344097
-2.702308 249.972977 -59.623913
-124.909172 209.077881 -58.281700
-84.925865 131.401978 -64.897713
33.971035 157.625427 -60.518772
-8.565364 300.366425 -71.575233
-146.814453 232.973572 -77.529945
109.040009 127.995987 -68.264282
-146.067841 231.218155 -74.143471
18.816235 291.152954 -62.943836
-15.376774 212.764130 -61.574589
-83.849304 74.695671 -67.412254
100.918823 111.152855 -62.557934
-65.689384 216.761078 -76.684792
-21.081663 232.105240 -66.269257
-166.280838 235.213593 -66.593674
11.243766 224.539978 -66.005035
-63.628513 177.532867 -74.325050
-33.439892 59.847107 -57.911938
-70.768883 151.653900 -65.841347
24.009624 161.100891 -62.603607
-17.746817 217.710388 -65.139023
8.956551 222.406906 -62.303551
-112.356873 190.152298 -57.024345
-127.465210 205.161469 -64.951805
-57.681980 96.516663 -80.148788
-53.087898 146.298523 -67.886620
93.998199 220.406387 -63.709740
5.850926 232.125259 -74.035011
-72.989906 96.608894 -76.348671
-25.329800 189.930023 -70.810913
88.460892 85.291412 -66.735970
-80.186508 110.848732 -65.883835
-112.479042 203.778824 -60.778431
1.183355 244.308380 -61.634426
102.502945 110.692352 -54.429249
25.828547 166.001938 -63.206329
-54.952583 57.634815 -64.499092
-13.020627 296.261292 -70.013229
-151.880554 317.317596 -72.294914
-153.824829 272.354248 -55.522812
28.469435 158.545227 -62.368053
-55.307899 129.485733 -56.579781
91.619202 217.123169 -72.455452
-58.179604 97.401634 -60.646935
-64.359879 54.466984 -67.294945
-52.369476 95.688919 -77.572090
103.928528 130.089142 -61.292751
95.476631 73.160477 -56.201561
-48.542889 149.824585 -68.893669
-76.307068 217.338043 -67.856140
-167.287811 294.014252 -67.841347
29.889267 46.243439 -57.296501
-36.495426 190.025772 -70.590080
-76.194290 146.291290 -67.221649
-112.744400 304.008270 -62.965160
-50.339401 164.858917 -69.137405
-54.224865 181.018463 -71.725838
-125.514725 299.444519 -64.234756
-14.360209 243.007706 -66.683815
28.542351 25.067394 -62.403988
-151.945084 297.121002 -62.277817
-144.743820 291.900513 -72.182991
-65.402100 129.136795 -55.611206
21.776272 198.914719 -69.522697
-73.467514 53.724236 -61.563225
-40.637619 66.587273 -73.298508
53.997158 97.386559 -53.744595
-56.294632 153.147598 -60.366344
31.929762 46.752811 -56.289322
-85.841301 227.225449 -64.531631
97.368996 86.692734 -65.431679
-44.728657 92.766312 -60.221840
-6.120958 282.778839 -72.224617
19.768791 174.287567 -65.315460
40.339451 28.210472 -58.870007
111.576607 185.161575 -69.414917
74.491783 101.840500 -70.706558
17.812025 225.542480 -78.451843
-71.297195 56.664959 -56.635353
-128.751648 235.996674 -71.726067
-21.964273 207.109665 -64.076653
116.837669 155.351334 -65.892609
-155.320251 205.723083 -72.532089
-16.819244 229.779068 -71.878510
-37.556900 220.509857 -69.089272
-136.875214 296.125610 -69.041840
67.610641 77.224037 -59.282879
-145.189209 263.878754 -77.264221
18.198380 183.267639 -71.780830
-26.149971 192.667084 -63.417458
-57.987957 96.908386 -61.503407
-39.829224 75.274269 -73.365562
18.436398 228.258041 -65.351883
-81.711334 113.815804 -65.968132
14.535501 284.059723 -71.813293
-125.421677 233.992813 -64.858276
-105.410675 265.460938 -65.555962
18.507172 174.247498 -67.482384
26.153645 267.662384 -59.047955
24.270964 164.780197 -64.910469
11.164678 238.335709 -71.543373
-35.293629 91.716156 -75.961029
-141.828125 303.719025 -72.020370
52.034256 104.096146 -60.881897
10.011583 220.870285 -67.506935
-42.129826 163.520737 -67.789421
93.691559 101.961845 -68.449265
-2.491021 234.545929 -65.603584
32.043083 137.655090 -69.766380
-58.945881 64.924599 -69.465111
1.434131 247.619614 -65.963890
26.670546 174.432114 -61.682816
-157.348755 280.636261 -66.200188
-149.142380 289.910492 -73.768135
-13.471931 74.205757 -55.009369
111.625832 119.232498 -66.964371
-27.708004 248.557831 -69.692657
-150.970093 245.841827 -79.412636
115.543449 153.969452 -68.489601
8.110618 233.629211 -67.736458
19.768492 174.478897 -61.317539
-101.756577 267.621857 -66.616875
26.519413 43.648323 -61.871471
87.459610 225.301468 -65.254250
-132.019272 239.751846 -68.767059
-84.214348 59.027924 -58.319500
31.611900 46.367039 -58.107815
13.284222 286.367432 -75.328529
-115.439056 208.512375 -58.948280
-1.456195 245.509308 -73.128410
-50.510101 298.935852 -66.893196
-83.202698 261.189789 -67.471687
113.293671 136.650864 -69.074448
-154.163483 306.433044 -67.779778
-156.817978 294.875061 -65.576210
68.840965 245.571625 -66.795761
8.359614 247.228485 -73.145576
39.377613 141.947098 -65.585060
44.736176 263.790527 -64.946831
35.675262 23.530888 -62.786705
38.042763 124.080620 -67.607697
21.670630 216.140793 -69.250496
9.303537 168.788666 -66.255981
67.414795 82.319916 -56.967918
91.812202 106.077835 -69.543564
5.921296 170.175278 -69.035233
22.324942 203.477646 -67.648643
23.951843 267.917450 -68.415939
-50.940819 98.135765 -71.661972
-45.481022 92.808876 -70.955246
35.229923 156.742126 -67.049080
-27.600269 186.560837 -74.643112
-146.490097 282.599670 -68.706978
-132.566193 240.645111 -75.682083
-76.886787 114.201714 -79.850212
-18.294586 222.637863 -68.588608
-12.325152 226.857483 -72.092796
-104.695465 302.021423 -66.276100
-81.778664 139.348328 -58.900925
-151.775116 231.367920 -56.157986
-146.357193 199.843430 -65.014465
-29.754641 201.533707 -70.644104
72.406242 246.262115 -64.716415
60.021976 257.955200 -62.412296
-8.793812 236.598724 -67.957344
-97.669891 269.569489 -65.176079
68.277809 246.380829 -67.587059
-5.720720 237.087250 -62.086452
92.454178 70.106743 -56.774147
21.035513 189.622803 -59.223476
4.318727 251.813324 -55.029167
-137.710815 296.152252 -75.653381
-146.956100 267.131042 -75.324745
20.429369 201.485031 -62.928196
36.091278 142.656570 -65.187218
-17.268280 300.733856 -64.665756
-80.343719 135.552490 -58.954350
-158.241196 227.951920 -60.422485
-3.540521 226.481293 -70.201241
-146.600601 300.382019 -82.865944
-166.331512 268.194702 -62.892864
73.118996 111.916626 -62.283222
87.301346 221.116547 -68.699860
25.671005 143.578674 -55.853973
-151.353012 212.675064 -58.291302
23.164202 174.292786 -61.864094
-49.923683 199.748215 -75.669235
-45.296135 149.692062 -68.154884
-13.520734 218.897141 -66.066612
-75.852730 266.064606 -65.846542
-157.569809 213.714340 -63.743538
-149.547333 317.614410 -61.899117
-102.741791 298.684784 -62.073948
8.401665 251.499100 -68.670166
-154.695831 232.279465 -62.590687
-58.113308 100.789948 -58.725632
-24.707687 206.975922 -70.753242
86.681946 119.046768 -56.129246
-126.644981 214.852280 -61.889343
-141.022812 205.915314 -70.081039
-24.859549 185.153946 -73.929001
-62.555931 103.094788 -79.730484
-162.299973 226.081024 -66.462769
10.260895 249.271759 -65.116692
-76.520546 133.028778 -58.639565
-73.577950 117.998543 -59.935120
-53.714638 301.152527 -67.713203
-148.596451 239.556931 -58.842915
-145.419464 207.968674 -57.522324
96.499504 213.393539 -66.972328
19.400970 186.526901 -63.152172
114.866005 140.764679 -63.512032
18.227549 36.135033 -62.523968
94.893799 116.995750 -61.704556
-141.871216 212.476120 -54.809330
-21.608551 225.368408 -67.458138
-28.088467 199.420898 -74.250679
-75.667664 144.542145 -59.730732
50.005470 112.915321 -69.294975
-6.682986 282.801514 -75.904984
-62.185619 68.207481 -72.964828
-39.843838 158.785385 -66.506760
-155.001129 300.457703 -57.262344
-1.595498 233.914169 -75.932793
-58.991344 217.324295 -77.102493
-46.659603 153.081116 -66.647949
102.500587 105.625465 -57.111839
22.793732 201.611343 -63.050194
108.451866 130.691055 -66.670967
-146.769348 225.743866 -55.113228
-76.485596 112.539093 -67.549599
-13.764830 238.163071 -64.091110
-133.386597 271.727600 -61.598194
-54.646469 147.627167 -52.374130
-30.512106 200.934128 -67.614067
103.965866 112.463257 -58.742706
-147.235794 215.319458 -76.291893
56.203590 250.769501 -61.139259
20.288532 185.985870 -59.959869
-149.557846 267.356628 -59.843376
12.352420 249.654556 -54.962715
-77.713387 128.622437 -65.459167
-130.005280 302.856842 -61.780277
-143.602417 299.638672 -72.187012
-90.892204 74.162498 -67.378326
49.607445 103.429573 -66.889336
-19.615627 223.331696 -72.592522
-45.080002 257.297150 -72.053642
-34.718185 88.837708 -58.953434
1.464900 284.236786 -57.774044
52.767166 113.643692 -59.365204
-28.663866 193.459015 -73.019714
-36.054333 68.410599 -68.492966
20.426571 187.480560 -59.488422
-26.762602 190.322144 -66.671021
17.065174 249.675003 -77.358368
21.596962 39.471516 -56.102669
-154.582001 240.151840 -72.569016
48.772175 30.210333 -66.618736
18.202530 197.142319 -63.233555
-34.851517 164.569122 -64.994827
29.106192 149.022522 -69.448784
-134.323349 293.004181 -63.450531
34.627148 131.399734 -63.367508
100.558662 108.762848 -65.541855
-34.145401 189.329651 -75.771255
-139.337387 210.599518 -76.483780
-74.147827 142.028793 -62.386238
55.550884 259.373444 -66.637917
6.097038 242.277481 -73.667198
-149.104004 224.257553 -67.850098
-114.892937 300.497833 -66.150436
37.184895 130.109055 -56.226013
-61.374893 82.413376 -77.776337
-43.338032 162.271469 -59.750103
-125.471542 213.934052 -67.395752
-12.163807 237.377060 -69.572075
-60.659386 182.220474 -76.299728
-40.847809 174.783829 -74.275963
-112.837425 302.975891 -66.483871
-103.718971 295.011993 -66.604301
-27.276871 204.581299 -70.600319
-6.227973 288.646851 -63.950256
-90.582726 295.293274 -62.480469
2.632819 167.528961 -65.292618
-113.697273 302.154816 -66.333916
-49.701744 90.734207 -56.712200
-79.375565 140.261810 -62.406239
45.560123 120.541649 -61.767918
-84.361565 124.505432 -55.852509
43.264774 49.035465 -55.903511
-90.090919 127.260231 -67.379097
-19.558336 200.770752 -65.995651
46.640198 113.028358 -73.164780
-57.344780 133.851227 -64.891968
-147.609268 221.922531 -72.796822
56.602757 109.712189 -65.670662
-151.325073 258.963348 -68.970375
33.222210 166.618088 -68.448242
-41.819374 87.552879 -56.611012
-144.994614 246.680847 -65.852646
48.804630 29.739195 -58.445061
-154.307388 313.561676 -67.707809
27.456184 269.954407 -64.284050
-134.362152 296.294830 -60.485046
-41.697384 179.183701 -63.539700
109.691917 136.757751 -70.688423
-44.971718 72.938377 -73.391647
-149.465668 262.449554 -74.879150
31.852806 47.295761 -66.327477
-147.615845 229.785172 -67.265991
28.798731 171.509583 -71.130760
-24.384081 227.381607 -69.021782
-23.558889 254.146530 -70.689972
-2.078965 241.960297 -68.905350
24.385654 34.824677 -61.671944
-136.130280 239.490768 -64.497276
21.956816 42.594067 -57.697437
-81.522926 130.717972 -56.522095
12.662837 252.783386 -59.619686
27.244833 191.045746 -72.179588
-79.696365 130.300476 -57.618561
47.274261 129.095596 -72.731499
-160.834198 226.461487 -66.051140
106.600258 125.836235 -67.204399
108.946274 129.042542 -64.580902
-8.930058 217.081100 -71.767059
-84.804832 100.856865 -74.705200
3.652726 265.322205 -54.698540
-150.260834 208.837524 -65.585411
-48.356113 158.710541 -71.558701
-18.519033 200.420090 -73.490120
2.005864 238.369629 -62.972233
-25.434610 204.681915 -73.028969
-20.695137 216.321640 -65.061325
26.060989 271.454926 -68.140244
-146.456726 255.071976 -71.292000
-63.585484 260.199585 -69.095314
-21.201641 189.507706 -73.523460
-99.608650 231.547272 -68.818794
-143.584854 294.012939 -68.256409
67.617714 105.111908 -59.581196
-100.119598 84.625725 -57.650093
-148.364746 266.537292 -68.948471
52.049221 110.969574 -66.963615
-34.349918 76.661781 -69.919556
-141.178513 189.420547 -57.027416
58.290863 112.601273 -63.320293
99.827248 214.335388 -65.886620
107.841309 187.160416 -68.172112
-102.804497 164.334000 -64.075279
-74.618294 147.572220 -68.046265
-85.608681 125.868134 -56.248371
-95.592407 160.336609 -63.790276
40.903252 47.305855 -65.136032
20.496763 203.753922 -64.572624
109.793419 168.988861 -69.592636
-55.616447 79.689369 -74.738091
-117.637566 213.157196 -61.691711
29.208038 171.586700 -65.071381
-54.176292 97.697975 -80.731239
-31.761173 246.970810 -71.616859
-24.633039 197.033676 -77.154167
75.736763 75.655586 -61.301743
-86.307709 108.849136 -78.157516
-51.188580 296.254181 -64.550591
41.645023 111.521614 -66.775948
-77.224045 117.330894 -59.769470
-162.936249 298.263306 -69.846832
-6.570508 225.221848 -67.400871
26.599201 25.700790 -60.926243
-57.082851 190.020920 -73.089462
-74.110298 217.587784 -68.619179
19.742176 258.616913 -72.974480
-11.873171 241.170242 -66.248840
-147.187927 303.900848 -66.802956
-84.861702 117.839363 -58.697327
-14.474586 234.949692 -67.126442
27.415342 161.209381 -75.702927
39.172241 142.806229 -69.398117
33.418144 22.072897 -65.401001
-74.454102 64.507072 -70.286522
-148.291779 296.720245 -59.362705
-69.241669 222.623810 -73.973679
-12.510114 241.981903 -66.136971
-31.217169 67.861107 -66.636543
95.443291 208.871048 -67.683289
-151.533203 277.403290 -57.607368
-81.463112 57.974895 -58.468430
-80.967964 227.960297 -70.120102
-153.933182 266.541931 -56.909229
-37.424511 180.795731 -64.702950
13.733964 281.881744 -76.697159
-79.792908 133.867874 -60.849556
47.801033 256.162994 -59.172169
-47.207539 165.240250 -75.791428
-45.868534 160.840057 -70.092155
-6.998342 259.907379 -70.572792
56.127960 248.805725 -67.420982
17.718899 215.750977 -71.868835
-152.092041 271.770020 -78.626854
11.460125 258.202789 -71.986969
18.572823 271.286469 -76.845291
-27.440636 183.539520 -71.825417
14.855392 158.074127 -63.674896
-134.404160 216.609192 -68.938759
-39.804832 209.865433 -75.202095
-52.101727 144.413956 -64.346672
42.083637 132.889252 -67.785904
31.274071 133.876648 -71.440880
12.716184 250.562195 -58.488949
-51.138123 255.141312 -69.840233
-159.358139 214.007370 -59.158955
-10.650250 183.977798 -73.248268
106.590355 190.434235 -72.732262
107.568230 186.476776 -66.090103
-8.483261 211.983307 -68.561378
20.576790 180.666306 -72.341270
-44.120403 69.688538 -74.487633
105.720436 195.595352 -69.360069
-63.823868 298.790466 -69.637230
-124.835953 293.418640 -67.033531
-75.900879 113.988976 -59.189289
2.150126 230.495300 -67.329231
-96.380234 89.133926 -59.449711
-80.832443 95.382301 -80.746948
26.563393 269.049316 -60.082626
25.144957 150.600967 -61.603489
22.877911 45.308777 -65.448822
-163.282303 272.444916 -64.286766
67.559113 86.953590 -63.553108
-31.697311 86.496231 -65.608009
-23.210052 199.686447 -71.780365
41.031528 133.992416 -72.069550
-10.259583 68.857452 -55.536037
-49.817055 98.401642 -68.582558
25.076563 278.310852 -59.856655
27.218491 160.118683 -64.137917
25.971104 145.754623 -66.966454
-104.634895 234.968140 -64.693565
14.270711 242.667511 -72.996826
99.214470 82.260651 -62.603447
11.436486 241.764862 -63.691769
-10.296622 217.103271 -61.806774
103.005112 205.829239 -63.156891
-56.000095 97.446785 -63.762707
100.667320 112.359161 -56.384247
-158.141357 237.382019 -68.674934
20.746502 43.129177 -63.459850
13.485126 296.394379 -59.884693
-148.704010 306.766357 -67.889458
-146.962631 238.582321 -69.886642
-84.460434 60.513332 -58.808178
61.122078 104.413345 -61.785599
-109.943359 296.514618 -66.457687
-145.874329 217.905533 -73.464119
-67.491341 219.442200 -78.731316
23.423983 150.271881 -71.039452
43.248058 35.068420 -64.490463
-9.195772 218.322769 -72.312721
-29.067530 189.947693 -74.026649
-87.151543 117.749748 -70.723541
-156.381424 296.137268 -66.689316
-149.816559 270.503967 -62.307762
58.500687 254.673401 -65.952339
-39.355919 252.090027 -70.360214
-23.397341 233.176468 -71.896431
-54.504677 151.044128 -67.546974
-152.767990 209.793594 -73.901344
-145.729172 305.656372 -64.893738
-7.286674 229.825882 -70.143883
-48.268997 209.989990 -78.817947
-41.314434 172.306213 -75.431343
17.815077 242.309143 -74.417145
-149.428207 218.393799 -57.014130
37.791180 142.288925 -69.551659
62.008762 248.303131 -64.845718
-22.858246 192.107834 -72.536652
-165.069077 251.514160 -68.200089
7.527342 254.328262 -70.879242
-48.366657 153.331146 -73.421478
-155.471893 191.215729 -62.655411
-39.260086 179.158859 -72.657295
102.831009 110.548843 -65.486557
39.151756 137.582077 -71.738251
23.850651 153.597809 -72.369164
-33.684532 187.829407 -62.990318
61.594604 251.068192 -62.120201
70.284569 91.055977 -67.095940
-144.651047 294.878418 -74.136261
70.818909 249.190643 -64.547424
113.534737 153.039993 -63.622429
-52.818474 211.737473 -73.110710
60.151512 257.328491 -62.252747
32.107452 24.521034 -53.916386
-99.172218 233.439636 -62.817284
-58.901073 147.375793 -58.854618
-91.562096 295.976410 -66.387718
-60.519688 88.723145 -77.638519
-143.079559 298.830902 -80.572105
-56.993549 65.059509 -71.908432
27.505938 191.822006 -67.782875
-74.776466 148.426224 -64.051125
-56.754604 217.250320 -76.503914
16.287729 248.805252 -65.027611
-47.764187 66.071617 -68.821335
-61.307156 95.304657 -78.399872
52.263577 38.693981 -56.120090
9.977637 217.279495 -71.455338
-146.858582 254.386276 -62.139584
73.057640 107.844627 -64.973007
-150.414856 198.230988 -74.106285
-22.746971 249.562637 -76.178566
22.619492 183.393311 -59.280228
43.253849 137.610641 -72.340782
-100.909813 303.329987 -62.954205
7.135922 250.767365 -67.577309
-39.468121 209.952133 -69.453964
-75.344299 133.796875 -57.221779
-12.504163 285.100006 -69.204880
82.065704 235.920624 -72.447990
99.785034 213.545135 -70.083160
27.386616 170.368820 -73.679306
-40.868122 200.186325 -82.448174
-151.612061 188.532578 -57.001663
39.233101 45.541569 -59.869091
-149.335266 199.512344 -61.040203
43.616245 46.735882 -59.637211
2.448014 272.162384 -79.059319
-38.027679 169.749725 -71.963722
-65.289452 220.445404 -76.766975
22.565310 31.127995 -65.720810
-47.428795 152.100494 -63.751274
-35.683590 216.505692 -68.960815
-30.563179 223.733322 -71.239182
68.323143 83.374481 -67.045624
-156.546371 279.392670 -66.758118
65.567871 94.748962 -58.720749
-161.697754 302.045807 -64.672211
-44.239155 66.206146 -67.143715
-70.318848 161.524307 -68.381050
23.686853 198.416260 -60.983932
-59.237038 151.433716 -61.720062
-19.206602 215.214706 -74.512131
16.316727 212.220947 -68.087585
7.660814 250.426285 -58.019604
92.594467 101.071548 -69.799301
-32.941051 298.643890 -70.403381
-87.266350 74.823547 -63.599949
-151.969849 256.142487 -63.981716
-154.317154 306.659485 -68.515419
-127.604149 265.280762 -67.742455
32.581490 45.401447 -58.983429
-55.226597 100.635803 -67.881729
-52.343704 93.777344 -54.873596
19.785282 203.217255 -72.852081
-146.608292 203.066238 -68.510651
-77.355850 89.882698 -76.555069
79.397293 244.131958 -68.891029
-29.889469 179.763733 -69.788673
-98.885223 90.074081 -58.273621
-48.099514 167.302048 -72.475380
-150.780319 200.684067 -76.425621
-139.480255 297.842072 -78.228432
-151.076416 242.153534 -76.042351
-75.394714 127.377365 -62.842350
12.867018 255.318085 -74.837524
-41.666801 169.428207 -72.970924
47.705391 105.686836 -61.465054
15.657361 194.762772 -64.215767
-154.904404 265.278290 -75.133705
0.163920 277.988464 -58.845013
-151.508072 292.886108 -77.979301
29.964987 28.485456 -54.399139
31.657518 171.491394 -68.293816
-39.114193 160.461914 -67.851295
91.545074 72.542786 -58.557125
-142.649246 301.750336 -72.771889
-144.701584 271.297394 -68.897041
-76.331177 113.243538 -57.346340
25.208647 144.321487 -70.612846
81.213036 68.764236 -58.496708
21.679611 232.836884 -68.588974
-29.678194 179.316010 -64.838814
-145.687759 307.652222 -61.935047
81.885254 114.330353 -62.403286
-143.750092 304.301270 -76.330582
-1.703284 256.582367 -57.049789
-45.279827 161.678970 -76.091248
-91.692924 138.427399 -59.280594
42.629101 25.347649 -60.469296
-129.994995 302.578430 -60.716965
34.032234 28.727896 -63.022587
24.310093 35.540604 -59.517860
-44.184238 175.651352 -67.246094
-72.929413 117.615662 -53.038132
-38.094078 54.941994 -57.425438
-30.327641 220.139404 -74.748428
-13.586498 268.847626 -65.468361
-68.492577 53.893040 -53.055511
-129.671829 263.679535 -60.692806
25.995628 188.659821 -67.230011
105.026840 80.679504 -54.435444
10.077384 201.395966 -67.294769
12.599752 166.117447 -65.829514
-93.845825 77.215050 -59.645317
-26.215633 188.800629 -59.685043
3.461180 271.782257 -56.410511
-55.521091 55.964058 -62.931389
18.347227 199.969040 -69.785294
111.210251 151.016159 -69.635033
-52.453293 180.601685 -67.270302
-143.785324 268.825592 -71.571800
87.204460 221.713287 -69.440620
37.559528 267.153534 -63.833206
-148.601288 238.238602 -62.216644
15.490427 240.742096 -72.609840
27.996883 158.025330 -60.545914
-6.426290 222.023132 -70.365456
61.110687 93.459335 -52.149517
32.542847 168.493530 -70.605835
-28.198503 57.547142 -55.639519
101.249321 104.168533 -58.113453
17.880339 192.252594 -60.703251
-84.563782 80.365173 -69.375099
24.381781 193.371964 -70.532242
-95.728294 108.037254 -60.930157
-17.966993 221.436371 -61.855179
-5.948350 239.526749 -65.630577
-58.090736 53.039886 -53.994091
-25.879194 225.480957 -69.968788
-160.589066 240.753952 -64.203865
-75.216995 115.388344 -56.008087
-148.749893 309.366089 -63.543026
5.699666 257.677307 -75.144775
-161.406708 225.146530 -63.347095
1.458588 233.504944 -67.010857
-12.869465 209.902374 -65.076668
-96.844910 125.878525 -58.953026
-32.744999 251.462082 -73.581039
-68.800110 260.461700 -65.627373
-69.729904 79.073708 -75.359535
-77.971016 68.299278 -66.942955
-19.798433 209.793198 -72.509468
-53.762901 151.105576 -62.659821
19.492111 175.313416 -63.006981
57.610142 256.621124 -65.634438
-51.504307 164.836426 -69.631226
-97.289253 130.692627 -62.980251
-0.731940 245.887543 -69.443069
-2.670150 248.909760 -64.850525
42.832554 23.470482 -59.085041
-120.828423 295.447235 -59.750256
-151.214447 214.058548 -58.863605
-10.970687 74.349869 -58.811073
91.632195 217.610367 -65.338867
-143.284164 272.632843 -65.070633
-144.267227 217.757568 -67.824776
-14.793469 80.739990 -60.918003
-165.345886 229.629532 -64.954865
7.527092 233.232697 -66.008629
-74.654549 54.730686 -59.349834
-13.739016 192.295547 -70.994461
-7.014288 74.747368 -58.651321
-28.771528 225.624161 -66.050789
10.599029 252.155197 -66.765182
-142.913864 269.119110 -73.987518
-103.008949 179.454300 -54.797485
-154.290787 265.114227 -76.760368
-145.967712 276.628845 -74.232574
50.362965 33.266998 -65.033707
-69.550117 148.046707 -65.697243
-73.766449 110.029488 -70.794846
-13.714359 216.491089 -73.214088
-64.051178 105.870987 -82.399162
-77.841515 133.513550 -59.216923
-46.378738 91.866875 -64.859314
42.967449 132.279419 -69.175293
-84.860634 136.970856 -62.864655
-97.077309 155.741058 -59.020500
-148.670746 196.184509 -73.161224
-81.187599 99.440536 -76.145561
93.473106 100.097214 -67.961510
-26.936863 62.853107 -62.721371
86.711281 70.542885 -51.942711
12.981843 221.884933 -70.752716
-146.104538 301.296967 -67.510765
109.972893 193.857803 -64.943176
16.825451 196.964615 -67.441124
23.505384 173.278809 -64.436562
-17.112659 273.739532 -66.464760
30.365215 267.779388 -59.908985
-58.956558 103.989944 -74.797073
-11.844010 259.102997 -60.241779
-61.243839 127.715927 -59.761585
104.616402 203.151321 -66.291901
-164.167953 260.020325 -63.936016
-71.084534 99.640900 -77.830864
-27.411985 195.235107 -59.963383
-4.536779 231.019043 -71.850304
-81.148323 112.618874 -79.850021
-155.283417 312.684753 -68.197533
-142.748718 252.084671 -63.815926
16.414690 226.841064 -66.155403
71.828766 93.919518 -69.554802
-53.335396 300.745026 -71.582649
21.395393 191.274216 -60.886368
13.741735 224.351974 -69.011299
-64.744743 108.975685 -70.060829
-72.264534 110.600838 -61.089897
-150.339951 253.099396 -71.636253
19.944443 207.983994 -67.637329
-73.537682 111.596100 -71.409592
-3.952580 228.759567 -72.554314
-147.469330 235.380203 -54.015572
51.399582 103.738266 -57.057842
-146.439056 211.820023 -66.408371
17.808537 268.212921 -68.385094
-151.243851 253.640762 -68.132782
-69.749458 98.860664 -78.106003
110.353401 155.816223 -67.957100
20.054325 244.425003 -69.940201
43.811867 120.652863 -72.294502
31.651239 156.410309 -64.925636
19.598267 185.586182 -66.417862
-53.630405 94.621078 -80.174347
44.237583 126.700310 -67.672134
-49.478626 90.392738 -58.119843
47.107445 110.183670 -68.726715
-151.888336 253.172485 -58.493320
-75.496231 105.922882 -80.770821
-8.606834 67.458755 -54.729065
-40.988361 182.668289 -68.615143
41.579468 131.140076 -73.088638
-129.229462 208.336929 -66.687332
107.912590 190.635422 -67.033134
-83.906906 138.271973 -64.215958
-150.361008 307.496857 -61.562515
13.580094 230.973175 -73.669563
-89.051056 144.622025 -64.696960
-51.347897 146.541443 -67.449425
-119.788605 209.352295 -57.646111
-158.065002 274.143341 -67.873703
27.160427 272.778870 -65.272995
18.728258 192.654831 -69.653778
-155.984543 284.441925 -65.035782
-27.612188 60.271580 -58.133503
-12.893277 233.446075 -67.176956
11.563549 222.355865 -72.704643
-104.439438 184.366898 -62.538181
-144.062943 200.715515 -62.546837
-155.472351 291.437012 -60.333130
-9.062814 245.680374 -62.345554
-59.636303 50.211292 -53.306278
-149.588348 288.270416 -73.127098
-13.558432 189.249817 -71.811111
9.155774 167.897720 -63.519867
-143.437912 250.092209 -65.112389
64.647110 253.820786 -66.359947
-45.141777 167.061340 -70.808968
-62.425713 173.461594 -73.347656
-159.273041 213.856552 -62.321316
-46.797623 209.890442 -73.824081
39.431374 44.840725 -55.907288
3.188669 278.494965 -78.883408
113.594810 164.609772 -67.065445
53.815895 95.548050 -65.112442
-148.092636 246.624817 -60.506348
8.370881 220.722931 -70.510452
-138.449692 204.152756 -75.040520
9.203451 299.929749 -62.037247
8.736403 284.197357 -50.531326
-50.424679 91.735268 -81.724625
-42.724300 256.721069 -74.930260
79.722054 240.517502 -61.143688
-165.925903 269.261383 -65.888504
-79.236473 112.362999 -64.638283
26.584318 37.813271 -57.258228
-151.679810 302.457153 -57.088634
-57.069885 153.485580 -68.433754
-72.382278 109.484764 -67.608688
92.198792 217.486694 -64.728951
-58.114643 123.194923 -52.997715
-70.478195 57.702442 -62.201996
-0.169222 172.283340 -65.664215
74.550835 110.720558 -67.729942
-154.518661 228.638184 -66.029846
-147.234451 247.600098 -64.902336
-87.347710 113.758575 -73.389763
9.229035 201.893509 -68.085777
-96.469276 164.156235 -62.207111
-98.790314 119.847313 -59.307823
52.713123 114.266273 -66.967842
61.459816 90.446701 -60.973824
80.050812 87.675331 -68.546265
82.254433 230.973190 -72.478317
-38.603283 254.992554 -71.979706
-5.144218 282.586823 -74.493698
45.838661 45.715736 -66.911499
-21.609922 64.279976 -59.104504
-45.204571 175.867950 -66.645638
46.596100 129.197342 -66.673630
23.323631 44.915249 -60.962948
-146.835739 313.080566 -72.265732
-35.888214 182.137070 -71.674187
-142.196991 262.684662 -64.996902
-46.320107 205.597198 -69.748604
74.192810 110.703156 -63.326344
3.572860 252.957993 -69.243996
-28.740660 299.354828 -65.342537
-9.557823 275.595398 -76.600929
-74.012177 166.679535 -72.024193
-128.168320 275.202484 -69.945801
44.217842 32.973862 -55.716740
-44.701710 93.968842 -77.148033
82.794319 232.166122 -68.213371
-32.612820 298.259369 -67.057510
-108.089455 236.282593 -66.771591
76.709900 77.661530 -63.240227
-25.053823 298.793243 -72.285851
-4.277280 299.693512 -70.150703
-46.178448 170.622421 -67.399757
-150.324799 316.443085 -72.247551
-126.496437 235.183853 -58.557266
-67.998512 87.520210 -77.053604
-83.581108 136.729736 -61.586647
-53.330994 151.408432 -60.616634
-60.757015 143.566376 -55.173996
-8.112719 254.252686 -55.670849
4.364125 221.858765 -72.837013
63.853622 101.212784 -52.384083
24.188513 168.455322 -74.804817
21.727661 184.654999 -73.585213
-63.501179 301.485504 -68.253380
-141.430511 243.203384 -73.789230
30.494516 145.112289 -65.182838
-34.868881 177.606293 -72.751816
-152.352966 237.922577 -56.081608
-68.189796 214.361023 -77.980644
-54.002720 296.609650 -68.129280
-68.145981 152.324005 -65.241585
14.801693 180.246155 -67.487167
13.730433 161.275604 -69.976578
-22.727036 227.004135 -68.637573
30.012253 149.287369 -73.434578
-45.099712 56.954018 -56.017841
54.043751 96.157883 -57.442699
-47.679745 56.459293 -63.558830
-142.006958 207.665207 -73.985001
33.811798 22.331663 -56.957355
-8.304813 248.175644 -57.702465
-82.881538 118.331551 -76.091743
43.960007 113.594246 -68.053520
-18.107431 77.264305 -60.174080
-111.723351 299.156403 -65.786957
27.286528 171.182541 -65.070030
17.958027 204.340820 -70.995712
-87.875755 232.764130 -65.453751
-58.643364 74.056694 -75.108574
40.235542 120.391869 -61.353367
-103.124191 180.722092 -58.127579
94.717949 207.459091 -63.391338
-149.858841 226.675064 -72.496849
-19.012274 224.136215 -70.797180
-148.778503 209.326614 -76.580093
-89.381058 147.993622 -61.820686
51.409031 257.837738 -64.755981
-39.525433 169.350723 -64.702286
98.037704 78.639664 -59.257278
-14.368058 210.837402 -70.680046
30.063749 144.545578 -64.409721
52.523643 256.678467 -65.596184
-60.092476 171.664719 -67.217964
51.016121 42.292526 -58.144970
112.683006 137.667145 -63.220181
-23.187782 67.002258 -62.435215
-95.663780 88.595390 -60.163246
-50.654900 257.980743 -73.411316
113.987831 154.482483 -65.465500
-72.648643 221.129974 -69.897453
-79.050171 93.981026 -79.043121
49.674137 35.580746 -60.710186
-135.309464 243.829498 -61.366093
-66.603531 136.177490 -60.663479
-144.021606 280.861603 -66.282471
92.857597 115.263168 -61.712341
22.060966 190.968323 -63.057182
-156.942245 243.841385 -65.823158
-147.471634 195.964752 -72.781242
4.370708 235.371048 -70.186844
-114.778023 266.924347 -59.877415
113.291656 154.127350 -73.832512
-84.823387 70.859123 -67.213554
-160.883530 259.964355 -62.575974
-55.165440 193.158707 -76.757553
-101.340675 163.854965 -58.262745
-120.581642 243.609070 -59.181717
68.632889 99.550613 -67.679810
-107.953209 204.176682 -64.291687
-97.873344 128.965256 -62.746346
-167.027771 276.672119 -66.506905
-5.740297 240.770447 -70.977249
17.497278 288.664276 -66.349808
-42.404785 175.603882 -61.657242
-39.779789 90.333252 -76.952370
50.548126 97.380188 -57.840534
105.478424 204.825974 -65.581001
99.531708 107.440147 -62.817562
-58.794170 132.228760 -58.830677
113.916275 134.236496 -73.022736
-44.969013 195.761459 -70.252434
-90.934639 70.489746 -60.522980
-30.971334 69.606728 -68.645004
-31.842375 68.431396 -67.568535
-128.169815 242.015945 -67.148651
46.687263 267.198975 -63.303467
0.191524 232.945770 -64.733223
-148.264069 251.882141 -74.309807
-47.974934 193.036667 -71.288185
19.278107 191.130081 -70.951324
24.890844 161.981995 -63.615719
-35.587543 250.786453 -69.527618
68.269722 109.570618 -61.884716
-151.073639 262.794098 -63.139992
-145.273361 298.574982 -58.276951
44.670689 124.774864 -55.033165
-98.881195 98.448303 -59.830685
46.351028 40.149319 -65.959335
52.966827 115.887413 -62.283314
31.942688 130.998535 -70.086311
108.850082 141.766647 -63.138565
-162.481384 216.593964 -63.246052
-16.085779 212.700150 -65.477165
-3.614505 240.871262 -62.580681
-46.218121 55.540291 -56.520966
-30.595825 201.428802 -69.847252
15.816457 249.111191 -68.929184
23.019453 254.372513 -71.236870
112.085686 118.169357 -67.492378
43.778824 109.589546 -67.574715
60.585091 100.765129 -61.242088
12.060771 221.001755 -64.088821
39.637413 29.642069 -64.866249
-134.163513 211.681656 -68.484192
27.910101 160.251297 -63.232277
94.172813 100.900803 -68.314156
-81.707191 109.927452 -78.191994
1.271778 261.669739 -75.589035
-147.007462 201.550705 -69.835594
-148.097946 267.692993 -74.898712
110.621910 181.595505 -68.474136
-31.966696 302.025574 -66.007904
-161.992249 304.419067 -62.918419
-147.103745 307.105621 -62.534981
9.323228 252.824966 -71.817276
-14.728071 212.716812 -63.131672
-76.412292 225.627121 -68.317375
-17.277243 270.254944 -64.514145
-29.289692 84.454124 -76.671074
-154.609192 235.115417 -64.707756
-23.062838 206.678070 -65.720078
-149.894089 225.388275 -71.038147
82.483421 92.001434 -70.191338
-70.261993 149.865555 -67.712486
-149.417862 265.625671 -72.921600
-136.765015 233.768433 -64.289032
-149.061584 216.044144 -61.287487
-21.045143 184.794449 -69.222870
89.638733 232.689941 -64.197723
-128.527924 215.811478 -62.240376
-11.530190 253.454712 -62.795639
-135.533890 214.703857 -61.977154
-151.845825 216.326675 -72.032738
90.549095 224.502625 -64.246338
104.805077 113.092896 -66.827339
-16.864794 234.293289 -68.008034
-45.670029 295.228668 -64.023293
106.206924 206.797485 -66.289207
-78.500587 147.131027 -60.032642
15.465779 205.334854 -68.545425
-151.097427 186.660706 -67.519272
80.370438 70.993813 -54.375271
-23.081541 223.296097 -68.563828
-89.742813 123.967300 -71.452950
-24.747620 185.029297 -69.887634
-63.274467 135.538345 -61.324989
10.986663 162.905441 -64.270447
-60.520187 180.100632 -74.585464
13.443845 301.489838 -66.875053
-148.283630 207.436310 -75.160660
-105.698845 236.188980 -61.596302
-147.101303 194.573029 -56.860752
93.632813 75.059097 -61.204754
8.582726 243.585220 -66.184685
-14.281780 269.224487 -66.095818
20.951231 188.231384 -61.271477
-124.107407 300.403503 -61.632038
-81.488556 135.681885 -54.160641
15.862571 205.852921 -72.953934
-7.010468 233.162933 -67.998116
-1.923941 299.882690 -62.229141
-32.891563 70.625061 -68.882805
116.279404 144.934875 -65.030235
2.708314 297.655151 -71.149475
-83.986595 120.702988 -69.482300
1.186796 285.512115 -75.107483
74.101715 100.271660 -73.975006
99.557976 80.092430 -59.630089
22.240080 149.871429 -55.519154
-50.070133 161.982193 -71.438072
116.989319 142.857086 -67.651382
-44.370686 95.699150 -72.138489
-69.463943 100.543381 -79.336349
-11.146558 220.110687 -71.325691
81.328331 78.375114 -68.858269
-148.671143 221.856110 -71.332359
23.187271 181.206680 -68.176735
30.699039 45.323746 -55.943233
-65.591270 116.733749 -54.787651
-95.299622 162.564209 -60.574535
-144.419357 209.546814 -68.387733
-57.375061 144.868927 -56.016003
-53.493744 54.335724 -61.386501
-32.187828 59.186348 -60.854206
-40.943867 207.674881 -73.508476
51.297749 39.145329 -66.051941
102.098885 99.281166 -60.935375
-154.818832 303.158295 -69.777420
-149.312302 288.251953 -58.157986
-78.639198 128.861404 -63.404526
-19.297728 249.480286 -67.928436
15.187984 214.587418 -71.909218
14.971484 223.037949 -66.109657
-76.001648 117.694206 -61.759548
22.602591 37.070751 -55.894020
-149.081635 196.635117 -73.316765
-5.472442 287.882477 -69.733383
-37.018353 215.967728 -76.498573
-157.386307 209.698593 -62.556671
22.092369 188.674896 -61.032433
97.844643 212.300568 -66.122444
-155.430817 277.938477 -67.677299
-151.648926 311.618378 -75.178070
-137.284729 205.650787 -64.826767
83.101082 110.752975 -66.948662
38.173000 24.788677 -60.947937
-141.145889 239.146271 -57.924873
-155.133987 280.503204 -65.580742
-23.749140 201.894348 -59.814495
-20.646536 214.918549 -70.761269
23.257622 149.101120 -57.089802
77.511406 234.669266 -69.113907
-106.882744 189.069733 -60.016430
-153.670914 188.762344 -58.423225
-54.220459 141.718277 -67.136856
1.760022 302.170074 -66.041649
-76.746925 111.553658 -80.706596
-112.899773 268.002045 -59.715183
-55.776913 253.982498 -72.305305
-151.356903 303.371704 -74.419952
-137.692535 234.833511 -64.244652
-64.216667 74.623901 -75.351814
38.101364 131.043625 -64.696251
79.847153 100.791878 -72.670242
-34.716793 185.621109 -71.274834
7.744720 219.201630 -70.677567
-113.532028 268.645905 -66.376701
-83.687103 121.332710 -70.698433
-99.073944 91.524078 -62.606468
-146.771347 323.625458 -61.309593
-63.521420 160.321198 -70.015335
30.400875 148.594757 -54.710793
20.981236 286.032318 -63.655384
-18.395208 250.848083 -72.202339
-157.866364 301.936218 -63.628662
-56.842419 150.563370 -59.645638
-82.745872 135.078217 -57.708385
-18.450392 251.032135 -66.023354
117.299530 149.362152 -68.933342
-40.441299 65.124741 -68.846329
65.633224 83.045944 -64.094841
50.803249 36.148003 -60.396740
-3.335395 276.044250 -80.386932
51.481609 114.684700 -63.639854
-63.647404 109.330605 -72.048874
17.360832 239.647812 -71.820869
-97.642204 158.643738 -60.507671
34.996006 142.747818 -75.541153
-23.970890 78.526779 -59.350960
38.098495 122.283592 -69.257874
-81.591110 55.685173 -57.020710
-145.501190 246.814224 -79.223907
96.099663 222.965561 -64.030624
-166.746201 273.907013 -65.257629
81.526329 87.877029 -70.814095
-149.395569 266.934906 -76.230522
-45.797733 255.326584 -73.288567
13.037854 227.476517 -63.362434
-146.943344 195.529602 -69.680351
-20.742559 234.816849 -75.986473
2.485158 267.474213 -78.835144
7.313438 226.758224 -72.709503
-6.445324 279.270844 -75.740021
-55.362747 67.246559 -73.536148
0.212566 258.476196 -52.275658
-150.794418 292.504150 -72.160179
8.464045 170.837463 -68.549774
-15.001155 223.155762 -72.267441
-38.193703 175.570099 -74.298096
86.041222 230.723602 -69.113152
24.022223 179.235077 -74.213097
57.107464 253.783401 -69.265495
-147.935913 216.019012 -73.903679
-71.002815 103.205650 -81.552299
-86.837776 114.309181 -72.541237
-104.920624 233.767349 -66.587875
-65.150421 177.134384 -70.916458
-154.464386 259.386505 -72.668350
17.932245 262.332184 -71.713402
-93.373222 230.641052 -68.381844
109.443428 142.243103 -63.998676
4.517456 251.125351 -67.761475
-152.908646 311.726166 -60.531017
-154.374786 303.977570 -61.923355
61.886295 101.229935 -64.145714
14.227343 293.343323 -70.753860
88.759560 224.706024 -62.218605
-40.544357 86.387749 -79.714149
-94.657173 115.343170 -69.070335
82.840508 235.134872 -65.946548
-68.810623 87.865791 -79.654976
-64.391754 109.118355 -75.041496
-59.088779 148.132675 -62.104294
78.622871 240.655396 -63.864677
-95.905388 261.815460 -66.396446
-11.466702 220.690140 -72.237289
53.492779 115.549644 -71.524895
20.725002 190.479141 -73.834633
-136.427963 266.487518 -61.346504
43.292152 112.416260 -69.461983
46.416172 105.718254 -63.981998
-118.327202 300.685425 -63.381973
-64.055893 297.387146 -61.916512
105.140793 108.947395 -64.798904
-99.854401 229.692566 -64.305473
-165.743210 286.534882 -64.640610
-39.825191 162.026276 -64.413200
-83.935654 301.338745 -68.384026
-82.444054 123.561073 -56.022293
-150.556107 225.001602 -67.440979
7.410344 254.578278 -57.327068
-144.192612 228.677460 -59.377731
-152.464050 275.449371 -72.483345
-145.705780 297.430847 -59.904057
-89.926292 68.520866 -53.640404
-163.831177 266.066589 -69.178230
-121.412270 266.462219 -63.596897
-112.374016 240.465607 -64.052116
-97.910973 76.822990 -52.623512
-141.134415 287.592438 -65.264885
-63.356236 168.668259 -72.420197
109.577843 108.823967 -65.766434
-13.306865 274.401520 -66.441811
-64.484131 119.741837 -56.305691
-56.419243 90.590721 -79.997635
25.873957 145.431549 -71.436592
-107.888115 176.645935 -60.557663
-69.551575 130.051117 -56.072727
-83.264771 266.032684 -64.885742
-144.163422 217.121094 -67.791580
-10.771261 233.601013 -65.700607
40.226955 26.900652 -58.598289
-7.659457 182.349426 -75.124992
-125.638420 205.082397 -56.423496
-1.503149 241.984329 -73.965622
-95.987976 128.589493 -56.751053
20.945215 234.724503 -70.428185
-155.704468 226.080353 -63.861954
-71.341942 257.532684 -64.910896
12.762273 252.544281 -73.042976
-85.602348 138.733871 -62.578953
-54.611668 150.972336 -56.912819
61.910732 249.954559 -63.662277
-161.872177 246.875427 -69.152138
-43.846375 209.247971 -72.800201
-75.260849 221.086792 -75.597939
-75.116478 160.038147 -66.226997
-17.198473 205.011902 -73.918846
11.370322 221.118469 -74.999817
107.291702 121.794601 -64.102089
-30.143551 185.484421 -64.604614
44.779079 130.208710 -71.283134
-1.420491 231.051651 -73.339287
-158.930481 248.608521 -65.045761
26.756428 51.001137 -56.998894
-24.178635 196.850189 -71.788551
115.297729 179.934280 -68.367340
