# This PCD file was generated using the MATLAB® pcwrite function
# from Computer Vision Toolbox®.
# .PCD v.7 - Point Cloud Data file format
VERSION .7
FIELDS x y z
SIZE 4 4 4
TYPE F F F
COUNT 1 1 1
WIDTH 1425
HEIGHT 1
VIEWPOINT 0 0 0 1 0 0 0
POINTS 1425
DATA ascii
110.854652 -67.514153 -114.343971
-61.263287 -55.711437 -66.838341
-61.534126 -75.360893 -167.292801
17.867134 -71.042091 -172.513184
-11.430994 -76.150757 -230.046310
26.223808 -78.427750 -179.812256
39.501335 -78.420876 -124.519157
-39.904552 -80.041924 -243.503571
7.702775 -85.183403 -257.538849
15.516376 -78.151451 -218.498077
-10.334014 -70.487679 -242.856094
35.865215 -72.079437 -113.955093
-116.906136 -73.323044 -289.946960
18.745533 -70.990189 -210.303162
-17.676748 -38.755142 -60.151257
21.125053 -51.804184 -285.424957
111.776321 -68.993202 -110.209816
26.065924 -69.544952 -26.053350
-148.956818 -80.165237 -286.703033
-40.876030 -81.742470 -192.900009
-112.135017 -63.747894 -196.874039
114.600861 -75.330467 -129.411819
101.974861 -46.362152 -69.878311
-123.324921 -73.418304 -286.639038
36.625755 -68.636002 -130.188400
83.096298 -53.764385 -93.052216
38.818787 -59.335136 -119.977325
-150.108749 -61.017738 -200.889343
15.854159 -71.094826 -227.393555
-60.387360 -62.249340 -116.332893
-114.956322 -72.655121 -255.524460
7.384015 -79.303070 -226.686966
91.621384 -76.311043 -95.619400
-20.800810 -73.776031 -61.199253
82.498131 -47.622112 -107.855682
-15.190987 -56.092579 -49.680962
96.305214 -68.732750 -71.411659
-115.983604 -72.848518 -292.323975
-91.520882 -76.382660 -214.566849
-69.577797 -74.258469 -150.426743
116.301292 -74.497932 -132.408829
27.303358 -64.982849 -263.778290
-60.835567 -52.397991 -116.593445
60.788631 -70.682785 -84.693741
-106.538666 -69.571838 -255.686813
-60.431602 -73.776123 -168.008179
-15.724789 -71.131500 -264.775024
-49.497772 -39.326515 -72.990486
95.835121 -53.712727 -87.538918
9.184239 -50.323776 -236.634003
-90.011856 -70.558769 -251.636520
-62.383087 -51.973789 -57.678604
-114.605598 -72.030533 -228.713364
-27.103806 -75.707375 -212.148773
-7.525952 -78.454895 -270.477783
33.514099 -79.082726 -147.954758
-48.079704 -76.659821 -242.102097
103.383957 -59.914173 -77.136696
-18.072315 -56.654865 -256.765564
66.125977 -48.065228 -78.695534
-81.403305 -70.254715 -127.993004
-147.041672 -61.951603 -244.284653
-29.118982 -73.368546 -189.359451
-48.266575 -81.926247 -183.358109
8.048473 -52.664982 -260.537537
-47.452763 -74.139664 -242.306656
-44.591606 -76.766487 -164.040588
72.163078 -73.874016 -91.961464
19.180716 -64.334633 -284.611786
-73.258507 -79.896713 -69.593300
-31.423267 -76.126190 -211.821289
-47.398140 -82.427818 -83.653130
27.970760 -51.951637 -253.723526
-16.130592 -76.584869 -213.118546
99.702995 -46.682678 -103.627266
-160.203598 -74.657463 -249.143707
7.667539 -54.252510 -242.390701
-9.168604 -79.460007 -219.877945
100.658707 -43.340309 -68.868828
-5.579514 -74.779907 -241.995956
-64.579948 -78.651947 -93.946053
-5.509299 -71.689812 -287.272675
33.361046 -68.169571 -257.770905
-5.295535 -80.232300 -218.585617
44.497028 -53.611801 -15.319098
-49.416000 -77.752632 -147.170532
-54.921185 -50.300938 -45.354923
-141.909637 -70.668304 -204.344498
24.804501 -68.985001 -261.872467
-52.351093 -74.030663 -147.451370
113.478203 -74.351517 -152.866379
65.344093 -71.298943 -238.360870
-22.777395 -80.908646 -185.690582
-60.226376 -78.247543 -61.149715
111.358704 -70.575089 -125.846092
-144.228928 -67.904892 -206.860611
-0.073245 -49.262459 -254.000793
12.560041 -81.082253 -234.919220
-28.715593 -72.367645 -78.724503
-32.670177 -79.265327 -178.940018
-148.349213 -82.176933 -216.642075
-70.847496 -57.033165 -108.448685
-41.601402 -86.387215 -197.331024
42.313011 -71.507095 -121.779152
-67.381554 -20.635988 -82.499359
-147.262421 -73.598732 -221.886887
-19.489176 -65.498581 -201.496033
-56.085514 -76.401299 -248.617233
-4.464801 -66.702278 -232.984024
32.160675 -67.137894 -254.166443
-131.490829 -72.231102 -196.459579
-51.290699 -80.283287 -63.670647
-45.035782 -81.232452 -193.193558
-136.090485 -77.247894 -197.613266
-147.280914 -63.966328 -283.492706
78.116035 -53.406071 -57.627598
40.695324 -61.078396 -121.015251
-123.152969 -64.425385 -200.689590
-58.450756 -56.377785 -83.145607
-50.258511 -66.166077 -136.352600
72.308113 -54.859470 -93.505943
-92.098511 -69.227013 -66.106094
36.040089 -77.662231 -123.919128
-12.478536 -40.470333 -57.421391
-89.585030 -68.316185 -117.177170
-14.706678 -69.636269 -216.769226
11.903246 -50.129932 -284.106140
-74.613037 -81.504768 -72.748405
-148.846878 -67.577354 -179.927551
-57.312683 -72.184784 -291.120392
18.496538 -51.816654 -282.016052
-50.777588 -68.908928 -130.068329
-135.577377 -75.801010 -288.724823
-57.187950 -67.635864 -146.390366
10.276555 -67.936134 -292.026093
101.893349 -77.283577 -193.163696
-148.530807 -66.107269 -175.439758
-118.491150 -62.914692 -199.528687
87.845894 -76.335037 -78.357491
94.570145 -44.162258 -55.455696
-73.842552 -78.093834 -209.507736
-78.329895 -54.950401 -113.406952
86.262436 -68.014030 -64.865952
22.521322 -61.062668 -137.014465
0.558682 -66.028252 -272.599030
-134.107697 -74.107407 -263.366516
107.484398 -72.849701 -101.769394
105.468605 -67.411263 -108.489517
47.176414 -57.732498 -116.947235
-51.759415 -78.254227 -184.065125
-73.738815 -69.160400 -107.986687
-143.764862 -68.576485 -251.744003
71.154968 -45.859589 -58.916580
16.235554 -50.636627 -290.046295
-60.275848 -43.906010 -87.990547
-153.063126 -69.991035 -254.862152
20.681334 -50.042290 -29.360319
-68.667198 -20.518816 -86.365234
-78.453117 -70.354858 -140.051956
59.441917 -48.114948 -80.237808
-94.845024 -72.125473 -83.468452
-148.934586 -78.470619 -230.534378
-67.478119 -80.251991 -69.875847
-83.214294 -62.751728 -118.890572
-84.861862 -22.158228 -64.255157
-96.244392 -58.908070 -60.111763
-97.345627 -67.353020 -83.980301
22.235826 -63.649200 -19.979721
-120.035385 -73.983353 -286.952332
20.554712 -68.342201 -249.116714
46.566071 -70.609459 -18.069395
17.854614 -64.307022 -152.467361
-79.455223 -65.604858 -135.545319
-109.048187 -65.786514 -195.607819
-140.054199 -70.786812 -181.717957
-14.094716 -54.442116 -266.233276
-67.572998 -51.757813 -116.307396
-87.552086 -46.598465 -116.657204
-4.711722 -72.806107 -247.256882
-74.800003 -67.733330 -136.825729
-35.464756 -78.654892 -68.283447
-83.684135 -23.052069 -95.835472
-12.523455 -74.595398 -239.061523
-97.933861 -52.172039 -113.684875
10.180761 -73.040092 -194.994583
104.202187 -63.182148 -88.855721
-99.965691 -56.471577 -73.933357
-4.510908 -77.096703 -214.801712
-145.142853 -83.053284 -200.400589
94.022591 -56.039234 -99.778481
11.664727 -52.554138 -282.582367
-50.961834 -68.070694 -135.205032
-73.749748 -52.622402 -42.989105
65.805176 -59.532467 -91.928505
-11.235194 -41.476387 -57.163311
108.647507 -66.124321 -109.312889
-42.983204 -76.381393 -199.960571
40.047607 -70.832565 -115.012070
8.951562 -73.264336 -152.316574
-40.657871 -55.667316 -78.497231
55.419853 -70.234428 -241.993286
90.807907 -75.466087 -95.871696
-149.783936 -61.216408 -202.116791
-76.173714 -64.946228 -101.791359
-144.014053 -73.707993 -265.469727
-47.257816 -82.854149 -194.639496
-149.399155 -74.126678 -257.329376
-115.920937 -65.104767 -229.219757
-53.656734 -38.023487 -61.437881
112.172699 -68.879913 -133.337860
-96.083099 -66.352852 -253.428467
-145.654327 -81.042297 -205.294815
3.874210 -70.592270 -157.935394
-47.026669 -70.259720 -154.184143
96.937431 -42.194317 -68.089066
24.826223 -51.962547 -21.185776
-14.754452 -78.317444 -197.450760
70.693626 -46.769882 -76.166420
34.014442 -77.345955 -144.955460
-18.724319 -68.984009 -209.931625
-57.189182 -70.367157 -128.525803
-83.291840 -77.275101 -67.320969
4.103781 -49.820141 -244.218079
-84.085602 -69.962914 -118.132217
67.633446 -50.250179 -69.068626
-53.391701 -36.569252 -59.842644
25.197571 -76.146111 -144.438644
-160.609863 -68.694984 -262.720581
-11.265956 -49.535728 -52.255409
-143.941574 -68.369797 -213.485443
-142.290756 -66.491272 -188.814438
6.709939 -69.076355 -159.453293
-148.016159 -80.613808 -270.427612
61.991150 -55.434780 -98.909485
100.629242 -72.030922 -90.727333
-76.485649 -63.572754 -117.598763
-55.666973 -40.136257 -71.779854
-62.740547 -86.933464 -91.196815
-24.626890 -79.492538 -214.632355
-17.606276 -57.653145 -261.569214
-65.883545 -50.004044 -59.497658
-142.043839 -72.001907 -225.500214
-151.608276 -62.999798 -258.822571
-123.755783 -72.192215 -226.460938
70.189064 -66.796471 -231.065613
-91.469421 -70.001793 -218.335403
-45.420326 -78.068352 -191.980469
-74.801537 -23.825396 -101.407265
-5.147278 -53.286465 -241.113861
-54.538155 -78.062279 -247.002182
106.865685 -72.491074 -96.563126
13.587469 -78.757454 -205.291412
-13.195387 -56.279388 -270.920502
-146.132202 -84.538383 -270.384521
-10.897349 -70.192436 -279.487427
49.304096 -66.074028 -92.930313
-134.467590 -77.056763 -199.030701
86.541664 -72.986931 -217.970917
-146.001282 -68.373177 -241.872833
31.361927 -70.014671 -17.103415
-81.524216 -73.161987 -213.180328
-57.600464 -32.237869 -86.524338
72.212433 -46.760700 -111.884239
73.903961 -77.303360 -80.796928
21.014389 -55.817303 -275.676971
24.872351 -60.162655 -135.664444
54.510712 -66.176514 -86.941063
72.025635 -71.668259 -239.243576
2.725727 -69.268333 -227.489502
102.633926 -45.105831 -81.842407
-144.674576 -71.270508 -194.752930
-148.417831 -73.344955 -191.687851
-126.465500 -66.509491 -262.526672
-145.584290 -77.489471 -209.434982
-6.232811 -68.658257 -223.967102
-89.959229 -53.446301 -121.929665
-12.889439 -79.440048 -178.305038
-51.395508 -84.074127 -79.761269
26.268267 -64.781403 -269.276581
23.768154 -72.618042 -182.467972
-0.979563 -72.725403 -238.153122
-150.016281 -78.883232 -268.625854
59.781788 -72.454727 -89.272293
-88.413399 -21.535158 -89.123329
-15.825405 -55.787735 -241.784607
60.247444 -68.718391 -95.681946
33.702759 -57.074596 -40.114689
-161.209229 -73.449272 -234.211990
-15.823554 -46.103142 -53.473560
-81.601105 -67.895920 -114.197311
-5.525181 -66.608391 -258.410309
-64.426750 -75.291214 -93.477531
43.211353 -56.110409 -120.690933
-66.240959 -36.385651 -99.944557
-84.741531 -39.220051 -107.083527
-115.450554 -66.114845 -230.471268
-39.995762 -81.981033 -75.710045
-51.572819 -79.416573 -244.251328
-133.319473 -73.611214 -227.097595
-50.269321 -76.550346 -185.960220
74.643822 -53.756027 -79.282417
-107.188080 -73.411789 -260.009705
-74.864899 -77.422760 -62.623737
77.381981 -47.272316 -56.709293
-6.034907 -74.382301 -170.494568
-71.624809 -80.589546 -207.850082
-38.377613 -78.244087 -157.272934
-149.113876 -82.008171 -290.357056
107.813293 -74.752243 -129.495239
-90.984245 -65.469482 -121.772675
6.883644 -57.514839 -241.246445
-20.260830 -84.893066 -180.911102
43.974228 -71.643440 -98.535561
-71.359955 -73.821579 -141.132980
-127.267586 -64.941284 -232.547668
-44.049400 -73.237679 -51.414852
72.102066 -45.567478 -72.422371
-27.231249 -72.303902 -176.881393
-98.063004 -67.838943 -221.486145
15.623784 -79.461739 -206.856598
78.270515 -45.464600 -106.839729
-76.679237 -66.803520 -104.483810
-78.482231 -61.261711 -129.886047
-146.492279 -66.317085 -199.314407
56.227489 -68.084618 -240.671844
102.326698 -44.233543 -88.567909
65.182587 -61.591194 -75.878990
20.866461 -63.788193 -147.067795
41.802761 -67.883965 -254.031845
64.394310 -49.180882 -73.365135
92.377327 -75.465790 -89.407570
61.449757 -49.806591 -77.070053
48.122856 -70.942337 -18.028175
23.747835 -72.702034 -140.686096
65.437233 -63.050278 -82.244377
49.407505 -76.883125 -102.770325
12.412813 -84.388222 -238.024216
-12.222215 -70.053688 -275.715118
-48.161739 -84.938751 -200.861572
79.975800 -66.928650 -107.910355
19.637413 -68.816788 -194.814941
-125.293419 -73.155678 -204.050110
-1.431295 -67.429474 -292.943054
-39.135025 -72.722809 -169.062393
17.388716 -81.366920 -239.683563
-12.988480 -49.616653 -51.581539
13.425481 -79.662544 -207.445435
105.098923 -71.259705 -96.026688
-69.961060 -65.711121 -46.296268
-53.689610 -83.368065 -93.386101
-59.548485 -40.938828 -49.920441
-60.163509 -47.194313 -52.629841
113.569267 -75.056511 -171.562759
19.763000 -67.614517 -184.091827
12.656112 -59.465805 -244.626450
78.510437 -71.602737 -230.839813
-58.573532 -65.267319 -117.543381
34.096859 -61.827225 -131.111847
72.579964 -56.067341 -88.543945
-75.665039 -43.332615 -104.012619
21.518721 -64.883698 -17.890755
28.046022 -71.551743 -174.355225
-146.992340 -69.483856 -175.567703
-56.925713 -74.051949 -138.447662
-47.859955 -59.255859 -44.749454
-52.134544 -54.689434 -44.995087
-0.681080 -85.028290 -255.894958
-135.823883 -83.398140 -199.232635
-97.170135 -65.779892 -93.178955
-45.121944 -81.653282 -154.850800
-140.853104 -65.004166 -228.035782
32.669174 -74.383415 -147.736786
36.840191 -71.257599 -133.013092
17.057749 -49.409962 -236.662292
10.585646 -56.380867 -284.899811
10.260955 -53.113487 -241.382965
82.488197 -46.967632 -90.188591
-65.768723 -74.988846 -157.079895
97.642120 -72.668365 -79.856308
-148.722412 -73.483192 -176.626816
-143.276459 -69.917145 -221.803513
-102.920052 -68.484924 -169.951904
-144.986160 -83.809967 -217.085022
16.339497 -81.853638 -248.023132
-126.656387 -63.060143 -260.581604
-46.909283 -82.211739 -201.832428
-4.082717 -65.655350 -284.258148
-40.726742 -79.182793 -168.672256
-1.064777 -73.058228 -291.071594
-52.182583 -44.186787 -49.094639
103.060341 -57.968800 -101.065819
95.817909 -45.254868 -60.601524
8.727237 -84.398476 -256.773438
-142.339905 -71.469955 -224.365829
65.979240 -64.747681 -74.816589
28.024883 -51.880276 -271.934113
-97.504349 -45.860233 -62.597733
-110.068184 -71.797035 -261.653534
80.842575 -45.823559 -83.807594
-54.416592 -63.337090 -121.128777
68.084145 -47.942627 -99.401657
63.454453 -49.131866 -99.936729
-51.305042 -66.764046 -140.947571
-151.598907 -78.730103 -247.238174
-68.999405 -82.440407 -78.686676
-81.593803 -58.701721 -117.148460
24.489716 -56.632240 -269.092682
-155.036957 -68.021957 -227.262619
67.134651 -46.665100 -106.253174
4.744628 -51.655590 -241.423325
48.299408 -76.973206 -111.375053
-132.141556 -73.078247 -225.363113
-76.896912 -71.262520 -211.204056
-62.350807 -44.110825 -52.761707
106.444168 -74.332306 -180.521255
-15.279146 -74.564804 -237.602310
-69.344856 -60.561516 -95.619629
80.498604 -44.843903 -96.691200
-56.950359 -31.585497 -81.292343
-62.104511 -24.670187 -62.220680
38.873207 -56.156845 -11.192601
-78.398773 -81.960106 -104.888489
-167.881699 -68.069771 -242.499023
-116.364502 -73.061218 -256.486725
76.605171 -49.340378 -56.157833
78.311737 -48.102207 -68.027290
-144.510605 -80.606506 -233.858536
-9.012177 -69.120583 -241.266342
105.939194 -44.580963 -90.322212
29.780685 -71.900375 -135.188004
66.234161 -69.047539 -83.379036
-14.912477 -56.251534 -256.766968
1.388189 -82.431198 -276.593872
-18.524361 -65.262779 -53.364563
-135.075989 -69.265434 -285.252136
-132.384735 -74.341255 -232.494598
-28.320381 -68.551544 -184.432571
-59.053341 -57.119133 -123.791451
-66.867561 -76.023438 -157.471252
109.018036 -67.985687 -121.522324
-71.411171 -58.832623 -109.880943
73.516350 -60.778526 -108.162201
-79.755211 -79.852051 -214.207108
-51.211483 -63.650764 -83.024399
9.005037 -78.507668 -246.719452
-11.805814 -50.242317 -250.254242
2.984200 -78.857788 -279.980560
-18.168535 -78.580994 -288.037354
69.098297 -46.763847 -63.013973
37.308735 -55.316250 -11.741872
-146.451904 -84.300331 -208.487122
-13.085153 -50.253788 -253.084259
-100.208687 -45.938812 -96.985046
46.927017 -67.773987 -107.637222
-145.535416 -62.737209 -263.910645
-6.127271 -82.690460 -268.842682
-17.107897 -71.023300 -195.227509
81.919029 -76.557693 -222.109604
-95.341835 -71.711975 -253.081879
-73.047615 -76.020737 -148.540283
32.750973 -72.886299 -161.689301
-56.772373 -84.117050 -92.637779
-44.185307 -74.239182 -198.977051
-12.670361 -69.095497 -257.824158
-59.948559 -70.072868 -129.453598
-74.362457 -73.744720 -138.399170
-156.209549 -75.307617 -294.645752
-134.234604 -81.120293 -197.277130
-66.007919 -78.428757 -60.699295
82.816772 -52.829926 -94.903137
47.755825 -59.163364 -32.815887
-3.790215 -66.962311 -237.025436
-142.851776 -61.911503 -262.125214
47.368824 -49.741653 -32.601967
-146.937790 -75.115990 -243.248245
-20.788301 -74.379753 -291.297424
66.017494 -47.915482 -73.451797
21.429649 -53.211922 -35.168262
41.288746 -75.978088 -108.301155
-150.874817 -64.917953 -266.411865
53.612892 -68.484711 -91.001472
89.454536 -76.744156 -81.005127
-36.104000 -42.522415 -62.968540
-159.987137 -69.174164 -260.265778
-59.506176 -69.022804 -127.498993
82.678764 -48.211327 -55.601345
-150.163300 -74.727890 -276.859802
5.048022 -73.382553 -227.055603
-39.295330 -80.614044 -245.439240
-98.621513 -58.778542 -67.445427
23.067453 -49.814312 -283.114624
-58.925011 -29.670881 -83.560638
-149.573822 -82.325111 -187.808731
-10.211107 -75.883308 -175.857697
-156.682846 -69.362411 -291.462555
-2.587054 -70.986954 -221.299728
-17.094610 -66.574043 -203.380936
-150.410767 -62.332401 -222.593018
-37.649403 -41.463490 -57.197399
-82.247772 -20.080523 -69.450005
-152.207153 -71.278976 -186.351059
-36.184387 -72.910812 -159.580460
-49.264824 -75.726318 -245.579834
-79.046074 -81.301468 -212.019440
15.105738 -75.937469 -196.774780
19.721294 -67.576042 -172.416031
96.806190 -46.157188 -106.968430
-11.728776 -73.043747 -248.355087
59.975258 -47.657948 -88.818443
65.174622 -54.171703 -67.168755
-99.545708 -69.406418 -223.002365
-139.620636 -82.530411 -227.937744
-77.187645 -38.674114 -105.601555
107.636108 -72.482460 -113.139870
-87.404678 -75.903748 -288.084900
88.787582 -70.909142 -221.401382
13.885702 -75.697868 -246.968536
22.698158 -67.164650 -176.030319
75.261429 -53.026165 -98.100426
12.221674 -51.669636 -293.843323
-143.008606 -67.118492 -194.514053
-86.455299 -68.039726 -136.535675
-4.571768 -49.176437 -261.670105
-113.886330 -66.507942 -201.831100
-94.623520 -66.069969 -67.578804
-71.189407 -82.978836 -208.708191
-28.232946 -79.162766 -242.150192
18.843466 -71.518837 -203.552002
-42.403179 -82.416351 -200.463791
22.809855 -60.022133 -243.771210
-107.376854 -66.883102 -186.925186
38.124966 -72.229080 -110.315681
77.288071 -56.044273 -99.512665
-91.940735 -75.794853 -216.824463
103.157028 -44.756062 -79.303635
-78.445900 -64.584274 -122.047684
14.445632 -72.980888 -229.786270
-153.380585 -65.927635 -196.946487
-147.850967 -69.149826 -282.197510
7.903135 -66.733025 -235.668533
-142.972183 -68.415108 -287.735687
109.487381 -72.627480 -118.379768
-68.034645 -86.597855 -96.206367
91.467354 -73.897606 -98.879128
-80.368134 -66.679810 -110.003700
14.909993 -52.123783 -258.716461
-102.308037 -73.427803 -221.172546
-146.771423 -73.686073 -265.420624
-67.654312 -73.041481 -250.367355
9.420270 -55.380131 -237.094788
22.739700 -71.782646 -32.384365
-77.655693 -21.312002 -62.609776
6.520012 -70.533516 -234.048126
-106.330147 -67.123100 -258.005707
-151.966293 -67.409988 -274.117676
-148.208374 -83.269066 -200.094208
-46.951004 -37.019520 -65.472733
103.834198 -65.161224 -90.139572
96.308105 -46.521900 -105.636185
-110.772087 -66.442574 -182.901154
-77.117981 -64.455093 -107.659454
4.193914 -50.987686 -263.380585
-21.726952 -73.135216 -184.095108
-149.693237 -83.032417 -257.106018
-49.522820 -68.415947 -140.399750
29.353748 -61.508522 -259.445313
72.906342 -42.859562 -63.162418
-152.680084 -63.937366 -290.755585
-116.855896 -66.387108 -205.438736
-3.987296 -56.707283 -286.772308
92.168205 -77.849602 -212.547012
-148.531021 -61.592041 -204.982529
-150.663376 -77.987564 -281.388947
2.439260 -52.664948 -235.683746
76.311302 -47.101379 -112.478271
-86.341019 -27.197420 -102.951614
3.230594 -80.665344 -279.865326
-74.606270 -62.819435 -44.693882
61.949509 -50.776146 -82.951912
85.851494 -46.406914 -58.689701
-10.897788 -76.320068 -291.955261
-21.496937 -72.543343 -186.655106
-46.133461 -37.930557 -63.684410
96.207664 -41.797352 -64.935722
-4.277255 -65.491066 -235.073303
51.422211 -60.331005 -106.753830
100.041885 -59.925766 -64.267990
-67.255394 -55.982307 -71.192734
30.080799 -69.019722 -158.025772
-99.946716 -72.520515 -254.432846
46.744743 -52.017494 -17.396587
-84.257668 -19.649368 -74.044106
-4.086856 -80.445213 -250.264053
31.472952 -52.772957 -36.659710
-94.693932 -40.815689 -55.039940
18.363920 -75.975754 -220.381088
-18.962023 -66.253059 -197.621399
-36.065659 -78.090736 -176.790268
-149.978088 -65.473030 -223.553604
-139.438980 -69.406555 -254.878754
22.874512 -68.428413 -185.404846
66.774605 -48.376431 -90.151276
10.783434 -54.236694 -239.126221
102.689445 -43.934048 -84.039177
8.794315 -74.356140 -292.090118
-42.898205 -80.631088 -70.350998
20.369667 -69.857201 -184.772751
-138.538757 -82.770180 -201.992249
-74.145035 -86.676567 -95.922638
12.830381 -75.784058 -198.427841
69.528374 -53.522228 -59.727867
-56.955742 -75.310806 -136.712540
69.167274 -48.309635 -101.373093
-43.517181 -75.443237 -162.541412
15.468746 -50.546680 -277.670563
-150.149384 -65.850754 -253.421921
-37.292454 -76.649803 -209.619034
-66.617012 -73.322182 -245.519165
99.080833 -42.453636 -90.799820
-22.594412 -76.356659 -190.748291
3.573936 -50.268337 -244.812119
-11.756728 -76.851166 -290.812347
-78.789825 -63.886215 -124.683914
-133.151184 -81.653671 -200.272812
-115.286415 -68.289856 -261.601410
-150.687317 -61.536583 -260.498627
-83.976639 -73.265762 -287.487762
-30.616787 -75.159874 -171.939255
103.265541 -44.640255 -94.920578
-147.866348 -61.327713 -233.931564
87.175819 -46.326622 -58.982697
112.272873 -73.254845 -164.658127
-83.112663 -38.631699 -50.200920
-15.151888 -72.291397 -233.656998
-149.835236 -75.742073 -204.930435
15.640686 -72.226097 -156.007401
-119.119629 -73.985893 -291.810730
14.991943 -76.329269 -227.409164
-145.200516 -64.816772 -174.436371
47.026108 -55.426983 -115.328377
8.166556 -57.559063 -246.723480
-147.808609 -79.334831 -241.486099
18.821560 -64.230392 -146.173782
-104.658241 -72.232368 -256.876526
0.373556 -53.620129 -239.159576
-16.968122 -70.234688 -200.016724
-13.711483 -53.375271 -256.957672
-139.212158 -83.614037 -291.070587
-132.643600 -64.509262 -203.095932
-153.302567 -73.681129 -273.440308
-6.460853 -69.961105 -226.036255
30.158064 -68.037140 -141.109131
-141.432602 -77.422554 -226.695023
14.118141 -72.893211 -290.895294
-33.156239 -62.117432 -75.127113
-154.440430 -68.190468 -201.742142
-86.222710 -73.278557 -212.933350
22.152689 -69.794563 -144.894638
21.440821 -60.209389 -250.052567
45.062954 -70.586594 -251.838882
14.461508 -65.477737 -241.981216
-5.416940 -76.605911 -217.901550
-18.488075 -45.328236 -59.674480
113.793068 -71.692886 -146.787827
-161.960587 -68.714485 -245.275818
-64.051094 -70.452423 -162.300858
-128.805771 -64.809471 -226.121597
-42.306919 -85.270004 -198.134995
-38.866203 -83.598640 -82.364693
-0.131104 -71.474426 -221.171494
105.132530 -55.710541 -92.784309
69.795143 -73.573570 -87.943756
-51.295471 -38.966988 -68.566833
42.983391 -77.549751 -118.571907
104.505127 -63.436951 -84.263580
-153.801468 -69.887482 -283.490967
26.160942 -58.707508 -261.943268
68.770195 -51.259228 -104.864555
-70.693436 -28.626003 -103.056953
80.524918 -55.529446 -57.867466
17.253321 -73.800926 -172.053787
52.960724 -63.851620 -88.723206
-133.524399 -64.349533 -257.776123
-54.813839 -73.260185 -139.370819
19.463682 -69.083534 -168.641953
-38.961674 -76.655617 -201.965622
-25.143759 -77.355789 -75.112511
19.825338 -76.903732 -182.721298
34.302227 -62.481380 -38.069382
23.472553 -54.468494 -280.226532
48.409592 -52.746944 -30.824781
-166.533936 -69.039558 -239.914551
-71.829216 -70.863998 -250.753586
-145.566193 -82.964729 -226.310226
7.405487 -72.161476 -243.655792
32.248154 -61.129986 -11.985002
-146.508987 -66.275520 -222.892471
2.406239 -78.202133 -162.268570
10.874648 -50.818924 -275.217987
47.488029 -65.442253 -246.802399
-73.892952 -19.544289 -64.329643
22.465195 -76.327835 -193.597900
-15.613975 -69.940948 -197.034363
-82.840988 -73.881821 -216.226547
38.473602 -51.873451 -34.086742
-109.359131 -65.584427 -198.326263
-98.926689 -37.222500 -74.499290
-38.053532 -73.530632 -173.588715
72.283073 -73.152931 -234.118042
-154.117783 -62.139030 -202.178345
-61.183235 -61.027386 -84.669205
111.624672 -69.193680 -107.552704
49.035744 -74.046539 -112.537857
-144.671265 -65.330254 -219.330307
-81.404816 -73.648979 -57.433643
-55.028610 -67.359879 -139.736328
-152.407822 -67.117516 -207.817902
-149.092621 -68.801010 -258.195282
-151.202011 -62.719223 -264.120056
2.506607 -59.441208 -245.704636
-112.495750 -69.003120 -196.554642
-8.944349 -67.297035 -212.208923
-144.249695 -62.817356 -183.226776
-10.078017 -68.890831 -217.954605
94.306015 -76.005653 -203.364227
78.632172 -71.747604 -231.615662
-58.694435 -42.631557 -50.025894
-12.429636 -77.508995 -267.683929
-76.334259 -65.040405 -141.677002
14.131218 -72.488831 -237.375412
-133.197357 -72.910263 -200.401413
21.146046 -71.969887 -191.550812
-79.732796 -79.215981 -72.386154
-4.175858 -66.043182 -277.922028
-144.151016 -83.821167 -228.419449
-125.881828 -61.985001 -200.387253
-127.769753 -76.229424 -291.619598
-13.741915 -73.301903 -225.159851
71.551201 -53.178780 -71.064392
7.882180 -51.833767 -237.771957
-78.612595 -75.451294 -289.693420
26.314184 -55.229740 -258.227203
75.273811 -55.596706 -86.072433
-66.000854 -61.177822 -114.562035
-153.194977 -73.087059 -226.351303
-152.907974 -74.385422 -252.796204
-79.727936 -18.638765 -85.912086
-73.019684 -58.074299 -103.780350
-73.059380 -75.574745 -138.978455
-19.091850 -77.618904 -187.332108
-0.339490 -52.083733 -240.919098
18.950310 -74.796219 -234.788177
-7.827784 -49.106403 -243.880478
93.445290 -43.402897 -79.844063
-96.559525 -31.522360 -84.197685
-144.255142 -70.541870 -240.289581
18.353373 -79.072205 -271.662689
-77.901810 -29.000200 -106.430061
-36.907478 -76.036903 -59.309505
87.121117 -59.853939 -58.388706
-153.515091 -68.618057 -309.076172
-6.427667 -54.429527 -288.323120
43.628941 -72.058456 -18.807127
87.777840 -71.705582 -216.724350
-156.964752 -69.038986 -202.450058
6.660773 -75.564903 -238.459763
19.671923 -78.958534 -239.410385
-51.931953 -67.994568 -85.674126
-141.359436 -72.317604 -201.887314
108.815559 -68.472801 -102.067322
-54.603939 -73.073151 -244.895493
-57.425095 -63.682747 -44.307404
-48.653862 -78.231979 -86.728951
-33.322788 -40.582256 -61.662254
74.737038 -47.345474 -94.533325
-67.681953 -28.745440 -56.163036
-100.625969 -67.831535 -255.783005
-155.481949 -62.835979 -228.102310
107.898148 -69.879997 -107.406143
42.760235 -73.940353 -126.759666
47.415142 -67.423355 -246.092743
-84.606735 -70.033722 -108.617691
-73.451393 -16.952959 -78.360634
41.834362 -67.244759 -109.934174
11.959574 -70.721237 -239.632004
-15.896368 -42.543564 -60.376045
-156.928375 -71.201157 -258.513153
-71.971626 -70.121552 -139.336624
49.793118 -63.503574 -250.609772
-85.742134 -82.961914 -97.052368
-73.177437 -69.745369 -248.544662
-49.944847 -78.181854 -179.670486
-64.763390 -78.095360 -165.377396
105.314354 -42.647514 -91.545906
103.841568 -63.032974 -101.803543
-16.662449 -72.925003 -193.088684
-38.514545 -73.620438 -55.112576
106.175163 -43.515087 -78.738670
-155.976028 -73.668739 -310.668488
102.570274 -43.760201 -80.008926
57.888184 -62.704212 -87.173462
-148.468445 -60.571491 -212.367935
-94.992310 -28.389465 -85.334137
-71.838730 -66.241966 -99.313820
-124.200470 -68.578941 -205.834396
62.686073 -62.162678 -93.066528
-12.663822 -69.210129 -210.608002
14.768973 -67.295250 -207.903809
-149.724228 -68.382042 -259.357788
-46.019241 -62.384727 -80.750221
85.544205 -46.185402 -61.816910
-93.862434 -71.252754 -214.840073
20.556519 -55.717800 -21.370275
-125.488724 -69.722191 -254.238007
17.896250 -63.593628 -241.947922
107.900719 -73.986153 -121.323479
20.375669 -80.012062 -246.856415
-87.953804 -76.465660 -112.952415
47.313179 -68.498199 -252.454636
10.089039 -78.195175 -202.238876
-61.714962 -65.839394 -132.460541
-147.511429 -63.856518 -290.270691
-58.598785 -79.036736 -62.949574
69.565231 -69.983253 -94.578629
-63.566231 -83.702713 -79.901062
-19.231329 -75.727524 -189.638428
-14.506595 -71.918999 -64.985107
-41.758900 -80.316620 -162.403809
19.444798 -78.111053 -182.714386
-76.163399 -58.723038 -108.977043
112.487617 -73.479485 -118.613922
-113.664421 -71.415321 -262.324646
-151.588654 -83.808907 -300.676392
-71.074318 -18.561380 -72.102821
-1.428300 -51.216671 -265.950287
-111.945854 -66.206062 -230.926224
-158.081924 -70.238739 -240.516449
-107.006386 -68.667252 -188.623550
-91.246361 -64.893196 -120.528854
-78.625175 -68.648857 -122.746422
-161.848862 -68.589172 -241.133240
56.939781 -52.879299 -106.535606
69.443848 -70.733589 -97.151909
40.248295 -62.026344 -20.024515
-131.180054 -66.780212 -194.048340
13.437589 -83.219215 -235.945938
-91.019592 -74.340744 -252.287888
-150.704605 -72.314568 -205.458115
-24.532904 -72.080505 -186.750244
16.537678 -52.705132 -239.081177
-109.084618 -72.105446 -258.849243
-38.418434 -75.735428 -150.022842
26.808588 -79.864395 -166.332184
-59.430592 -73.971153 -249.232910
75.196167 -76.104362 -85.366356
-68.337151 -61.736954 -93.652153
-88.815430 -67.359848 -141.661850
-77.450119 -68.413086 -108.156281
-146.999603 -85.909836 -293.665924
-125.041855 -73.087662 -291.843292
-32.485886 -80.115974 -164.111679
-77.656425 -79.822067 -77.026840
99.816795 -71.601753 -93.727417
-52.494267 -78.176346 -190.116776
-3.069657 -60.882839 -242.732391
-83.334473 -74.037521 -254.140091
-55.645840 -61.899445 -133.541275
-59.760090 -31.669250 -59.828457
17.177753 -70.794449 -240.158875
-19.071541 -70.347900 -187.043442
-151.975220 -68.694130 -221.694443
-3.468261 -66.312370 -263.956604
-158.795563 -71.719292 -223.387405
-152.078064 -78.604500 -281.402649
25.269819 -60.504059 -270.148804
-62.897747 -32.657642 -96.176788
83.854301 -75.093391 -225.710648
105.270119 -57.805626 -86.313522
12.486530 -67.312508 -214.849014
-54.101501 -59.538788 -42.935425
56.533440 -76.242981 -98.073189
-15.727358 -58.156013 -266.736938
-153.470337 -76.654663 -300.284576
-144.758118 -78.917961 -222.760818
28.901968 -71.298592 -169.744034
12.751831 -52.191097 -294.539520
92.921684 -74.110184 -76.371758
-136.850632 -84.442810 -288.863251
-146.509384 -78.837410 -196.644150
72.834747 -63.226604 -61.032516
74.975906 -69.281387 -234.670502
-40.663361 -73.719055 -149.695114
-9.734658 -72.848274 -226.103638
-50.185326 -79.511673 -201.821823
-11.996736 -66.716225 -240.904251
67.160179 -54.950012 -94.734283
-15.181475 -69.825676 -210.103073
-76.270630 -65.056023 -135.905594
47.245468 -61.381569 -29.627949
-127.468727 -66.436661 -255.495636
-131.993240 -67.560020 -285.972412
-77.506332 -56.158455 -110.992897
-6.832615 -69.059303 -235.539383
-49.734325 -73.766594 -185.453140
-19.830406 -77.437340 -216.946396
-63.983013 -64.355713 -90.579636
-14.387731 -54.491184 -254.049744
-60.864281 -80.140610 -167.955780
-150.707275 -63.844513 -255.611404
-152.818863 -65.272163 -285.044403
-6.859591 -76.925880 -250.816132
115.720276 -75.734772 -158.341644
100.551186 -44.455841 -69.705566
7.642910 -76.621292 -219.097595
27.473864 -65.471123 -134.847198
85.121132 -75.179581 -96.377899
24.315002 -70.342964 -154.942612
83.481590 -44.787930 -87.385666
-135.648132 -74.375183 -258.263794
-82.522392 -76.235947 -217.607132
-147.155212 -79.228485 -227.008835
-148.158035 -76.712532 -200.354477
15.348196 -69.095230 -196.569748
36.557789 -68.056587 -35.809010
-151.847031 -62.588688 -261.927094
-146.184860 -73.558914 -253.321442
91.815201 -77.904266 -92.356369
18.726891 -52.231339 -277.207306
0.813713 -61.910973 -237.082306
-125.922623 -77.335747 -290.037323
112.192337 -73.258514 -145.119904
-50.842144 -67.197441 -142.587738
-164.170898 -69.101860 -202.065979
-47.066467 -37.440220 -57.293766
54.713303 -75.768456 -98.198151
78.389328 -69.368660 -224.835220
70.653282 -47.497520 -109.741547
50.973911 -67.608086 -244.022537
-162.751083 -73.508430 -218.722397
-104.136932 -62.966640 -168.960480
41.511848 -73.229034 -104.933159
-136.453049 -81.679710 -200.964600
19.738949 -75.789139 -205.846664
31.194046 -68.626770 -35.380623
30.106180 -82.132736 -143.029495
8.036658 -48.634644 -246.285858
17.121490 -50.802189 -241.141876
-146.081726 -81.857025 -197.201065
-100.222832 -56.579762 -90.327698
37.201042 -77.404861 -136.231049
-64.894295 -43.138611 -96.229309
80.680344 -70.039963 -65.783005
12.937688 -72.880699 -195.146072
-10.489127 -50.895092 -243.439835
-101.254944 -73.714340 -258.444611
109.028885 -65.638298 -108.899918
-141.002701 -72.100838 -197.038651
-149.045288 -63.028221 -176.141449
49.761147 -70.549210 -20.885345
-12.997734 -53.095779 -248.499756
7.775964 -50.856449 -285.780609
-12.354736 -73.259300 -227.751892
87.453438 -41.883766 -64.798187
-17.101187 -79.170341 -177.343857
11.159081 -67.617821 -243.357239
32.808903 -75.953415 -146.901093
-158.053192 -69.922379 -273.497406
-155.275742 -65.397850 -291.427765
-160.507797 -69.020988 -272.774780
-26.452787 -66.546021 -185.879883
-85.263908 -20.331377 -66.317307
-29.330650 -78.133041 -207.504562
14.020284 -70.657791 -160.337296
-82.997597 -60.603878 -122.394524
88.806129 -70.495720 -218.098053
-143.448868 -79.564018 -202.585464
87.405067 -58.396236 -97.973442
-150.002258 -83.180000 -199.439194
-99.229935 -72.981796 -258.389465
10.800785 -73.987160 -241.995392
-91.936081 -42.973469 -115.608170
5.632027 -80.606247 -281.977051
-10.425991 -72.440186 -245.591232
-87.887077 -27.209665 -58.771000
6.898522 -71.357002 -229.143021
-19.401518 -58.564480 -264.404846
-132.307434 -74.826591 -284.770905
-134.555740 -69.511734 -225.211075
-81.334030 -61.454369 -112.949524
40.917942 -71.826927 -103.932999
27.697351 -79.683220 -156.750687
-48.015572 -42.579636 -52.633350
108.842148 -67.843285 -104.117447
84.226814 -44.869423 -64.263145
-115.223076 -66.664391 -204.639008
11.419147 -67.381165 -212.998749
-60.843941 -80.293953 -66.634117
-143.384018 -77.015350 -204.901215
5.422082 -51.979572 -296.645111
-146.983856 -59.990208 -196.330261
-62.237278 -72.214554 -246.460831
0.076021 -74.211639 -234.932465
25.159393 -49.980019 -253.894714
-125.484352 -70.311737 -286.937378
-16.475424 -54.232727 -241.582062
-68.350700 -71.068710 -246.943253
110.615791 -74.839706 -110.928711
36.705841 -64.327415 -254.395676
89.073341 -75.617439 -220.402267
-79.844620 -61.885406 -127.675484
-90.013351 -44.676750 -53.005749
-85.000961 -35.077530 -53.483288
102.197418 -70.385780 -80.782761
-30.834103 -78.173981 -168.275070
26.223663 -76.255005 -154.625778
-61.894817 -52.873787 -116.431557
-45.422352 -80.036217 -85.521317
-56.544582 -73.199623 -129.828979
-96.677094 -60.979088 -63.797234
-19.787571 -55.342083 -255.272842
-166.416122 -72.899918 -230.142181
-19.693087 -57.844418 -262.385529
27.803144 -71.242767 -161.337128
-91.502029 -51.522541 -120.660591
-149.343109 -68.257614 -259.459686
-63.255394 -66.648216 -129.645248
93.031677 -64.400093 -107.394226
103.854973 -50.728317 -78.255699
-8.896641 -73.805252 -247.402115
25.418919 -53.095810 -32.437523
-147.938095 -62.841728 -230.212433
-3.680693 -83.558182 -264.560425
64.545685 -52.109497 -70.426460
27.176649 -61.887936 -259.683319
7.187754 -77.112526 -285.997894
66.849266 -60.499477 -101.467339
-98.689079 -60.369904 -87.335579
-65.680832 -54.481815 -120.595573
-79.680420 -44.612007 -45.441086
-94.940804 -70.338470 -288.104279
10.017389 -81.577293 -228.891174
-16.323797 -69.755859 -262.354645
-31.525143 -85.714088 -188.427551
113.300110 -73.150558 -140.479126
91.092796 -73.682503 -206.848404
-68.503548 -74.597015 -290.352966
20.280025 -73.517784 -153.617630
-120.900208 -71.053612 -201.769791
16.870626 -73.432503 -214.283157
-40.612679 -71.715134 -288.159210
-53.887447 -79.302231 -181.798584
-68.121223 -75.596710 -148.509094
-62.215248 -54.518719 -122.164055
-125.055519 -65.484283 -256.732330
-18.300064 -77.870155 -179.354614
40.164192 -75.265556 -110.688911
35.317501 -74.673943 -150.376938
-134.555939 -66.755936 -204.007065
66.477936 -54.084045 -83.387367
66.317085 -64.459396 -93.084221
-151.519257 -84.534187 -255.081268
-95.977196 -70.653770 -253.006653
-62.304867 -48.362698 -61.466854
107.135590 -66.373009 -115.119713
23.589422 -71.306023 -146.676208
38.568932 -71.083115 -119.988342
-16.262552 -67.177170 -70.273369
-71.979713 -53.191944 -113.361794
21.211576 -66.968658 -141.449219
113.963890 -67.919395 -120.118126
34.057758 -71.969719 -123.121162
97.590416 -42.197716 -85.896866
106.528336 -60.317635 -80.409225
-34.001255 -65.158707 -46.477718
94.759483 -77.013107 -202.004318
96.578171 -58.816891 -60.652733
39.267857 -71.408302 -123.602074
-149.372650 -76.291412 -311.892853
-12.938286 -51.707645 -251.608139
9.935738 -74.816780 -237.331787
28.647837 -69.811081 -154.251404
-79.161438 -18.709843 -70.828850
-86.470093 -22.065125 -92.456245
-89.381485 -68.714912 -128.466599
-122.737457 -70.082947 -225.875168
-66.516319 -87.188820 -89.611343
98.823532 -44.612797 -97.844246
-82.934067 -65.931633 -115.600723
-34.614635 -72.208504 -205.936386
-117.828529 -69.893356 -293.310486
35.820034 -57.555309 -120.444328
-56.812614 -69.099976 -143.315796
71.872543 -70.233124 -98.578835
40.194126 -62.938332 -13.733257
-101.521461 -64.256355 -174.680908
-136.083420 -68.404861 -256.255615
60.662239 -54.479465 -98.537552
-75.003853 -69.771820 -288.610840
3.039248 -65.144730 -232.742767
5.172569 -53.720615 -239.734207
-87.308266 -77.068680 -213.790833
8.677748 -77.343063 -235.815628
82.855476 -58.633732 -104.924751
-11.642290 -51.987411 -253.637894
-66.498672 -74.764214 -98.770439
-160.273346 -70.438599 -267.503906
17.842983 -68.547607 -144.809296
45.917213 -64.217590 -16.164501
-64.924835 -62.107738 -119.385063
-158.109558 -72.608589 -239.095535
-116.861664 -73.201195 -286.607330
24.122522 -53.789486 -278.938690
-48.076279 -72.875069 -138.019104
48.572945 -70.053123 -108.763977
-127.458099 -69.930847 -193.614914
-98.245567 -48.675217 -68.373962
-97.591820 -32.185795 -75.494202
-0.823145 -77.426643 -169.138763
41.916656 -66.277771 -116.825562
13.444670 -79.996574 -233.443573
-80.852753 -45.414295 -106.552429
43.614540 -62.265213 -15.614468
76.650360 -45.007500 -59.687893
-34.867767 -76.196831 -207.478195
1.369953 -80.671051 -278.284088
60.971333 -46.920773 -82.365395
28.340233 -56.111668 -254.745926
12.695744 -78.683655 -221.058578
-14.423145 -70.127716 -256.983276
75.560753 -48.670563 -107.449638
-38.730202 -71.326294 -75.913841
-107.216911 -65.857513 -259.195160
115.081421 -70.791924 -124.386894
-3.294788 -78.368706 -222.046036
-73.575455 -46.290997 -101.389809
-143.069305 -64.872757 -288.411865
12.661255 -80.231979 -226.314789
-124.627739 -64.001091 -262.056000
111.190804 -72.841606 -135.183701
-102.272209 -67.620224 -157.098984
-71.163986 -68.514824 -149.543076
75.894112 -63.278042 -60.370354
-82.518585 -40.360970 -48.759312
67.462708 -69.642548 -237.578979
-80.439713 -61.326458 -117.254883
38.102654 -56.981022 -118.308884
34.935390 -72.788231 -147.075912
-154.152084 -62.847778 -261.784912
4.971007 -58.136475 -250.889511
-35.239330 -81.273399 -191.695435
-146.011795 -74.511299 -275.222076
13.207666 -52.136581 -239.565216
-152.573288 -71.969627 -223.298370
25.711813 -78.601974 -144.949387
-145.346878 -83.435997 -210.572495
81.628487 -45.433418 -53.205254
-147.536606 -67.485008 -300.832550
-41.479599 -73.344521 -286.273926
106.227196 -46.340130 -81.794334
66.691864 -56.851845 -67.177650
-133.924118 -68.401932 -195.815552
-137.864471 -83.293472 -198.913437
-132.202133 -76.779564 -289.607697
-69.708862 -53.841076 -111.998245
-82.109474 -43.804516 -107.392670
101.360367 -48.675133 -71.074493
-144.855286 -78.202759 -204.443542
63.065247 -57.530952 -82.743805
-88.547897 -34.955116 -55.018295
-12.412783 -69.230774 -245.450668
23.633368 -70.453758 -35.620831
-152.307266 -65.932732 -187.892914
15.091496 -76.328171 -290.222168
-61.453934 -32.519016 -94.417114
-23.665325 -73.580956 -66.955048
-62.610020 -50.668892 -54.923630
-63.822758 -34.119896 -54.703667
5.750350 -74.447525 -158.739960
21.555006 -70.731850 -199.671509
13.274993 -77.024078 -190.536469
-95.751762 -48.704067 -113.050102
43.693531 -54.330162 -114.771576
-45.023243 -83.717186 -79.411194
45.835129 -60.938599 -34.472744
89.046806 -75.510353 -212.366257
-116.972618 -76.331123 -289.702301
-45.253487 -61.206570 -47.445278
-162.011246 -68.952003 -264.953003
87.491226 -74.629395 -98.040001
-16.884468 -67.517586 -192.817322
-56.375404 -35.471279 -62.562244
-149.081421 -68.145256 -261.594238
-7.733227 -50.299438 -254.357208
-29.295404 -82.527977 -190.844742
-84.694366 -35.348480 -109.368156
-3.050056 -51.182747 -236.909775
21.193092 -76.421837 -245.023010
-23.819239 -76.062141 -215.720459
103.481163 -44.498646 -82.964226
-82.379410 -17.537178 -83.200340
-7.075169 -74.482071 -233.707214
-143.446609 -67.087662 -192.719116
13.548696 -80.335114 -239.577652
-47.127964 -79.380791 -201.879608
-75.370300 -67.757309 -135.905136
7.861423 -50.304413 -251.706375
-6.812643 -81.707809 -171.129898
110.328453 -70.949898 -103.695724
-7.122757 -76.928238 -276.595703
-133.120148 -74.635216 -292.256744
88.163956 -68.108215 -65.576790
-113.927597 -67.440781 -196.269257
14.681885 -66.999298 -286.729187
-33.229195 -67.625008 -78.103401
-139.804916 -64.931786 -198.981155
-5.576281 -73.886261 -287.382019
103.269051 -65.721390 -96.149017
50.919823 -67.063316 -99.190216
-58.663593 -55.223663 -117.308716
15.175098 -70.921829 -222.569092
47.280331 -68.008575 -100.173569
-71.589539 -20.053978 -61.402504
-92.936760 -69.243294 -217.586914
96.163353 -61.582436 -106.269142
-136.518936 -82.077332 -229.955383
-95.046532 -37.880943 -106.178993
103.047768 -44.778328 -102.161224
-150.417923 -73.697342 -181.345581
81.621300 -44.420395 -65.338158
67.639137 -47.765442 -70.080788
-152.658218 -67.176239 -203.513214
27.345491 -53.956993 -251.596695
-47.418812 -69.838028 -158.916840
30.016817 -79.197205 -148.291367
9.140159 -82.549858 -273.470673
-153.902283 -64.202850 -291.016083
85.250336 -46.552765 -113.061172
-144.575516 -63.984417 -291.588806
-92.471939 -73.730850 -80.061035
-70.449982 -45.137043 -44.666378
-58.515785 -80.198486 -174.536392
-72.313065 -51.480881 -100.444038
-81.703827 -76.801865 -210.432755
92.107666 -61.040936 -62.064396
-151.425140 -84.442436 -283.440826
-25.526812 -78.972382 -196.832932
-66.191383 -54.337940 -67.943184
-66.697098 -59.324032 -94.941154
88.516991 -66.877708 -62.728645
56.919727 -61.589787 -91.300171
88.916664 -44.988865 -78.680183
-140.595337 -76.501251 -228.562592
-68.818771 -70.583702 -148.177826
-78.828468 -74.587257 -291.642548
-22.753965 -68.847565 -55.166473
-84.877007 -70.314873 -128.099380
22.598801 -68.742393 -171.308136
-87.026657 -46.053814 -49.040619
-91.201439 -60.439247 -54.495922
-74.324951 -69.997810 -142.631363
-47.676159 -78.870285 -243.718292
-149.943207 -61.878681 -234.104202
-46.867367 -80.289589 -65.921867
-142.967468 -70.489655 -187.367630
104.973808 -44.405712 -84.755653
-98.424446 -68.579063 -154.842957
-23.619333 -71.190620 -75.075928
-18.313293 -57.607979 -267.663025
28.892540 -71.713257 -172.233185
87.430588 -72.377098 -218.978806
-69.182266 -59.423489 -99.129570
-145.696335 -60.432751 -203.187927
-35.815708 -76.785835 -205.635742
94.195541 -46.449898 -63.956047
62.549931 -48.756454 -100.657806
20.208347 -69.733978 -31.069010
-12.987910 -54.648357 -252.107956
-160.973221 -70.085678 -267.813995
-42.435032 -78.830261 -156.007278
-96.178703 -64.613373 -73.606346
20.424000 -52.859295 -241.085342
-77.394379 -68.328918 -142.997894
56.962696 -59.920330 -104.784599
41.647835 -68.295868 -254.960449
70.432236 -55.189129 -61.333637
25.546089 -67.126053 -265.042847
-140.751694 -85.014442 -289.967651
-114.958893 -71.583473 -286.551605
109.088341 -75.200310 -174.666458
-142.774704 -66.943039 -203.867203
40.736797 -50.188374 -14.475009
-69.159309 -78.335678 -64.928810
-141.672195 -66.720673 -259.143799
42.603882 -65.281464 -256.252991
88.250786 -77.605469 -86.092896
38.138645 -50.747032 -40.633121
-58.562645 -46.158157 -52.381371
9.800849 -51.566719 -240.156616
17.527798 -75.749619 -182.386490
99.748734 -42.359280 -79.330467
-127.245872 -64.484184 -258.133759
-98.343094 -52.123386 -106.824226
62.461449 -73.275047 -243.420303
54.989658 -72.578011 -88.329308
-4.748788 -77.043411 -226.002319
-53.152096 -72.350548 -288.553223
14.133148 -53.152664 -241.326157
-64.405380 -66.706497 -92.917603
-58.303364 -31.539782 -87.560089
101.707573 -73.810776 -184.703293
65.062714 -46.293503 -88.490067
-147.514282 -75.782402 -256.861359
-74.338547 -69.576225 -135.247528
45.549133 -52.190804 -18.221962
-84.342720 -71.640259 -256.332703
43.514626 -50.467476 -26.739223
-63.092480 -76.786301 -161.644104
-161.260880 -69.623123 -286.705383
-60.683510 -21.694080 -71.700584
52.329556 -69.532410 -251.997345
26.118637 -73.893890 -183.200699
-53.000980 -72.148117 -133.831268
-10.041017 -78.092102 -211.159836
73.368912 -62.566101 -104.904678
50.605980 -68.279503 -250.432755
-76.029381 -72.287468 -134.551270
15.326881 -68.482681 -216.608887
72.859627 -47.220345 -58.744812
-132.692032 -70.926422 -254.537888
-141.832123 -85.522491 -257.453796
-61.712818 -56.206493 -106.250465
-134.826294 -78.625786 -291.119537
-87.993134 -67.762856 -111.430672
70.569786 -67.146812 -233.047409
-60.267086 -66.267036 -122.619598
-45.330189 -71.798103 -50.408497
22.812021 -76.411644 -182.627426
-25.363846 -39.884445 -57.464607
62.956512 -51.057533 -93.255226
14.120098 -74.652702 -284.283844
-140.683487 -70.685509 -261.885498
91.007629 -45.648125 -96.100853
90.403282 -72.823067 -70.772926
-55.951054 -50.210533 -85.780434
-77.126320 -68.113930 -131.521545
-28.506411 -73.527565 -167.841232
83.544708 -70.195953 -218.414963
-53.239891 -75.706001 -58.019058
-154.780472 -72.491478 -312.054718
39.593784 -77.274651 -131.324066
-14.260427 -69.960442 -68.865257
4.787137 -67.307899 -237.677277
-75.886810 -18.128527 -82.196754
-29.903421 -76.045219 -218.202820
-88.578758 -72.620697 -292.528748
-22.786888 -59.897392 -50.968624
104.413956 -72.497192 -176.462296
-15.105823 -69.714783 -249.037537
54.781681 -69.535423 -244.110504
-166.517899 -69.187721 -260.493042
-74.267281 -35.068924 -51.065189
-48.666466 -35.905773 -58.906769
-21.967918 -72.249916 -242.069656
-53.958580 -77.001053 -173.423584
-3.236524 -68.465286 -226.586929
-61.162895 -54.909527 -104.902054
44.499916 -71.724480 -19.783356
27.711035 -52.785770 -248.201447
-26.553953 -77.695007 -192.455826
65.965340 -48.288708 -94.161575
-31.860806 -72.149208 -55.528759
-1.593827 -80.822372 -228.203918
76.981697 -77.163528 -92.725555
117.226387 -72.462288 -135.010025
63.616264 -47.379120 -77.961914
4.414702 -71.921509 -242.329437
-18.565845 -55.551041 -246.223801
68.128807 -70.457199 -82.218521
25.075062 -54.852741 -269.045288
-66.398506 -57.767277 -121.026360
-73.778244 -24.622709 -100.739815
-90.500854 -68.638481 -138.629730
90.865440 -73.569252 -73.340851
71.595795 -73.534073 -233.009933
20.862495 -53.300941 -239.343796
-89.938980 -72.194885 -252.264893
15.805766 -80.417747 -245.960800
87.664551 -53.881603 -96.250298
20.377222 -70.978088 -30.162830
99.717033 -40.960777 -74.051521
-60.323879 -78.405273 -65.422211
-133.648911 -68.412125 -201.961548
76.420235 -64.891975 -108.334473
-14.211823 -70.140160 -60.652496
-153.642700 -86.422325 -288.322510
-141.707123 -79.555145 -254.964081
-98.350555 -69.249634 -258.950806
95.792206 -47.586140 -58.933987
-78.566841 -23.027767 -59.274776
20.775059 -62.395065 -250.117218
-148.486115 -66.942894 -259.156708
-48.912815 -48.547047 -49.212204
4.879093 -77.549484 -239.604248
89.733994 -71.684868 -69.218719
-41.454460 -51.567101 -50.229023
-34.423210 -81.555084 -76.326859
9.224397 -71.224503 -243.897614
106.276382 -74.343796 -101.132401
103.122261 -74.015656 -187.991745
-39.482864 -75.436790 -174.580261
-148.393890 -79.062286 -276.446503
-69.821907 -54.286125 -115.880592
7.773967 -72.188568 -291.254547
-52.813271 -77.077415 -287.040161
-67.473351 -76.753319 -248.493347
-21.844393 -75.083557 -215.382187
-167.972168 -69.914268 -262.772064
-154.287109 -78.295235 -228.683929
-147.367859 -69.625763 -289.850220
31.349262 -50.857922 -251.339828
-156.334015 -68.564621 -243.737442
-48.559929 -75.032768 -184.453201
-146.082199 -61.283398 -229.144531
14.776410 -75.425591 -180.997757
-63.563713 -67.792755 -131.599655
