# This PCD file was generated using the MATLAB® pcwrite function
# from Computer Vision Toolbox®.
# .PCD v.7 - Point Cloud Data file format
VERSION .7
FIELDS x y z
SIZE 4 4 4
TYPE F F F
COUNT 1 1 1
WIDTH 1457
HEIGHT 1
VIEWPOINT 0 0 0 1 0 0 0
POINTS 1457
DATA ascii
-113.370209 300.763916 -66.627159
-75.491791 299.827515 -66.119034
-69.214554 304.781250 -64.234528
-31.282314 302.150024 -65.639114
-104.421234 298.594147 -64.206001
-111.425293 304.311188 -64.335129
-7.611419 302.242828 -67.424568
-159.337875 303.899445 -65.378105
-153.155777 305.766815 -70.434402
-152.057663 322.689209 -71.541817
29.108511 26.712662 -65.861130
23.464928 27.056503 -66.201958
24.812893 31.768686 -69.127975
24.402130 35.252804 -66.906349
22.770746 37.924717 -66.442841
30.804848 46.191578 -66.148552
29.729906 51.597038 -67.176315
-55.570332 64.489738 -68.219269
-28.359324 63.875351 -62.988319
86.170341 78.509529 -66.964401
-91.503166 83.319176 -64.836029
72.429497 86.852036 -67.039391
-40.331799 89.955002 -69.921730
-90.739517 89.880096 -67.332047
-43.912163 95.422684 -68.712349
100.514053 95.566063 -70.629959
-91.814270 101.992210 -67.131386
68.414505 101.235085 -69.848900
-96.103691 105.353226 -67.300095
58.906567 105.233589 -66.498985
105.446190 106.391243 -67.740318
-68.690994 107.030289 -67.713684
40.905884 110.819077 -68.175659
81.910576 113.556068 -63.933765
83.263733 112.061668 -67.408684
43.918457 112.995628 -67.593849
109.098183 111.371437 -67.522156
-97.179031 121.572624 -70.055603
98.972382 115.287216 -65.881531
109.627678 120.044647 -66.182159
34.684490 123.307465 -68.984383
47.605572 123.339935 -67.709557
44.569603 127.771217 -69.089951
31.237225 125.955200 -66.257370
43.518673 129.234222 -66.243340
43.546646 131.210236 -68.519836
109.125053 129.922714 -68.578667
113.674438 139.570404 -67.502426
29.243797 134.614197 -63.406521
30.075417 141.924210 -66.479012
-74.842140 146.584091 -68.602608
-54.905499 143.448471 -64.923340
114.007080 148.979553 -69.845665
25.542696 145.705780 -66.855019
36.699505 143.111557 -70.271774
-78.777817 146.718521 -67.816307
28.472256 150.121231 -62.385376
24.990225 150.029892 -67.771240
-46.882565 151.610886 -66.405609
-70.885429 156.274261 -67.215256
-54.271358 159.944687 -67.320122
30.694506 158.071564 -65.984940
-54.761330 164.710251 -72.192680
32.945377 161.286285 -68.931046
31.537991 169.797562 -67.027016
109.347229 164.813873 -64.723640
21.476263 162.105408 -67.598305
12.779357 162.573242 -66.115738
-38.591011 166.508865 -65.371742
-71.709717 165.970642 -65.195030
-45.771973 169.942123 -68.307404
108.237411 171.324738 -67.263847
30.393164 171.799286 -66.700485
109.643616 171.226624 -68.447556
-37.180820 173.017303 -65.264107
15.890157 174.748322 -65.502548
1.007080 171.726028 -65.478050
-32.302616 173.194336 -65.709145
-61.573067 175.837906 -68.520050
-33.590031 179.123703 -68.884865
-61.041508 181.925522 -66.748581
-39.559910 180.469955 -63.616665
29.309111 182.452103 -69.382759
-38.104984 183.636963 -65.251762
-153.533432 187.139847 -66.412331
113.406395 188.721542 -65.079124
-153.038773 192.603607 -67.503281
-142.257294 192.303925 -68.044716
15.019143 192.392532 -66.067085
25.671144 195.736053 -66.783928
-35.356464 194.929718 -65.898994
-149.948853 201.795609 -65.440247
-34.666557 198.140167 -64.696075
-145.297989 198.317062 -65.133934
-16.232574 202.330978 -67.825844
13.614335 201.629501 -68.037971
99.307510 209.054199 -67.754608
11.162823 207.473358 -67.835548
-128.622498 206.825775 -66.209778
-131.759552 206.091415 -66.761971
-140.669922 208.506088 -67.794334
96.345116 209.829254 -65.832428
-131.241714 209.646225 -67.461502
10.339848 216.789795 -66.606842
-26.689995 211.032211 -67.191460
-129.964127 216.357025 -65.941429
-149.573578 215.261154 -69.398491
97.216957 217.460266 -68.222214
-11.592642 211.853333 -63.712917
99.146065 213.282074 -69.954178
-11.750111 216.275604 -67.392662
94.801506 219.534042 -66.538345
-143.731445 216.604492 -68.343224
-18.097181 221.107422 -66.220901
-151.563721 223.976883 -64.427856
-146.902451 218.488800 -66.697289
-16.641003 225.771988 -68.165482
-86.008415 223.517899 -64.804855
-160.748062 224.513168 -63.297771
-161.834106 223.533218 -66.951080
-156.205795 221.519775 -68.945473
-27.349915 226.988388 -64.316391
-24.602016 228.345535 -68.375366
-17.015524 224.322006 -65.924721
-14.627863 225.864685 -65.162498
-143.747086 225.840836 -67.616219
18.082193 231.156845 -69.518867
-152.528564 231.578506 -66.519157
-94.417351 229.962570 -68.100624
-165.282104 231.744034 -68.008881
-25.717976 234.222931 -69.616539
-18.961727 230.565094 -68.154625
-159.164856 226.875076 -67.092285
12.858265 226.234009 -62.990479
-156.882553 229.627853 -65.482811
6.429288 233.567780 -65.660858
-160.269897 233.951340 -65.810379
-154.975769 235.164261 -66.012596
-106.621613 231.705704 -66.106552
4.588765 236.397141 -64.200943
-160.328659 239.040817 -65.547211
-164.591705 233.571167 -66.904617
4.519814 233.178864 -65.622604
-114.881714 237.477707 -65.978294
-158.603806 234.155777 -64.116447
16.568577 234.113571 -69.340591
-109.579552 235.060638 -68.804237
-117.522881 241.014999 -67.260490
-120.252800 241.361359 -68.122269
79.335075 237.990295 -67.691978
-164.722107 239.258820 -67.266769
-155.615067 237.831161 -69.949059
-4.027776 239.139038 -66.509834
-163.691422 241.741348 -65.891937
7.826151 241.418304 -62.836506
-163.765594 239.136765 -67.016685
-160.251068 242.876785 -67.480690
71.914063 241.798813 -69.873528
-166.041367 243.267166 -68.101913
-165.578125 245.796783 -65.324379
4.856493 244.291214 -69.045380
-155.144241 248.990219 -68.729050
75.087906 247.639938 -65.441376
70.161148 245.580139 -68.369858
-143.684937 250.822433 -68.214729
9.496090 252.227310 -66.760803
-10.623758 251.879898 -65.559952
65.318512 250.231491 -69.297661
-167.476608 248.785324 -67.271332
10.545208 252.385834 -66.313263
18.581348 250.606689 -67.434464
60.696941 258.566742 -65.647667
16.949883 257.034485 -68.355522
15.376511 255.451660 -68.892792
-71.853035 260.537506 -68.199036
16.260500 257.278503 -64.421082
-13.368144 255.676086 -65.065262
-145.986588 258.670532 -67.285942
-67.023102 262.916687 -69.622696
-146.818604 262.895966 -70.564308
-131.233139 267.366821 -68.149879
-98.023880 265.031769 -64.804787
-135.598526 265.633759 -68.713120
-111.667778 267.052643 -66.651833
-114.132599 266.790833 -69.191010
-94.611656 268.750183 -65.515144
-102.356873 272.032593 -68.764236
-115.716408 270.033539 -66.208618
24.873552 275.315277 -66.771591
-17.139856 275.486206 -67.363174
-172.227982 277.338806 -69.293633
-143.824860 286.656158 -67.650970
12.874932 295.004791 -65.471405
-128.565369 291.419250 -63.965599
-126.731239 296.316406 -66.081291
-80.341408 296.283722 -66.320267
-48.490192 297.451385 -67.556114
-107.272804 295.963196 -66.808594
-36.098579 296.205658 -65.559761
-33.276993 296.606567 -65.141182
-7.060524 296.705353 -67.617844
-41.499657 299.834351 -70.739349
-59.588398 299.911255 -62.181152
-30.806011 303.431580 -64.015747
-19.998186 302.854797 -67.791534
13.836230 302.573273 -66.500992
-115.708199 305.782837 -65.707024
-120.771683 303.141602 -71.186882
12.073847 303.071106 -69.261711
-135.853210 302.208099 -69.159180
-145.121643 310.117065 -67.394180
-142.833832 316.857513 -70.668854
-154.384079 327.536865 -65.958321
27.135424 25.283201 -64.318230
47.176739 25.934095 -65.989250
36.019413 27.343969 -66.984154
49.329845 28.115824 -66.062744
46.643375 36.233505 -67.486603
43.823971 31.557552 -64.254089
23.492245 37.590561 -65.736885
25.930744 38.928829 -67.974945
41.696243 41.431675 -64.084030
37.074673 48.480057 -69.029434
38.450775 46.608025 -67.060341
37.791195 47.337673 -64.553421
-64.649010 59.416405 -68.248657
-48.595123 58.929474 -65.003349
-77.321014 63.743721 -62.223972
-74.572662 65.736366 -66.211098
-76.063965 65.196609 -65.212265
-26.734297 65.080063 -63.574032
-20.904339 71.621971 -65.051437
-17.261961 74.671890 -64.422241
77.434418 76.890839 -68.203064
77.337860 76.854965 -65.468040
71.216705 82.013496 -65.040916
73.503548 87.629578 -68.694115
-31.111706 87.639877 -63.172512
-49.834404 96.263206 -66.711235
96.657860 95.014832 -64.651375
54.481133 93.749016 -62.983833
-62.337437 100.723824 -67.792923
54.284218 100.642418 -66.006805
-65.244057 102.148262 -62.315098
57.400681 105.242142 -62.763947
105.764099 104.648346 -63.843544
73.740623 109.748901 -65.537247
95.186195 111.496613 -68.159195
105.538513 117.381165 -65.070557
-94.479713 112.127136 -69.614799
54.789265 113.410362 -65.968399
39.412933 117.107956 -64.158836
41.537270 115.957695 -65.947029
-95.702736 119.588150 -64.150414
-84.025566 122.165237 -69.569901
39.022312 122.939026 -67.542084
-92.525833 126.668839 -65.708275
45.413666 127.278313 -68.053902
109.534065 126.890610 -68.589409
108.121544 128.208817 -63.422737
110.837479 128.316422 -65.751381
110.721924 131.382278 -63.469311
44.690720 134.824112 -64.480492
32.802776 135.964478 -64.909317
39.636528 137.315475 -67.588104
32.489323 137.926086 -66.143410
-61.117603 141.361237 -66.837616
-55.139790 141.576935 -67.011436
-61.205002 145.826553 -67.891708
-53.751659 147.314819 -66.335915
30.098625 143.755402 -65.025177
-78.338478 141.485382 -63.647358
117.020027 153.574570 -68.942368
35.711498 146.913177 -65.831909
35.590389 155.447754 -62.431240
-70.811523 152.097168 -65.225250
-70.833344 155.808945 -64.571152
-75.161507 155.602600 -65.284096
106.573402 157.169418 -64.073608
-69.254715 162.989685 -63.551842
-71.212914 158.998657 -67.324821
-37.752850 161.760361 -66.988617
21.626299 164.554474 -62.836960
31.202606 162.589020 -64.126968
9.779257 166.055511 -67.529549
14.374117 166.382401 -63.506233
24.872318 160.702576 -66.786598
-37.538261 164.906570 -68.372711
-67.112099 166.680969 -63.900696
-37.886410 167.455826 -62.905067
27.084866 170.231995 -66.018066
-64.253922 174.401993 -62.803623
-63.068760 173.657959 -67.510590
-42.374905 164.304550 -66.462425
24.246868 174.022629 -64.194450
17.576876 174.599258 -68.340416
112.331703 181.800430 -65.384239
-28.522041 183.010742 -68.402512
111.801643 187.014221 -68.154961
-144.152527 186.434937 -64.401062
15.495635 184.523499 -64.182861
110.663132 187.111145 -65.746048
24.960585 192.727036 -66.536629
103.965981 191.266373 -64.949127
-22.266611 197.220108 -62.654339
-30.021200 195.819077 -66.974922
15.974718 202.031815 -68.305862
-26.325098 200.308670 -67.921883
-148.934631 199.451965 -64.022758
100.775505 204.674866 -65.583275
-131.175842 204.183716 -65.607933
19.961187 202.315170 -64.644814
102.941498 204.228241 -69.429726
-121.818077 210.876389 -66.443413
105.112434 208.537048 -66.494057
11.597456 209.220840 -68.256584
-156.985977 204.953049 -65.503845
20.541250 212.513062 -66.908272
-158.794189 210.602081 -65.949516
9.222777 214.161697 -66.011604
-122.508652 210.384949 -66.704819
7.278056 216.562012 -64.980423
-22.787033 210.207397 -64.622772
-159.397552 210.875015 -68.877869
-155.639114 218.092545 -64.392578
-151.409943 215.551056 -67.304634
-22.411289 212.949905 -65.235016
-153.231003 217.185226 -65.186333
-161.253448 214.608490 -66.098007
-149.491684 219.665817 -65.795738
9.927726 221.801025 -66.148338
17.750351 217.084900 -63.088470
96.613884 219.635162 -66.499245
-149.944443 219.569077 -68.192665
-165.485107 226.141739 -65.317429
84.717148 223.688431 -69.419403
-145.183517 225.431396 -67.707314
-4.154372 224.589355 -65.972710
4.475229 226.799118 -67.707748
17.038395 227.594666 -67.329514
14.337358 227.759399 -64.357468
-142.292084 228.724792 -67.376961
-14.114944 230.229111 -65.412483
-25.292004 232.451935 -63.352623
-95.717163 230.811966 -68.723885
4.582392 229.666977 -63.994751
80.165268 238.374329 -63.655464
78.492508 233.168518 -69.293617
-101.679649 233.459854 -66.295998
11.650722 240.435196 -65.797699
89.010406 235.530411 -65.748550
-106.749207 235.772827 -66.855278
78.060265 237.656036 -66.028244
-4.819721 237.838150 -64.127792
-15.017111 238.476486 -63.940704
-8.890471 238.738998 -67.954239
74.302834 244.645767 -69.088966
11.857490 245.022934 -66.636452
-128.340210 245.173431 -66.965736
-165.365494 242.681412 -64.715767
77.176186 243.874100 -65.182930
-127.476089 245.449646 -66.171013
-10.869930 244.562088 -67.109688
68.699890 250.136581 -66.581215
12.627849 248.741150 -63.639961
0.207156 253.836655 -68.982895
-10.294744 250.706299 -65.826424
71.010620 251.236710 -66.011047
14.052974 252.126419 -65.600410
-146.240738 255.650528 -67.184555
47.402763 254.242355 -66.338562
-12.076866 256.535370 -68.182846
-70.777512 257.552429 -63.462814
59.641228 257.109955 -65.690758
-69.682274 259.772766 -64.224724
50.563210 258.814819 -67.994591
-93.253487 259.678162 -68.370430
22.998991 262.612091 -65.904266
44.353828 263.114502 -63.774429
-134.911575 264.061584 -66.668877
-168.483383 269.725250 -63.476315
-105.298607 270.257233 -67.285179
-143.005142 274.232941 -66.501236
-143.300125 271.304962 -67.010475
-13.684863 274.733154 -66.762772
22.819542 284.811554 -61.503761
-8.119372 289.119934 -66.089470
-157.132385 291.139709 -64.880699
-127.133408 291.668182 -65.159843
-157.051239 295.414825 -64.785576
-91.212708 295.003326 -63.648289
-81.056625 299.612000 -68.145119
-46.291698 298.684753 -65.158951
-14.664774 296.693237 -64.064659
-39.360218 297.860870 -65.884758
-14.770455 299.479309 -65.989944
-36.445938 296.425812 -65.483452
-13.803357 299.743134 -64.874710
-44.526585 301.565979 -69.128113
-7.436519 299.329132 -65.529236
-72.339928 298.322998 -66.287758
-82.595963 300.174957 -66.137909
-106.928352 301.964050 -65.100929
-115.989388 303.255524 -66.250031
-132.541946 305.414948 -63.040546
-153.868958 304.887299 -64.294655
-155.755661 315.549469 -65.788498
-149.654556 319.678528 -67.158501
40.873672 24.328571 -64.219803
24.300375 30.316628 -63.494133
45.171577 30.441887 -65.787842
25.808895 33.104069 -67.432610
42.626133 42.300854 -62.928661
27.412977 43.564877 -63.999104
36.789539 50.771271 -62.442627
-58.508308 56.757809 -67.018745
-46.795910 55.223209 -62.863155
-45.103432 59.286045 -62.117393
-43.179169 61.712379 -63.691174
-35.974209 63.416740 -65.723686
-28.111382 63.774097 -64.413246
-15.210474 77.830917 -65.635864
78.877426 83.897278 -67.937408
98.705841 81.155861 -62.912582
-19.570738 81.179253 -63.383389
68.591148 83.431099 -67.633141
-41.397930 88.501053 -66.130310
70.124550 91.052208 -64.205666
57.782642 94.186829 -62.896614
57.400120 96.789810 -64.005951
54.588478 103.822426 -67.132217
-61.484367 98.106102 -64.625511
-97.941513 105.089355 -62.692753
46.221375 105.468903 -65.496170
107.312386 109.419350 -67.607391
61.894600 108.038139 -65.275604
69.330849 111.548164 -65.278572
-75.120453 108.730804 -65.474129
52.268471 115.448639 -67.657326
104.198120 117.299782 -65.143494
74.116432 112.413094 -61.999947
106.204819 115.541458 -64.862534
91.040688 111.405273 -66.139046
102.689972 118.562080 -63.010548
57.094212 117.774666 -63.975029
-86.547874 122.962936 -68.801918
42.642597 121.380325 -63.439167
-97.951668 122.350105 -66.586609
45.167591 123.728226 -66.360596
-79.450424 129.030594 -63.501293
43.721561 127.900169 -64.045395
113.306824 123.879486 -63.991894
35.593143 135.501587 -69.131310
-77.403732 129.556488 -61.992039
-84.607628 130.943970 -60.859547
36.446182 140.436462 -68.100914
-84.443810 135.255219 -65.239670
35.077724 131.745010 -60.147877
-77.763283 139.730957 -63.203079
-50.869064 143.566727 -62.368168
-56.215717 140.143051 -65.645523
-52.086723 138.878738 -61.782101
31.347378 145.380692 -64.919220
-62.326973 143.082550 -67.173439
33.756302 146.804214 -69.463776
-71.558144 150.506683 -63.488579
114.531784 155.620728 -65.073357
23.195835 149.858688 -64.434395
29.966707 151.978027 -64.141685
-70.889977 151.908905 -64.105011
-53.553268 159.333008 -70.276909
34.017403 154.497986 -65.860550
-54.264282 158.054352 -62.661037
24.934267 164.151352 -65.055168
-71.537514 160.875839 -67.057983
-50.631592 157.589737 -65.593971
-45.295132 159.254471 -63.149967
12.912004 159.990250 -65.700714
115.905167 164.222809 -64.367928
-51.712578 162.511871 -65.708191
28.703014 165.421509 -64.016678
-38.195534 166.306534 -62.832451
30.924841 170.129593 -61.634689
-40.094414 165.938522 -62.540157
-37.780140 163.499588 -66.130478
-44.381775 169.527145 -63.588509
-43.208412 170.627426 -66.301567
8.707833 168.054932 -61.691254
-45.846363 171.789581 -64.595985
25.632372 173.103882 -67.865250
-40.104965 170.880341 -63.637123
-32.852917 172.764832 -60.999207
23.702898 177.916367 -65.157043
-29.418915 180.131210 -68.620766
-30.471237 187.448318 -64.811859
113.820427 179.598907 -63.014893
16.902796 184.880081 -68.631332
-38.334423 185.622437 -61.734810
-28.723171 186.432785 -66.152771
-38.638046 184.515686 -61.429905
-141.477951 187.814148 -61.863239
-26.786133 190.966263 -67.338371
16.105242 188.189667 -66.531784
105.663437 186.922546 -65.757309
106.346809 190.634949 -63.359894
-23.081308 190.628204 -65.328796
15.118838 192.242889 -63.751381
-144.001373 196.664413 -64.202789
-32.171444 195.487244 -64.861801
-25.583582 200.885147 -64.235107
24.903202 197.927063 -65.403603
24.899618 205.136383 -66.864998
-112.639359 202.762772 -65.219048
14.234540 202.173035 -63.678493
21.843588 202.646591 -64.183548
-23.091831 197.811554 -67.819572
-111.012642 205.009521 -63.009819
104.956085 203.334717 -63.084957
-125.309303 203.764023 -64.467911
-142.026886 208.859833 -64.080963
-116.857941 208.437927 -63.727375
-112.182167 210.283691 -67.174873
101.746040 214.679337 -65.100235
-10.785573 212.842728 -64.486702
-21.490524 213.998962 -64.093102
99.893417 216.982849 -61.944523
-129.121048 213.770309 -61.168350
-20.970568 218.741135 -66.140053
8.690581 219.854126 -68.076958
-144.088791 218.322784 -62.649326
-7.211966 220.532089 -66.133598
20.317802 218.538620 -64.608932
96.821045 221.696014 -65.615875
98.044022 222.121658 -65.654884
18.982769 219.980637 -63.434116
10.517504 223.892410 -65.542870
-94.387985 227.054489 -62.423317
-91.165863 227.606018 -60.234104
85.512550 228.556778 -64.340172
11.577878 233.943497 -65.771973
-102.815361 229.282028 -60.379326
-11.233464 232.554245 -63.031673
-20.075462 235.878464 -63.833115
5.865361 232.756943 -65.721016
-8.740679 235.573898 -65.927895
-124.981842 232.939331 -65.912682
-9.438904 234.794434 -63.043381
-103.517830 237.477356 -63.639488
-136.806885 238.078583 -68.551003
-112.895737 235.912476 -64.576775
81.474930 234.395874 -64.826180
16.148800 236.287613 -64.719681
-167.225037 236.719223 -63.382023
-112.661911 240.320984 -65.771454
-117.624046 244.757904 -63.682194
80.055595 241.846252 -61.568306
11.987068 247.941238 -66.346596
1.423204 245.655487 -68.980011
15.114705 250.214722 -65.804565
-3.163619 243.385117 -65.924759
71.575722 247.058136 -64.962135
-6.042889 251.271072 -65.867523
10.183470 246.149841 -64.858101
1.862567 249.905975 -64.447556
1.608211 247.499359 -67.091568
4.980641 256.937622 -66.193092
62.471272 251.536865 -61.651012
10.906186 252.725342 -61.434368
54.011383 254.970581 -64.004387
-13.234258 255.761734 -66.002869
-10.322475 259.686218 -66.928528
-77.913567 261.876984 -63.629299
38.691532 263.547302 -64.208405
-81.931595 263.969482 -64.650055
-158.490616 263.739563 -66.990639
-83.786049 265.549622 -63.847057
-139.378021 264.591949 -65.246414
39.153667 268.652161 -60.567169
-110.905411 269.864563 -65.207413
-92.957458 268.958191 -66.941872
-155.552689 272.807556 -62.968277
-110.018028 271.066498 -63.373756
-169.487106 273.468628 -67.259872
-154.574768 274.119324 -66.138496
-155.249084 275.688843 -68.779320
-16.873312 273.610779 -62.209328
23.983660 281.670410 -67.297279
-155.597137 276.813904 -65.328918
-14.518220 276.274078 -65.417580
-157.294113 282.495605 -65.016975
-13.556026 283.643311 -64.324509
23.001183 286.470947 -63.698818
-159.920380 290.284821 -63.576927
-158.662506 287.896362 -67.502167
-154.238037 291.183441 -66.927818
-127.302513 296.508698 -66.929642
15.513829 293.910706 -66.431404
-143.591599 296.642792 -66.914078
-93.079742 296.023468 -64.157570
-76.198029 297.531281 -67.162865
-78.305832 297.213745 -62.669369
-71.470078 296.436340 -65.163170
-53.912643 299.294006 -64.352631
-154.828232 297.392395 -66.785233
-67.711571 300.780914 -68.220955
-62.653690 298.860687 -67.531242
6.248902 302.877533 -62.982033
-78.417000 300.654999 -64.765167
-101.824020 301.184814 -62.868561
-123.434105 303.018036 -65.062386
-156.147156 303.358063 -64.221764
-130.159256 305.971649 -63.866352
-145.362213 321.144287 -66.625793
-153.525269 320.729340 -62.736828
42.981236 28.164885 -59.124256
48.940285 35.076908 -57.472801
47.192371 45.856720 -59.666241
-49.061455 56.692562 -62.844898
-71.327934 59.990292 -66.903137
-33.847687 60.429035 -63.987900
-86.773064 73.171135 -67.707771
85.804993 72.980080 -65.705421
86.563042 73.298576 -61.946575
-13.194324 77.243713 -66.551003
96.987183 79.172691 -66.263481
71.739532 81.126106 -64.079399
-41.577225 92.807289 -60.617218
-42.599812 90.315758 -63.616207
67.725983 94.810226 -65.081497
66.926552 96.048996 -63.036026
103.825317 100.682442 -62.952930
-58.139019 104.204102 -64.560867
-94.215851 101.753159 -62.270550
48.333263 112.220612 -64.061348
99.570717 106.626045 -65.390388
110.224213 107.917969 -65.880043
71.617805 111.945518 -65.321877
50.263466 114.109589 -61.336872
-96.031471 113.526016 -63.657104
44.697987 109.842674 -62.290806
55.012356 113.668877 -62.549217
80.958885 114.618141 -64.339935
83.505966 115.192444 -62.430756
-94.996674 117.127449 -64.869911
40.111721 117.325027 -64.097397
49.592766 119.284874 -62.521412
106.421494 116.892479 -65.856735
41.185612 122.825714 -65.711761
35.624149 122.665962 -63.903881
113.700882 119.802803 -64.476166
37.323639 122.144974 -62.274948
108.979263 127.006508 -63.518543
-75.715691 124.754623 -62.402534
-85.471260 129.574417 -64.338837
108.432373 133.262192 -65.360611
34.512344 137.152481 -60.593704
-60.772816 137.910767 -65.171455
-87.346344 133.894836 -62.924091
-61.964108 141.347595 -63.515598
-86.767746 139.442551 -67.196121
-71.517532 141.015152 -66.739571
-45.091003 145.395203 -65.943146
-87.800308 145.854752 -60.800671
-75.154884 142.795395 -65.282730
-77.998589 144.899643 -60.925053
-43.630234 147.280029 -65.774544
-73.399788 150.795593 -63.281357
-77.868736 148.060822 -66.450478
108.707909 154.629562 -64.323112
26.824387 155.493530 -63.053944
-44.839058 154.706635 -65.442451
113.782982 154.540939 -65.917015
-55.337223 157.167877 -62.865318
-52.244957 157.998901 -63.675362
30.185114 160.271347 -64.745331
29.500734 159.906952 -65.451797
115.610779 162.459198 -67.744171
-46.492420 164.216660 -63.432320
8.001549 161.585419 -62.121952
-48.474564 167.999512 -66.748505
29.179510 163.801529 -66.193207
114.173370 163.005234 -65.081940
114.045265 163.923813 -65.843536
28.854979 168.676910 -61.767590
110.292542 171.707108 -61.956535
23.744772 168.755936 -62.084637
108.929443 167.188995 -65.239700
25.836496 172.544205 -66.036652
23.794436 175.552185 -64.020546
113.106033 179.189835 -64.669876
-28.926350 178.733704 -66.502136
-38.433929 180.232834 -63.255035
29.586935 183.328781 -66.877167
-144.797607 183.541321 -61.354614
-34.442051 188.035110 -63.077557
-108.238113 192.493607 -63.394459
23.953207 188.822830 -64.335197
-152.596878 192.629135 -67.972626
-25.335783 188.974579 -65.598061
-34.540318 192.991318 -65.320442
-145.081009 188.973099 -64.113800
-108.160400 191.117630 -62.126026
-32.572411 194.680054 -63.797382
-107.462837 197.544876 -62.924503
105.378242 196.968430 -61.954147
23.050844 197.659012 -59.969570
-26.322941 200.383041 -68.180397
16.060074 195.731384 -65.501709
-20.573017 204.267822 -65.206596
-27.102137 203.333008 -65.111237
14.659247 208.999207 -62.598305
21.451599 204.780869 -62.682728
-21.132252 207.409393 -65.627388
-107.234192 207.612442 -65.372635
-162.655472 207.007370 -63.413937
-14.361123 206.568710 -64.984818
-12.663784 210.284546 -66.335014
18.397902 207.229279 -61.467541
-16.817873 208.030716 -65.036774
12.494949 209.570709 -63.941856
-109.771706 215.371826 -62.679119
-122.300186 212.348190 -61.658611
-21.603937 216.815460 -62.728481
19.256872 213.111053 -66.486908
-132.518250 214.325989 -60.890331
-144.890442 214.544174 -64.169777
17.134350 213.196106 -65.742332
18.771280 217.433426 -62.910233
-11.741734 213.718201 -65.541603
-5.754464 219.719635 -64.744347
5.743283 223.740158 -61.246361
93.389091 220.805939 -63.251694
-16.541712 219.579483 -66.406616
15.666554 223.583313 -59.367329
18.842432 226.295410 -62.453293
-11.180242 227.862717 -63.577442
-96.700401 230.313431 -63.456486
-4.407350 230.356674 -64.860603
-106.328003 231.376022 -64.647652
16.090374 235.188858 -62.717541
0.631311 235.849518 -64.091797
80.096161 239.102646 -62.001873
-110.354919 234.092255 -65.954514
-134.333862 237.633865 -64.413986
-12.205574 236.143600 -62.913780
5.454046 236.984543 -68.912201
4.377096 242.332947 -66.902435
9.622631 239.862579 -66.513603
-2.519346 238.430954 -64.190392
-123.690002 241.500626 -61.599140
-140.043060 244.570541 -64.526611
17.150131 245.388306 -62.587700
-14.451869 241.207474 -63.904919
-161.067596 244.184586 -62.016216
-151.569046 254.338531 -62.434452
-150.433701 253.247849 -64.005951
3.951979 245.800491 -63.688026
-156.203003 250.016144 -65.242188
55.457211 249.519608 -65.082558
2.729264 250.741592 -64.436234
60.416676 252.338623 -61.988972
53.045563 253.040634 -64.618042
63.296577 252.852341 -63.585022
56.054871 249.997925 -63.424744
-11.396059 254.729706 -62.859386
-149.781769 258.990448 -63.297432
-156.379761 259.871094 -63.058460
-78.829247 261.228027 -62.092178
-90.062309 260.803497 -61.551880
-88.045914 258.599243 -62.974648
-90.401505 258.926636 -66.154297
-160.833298 266.266968 -63.466469
-126.669273 259.587982 -66.638405
45.055969 262.099365 -69.331902
-103.406479 266.825043 -66.534660
-123.063606 265.653656 -63.757252
-157.424332 264.114044 -66.488136
-168.439758 269.148132 -65.574440
35.112759 271.880005 -64.330681
33.806736 272.689484 -65.777603
-159.087616 271.337524 -63.339802
-135.520370 269.867004 -64.016762
-159.185089 274.120972 -67.016510
-165.988373 283.959412 -67.456436
24.770527 278.371918 -59.542469
-167.446655 278.405273 -63.097683
-162.183502 279.783813 -63.608543
-162.851898 286.689240 -61.189312
-6.110851 287.568848 -63.857468
-145.166794 291.879181 -63.163773
-167.315750 295.312592 -65.127052
-134.727417 292.816986 -63.584114
-134.868820 298.587677 -60.234020
-162.377258 297.543549 -65.180527
-93.945129 299.068787 -64.634796
-80.943871 298.044220 -64.328468
-85.249878 300.569489 -65.934006
-73.056450 297.016083 -64.137917
-151.930298 305.231232 -65.481239
-78.335281 298.203644 -63.709415
-125.649872 300.806946 -63.982159
-136.134247 299.792236 -67.698601
-147.493378 305.633453 -61.197826
-144.008804 317.143188 -62.594604
29.549736 22.134752 -63.483284
23.212387 24.755972 -64.574730
43.114548 35.313866 -63.977524
47.274368 42.005257 -64.396507
34.078331 48.237442 -62.649818
26.569845 56.321091 -62.757870
-59.998199 57.196995 -65.243156
-40.258629 56.679825 -62.179234
-83.439430 69.198784 -61.510807
-88.390167 76.392975 -66.779716
88.657295 74.600960 -63.593487
-16.968443 80.440758 -60.109962
-23.339922 83.722092 -58.478333
-26.653681 80.857239 -59.682922
-32.454655 84.142746 -63.776993
70.593636 88.498665 -62.495251
102.536255 93.535843 -65.736496
65.420990 95.059860 -61.354488
60.480793 98.276695 -63.362354
66.380447 103.747581 -63.677570
55.137222 99.098839 -61.504440
104.429352 105.254082 -63.528339
52.914291 106.781784 -60.715652
63.576767 104.434891 -65.991768
-93.956757 106.595268 -63.162022
46.081615 108.980316 -62.303776
101.098137 110.905594 -62.126446
-75.821465 111.384026 -62.729698
49.664345 109.855057 -58.030571
73.794769 115.947746 -61.766953
-80.789795 115.336426 -64.955956
45.810093 114.417763 -60.996624
46.325802 120.458900 -61.036774
-85.410446 117.746643 -59.914982
104.959114 126.724190 -62.699249
40.229042 124.971939 -63.113827
38.505997 129.566345 -63.985958
-90.327560 129.861664 -66.426414
40.193527 128.751831 -61.576424
40.143768 130.260132 -64.015808
113.000122 133.066833 -64.151382
-78.014999 140.283768 -65.125656
-56.456226 134.412018 -60.919334
-60.340435 137.547287 -65.703758
108.371681 136.417877 -64.551178
-82.489456 137.231140 -60.926876
108.320007 144.077240 -61.495106
-74.507973 146.165497 -62.743950
111.819046 141.932068 -61.805103
33.585751 136.595963 -62.765869
113.568779 147.369980 -58.700211
-77.317863 141.297348 -61.411053
-52.071720 146.221222 -64.452499
37.071743 143.495193 -61.298527
-60.277523 146.696548 -63.716797
-57.692085 148.959747 -60.912201
27.021593 157.757477 -65.862160
30.556194 148.357117 -62.398697
111.922188 156.061386 -62.255875
31.988024 153.341110 -62.865665
-78.087532 147.685226 -62.327019
-91.176399 146.950607 -61.381641
-56.496185 151.688034 -60.062477
-54.739372 154.863174 -66.061714
17.456160 156.241791 -61.470264
30.257307 158.785873 -65.791893
-44.047558 158.374817 -65.309364
-71.215401 160.741791 -62.511639
21.704058 160.360962 -62.543819
28.412266 159.413330 -62.503674
-42.695801 166.244812 -60.969845
28.393042 163.290939 -63.804482
-40.231750 165.236984 -62.336647
-94.595139 166.491837 -63.927597
-101.503738 169.442856 -60.254910
23.465576 170.175003 -63.418835
-46.242199 173.539474 -59.365471
-102.396194 173.181870 -61.023060
-100.931915 177.576645 -63.352642
-100.990173 175.604935 -64.900337
-36.603558 175.446014 -62.062378
-101.731560 176.653183 -62.849468
-35.245560 181.149597 -61.873180
-101.125725 184.685608 -62.516487
-36.124832 185.364716 -62.018642
-30.943087 180.380203 -64.117966
-107.862564 185.021454 -66.697128
19.524038 185.858429 -63.616398
-31.980906 185.131287 -62.189770
25.041580 189.155685 -61.743446
-30.847351 183.340729 -61.935669
-27.154474 185.612778 -63.512955
-30.011658 186.564896 -63.465401
-104.742393 192.216934 -60.827396
-28.744019 191.930832 -63.309048
-28.800203 189.918045 -64.454254
-139.706512 193.342728 -61.624302
-112.558823 200.209854 -61.502327
-104.899391 200.064178 -60.044708
-107.137222 199.326782 -62.707115
10.944153 197.480026 -59.478142
-26.665102 200.738312 -64.270805
18.936031 201.761505 -63.286549
-150.615921 206.042755 -61.841305
22.318825 203.462143 -62.898560
17.642733 206.535553 -67.042580
-121.696632 206.368011 -61.264381
-108.075928 205.264923 -66.282669
-20.591885 208.818573 -62.361137
-165.574051 211.038574 -61.102383
-165.648926 216.035172 -62.719086
-114.684776 210.325455 -63.884815
-6.066534 217.430191 -63.048306
-141.885208 218.221481 -64.214706
-7.390132 223.247604 -61.406750
14.606884 216.809891 -62.291843
-159.784164 220.347595 -59.806187
11.038732 224.087357 -63.416595
-158.563278 228.258469 -62.988979
-9.846338 221.495636 -61.000050
9.317255 231.510605 -63.118839
11.416861 229.577377 -62.676025
-4.334093 228.748398 -64.789909
-144.984085 228.303009 -64.282974
-152.968857 230.268036 -62.160076
-155.635864 231.316010 -65.392326
83.298958 228.071228 -66.436279
-5.671374 229.523087 -64.156746
-152.069733 231.400620 -63.972523
-134.279694 233.153748 -62.661659
81.052612 235.976257 -61.193298
76.110138 232.313812 -63.286980
77.872826 234.798935 -62.200966
-12.421229 238.744324 -63.017792
-159.792206 239.432129 -63.420433
-12.214826 241.016205 -63.454849
74.191582 242.897293 -66.236832
-111.364273 244.059586 -61.716599
-1.138477 240.306122 -63.867695
-164.349670 237.703827 -60.457005
-9.977928 245.746384 -63.161282
-0.984779 245.784409 -66.751801
-157.029053 247.193253 -62.948769
71.066780 251.571732 -61.535240
8.524650 252.118942 -61.128189
9.067863 255.649826 -64.795738
-156.507645 248.817520 -64.018143
-13.123332 254.495575 -62.365959
-156.653275 250.773300 -64.830864
-159.965469 256.770050 -62.255524
-163.836441 255.318466 -61.813713
47.722374 255.105652 -62.184364
51.925957 256.183136 -63.984444
-157.687073 253.277802 -63.913017
-163.527908 255.679123 -60.598164
-165.970352 256.391327 -62.619297
47.303024 257.263062 -60.520515
42.936550 260.565643 -60.156475
-158.791672 258.690613 -64.889450
39.565029 262.793762 -57.870716
-97.513786 262.988403 -63.199623
-82.808685 261.356781 -62.045681
-160.758957 265.577850 -63.076477
-133.820313 268.179718 -59.942047
-107.739334 265.549835 -62.742798
33.360672 266.494965 -64.080872
-136.694778 265.724030 -62.775822
28.034981 267.567780 -62.358639
42.748566 267.035645 -63.788933
-97.055817 268.469879 -61.425671
-102.415794 270.319519 -64.343193
-162.184982 267.799377 -60.137321
-111.516647 271.786163 -62.794727
-138.587708 273.106537 -63.764423
-167.548096 271.112549 -63.255173
28.173456 275.146484 -62.247791
-125.243698 273.069092 -61.837700
-13.222153 276.508667 -62.120380
-152.392273 282.322540 -62.178272
-14.877340 278.175171 -65.508247
-12.241842 282.339478 -62.113346
-14.605043 283.920685 -62.123432
-7.698645 285.338715 -62.419136
-154.971039 293.384857 -64.065010
-133.032623 297.860413 -61.916641
-5.890861 297.073212 -62.392349
-7.996647 295.095734 -63.918823
-114.379066 297.433563 -61.880402
-95.729317 299.241943 -63.479889
-108.005585 300.392090 -60.088974
-153.266541 299.811829 -61.149433
-103.763268 298.553162 -62.452564
-141.796921 303.449646 -62.786785
-116.908684 302.178772 -62.034771
1.847770 303.482391 -62.419441
-150.744461 307.402161 -65.511177
-151.525162 317.794617 -65.658569
-145.581268 322.756775 -67.878273
38.373192 21.329388 -59.022179
31.551134 28.867123 -61.095959
41.719902 30.615969 -59.273602
24.941561 37.297192 -59.342903
23.015572 43.994259 -62.608002
37.862488 47.880386 -67.227623
-50.160667 53.592072 -59.722954
-38.801346 60.786743 -62.912613
-35.186844 60.279602 -62.369530
-82.719467 59.455574 -59.156342
-19.669666 68.792885 -62.022316
-16.190798 67.687965 -63.966503
90.296486 72.466507 -62.077007
-16.065784 77.820259 -63.122131
-96.072624 79.579636 -60.053947
101.498329 87.395714 -61.750488
-23.859272 87.835983 -67.883850
-45.452858 90.147079 -59.404594
104.722481 94.211769 -61.428036
104.399513 99.382256 -63.055511
61.923859 99.076706 -64.013046
102.125664 101.575508 -60.927383
67.747833 106.738144 -62.346191
-63.977264 109.735626 -63.751587
107.843330 110.012383 -64.912338
44.845753 107.807472 -63.482155
72.809250 112.965134 -62.647808
-71.354393 118.923676 -60.029259
73.692612 114.209839 -61.113708
85.640640 111.726822 -60.938278
41.594021 114.423805 -62.342979
-72.484406 121.021355 -64.587349
107.226151 120.786903 -60.316216
114.424446 125.887444 -64.307465
42.809341 121.187401 -61.826263
-88.750443 121.960907 -63.730942
110.876450 132.464005 -63.001358
-79.025925 124.775955 -59.699978
-94.679985 130.133118 -64.586235
-75.377350 131.116714 -63.164177
-61.487659 131.706223 -60.499043
-51.817322 133.245956 -61.846584
-71.666588 138.326859 -64.230988
-75.358009 140.994751 -61.333630
-61.900723 139.661209 -62.406479
-80.896034 143.377762 -62.419540
-78.560654 143.962296 -60.362751
-48.182701 149.725174 -63.919754
-54.601555 151.180481 -58.032932
19.091118 148.958389 -59.505608
-93.419037 155.761047 -62.376148
19.075542 153.621368 -61.944427
-70.453590 155.304794 -63.912029
26.804819 155.765808 -60.100929
-98.433533 157.943741 -62.656898
17.762518 157.886719 -65.423355
-93.942383 160.582550 -62.009502
-44.554516 160.125732 -66.517776
9.942189 162.459000 -59.679520
13.285629 164.020065 -60.473789
9.707372 165.267624 -63.890289
31.321552 161.805161 -62.625465
27.333431 167.777740 -64.080803
24.989910 167.337692 -61.756924
21.995327 173.889923 -63.238953
20.829235 170.873825 -66.065201
-104.497223 176.761276 -61.897251
27.073797 176.204178 -63.758877
-104.082909 184.394455 -63.304790
-110.339424 192.983383 -60.035961
-103.899475 187.700348 -62.552341
15.749274 188.881104 -61.818295
21.464190 194.617630 -60.620148
-24.781141 198.162323 -61.507813
21.078524 195.613602 -63.029816
-24.193748 200.513397 -60.805786
-115.258110 206.212997 -58.409088
-23.438988 204.460236 -61.676750
-162.878433 208.705139 -63.944988
-117.503136 205.547501 -62.782539
-16.620909 206.507660 -62.035202
11.220872 210.126816 -59.893028
20.824806 210.108459 -62.572212
-159.476593 210.996811 -64.579941
-13.274256 217.227463 -60.728386
-155.257401 211.746048 -60.102196
-160.117798 214.473053 -64.856522
11.519878 210.775894 -60.759933
16.352579 218.653976 -62.141918
-153.008789 219.617111 -65.869644
-145.821762 220.008682 -63.084408
14.289619 218.281281 -60.287380
-15.160849 223.521545 -62.604351
-12.160766 229.409348 -60.765751
-161.008514 223.597351 -59.331882
-8.505014 226.739914 -59.108208
-156.200394 221.667252 -60.378624
-152.491516 221.988754 -61.755428
-4.509678 224.975830 -65.409935
-142.230988 229.592392 -61.524284
-9.636500 236.403198 -64.307449
-158.176712 231.872467 -61.241558
-164.147614 232.892975 -58.106056
4.489674 237.550720 -64.183434
-158.455521 232.595230 -59.800907
-107.867332 231.929459 -61.657238
-136.265427 233.247391 -59.870083
-140.032547 233.395630 -62.467617
-121.785011 239.956009 -59.561207
-156.829422 239.843384 -59.117836
-148.476807 245.054840 -57.270695
-161.009247 243.640411 -60.642750
-110.521378 244.972168 -61.524292
-156.093079 244.077805 -64.454391
-142.357849 243.002899 -63.770081
-159.892548 245.069565 -59.437973
-113.232117 245.230316 -63.350517
-159.567612 242.757462 -61.762058
76.916222 241.624695 -62.819843
0.202246 245.154129 -61.591259
-142.611038 245.686600 -61.758297
2.175742 244.396271 -62.440067
-0.070837 249.455368 -63.299770
-10.682765 245.520218 -60.675327
-2.249309 249.103165 -60.118626
-163.344009 255.133347 -61.407509
60.623795 247.609909 -63.943581
-149.115387 250.048294 -59.786221
51.853962 257.220978 -62.774555
45.843201 254.930786 -62.374676
44.718452 260.516388 -65.241783
-147.082550 260.087982 -61.839046
51.593052 261.660583 -60.120987
45.849422 258.931213 -64.343674
-152.991562 260.125366 -63.196495
44.031284 264.344360 -61.728710
-129.385147 264.807770 -59.005180
40.013645 263.152954 -62.691910
35.438400 263.477448 -62.764545
-133.730347 266.863708 -62.340088
-120.669334 266.262695 -62.674904
45.394676 266.328033 -62.153412
34.055523 269.006134 -63.404106
-6.969525 270.005371 -63.530972
31.962389 269.785065 -61.471363
-107.562592 269.198364 -62.212994
33.427311 270.890228 -60.581852
-118.004929 268.327484 -59.220867
-151.746384 274.348053 -59.729042
26.965710 274.434814 -60.890095
-8.378970 277.367432 -60.479706
-8.851846 284.642334 -61.549385
-145.154556 282.972412 -61.469448
18.752419 292.422668 -59.403618
-133.333313 294.810974 -62.514023
-156.174133 295.240601 -59.506744
-123.804527 296.945770 -60.091934
-112.398697 295.174377 -60.025276
-141.455231 297.967712 -61.470535
-133.924286 298.951263 -60.380337
-132.642548 303.312408 -61.710052
-154.489777 309.284088 -62.387127
-147.398453 316.091003 -60.436237
-148.752869 314.242798 -62.461830
38.512531 22.196337 -56.494118
29.470934 25.214455 -60.880527
43.357311 31.512392 -60.217968
53.625343 39.140556 -63.598122
21.018463 37.525352 -62.082706
-66.020874 55.061264 -58.890968
-60.180294 55.645699 -59.218246
-70.491051 53.003780 -62.650051
-79.043015 57.960476 -58.425465
-21.013357 63.684074 -57.593544
-87.802094 67.239105 -62.346001
-94.397545 71.177658 -56.757198
72.857826 75.234482 -61.069378
-13.171478 76.199936 -60.746197
-96.106148 82.270866 -60.238621
100.525726 88.097847 -61.042679
103.115463 88.409653 -60.297596
-92.969246 95.368950 -61.855412
-45.803421 94.618843 -64.510941
-52.863220 97.415169 -62.414337
-100.122314 101.168472 -61.311970
-94.957161 106.070610 -62.675468
62.473259 104.622749 -61.359482
50.156200 105.305901 -63.096306
-66.170593 106.771057 -61.562138
52.727539 105.072632 -57.815342
56.894199 108.595306 -60.442318
100.608238 107.841400 -61.709431
-71.220779 110.817657 -58.666748
72.712791 115.166916 -63.091091
-80.563751 113.558403 -58.867405
109.464035 116.889313 -64.016747
-72.909195 115.807755 -59.538502
88.419060 114.382515 -62.636871
104.278671 117.305313 -60.628666
-80.380402 117.069923 -65.356911
-80.940086 123.505493 -59.394466
-85.720482 127.998894 -63.138931
-84.332115 126.576607 -59.527184
-77.558357 131.029434 -60.788048
-92.247154 131.000290 -60.260937
-59.382130 135.995590 -60.328861
-77.302490 137.763580 -62.019901
-77.750160 137.006897 -62.347572
-89.578751 143.941132 -62.523941
-52.324215 140.748276 -59.801022
-53.172035 141.857239 -61.451046
-70.968689 144.387772 -58.626995
-58.674366 144.944199 -56.952999
-73.133423 148.030289 -63.408260
-56.947178 150.560577 -64.084068
-45.833355 152.225342 -58.215172
-74.145439 153.176849 -61.359375
24.520193 152.754089 -62.852444
-51.049194 157.470474 -61.151157
-96.357964 160.484467 -59.925877
-96.268639 164.168076 -58.625427
-106.027657 178.695923 -60.645164
-109.707214 181.198807 -60.581028
-149.739212 184.920547 -60.800018
22.590775 188.781113 -61.677742
-109.474480 190.925446 -61.251591
-143.402786 195.563553 -57.567585
14.524738 201.266800 -62.539165
-149.654755 202.160980 -60.490852
14.833489 201.012283 -60.766491
15.983489 195.844086 -60.588875
-153.634903 204.326599 -61.440437
-127.769455 204.573730 -59.108448
-139.478516 209.961960 -61.337231
-158.210403 213.483124 -61.494404
-21.909515 209.039474 -61.826263
-162.511917 210.056244 -63.233475
16.357153 205.965317 -59.927376
16.036160 210.013657 -63.643356
-162.332901 215.007874 -61.839733
-109.819893 211.977966 -63.592384
-137.544495 211.910492 -61.743969
-118.508522 212.133591 -60.102531
-165.279999 222.038498 -62.153843
-12.200294 221.407288 -59.986481
-163.912109 218.888275 -60.526382
-17.378159 218.614609 -63.407589
-12.594790 215.287613 -60.833370
-168.061020 226.758270 -63.743832
-5.824704 233.027145 -59.014877
-103.212250 233.678360 -59.148300
-103.919800 236.784042 -59.436993
-107.061447 231.898270 -64.295357
-125.179024 235.554459 -57.993496
-140.172424 234.109009 -61.755070
-0.350331 239.702866 -64.014343
-2.228587 238.245270 -59.315430
4.834358 240.465729 -58.628269
0.552414 239.754059 -60.915428
-4.082917 242.250275 -62.774620
-9.047141 248.600693 -59.862064
-6.823509 245.124954 -61.324783
61.381458 249.075851 -61.908047
-6.894821 248.433273 -59.792557
8.490149 252.006607 -64.735451
11.807079 250.906372 -61.514008
52.609032 254.678558 -58.665672
59.383282 254.884171 -57.447552
40.731552 264.886810 -59.967510
46.014793 264.711029 -60.910732
-5.428276 264.543823 -62.086620
-134.623276 261.522064 -59.077755
29.917353 263.931305 -62.849457
-98.771721 265.273346 -62.333672
-139.387466 267.285156 -59.977867
-113.004196 268.041992 -61.434746
-110.709938 268.327759 -62.665798
-109.450447 270.468048 -61.009857
-116.737396 269.813202 -61.657986
-119.301842 272.954834 -57.832146
-144.337967 272.485962 -59.256809
-115.381714 271.643311 -59.638218
-129.874496 273.242126 -61.751034
29.832176 273.802612 -63.020859
-145.033478 273.227478 -59.650562
-6.513335 274.955139 -59.155922
-152.880371 279.314941 -61.686836
-3.865738 289.449066 -63.992256
18.250660 289.843994 -58.018417
-5.994782 298.745422 -62.527737
-132.937027 301.809540 -62.363743
-152.548065 303.843384 -57.385307
-129.735535 307.606262 -66.129951
-149.368225 309.322296 -57.663837
-151.106888 314.046570 -59.852379
-151.173096 320.709106 -64.320663
31.398544 18.970957 -57.717987
24.743425 28.894249 -57.087826
39.889896 26.879925 -56.908379
48.002110 40.282959 -54.410198
43.634644 43.291496 -57.466167
37.693672 45.544518 -61.809750
32.946785 48.671165 -59.190155
41.966148 53.026978 -57.925911
-43.359753 53.233620 -59.328377
-76.032021 58.527145 -60.842667
75.326805 71.341751 -60.216129
79.172241 75.245171 -59.848885
95.114822 73.890434 -58.206467
-94.685135 77.352844 -57.838768
95.066521 78.200478 -61.059822
-19.743887 79.268356 -60.520058
-95.518723 79.927658 -62.118584
-29.856516 80.898689 -59.819317
-38.656036 85.867340 -55.367210
-40.216072 88.581688 -60.404388
-97.891014 87.379639 -57.075851
-98.516678 100.107773 -61.604378
62.533848 93.958214 -62.578125
52.765629 98.836182 -59.341572
-65.734558 103.992706 -61.826363
50.684216 105.674042 -61.864662
51.748440 106.611115 -58.176743
70.490257 110.011124 -61.389645
46.770996 111.494629 -61.075241
47.791885 109.855499 -58.007782
-79.066162 115.432251 -60.909706
-87.800468 118.835167 -61.940048
-91.255600 117.163368 -57.991863
-63.399742 125.581779 -61.101528
-89.976608 131.558685 -60.286442
-56.822098 132.913605 -60.747986
-77.409561 133.975754 -58.238907
-55.725765 135.315689 -61.262520
-81.141693 139.461609 -60.717804
-81.466629 141.243073 -60.642082
-50.779903 147.179184 -59.377201
-76.481995 149.466248 -59.171017
-74.182152 151.830109 -56.006386
-54.228764 151.647583 -62.998070
27.725651 153.664032 -59.672440
-51.363918 152.954712 -59.615242
-97.136444 158.022171 -58.193134
-95.576637 164.655365 -60.713688
15.373683 162.308578 -62.401291
-107.135025 173.905975 -61.742985
-109.210274 181.421570 -60.838737
-140.812057 186.290802 -59.477375
-153.067032 190.352112 -60.605965
-115.554474 199.875534 -62.016045
-151.402939 197.541061 -59.465866
-142.852097 202.420090 -62.381573
-154.456406 205.714157 -61.071518
-138.667114 207.524261 -58.576252
-143.797318 210.691803 -57.394428
-138.588745 211.497147 -62.052704
-128.109573 214.974625 -60.253426
-149.760849 223.196198 -58.389023
-141.907471 235.733902 -59.065521
-112.148384 237.166748 -59.636852
-109.226898 240.116516 -62.119148
-136.592361 238.223755 -59.980209
-138.053192 241.304688 -61.529144
-0.287697 238.689087 -57.612064
7.156316 243.202881 -59.571281
-123.946869 245.018936 -60.300858
-152.490021 244.697189 -59.864906
3.776341 241.563675 -61.889233
-6.668273 251.464783 -54.416241
15.924417 252.854980 -60.157093
61.312351 249.569458 -62.354084
57.046459 258.306885 -59.717583
48.731094 260.664948 -58.511158
-149.891602 263.368774 -59.484207
36.018940 264.371796 -59.178120
-123.651939 268.425903 -61.350914
28.792530 270.574677 -59.718876
-148.393417 270.476318 -58.281651
-140.588593 269.880371 -60.523418
-126.309570 271.832611 -57.983356
-2.804119 273.881165 -57.924919
-4.936767 286.376984 -59.550968
-150.699158 285.551056 -58.556503
1.303184 285.615906 -59.511581
-150.681747 290.023926 -56.071396
-127.162224 294.745361 -59.630394
-128.972504 297.543274 -59.517250
14.193829 297.404083 -55.527203
-124.531029 300.777802 -60.967884
-123.511520 299.306458 -57.104469
-131.745102 302.416382 -58.738388
9.006864 299.439423 -60.281269
-3.319695 302.376404 -59.877335
-147.675430 305.187653 -61.987278
34.394150 27.769558 -64.287933
43.247272 26.727491 -61.675194
42.218784 41.372364 -55.126862
-55.807350 55.457535 -58.618031
-50.052349 53.004570 -56.256706
-51.541924 53.106915 -59.987461
-34.204628 58.275917 -59.904137
-82.160820 61.364777 -56.171349
-16.970865 63.492725 -60.462929
-13.840149 66.501778 -57.092880
-91.214645 70.962326 -58.266228
-90.988541 72.945374 -59.907387
91.150665 73.975494 -60.277962
-14.034739 76.549973 -58.545033
70.412865 76.548195 -58.859940
-28.214756 82.744881 -59.333359
-96.316833 86.801407 -59.545216
-36.015091 92.593369 -54.149822
-98.296577 86.749031 -56.496830
-56.296551 96.863434 -56.939796
109.882668 94.756538 -56.414093
63.583744 100.947128 -56.866600
-97.883759 104.484428 -60.192074
-67.517120 106.191925 -63.340668
49.140377 108.303589 -59.539242
47.604134 108.626610 -60.217438
103.289711 110.938293 -59.435635
99.676949 112.884087 -60.133503
-83.172485 111.255295 -57.125721
95.712288 117.096992 -58.400349
86.278618 122.034523 -58.292355
-81.111130 121.050522 -59.739147
-62.304367 126.953606 -58.652138
-64.425346 126.317108 -59.947392
-89.919800 133.253113 -57.317093
-59.839172 136.002777 -58.519810
-83.547195 135.487686 -58.729580
-59.774063 136.693634 -58.803459
-84.850174 137.830307 -58.494900
-86.336853 142.765213 -58.677620
-51.360947 139.822418 -58.942272
-72.116028 143.983231 -61.859879
-54.343128 146.702682 -57.352837
26.785675 150.394562 -59.651237
-96.221764 148.309692 -58.542023
17.166113 153.012802 -58.313641
20.794224 161.272964 -58.621075
-97.771935 169.023315 -58.819401
-109.415230 190.619965 -60.201466
-149.439255 194.845154 -56.377834
-112.468178 200.913101 -59.342621
-145.738098 205.221161 -59.188187
-151.851242 199.990631 -60.188660
-141.629410 204.701523 -56.949028
-141.942093 209.713730 -58.177559
-123.137451 205.907837 -60.478794
-117.130615 209.598831 -56.981308
-136.481262 210.575180 -57.482376
-121.367348 213.283539 -56.211727
-126.909790 216.121124 -56.593128
-148.465897 217.452332 -56.075146
