# This PCD file was generated using the MATLAB® pcwrite function
# from Computer Vision Toolbox®.
# .PCD v.7 - Point Cloud Data file format
VERSION .7
FIELDS x y z
SIZE 8 8 8
TYPE F F F
COUNT 1 1 1
WIDTH 814
HEIGHT 1
VIEWPOINT 0 0 0 1 0 0 0
POINTS 814
DATA ascii
60.985525680007093 -149.365798526404319 -234.875912083886988
62.771707548105439 -151.700859378007237 -234.211277321491082
60.742270134054174 -150.700493147115424 -234.034432318134748
62.144205602307835 -147.325223636117585 -235.728267439759293
59.985698569819981 -147.028619953786091 -235.149127681176964
61.466778713373664 -151.318839648395596 -235.225388569600113
59.972711037630113 -149.106799573945835 -235.248438581877480
60.809861715971650 -149.132217036296112 -234.462751318156705
61.268172505885815 -147.031007592210841 -234.751466927623255
61.463295006969183 -148.860617272556681 -235.280911221472763
61.019439769512580 -148.580855742974052 -234.841659315025396
60.599748496501626 -146.651686940186039 -236.434939382402661
62.291463179013220 -150.001413145226422 -235.245573996806542
61.884979132381041 -147.410601835811804 -235.954475245720374
60.553687714013094 -148.854024572780446 -236.003390008808623
60.445037397515677 -149.255815454775615 -236.387252453065770
62.788462599805456 -0.649178145621383 -237.319302771315421
60.519386142880862 0.843998153465837 -238.249384951095664
61.554838629362266 -148.731485639961591 -236.434138734364467
61.386448416720718 -148.616444731824572 -238.314832641581944
61.866479216966511 -4.105508358433323 -237.289778756847340
62.569302566123902 -1.899005903804911 -237.613563821663377
61.355967345951342 -0.295793088270716 -237.387149517653683
61.431274212324531 0.922580883178830 -238.027376912231830
62.113497006206231 -149.719648234888211 -237.720599792518016
60.618744563780560 -147.992023165958216 -237.167471369921344
61.081381344811248 -149.984296010108039 -237.511051871054434
61.293526015035852 -3.085662152584246 -236.834433903276192
61.565926341295672 0.973941568588295 -237.545760745512098
61.544310040430283 -148.269268535492131 -237.678841399027817
61.602609428468419 -2.967148850700065 -238.030884546517143
61.153960674226035 -2.147865983380646 -237.867056392823741
60.736317066009619 2.996651694462036 -238.531954131520706
61.617378754619565 1.875549601108900 -238.493303476360978
59.937219886564861 -3.351346930074577 -238.809168537801924
60.717238619218861 -2.406676855602830 -238.526430572299887
60.994107088590837 -148.766654607706386 -239.118972796388704
61.201240044514336 -147.870127961202371 -239.028886453974394
60.544873380502509 -148.917743079407359 -238.272740614947082
61.672038129288680 3.377944572541880 -239.082765210114331
61.651115826368468 -149.458567884059136 -239.536109018998872
60.212236730954039 -4.332535266847085 -238.313333034515182
62.669710072075063 2.093804290427103 -238.790339708643927
61.964729873684341 4.198540872385873 -239.866707558659954
62.289253993582172 -149.178039975519681 -239.912057581621781
61.524511502897113 3.040159856127374 -239.954114316918577
61.595367580440133 -149.044303402494478 -240.526620919402603
59.952793282930507 3.074764748466944 -241.099530920595384
62.694828560887437 16.024409949114943 -241.524428881521629
61.319247664619823 16.365898213529572 -241.083262496099536
61.390075627547326 -149.742636913937616 -239.248806850289327
60.202883086968590 -3.860230999358292 -240.889641717079030
61.546738462589012 4.823818054321595 -240.705114493129486
62.078475093708740 13.928579487794876 -239.972237303735653
60.659055371638011 16.768787070757330 -241.865772758128060
62.707688081299501 -3.075332318510131 -240.570838085905990
60.613647893580371 6.141054403733442 -241.466852611721066
60.257963654034505 5.637228400745364 -241.247511778646867
62.506494005175817 13.415441760007846 -242.694991876312969
61.947270569350401 14.544966722648237 -240.938188228918136
61.837353748620608 17.285014278473174 -241.300520675173743
60.685408038553113 3.177178985733323 -241.186867437090939
60.632021446356681 15.793351660423674 -241.350469096779563
60.451651403873647 19.297571098193952 -241.049399505435190
61.792642190140398 19.127771682506115 -242.280734555689889
61.637229709267125 -3.926969515222787 -241.032517125509969
60.299789485048500 -2.632983667865534 -241.536502973735764
61.153293541227001 5.467743864601601 -241.010353584452218
60.783879346391508 6.649231067680176 -241.322264515893949
62.557768058094972 13.440407734156025 -240.407745903482976
62.670060221203222 -2.268729192772363 -243.359248651427293
58.239115807592690 4.644591314456668 -241.660249719383330
61.265831887608414 14.823545011205701 -240.541983325454339
61.363636029625354 20.304082939442960 -242.888545381510198
62.125759795855430 20.516623157962574 -241.823359617620582
62.281526010951140 18.889110869795264 -242.724315966002052
62.414076694780029 -2.805242102713990 -241.982977585292417
61.376959800787574 6.827292885596357 -242.714556529375187
61.100179551328900 8.591619793998492 -242.640073332993381
61.379912961459304 12.568925489876467 -242.352076525376049
61.353297134091697 -1.963098024671062 -242.918669283415880
60.065079149851186 8.800218086511190 -243.403329112122861
61.086510273233792 11.109240823283400 -242.940881241303146
61.950369537892136 11.721108118066430 -242.423375958357468
61.651275131319920 6.610036076699812 -244.040483497350920
60.302631916394191 5.042054164822138 -243.063435370831911
61.314964362500092 7.977098276160292 -243.916869109266543
61.222364589933314 -1.655699289233379 -244.272930387591600
61.639346650801485 20.263754372703069 -244.099805724250047
62.064929300541557 -1.576316857100173 -243.842434022866030
62.206376376965473 5.629796985932051 -244.536315594696845
61.695395713797339 7.304159054556622 -245.402611592043883
60.766884393368898 7.946590919576370 -245.418704709828006
60.446842750369285 6.151702803950599 -244.607612533221271
61.013651494169835 7.015628001646495 -244.318014515859744
61.944681085503071 21.767020776164060 -244.001982546124225
60.799205770197048 -3.470089027573131 -245.773244302780455
62.045939392931942 -3.351971094903125 -245.120190999485118
60.937219985041914 22.555010126295603 -245.224872403293631
62.458944504336934 -2.683704430725311 -246.008171395436136
61.472184511002986 -3.496246204042866 -246.252972406095722
61.423555826876871 -4.406084878660542 -246.967887784982196
62.614015513010699 21.519112656551812 -246.413656363753745
60.820974052242839 -3.251068462922632 -245.981678568345671
60.831068458648048 -3.217438269917021 -247.843298191442358
62.159852187315465 22.138643246245781 -245.268526554720211
60.304051921886696 -4.473364807432135 -247.077373919540861
59.787324605197782 21.620491234037953 -247.370699878078938
61.271793008353924 -5.169367194062201 -247.730485550784692
61.332024075171688 -3.789878506943043 -247.886855481138241
61.593946146501679 -3.168187226716491 -246.403748481269730
61.445275363176620 19.802026409513715 -248.048733398523325
60.176837364709364 -3.465507121996046 -248.339047503270280
62.430213810666558 21.666131009471499 -246.572421433234268
60.475135202877084 -4.394339719152663 -247.738588709532706
59.220614619608035 -2.819162313897485 -248.572176838634590
61.276659043479683 20.111142234989007 -247.996108131491582
61.544362895074855 -1.556529245454538 -248.548866085736535
61.789588610364284 20.933981427026605 -248.880478299568153
62.430750088142190 -2.663263788516154 -250.213321267412084
61.625231609767887 -1.854826762808919 -248.900108629966326
61.115211263715359 19.995703436689602 -250.061199379729885
61.033228542077680 0.086314734207033 -249.248317607108845
61.481564217136601 19.994360235709173 -249.726164231207861
61.828058364707090 -2.154585254708554 -249.753025280785749
61.113786753084554 -1.852742086409855 -248.504712613390581
60.332379589241654 -0.505174105052334 -251.285005995327566
60.238597366286726 0.874796858893723 -250.676088904900098
62.021578562540775 21.594117117194315 -250.764832679532930
61.087562474381862 21.655636177745262 -249.259873228296073
61.737251906475038 -0.310344025981779 -250.965345457911894
60.858497486736795 0.595958580663260 -250.965204403592907
61.171990227280638 20.501192222078451 -252.645020271702180
59.814983146568530 0.994839984633939 -252.357682135747410
62.421349919098894 21.819029967733076 -251.194393951094185
61.606072030422077 0.753621195240673 -251.729690771342007
59.489140453178479 3.102523647732226 -251.504480452147561
61.463667435546348 -0.139439832687442 -252.375694156075241
61.742741249816923 0.876771501343083 -253.185455462260222
61.760093177271010 24.539297858710050 -252.491768486003025
60.947911533515061 0.246839069010787 -253.178116653788720
61.161889860033980 2.112778819223252 -252.412833108334496
62.350835602173170 23.411203697624803 -252.358529183028935
60.382034493500619 2.346946958718921 -253.650467750599887
61.577370347429856 23.902186895778396 -253.602472431565417
61.731470842606221 2.032880012005554 -253.974872497057703
61.788571924177468 2.019221746381497 -252.722727739981849
60.812064968748693 24.959361224246333 -254.132379210818755
60.075485100421844 2.885363369419653 -253.755092914877878
59.729882134295622 2.998664186431764 -253.566432311112493
61.187186727439922 25.418225684366220 -255.439751966930004
61.706025270789958 2.627284348493725 -253.436132609980433
60.671830535612578 3.782018676266938 -255.313047211896418
61.351306066783017 24.859488472835466 -255.423398079767452
61.170370884022667 3.599598290966428 -255.511618688470378
61.782821549229944 25.301706190452904 -255.502827660066004
60.522626649746442 3.088295797913163 -256.368647795815605
61.487303079588280 25.463026494554935 -255.387167135618000
61.396535603457785 4.785603221581350 -255.567861929153366
61.152726327791548 25.369539624231233 -255.418552082804240
62.283600862052708 3.420352677333250 -256.548820837676260
61.383250151470200 3.615642440071401 -255.439876278427647
61.627855807536299 24.718207606803798 -255.938254781594026
60.607966558316477 4.480507750877444 -257.312732328037214
61.277076384569462 24.753188853232921 -257.400534400514346
60.457233974190565 5.382659916178319 -256.769471171183056
60.389701808770688 4.358606086989065 -256.231386806133344
62.487606879039284 24.417101723309457 -257.885571295304658
60.563947668024760 4.647823517114741 -257.410171343041100
59.944331805863548 5.060338087782348 -258.527521960874594
60.634144162639430 6.374589012709669 -259.136922543304877
61.866976372114223 25.601257481829677 -259.307293169669833
60.666145294254143 26.391980808168995 -258.944210548331682
61.081463805378874 6.842418904958199 -259.006596042795877
60.696828238945535 5.571152373843909 -259.380235379621467
61.106938648672170 5.447605251574278 -258.092610269473312
61.456585529620547 26.036320934007371 -259.941382080893220
62.500179885042996 5.279486917631631 -259.085542103278897
61.640967099225115 26.444951957017519 -260.686477874467698
61.919509329419604 25.243057483444069 -260.886925021057436
59.960906611541134 5.602300335412490 -260.343167463156021
61.579521391574104 7.542891057943454 -261.511094393747840
63.052296456602051 26.321446435497112 -261.740388857350808
60.974436009604830 6.078144073685597 -262.996176657516912
61.717422822403101 24.756753934383092 -263.219806298068136
62.018143700461913 6.583780668833045 -263.994579221909930
62.712808897976117 26.205832838738818 -262.383842897241891
60.556672301915960 5.431647970342159 -263.005867406668528
63.300330578412570 26.956808438787167 -264.554084255013265
61.999838849750105 25.991391570384451 -263.964196173096070
60.807738654310711 7.353827482897071 -266.160542321974447
61.380782795083149 5.568906575556390 -267.803645208273224
61.435589749367736 6.514006760447161 -264.964451074054693
60.089749491032578 7.361128112139566 -266.668703039994000
60.352682192553644 28.253696276782158 -266.361058763786730
60.530996024394931 26.202774634990707 -267.933912724694721
62.145009412753637 26.187870789253651 -268.562789892672981
61.242867534384288 25.702408303279658 -268.256082505393636
60.675025534782499 26.130517780448297 -269.800040155847626
60.782453999006584 6.346669239562029 -268.774103820894481
62.282181540262428 26.276190027804621 -270.127437775564943
62.045252998299915 8.216838412257896 -269.650395739969042
62.943720372092159 24.989027780959507 -269.169787079701905
60.325043487567932 6.913262738474935 -268.904446501296945
61.342696298445517 25.073103964658646 -270.875319182759426
61.137223366581850 5.741983631881778 -271.255384392329347
60.566075296130030 5.530706242357381 -270.382030592765886
61.880703551523553 24.854250565174404 -271.024954901584124
61.202529667761453 6.239158108890526 -271.368421409200494
60.691981927544411 7.606863917544668 -271.391955826758249
60.425580499349827 8.084772423791120 -271.514384873535789
61.553464226599331 5.631897252577133 -271.401612572145154
61.840650074686486 24.576189012786127 -272.406189474538394
61.809956422725364 5.715502416645279 -272.861952573549900
61.504833077835592 6.311868686784270 -271.794641863585127
61.889654344615998 25.276421056845546 -272.425837009571183
60.113713588760426 6.036139339690451 -271.979063491220927
60.883439492968890 5.630178861085831 -274.296092907870104
61.032370381027413 23.567091761367600 -273.771769894211786
59.633355030822621 5.907309223676595 -275.807209773980276
61.361077478568873 23.410789912260501 -274.259877524158242
61.266116025516062 5.561895042622295 -273.816250394432643
60.856263348306527 7.107350563922138 -275.431052394443384
62.353682355779490 22.731777276500662 -275.479936528312976
61.538034634584648 22.196904962400005 -275.794078822865288
61.786611484992356 5.510846891021926 -276.491460479904390
61.458833334388473 22.054962598536477 -275.569772422459437
60.338627968027438 5.411362482579102 -276.984189643938066
61.627392093796736 5.057359420947642 -276.048609831488307
60.166525176909154 6.649815944639131 -278.082662556542004
62.889336418084923 22.711188260870522 -276.549752429405487
60.750197701227869 21.802085079223218 -277.507547617189061
59.703487491602310 22.114240057798128 -277.945187654157962
61.553483503250973 4.397298205585435 -276.598189316843673
62.454982094489552 21.679937363044694 -278.301447025232676
61.173831937022037 4.993266962824648 -278.469133811303493
61.898977340526905 5.451264197056132 -277.885695325148390
60.515333947002247 5.784504675535729 -278.034258826221048
60.473318130673562 20.524923178124261 -278.560906442755083
61.238913391439453 21.211904651779079 -279.425941096284816
62.164986617999169 5.978320442446245 -279.153875244116136
61.206079417676037 21.022784478688394 -279.517756652812068
60.899703890162357 3.960346445033896 -281.128456174372502
61.857297223357527 4.827401491626629 -279.495534455056372
61.407686157822717 22.023392247263182 -279.245240482508166
62.230106392425967 5.339861366785413 -279.914980321623204
62.003044747971302 19.095993988157183 -280.976170925503027
61.271961292251007 6.691716786700432 -279.893721590249299
61.591599040154350 5.288801471932987 -279.918029336106827
61.589765413617414 3.885401780965873 -280.314766612124004
59.348715342470733 5.359367566160993 -281.983192855898551
62.015937118869580 20.861499203581062 -280.711829190596120
61.950539072410734 4.703501744977761 -282.387239860380532
60.671053801043456 19.953342255641751 -281.407914521467887
60.591087193897266 18.480748061867704 -283.203166092189804
60.656164415707288 3.394375180947105 -281.703889852946588
62.253877798686020 3.683505876129344 -282.065901783455899
62.220138174792559 18.211496625865632 -283.526695601689141
60.769882549884990 17.282049645174276 -284.247474885880308
61.657791462689410 3.936848606223481 -285.139583622585121
62.619954365392346 17.062649359223265 -285.345734090389215
60.800833062617301 16.964776369109764 -282.972010447598791
61.312072694071730 17.459637899203390 -284.636686399415737
59.678935164605583 6.064304994502977 -285.646896356325442
60.690394644299971 3.917650047475281 -285.315818637399957
60.426822790394588 16.094609107228898 -286.073673490158455
60.229821040218241 3.931567386744044 -287.980042610049111
59.041285090621173 15.506388001860913 -286.422140299096668
60.182435682176653 3.739325905360670 -287.127971383557622
61.812998274552413 13.953031775431548 -287.505774969013601
62.676112261432209 14.613700526021754 -288.592808410420446
61.403191942029046 3.902184115798584 -289.194849196788027
62.064219884872294 14.032296500656505 -290.840351124432061
60.922672161294130 13.280404038438665 -289.654323300047679
62.471787094272834 2.096113024356175 -289.408076222620707
61.119368023624808 4.326231078314549 -289.427969237397122
63.144234034846981 12.800015784264717 -289.334582385948579
60.287413222190679 3.053794887360102 -290.687010300344241
61.288853876463982 3.329142264115638 -290.019490254089703
59.938019706653371 5.834004537163258 -290.138876122961108
61.284853721893292 3.438023215333905 -289.599174031237453
60.408237056759212 7.109277723215719 -290.122978895047765
62.400212584644024 11.197247869735406 -290.545584276406771
61.614380841894608 12.496597054989733 -289.914892416440864
61.887860461193327 4.295965879799314 -290.249114195618915
61.144059703871477 5.247276619117771 -290.341380432380049
61.622957763422086 5.936961387764932 -290.991463546702334
62.202983875859225 9.648130271097127 -291.246825051147823
62.546054250956765 8.600437835415240 -290.700582386325323
61.135009042318444 5.629404791012320 -292.302332274020841
61.278750981201114 7.018306295651027 -292.127637050763099
60.577575440140912 8.152082681368196 -291.244094315539371
60.681971254076771 8.112170766105500 -291.406919774667642
61.263135040097659 37.503375853706508 -11.990658204770314
62.262963085934381 37.115152373267321 -13.071287774475545
61.417442585843467 29.677394172219053 -13.057216163477266
60.899300063874989 40.223599608762591 -13.349086739007266
60.667105953801560 41.194555782876158 -12.501279549000197
62.108715225242086 42.330606025051878 -13.431287069665389
60.701401662537400 42.371681441851862 -14.641218261653112
61.156934840319686 23.881875182197362 -15.967319055742145
59.371666322195956 42.912372384523394 -16.872895938686060
60.987669531022036 45.001561113538735 -15.334879958927397
60.821955146507804 24.979280910274451 -16.203471623617169
59.164477655157427 33.750067224696465 -17.059438856029832
61.890693354071708 46.358540237127286 -17.016983635347039
59.535577696620329 22.973079757240601 -17.881987575121666
60.210122094623486 33.613974201423467 -18.842806798211360
61.526639229545140 45.729609588470254 -18.082798361353380
59.144388894974284 23.874862546349590 -17.126723752854943
60.462992009630099 32.005925977997819 -16.624091995691217
62.013025689188900 37.693564612592859 -17.337978931989895
61.502595069617215 39.158853632391100 -19.445679603291140
61.219890952741466 22.630908307968252 -17.815590561182713
59.963468023558264 39.788489786660470 -19.372540687422021
61.826390042710628 38.242744454743949 -18.592658341996831
60.633525985272350 22.872911897236481 -20.929549967373504
61.226709194233578 22.597610708479362 -19.833926103888881
62.411399885063425 28.806525653672065 -20.107551849610395
59.643263130004264 28.794316869900939 -19.877589363045768
60.344809316331684 41.678859079736441 -19.853189150353714
59.933266288515100 28.642459286190270 -18.782211863521233
60.678685731120808 41.319516112135233 -19.192045788961348
61.994443599665097 48.938908746360461 -20.357064866265663
61.955638868501730 28.121046846667280 -19.603119793343321
59.289382904398991 41.766637620625445 -21.077688647875195
61.204159217891807 41.472084697237605 -20.516232172380960
59.768842139740286 26.711340495833412 -21.088643165923358
59.841653527758133 50.330190547572471 -19.565093234989316
60.756193386734687 19.581155251530969 -21.338931214489175
60.703246514572449 27.344067523832759 -23.043333619068573
62.961893537915017 47.692668265304476 -21.429591759100241
60.811461047474090 20.927239089443429 -21.238467793149926
62.006759234143175 49.890681443465567 -23.184028592384774
61.177046062675423 43.346691307471851 -21.336898388713774
59.374301570030710 50.000852426976046 -22.686383288581755
62.356754518739891 43.259184089333345 -22.586864196236458
58.844458576245522 43.272662118080937 -22.241426706721711
60.274194877534647 19.467376542480199 -23.479271080388688
60.003951119894253 26.055274284509867 -23.687895774273073
61.473427974944514 49.645668226659140 -24.538382763867112
61.072834312630690 25.685577571202881 -25.327185473561194
57.820154217641154 27.125612328346268 -23.667354000149615
60.031731148105358 48.441129290021877 -24.261133408538878
61.972032565457233 25.466029709132062 -25.516387932587996
61.016364510815926 43.816584279064010 -24.846793028701438
61.832243584720047 49.468037913957978 -25.303925015718850
61.478776263106973 48.769233442951702 -24.945137813921672
60.326932528183342 20.219373878844173 -26.005195514535856
61.438980607869340 44.306600210025223 -25.749465680234653
61.680937740253881 43.334421765814724 -26.561140286487543
59.078762365425632 50.370391340244844 -26.713147710563923
60.930433881927897 26.263574122643391 -27.267702950656123
61.386667973129235 43.208490591936432 -27.371155412719638
59.176304660392432 50.596124206824278 -27.629526185600920
60.680455073540088 19.730252567373899 -27.504094234284782
59.223840295530067 44.571717027537673 -29.500782320974579
59.209680550957096 49.525747533872220 -28.889891220335873
61.750942760583627 44.141496862370268 -29.905967113977141
61.630435845237130 26.526300934890632 -30.813267200922613
59.686806113330398 43.365679010406666 -29.871074365959554
59.488860778358294 27.804663047644134 -29.973559778723974
60.303606108033335 25.339636582533075 -29.828740376837587
59.727580716475970 27.912098572042460 -29.754895455815106
60.502819579467847 43.449079541812523 -29.797576193487050
61.478739237469199 21.108434527628823 -32.212299242592628
60.418657927708480 26.239533136835654 -31.337624861988559
59.603049744050807 26.915029843349622 -30.005432278206097
61.801750447312749 41.788171996909000 -32.739530608948570
60.152240221925517 50.269859652372368 -30.608004705428037
60.313261560300909 26.560936744914621 -33.627056581461666
61.106411427641525 28.418196000941130 -33.201137587891139
60.343146952541751 28.468266365577033 -33.133337121068188
60.726079723721654 49.550483156285267 -32.818043536868728
59.899873786100301 28.683775282415045 -34.754012184162242
61.485954274015235 41.290374042560885 -33.759053540351999
60.426404021548684 47.774787787627019 -33.795480876934356
61.511020412710756 40.176146236577054 -34.505314718021353
60.058739827850950 47.037151704777919 -33.721899518207678
61.449987155240990 30.610592823826497 -35.947033535146375
60.072571429290903 22.375476728105923 -36.239334253822719
59.754172345929923 29.767095564776991 -35.428487260230213
62.391657022585122 22.633111388195871 -35.587494117463187
60.017375924870237 38.280511025900779 -35.843715430521897
60.576468728759771 47.294772328765816 -35.407734508205664
59.561819312629233 23.758062986508325 -36.884089822213902
61.121896401845746 45.060422356616620 -37.931458949282259
60.347728698021164 44.835965449214505 -35.544470116632681
62.556494572172397 32.933217072902615 -36.797142816253697
60.396110694022020 44.357946487941369 -35.804204498349954
59.997648090057304 24.751824248619357 -37.772206047867392
60.847796241787783 32.671564833410862 -37.019551044142666
61.081702003522416 34.982180819329542 -35.903656608765928
60.890741382257609 24.744104541577350 -37.580495538210485
61.188769924718727 25.025137101108154 -39.565797742241280
59.624721007916961 34.050002418088795 -37.747050862955867
61.444497476381528 44.624328789217827 -38.546517607103638
59.201102222408700 32.913146483258522 -39.786872522781543
60.441067855998604 34.797802338240786 -38.468658335333032
61.300571646477742 26.903240706035518 -38.546056256606335
59.813794409524093 26.105609483469927 -37.482676039655047
59.920276436040581 42.598860170320386 -39.019967640647046
61.685526867504890 32.559252688679024 -39.077131813189169
59.653769403068679 33.330013067794596 -39.006816883659759
61.818001714866369 41.422466012317265 -40.558244545626252
60.703104819733703 27.133488346794742 -40.676745342969561
60.871758545514687 28.508131689605968 -41.169493546123100
60.615227433458259 33.886258616041189 -39.779130364778226
60.811741448857518 29.404501594826666 -39.853561005342186
60.622418840058472 29.050941864718542 -39.862561394671253
60.780883342997605 29.659822510036577 -40.357494357846548
60.033758380892003 31.324473513882161 -40.804633941156567
60.694544329282223 31.363268087303044 -41.212378910200393
59.284925612111358 38.211160274510654 -40.628682616866278
59.447754472551594 35.995524635960237 -40.461953087869560
60.886380537304056 35.404576133570352 -41.200097143076583
60.891176704597790 -57.384541352023398 -41.669624042081402
61.288312550272444 -67.097344522609475 -42.638502869300851
61.035233559774937 -65.628787133561673 -42.879773834761160
61.175061143503370 -62.688911773761951 -43.507073408577270
60.188354265704575 -61.989821660667964 -42.525275318943855
60.968210071686443 -60.711677103935259 -42.114198135533734
61.037957927770364 -56.589972482302286 -43.749380098670393
61.267271850217760 -56.034870287356540 -43.205105978403260
60.496721053280048 -54.198991204204987 -42.561977312064791
60.808619937010825 -69.366465079937996 -42.521595556303652
60.854563632303588 -68.345923110616738 -42.721144528043972
59.163153356232456 -67.357087536566198 -42.203149820564036
61.958977429799610 -69.294601109204692 -42.768905336022293
61.617440707549896 -53.410196024864682 -42.721573886448354
61.429056336625081 -53.276988817925265 -43.230825591367676
61.301372103948204 -50.742800372501719 -42.177113849215154
60.391458962952839 -71.490892036603441 -43.357183777321367
61.250207304343732 -68.969769320835283 -42.734894831381958
60.319169254693755 -50.915610541666240 -43.824528892628017
61.469369112143809 -49.903646062988798 -42.597356500862645
60.535818000540125 -48.800736770362775 -42.596230100722899
59.190286199062434 -74.700387986297272 -43.449590974913164
60.127965351781832 -73.699677277775294 -44.820144254651346
60.277940749241097 -74.045907964451118 -43.956971750380141
58.838585109776979 -47.575511161520687 -44.197887281557009
59.092859728914654 -47.859450650729968 -44.485978484204061
59.707354588158239 -46.673551714878855 -44.346695051277024
59.511449275119929 -76.416676616534346 -44.415894709149015
59.849660955443618 -78.376307343805252 -45.717167687719297
60.309751489707459 -46.797035434726823 -44.739267587803241
60.340845812453679 -77.116982248859941 -45.753461352805559
61.068737726714041 -45.616493155674007 -44.524137565019970
59.293103972036732 -78.614481925109587 -45.202892091099585
60.446047282289655 -44.345620578515643 -44.603192081108752
59.585931538114728 -80.032968925651971 -45.291286910493575
59.940701082714611 -43.070884158318876 -46.843868616817957
61.898766488072951 -42.624133083432689 -45.675223648941611
60.748572277363657 -82.429646502061004 -46.116638069675375
59.514911965294075 -81.080650513128063 -45.393876951371084
60.416075565849731 -41.196167652538669 -47.369408586147536
59.950531793857280 -40.673611902566009 -48.010712601878318
60.167385229984525 -40.223969091185573 -46.468930106169417
61.046490252131896 -39.589656134538842 -47.641506109681288
60.888945231769846 -82.071144437385783 -46.857745862565750
59.720029291632216 -41.839228141657507 -46.991356653293913
60.755493144240596 -38.241959602829240 -46.271120070162972
59.009764062791326 -36.278221119327831 -46.287128349797570
60.852272453011928 -35.778604043875340 -47.921414935494596
60.189000078305533 -35.317880847107091 -47.212284794037252
60.884240590516441 -34.096361087289729 -47.625707856835795
60.293543069505553 -33.581279210901130 -47.416691559035748
60.124280799982621 -83.131831893467051 -46.919287673771663
60.325749236056708 -32.154933730083428 -46.973057420659408
59.446417125992781 -30.835485826637004 -47.009333877329318
59.322954120901507 -83.938924184670071 -48.425142934714309
61.070878097726712 -29.607299395527988 -47.874116982424546
61.761788636332334 -84.269971127345130 -47.943918827843795
60.643793880404260 -29.833135937724780 -48.432916660442615
58.981329512515408 -84.587218565743029 -48.990126510017298
60.230349341900933 -26.855629565373754 -48.482933373267372
61.393595199213863 -25.973501211451133 -48.946820046816178
60.537530160857393 -85.136448527958322 -48.329781548649322
60.278845492819791 -24.535885055165242 -49.456440808766317
60.192907452997517 -24.437109539074854 -49.941452861040908
59.556807707341051 -84.717524699555796 -48.194461047071854
60.248078436417792 -22.761347549846704 -48.799598654379714
61.191086358448672 -86.163026323513137 -50.517294930197494
61.676033708037650 -21.081490994793228 -49.586154608470586
60.335313246377019 -19.553813067472749 -50.128493346517608
60.087428627524787 -87.046746491115513 -50.280061602928278
60.748023586991657 -18.918518514244710 -50.516263048224751
60.312269840833103 -18.600224308510210 -50.551620083972523
60.386326639959108 -87.305559268949494 -52.072673802939782
60.152372097956942 -89.973953250225065 -51.925945187310511
60.521756838825596 -17.380589477187105 -50.779483974817566
59.307761453457495 -16.474126678017733 -51.877299460397346
60.156874825468606 -15.163899877866868 -51.547731928852087
60.765978233432783 -89.780577004959625 -51.722786903518546
61.259999121844004 -89.295544255919523 -52.910004460275886
59.705779775195097 -13.516838441422861 -51.958269891782948
60.703270120853915 -14.041973779275919 -51.612661533999358
60.142031312629371 -13.036359305797047 -51.732425783226319
59.850294134183933 -91.027535186465101 -53.795627964229084
59.791082593640120 -13.050190858210952 -53.602835661103335
60.493608103508208 -92.057347815036167 -53.821591680351503
61.103426398413610 -11.460985293843558 -54.468488430417771
59.340616454502857 -12.216932713940805 -53.758924857149182
60.435563598560556 -92.627964264565776 -54.627072132774572
60.429060856724021 -12.051598413968350 -55.095024192682473
62.203985392588947 -11.002052564849530 -55.516754024392540
61.180189173128610 -93.344255926332949 -55.115925420037300
60.637301811963980 -11.830664888099417 -55.667900795416692
59.588653798807698 -91.945865804248754 -56.430232661330010
60.255988551654497 -8.918472190912793 -55.376491400106580
60.888371173757349 -92.220615307588133 -55.916698832838890
61.038755321629104 -10.324858872264523 -55.072645920300651
60.172265493429663 -93.357393395981035 -57.134731757311350
60.587569235407564 -11.867448679967049 -57.333340553575731
60.527930523005217 -9.296635220050577 -56.277777699875244
60.444968953103995 -93.469155146700530 -56.361804016578553
60.198104929168736 -8.947522897180756 -56.453710900287312
60.991204068129285 -9.801913273087075 -57.590799327614000
60.507109698169764 -94.386649014846412 -57.989208903041167
60.373646678671868 -9.386949402695867 -57.454670398957965
60.880181959883075 -93.174806734829247 -57.575546109742113
59.927197781448733 -10.915939277836584 -58.814344263034407
60.030002030826410 -92.743245563869152 -58.473536535098617
61.954606266288543 -94.486730332433623 -59.183936939434311
59.361898840961089 78.117365278616290 -58.298334932126764
60.260645713574526 79.077477035208048 -58.581080310857040
61.064032391198495 79.766107855648556 -58.858273533229415
59.949314049428871 80.076015917171517 -59.234027441848532
58.981854297307329 80.372201697637422 -58.896875118486662
60.375992483063037 82.830665394406864 -58.596716132963145
61.573958498608569 -94.015653883437892 -58.538650140014873
61.117711821973828 -94.245271355363940 -58.779749443452751
61.085302609025376 -8.453541033324843 -59.361872147205361
59.202529723647011 -8.604594374294951 -58.214876057448876
61.729910411409051 77.333787459629619 -59.657603458662138
60.407070585951480 76.677212822371587 -58.602313036913806
60.160748829095787 -95.743937630046972 -59.719120002240921
60.181126950464204 -8.023188112894525 -59.667112550962585
59.092683022361008 75.338954975370029 -59.504538217003621
60.241770954807656 82.589128853967864 -59.170398965588078
60.610156158709763 83.944918630560949 -59.231528744056988
61.209260346501665 87.356489946617799 -60.514541915104672
60.506336701394972 74.280875550152956 -60.103229424616643
59.886037843568545 84.867548625384671 -60.124701415753727
60.866912583754655 86.689953552718080 -58.568266531877228
60.365720073148474 87.254211659869000 -60.051980520363237
59.534106734520563 89.393546804604171 -60.158662482394810
61.495053988385706 90.817581162929741 -59.732289874367027
60.848067774058016 90.175157784309306 -59.775274024227912
59.149205627613611 91.275448686001980 -58.802433226734678
60.611868855977690 -10.227356656244849 -59.391746084156644
60.241405869717738 74.596012203138258 -59.565628753583070
61.587118523525987 90.829748452083678 -60.430561417546762
61.862374642242635 92.246349318982723 -60.577913417745336
60.297580148476946 92.961750424313337 -60.733626487604376
60.508047507703012 -95.865036689802238 -60.480821539009931
61.082600571090573 73.321814646135877 -61.089074600474021
61.651634820657108 92.559119503143762 -60.916599528086138
59.881033237121464 91.964964868746719 -59.606882429901063
59.664707798744331 93.838923425314960 -59.742270641545545
60.549385829694522 -9.283897142246847 -60.839002679298240
59.961445595286150 94.256356674006781 -60.281636171123537
60.524154718470371 -96.228706504579137 -60.601107253768177
60.498131139520815 93.935295748264963 -60.481619604968806
60.639394557559953 94.254244735477272 -61.073244486568541
60.678233077632740 -9.630350470496280 -62.424615809120162
61.337603081374475 71.397779942448807 -61.718372579456670
60.368016846738371 95.636645683322627 -61.476084185135562
61.014541395520830 71.243057042764875 -62.409006549906550
59.727136565707262 72.005290533362739 -62.623937196713513
60.318221134311976 95.454426134873671 -62.798575853632101
59.818820788915090 -96.193137118698516 -62.222760850990468
60.827299028375919 -9.504626253778424 -64.019014047412099
61.494072400430198 70.833512527683013 -63.466286176287404
60.902468388762905 96.077918276511554 -62.425176551676465
61.973551578203100 -95.499944076719117 -62.184884535762478
60.934970166959936 96.161015074132095 -61.005889886755675
59.965702447592030 -96.754679574923841 -64.829646630104435
59.817215068814335 68.794086741141840 -62.233721447654951
60.457170330446296 97.614471328517311 -63.832152441936657
60.777324584429451 -96.991012238381984 -64.500851186668655
59.747863901987834 -17.840391177793631 -65.144371252703053
58.741828208764424 -9.740766206515259 -62.309474700042315
60.976699225241930 -10.892874332905004 -63.504161074899173
59.839568564613351 -97.219110922792126 -65.052938777309194
60.004162270700085 -18.053832383015052 -64.846770924729441
60.467966424198430 -20.252217663928302 -65.227893356530458
61.219004622991513 -18.831321962153815 -63.703797917684987
61.355389625472881 -17.159893837434520 -65.466028221283992
60.073330181315015 -14.181129920651751 -62.388237462766597
60.889321865818857 -14.245076448818088 -64.956886567560588
59.416189627317948 -12.635387427655276 -63.488426573545446
59.066425764792044 -11.492800123423537 -63.848925826362205
60.341112017359599 68.963351245484901 -64.244133463245063
59.045396304800555 97.535604117584171 -64.681791399884844
59.368442022809276 -23.431892425456919 -64.389269268730061
59.939414254337038 -21.793644952392913 -63.056962779260168
59.597234664983375 -20.219418957884180 -63.194867119372908
60.711097065222887 -18.841348720234087 -64.624757472559892
58.834201107841096 -20.703518245537101 -63.830841044803712
61.496345213133964 68.102422453196908 -64.575844388126427
59.499346735402490 99.303527922315695 -64.989816526704061
60.351665962457680 -22.840399806342919 -64.143129015211940
60.192592456048992 -21.611267148656513 -64.606353889355518
60.408403496700537 -21.497984341543734 -64.662031145489422
60.405932433480707 68.810245901066679 -64.723003465672718
59.903997536114105 99.237987412783255 -65.436241753414222
60.040210925438359 -97.129781087270274 -65.312334525385481
59.850476628349156 -24.996666825554126 -64.967218837134681
60.479397172196940 -24.170642422170051 -65.459732461342142
60.633495297535397 100.341382302511349 -65.196671695189949
58.948812897506770 -96.948081313370494 -66.937902384850659
61.054063865919140 -24.901281451836116 -65.853995817966904
59.910930352320115 99.997401814847294 -66.276613930033477
60.140153862200201 99.484277435275800 -66.885292388742130
60.347882323179739 -96.939429123441272 -65.977811359456311
60.477057770743727 -25.860133473917251 -65.933347303634974
60.552741946357180 -24.948867100345367 -65.803365627610290
61.090315647111623 67.726495715140928 -64.807540056026497
61.438905577122526 -27.584942856372976 -66.260274785506340
60.430600324896439 65.995244000077520 -67.459738495496694
58.817948064975674 -97.304229361983857 -67.433282091566284
61.247978788223698 -28.144658536604773 -67.737256020408807
61.396797168482721 66.340236917264221 -66.804067776995652
59.646697357900585 100.355711342529460 -65.445040983733307
60.756026183252573 67.003129904872438 -68.263297618525939
60.810760939663382 67.291613291315429 -66.719982211783318
60.219618868480879 100.827421370806036 -67.368428231736900
60.846431963796505 -98.467561062435152 -68.528676488716869
61.160938826294597 -28.231463726153777 -68.147215024143676
61.147153676008195 101.731510700213065 -66.819231097695393
60.730158360597976 -29.112709237006204 -67.454056764286022
58.587272713830473 66.400464771054104 -67.880496980922032
59.771949689587522 -98.321673154804628 -68.270650139288577
59.131736269276409 -97.613396304033955 -68.079522108006046
60.740117057367769 -30.081880895153063 -69.477362567031548
61.512403146793915 65.285314795411566 -68.746916804107201
58.859863694873205 -98.217313246691077 -68.633189676632441
59.763803053863775 -30.056317008887671 -69.406399494875430
60.123316969444829 101.177189005969410 -69.971161081374362
61.053860312537601 -98.703456276261932 -70.264822460479209
61.105861334085539 -30.268867305038441 -69.749087839219072
62.095987072187654 66.126838064835425 -69.143155338280394
59.783405476193572 66.540554264076619 -67.660154136660935
60.757410920528343 102.796939431115163 -68.811559193902511
61.466308627810776 101.913197194730785 -70.541623369558465
60.683526503983437 101.494143661143369 -68.909229696963266
59.853375604745580 -98.233626681560239 -70.963188749792906
61.449404117790259 -31.687488995761491 -70.559037638159523
60.460710065831329 65.674361879597072 -69.852597968112661
60.133131000376125 102.581547571649054 -70.336641908280541
59.968172700141089 -31.263038338396157 -71.918821814442964
60.526582603650880 64.851206576688966 -71.060213960483807
58.489191313664463 -97.907111880617748 -71.525950223199899
59.656511147282117 64.233983170206059 -71.775337178785449
61.005573308752389 101.996543954498904 -70.157093616174350
61.165985120725551 -32.978060460502142 -72.337205308428778
60.183846187214954 64.661822898542894 -71.928152773576656
61.576351030206744 102.898401987379231 -72.081035496874350
58.906747736637975 -98.917520826994220 -71.727921794165084
58.960832022522538 -33.480328096125817 -72.566670512323583
62.364797239333214 64.415114464981500 -72.439968898769621
60.419398434655669 103.703209136485981 -73.160301107449897
60.449109385933696 -32.884154964754543 -73.355269335140775
59.850903314668876 -34.739021306348093 -73.184366619588303
59.893278001956375 -98.338025822944672 -72.630917885393671
58.901875281505788 -99.368391479938865 -73.406527452713547
60.734273102900566 -32.955416501374714 -73.522443787307566
61.612770909442887 103.072538809703786 -72.457079182130357
61.183814545871890 -100.007888743352837 -74.283305960270255
61.280074296305941 65.502411814897542 -72.482169020656116
61.218741585245944 104.971266169795086 -73.173133433521869
60.343537160910202 -33.970549006090536 -73.488336870781296
60.105711705070078 65.683977604388573 -76.002264097069570
60.610675893418822 -34.247923717297347 -73.293685732450797
61.556918427602831 104.077215789755499 -73.560616613888641
59.308975812116593 -98.204989734159611 -74.272607043553052
62.074410313458088 -34.387799573660779 -74.171416804452903
60.503848647078101 -34.744624782390261 -74.568063732151444
59.733460522380255 64.187757639040555 -75.531863571720194
61.287683956803328 104.529078102379486 -74.710870188030071
60.968693122102756 -99.319510390317092 -75.147021073794491
59.716687147642162 -34.931111036763809 -74.208285931464175
60.887184051785255 -34.417165715654370 -76.552686893184884
61.268699274327403 64.177485358973442 -75.158330252730110
61.683058823835815 103.486376370645530 -74.491644811586283
61.043109882996369 62.634307299165556 -76.307678625008094
60.404974872455647 104.148169951141270 -75.345259579724328
59.954211947668355 -98.789279505691979 -76.220723391348528
61.616156165989487 -33.589013747190478 -77.399332811937015
60.486865072957407 -34.845714626243890 -78.150797697524325
61.230828747832000 63.445566536726581 -75.469252895456449
61.480780736362803 103.642557375848440 -76.522968776637171
59.700482644891572 -100.508118444432569 -76.946191834328047
61.095849843264453 -34.989485304942527 -75.716621438378183
61.015417330554463 62.893148862540812 -76.496811147826847
60.265185877055892 104.066784393796752 -76.310894499333529
60.570816808467320 -34.948667210412445 -77.045219632575964
60.323482077360971 -98.662664779106066 -79.231546556192257
59.830183471713141 -99.550429092964620 -77.164571017868298
59.474746854547575 -34.755954540683916 -77.714809879055892
61.619028740404367 -32.993447391005013 -76.303879750321869
61.968238862972704 105.445033534022912 -77.537906935528767
59.927588076465447 -100.480914945984352 -76.696370916537347
61.105305966076664 -52.631733388926477 -78.267507305556848
61.422862115040196 -51.989632684868397 -77.670186787983369
60.453003729291730 -52.054929710825448 -77.735419994445692
59.963094354981223 -51.444325499838477 -76.927400574854047
59.916848010796102 -51.416584960352331 -78.192209918748077
60.454512003600385 -35.567293229413046 -79.866401974227088
60.158766401470338 105.031545380521550 -76.755087980653002
61.111495819635280 -54.452089725917951 -78.512516621217685
59.147030545562295 -35.705289710535247 -79.026222658432317
59.411536729560297 63.225113816582834 -77.708839412510045
59.395657559782542 -99.356942628120478 -78.369114090832539
60.477926607075389 -55.319570366496961 -78.384254968417451
60.183225538447267 -50.587128482189328 -77.767713512971525
59.284632078680552 -36.373176400464892 -79.505457904064187
60.468953710535502 -38.176578945913938 -79.104762437483970
60.372834656739187 63.617152398202578 -78.714662036689049
60.566132668768745 106.132214337637592 -78.612308374268224
59.929286621295077 -99.330326811563651 -79.446783462301667
61.647538267697158 -56.326340259402507 -78.647500939568943
60.110939803371565 -57.768354297648123 -80.569576962335205
59.929335785095830 -49.563343407680605 -79.582121550608804
59.906131227278244 -37.271277830175833 -78.720014853828545
60.096006229044143 64.199826928072042 -79.459852674511438
60.940991639708059 -48.976821383797365 -78.988329506299706
61.703302250310365 -41.159785495274434 -80.024194980558946
60.195141289389340 -40.742509896762634 -80.537987312920137
61.404218786180145 -38.860285716683137 -80.520228880403366
60.340910612250973 -40.193829864507421 -79.571817839160119
60.432240923191642 63.777648882728293 -81.574206135215590
60.665688374855556 -100.296980039125273 -80.741975420363289
59.546272900758943 -56.792942515661210 -80.580866344446278
60.602477211730616 -59.251047581130855 -79.728382070990264
60.335366982702119 -43.425085110298305 -80.546589814901836
60.617115421696653 105.140796559050813 -79.716159278473285
58.723570300714158 -47.692648068382226 -81.151288255375718
59.753762384062341 -45.762104625887432 -80.294507746192650
58.632723699946467 -44.919841412671111 -81.124125718327008
60.071719137745745 -44.886055976892813 -80.422393548157700
60.333387249839639 62.164939315097293 -81.959414582135281
58.681832924973193 106.149949744682431 -81.076463399960971
61.079842086699237 -100.053578863865766 -80.390475746507946
60.533843053892276 -59.441925374115677 -80.608305753608008
60.416134632774053 -49.197011614110046 -81.177278963218967
60.105635480757591 -48.666370114848903 -82.299022265502032
60.569229233316904 -46.115277568162142 -80.133640515490811
61.649460962232681 -47.392408028643338 -79.794259946898777
59.441641829602936 62.589769857256357 -81.244510563235110
59.903437174042601 -59.510261783816269 -79.192422961250045
61.334214584718850 61.560752353412305 -81.204609853574283
60.882732425905587 63.689387189516133 -82.861781888546687
61.099750790789699 62.859683654819563 -82.415019986676327
61.917642705818814 105.278398087236937 -81.424397985288081
61.436413388078705 -99.421846891874239 -81.385224492938704
61.074698580366139 -59.488432201205704 -82.309954744039189
60.337745748723329 -59.923096587986258 -82.516127043723444
61.247636228613075 62.039162276883708 -80.965776387410244
60.127689365392705 61.193525130756989 -81.617572432787142
59.332244448720935 62.717060473061530 -82.135498205032249
59.713262850318081 60.829237452180564 -83.390831332027219
61.069873130599923 105.468504962538219 -81.744785852129297
59.881135173385985 -100.382840933585058 -81.796614559137652
60.396881694917873 59.621484637978853 -83.469031633871126
60.642668505042693 62.633063771284839 -83.073443106627849
60.498055612473394 -99.218455350056914 -81.858396372739037
60.334531904826328 -61.091756128123507 -82.491575582284597
61.845847017854766 58.104198641178805 -82.430097469247855
60.886550700959212 62.445425231022512 -83.744129290929777
60.286473084093629 63.534960860474918 -83.257960003133718
59.580151540170355 104.630066013735004 -82.377642798522828
60.756116319644136 -100.605388800941370 -83.256126759683013
60.733416512919064 59.674389737678275 -82.504153197552156
60.837265161066824 62.713930787051858 -82.861176875881227
60.211271916482453 63.338358639215805 -83.289138728475095
59.585769285310150 60.008215529326009 -83.697308276249359
60.008131410064031 63.576700872295341 -84.160404035461099
60.710820636530592 104.452691615189607 -83.972445747938423
60.217658935737056 -99.234619291523117 -83.513296899315620
60.723119516100880 -62.105466577658397 -84.258067455271728
60.294862806435063 61.404782058972906 -84.717720663787489
60.433962953597621 60.803264783373550 -83.959905535822188
59.834389754502261 63.241793879536722 -83.294692250718413
59.922858016392354 -98.716707469077022 -85.204986275207858
59.699173713563304 -63.517121311348689 -85.315468931256191
61.429756746012558 56.886765817939100 -84.607753386354389
60.425501317636183 57.484703054038739 -84.965520803020141
60.200406780868249 64.401158706063242 -84.215811228107640
60.520842524614459 105.614288172317160 -84.196125041382757
60.641344244384385 58.045000013611769 -85.485082655856530
60.857352034773413 59.995954381706376 -84.970797664332622
60.176246455023829 63.369826831824902 -85.513207079755773
59.921368269995796 105.046089775808369 -85.336670580322163
60.510250322824795 -62.410476646099582 -85.796443161871707
59.357840809252131 -60.671519110191028 -85.590341276115666
61.327617945106354 62.543917168482871 -85.320648328158299
62.173853524335335 105.202928814082966 -85.068079002531675
60.186710784052778 60.198568414286335 -86.373433795543420
60.422002136597897 -99.350718764926867 -85.447126243915321
59.285495343185538 -61.574947055648408 -86.102790930016369
60.142431381665780 57.714896941982651 -85.405192747223097
60.342040806018019 57.516855955629630 -86.449293246965055
59.793558887015195 59.370629023643104 -87.015244350808203
59.767987439954567 104.560687439465667 -85.654196898552883
60.042566682604168 -99.864338426414037 -86.257891766884725
60.860889728574975 59.337202117961482 -86.028925171339466
59.852764345963692 60.709004256874380 -87.923386789879359
60.347722105599722 62.534525906323729 -86.482147494752681
60.420663332275453 64.610656028700262 -87.390935387062498
61.290993253737518 105.470215252131382 -87.459188727626426
59.948552407773668 -99.625393912782854 -86.743679059095584
60.165462062448853 -63.571626145969994 -86.221133332812414
