# This PCD file was generated using the MATLAB® pcwrite function
# from Computer Vision Toolbox®.
# .PCD v.7 - Point Cloud Data file format
VERSION .7
FIELDS x y z
SIZE 8 8 8
TYPE F F F
COUNT 1 1 1
WIDTH 803
HEIGHT 1
VIEWPOINT 0 0 0 1 0 0 0
POINTS 803
DATA ascii
53.533724950146016 68.846941585392400 -101.184839582113128
53.889955337345654 57.403191913720526 -101.975486881938210
53.222383217307694 58.207157383068804 -102.225003640245887
52.857528312721385 58.868005892833189 -102.066238753916920
53.204517465239697 65.269936875677658 -102.276172611228674
53.504827252292394 66.742875584008587 -102.495265096956828
54.105011190284614 -99.984545161494424 -103.043810143029560
53.876656089515429 -73.015896738842756 -102.762747933962530
53.023153982082363 56.673734581211448 -102.246410481084837
53.294834768722204 57.723762830604628 -102.567697494971512
52.765018019468414 64.545504747222566 -103.147423053323266
53.687384993428537 66.268620619578968 -102.457181534158693
53.628496307473640 65.800427543813669 -102.480757949095775
53.743769652058340 56.397106318565612 -102.737506504414696
53.292128537851980 57.457440193732737 -102.896335061277881
53.154893123603095 57.869518499254134 -102.825674617078860
52.947170956366215 63.891329480844057 -103.425677417620619
53.910859315044256 65.752552577289109 -102.683358001837220
53.487994281571901 65.224915811103699 -102.718427730805715
53.399454896662128 -99.814321182117482 -103.632171867874902
53.877072904256664 54.763753636902969 -103.388496656119884
53.668599124147150 56.345260801137897 -103.553565816367950
53.426761447648985 57.489403269427157 -103.228640963223626
52.713093049160889 61.821261616849910 -103.571045197704095
53.161504389160918 62.641991666626311 -103.719396059718036
54.191383029352352 64.530277545001070 -102.992408511392583
53.388774035096269 63.806721210347845 -103.354100746365475
53.476571262363706 55.199801683624109 -103.656939420427619
53.463144170810601 56.531582490143890 -103.830458221867076
52.827591283942354 57.143872376168638 -103.653776363220061
54.388483785396957 64.245859621119024 -103.866020715705119
53.379790802004088 62.760922859315073 -103.706339393712923
53.292088855591103 55.173869096828568 -104.052039155370963
52.550608501510958 56.028283210313511 -104.524135364271103
53.184818822469971 60.905988332149242 -104.274393240718723
54.081385598145239 62.804421328584525 -104.076253444716471
53.386112204449979 61.594039827047673 -104.549154558444869
53.295414530226196 -74.051075717715719 -104.487496809252804
53.452920946937773 54.185443733748045 -104.170632227436144
53.242020517718998 58.807666909401433 -103.715767493794800
52.800210531930510 59.664232773879405 -103.912655219537157
53.905691973214545 61.042260550991514 -104.523795311377498
52.957309553566944 60.904757747028185 -104.283864795160113
53.930572219392943 53.715400877469072 -104.937298438882550
53.098759308745819 54.266041952926727 -104.960557990306839
53.370557228855638 55.297119141639492 -104.796912851406930
53.387664727638239 56.575826848745017 -105.182533611903423
52.297684167733379 57.133939264210781 -105.007877219400797
53.217584706083443 58.266955187240285 -104.960831874786962
53.130130610497204 58.797844879072294 -104.617817342860661
53.170809981371768 60.077584119833944 -104.945067872747757
53.463329800754735 -99.124665172339746 -104.857504451527220
54.137538021766503 -63.152243745916813 -105.549181096398314
53.765350979249163 -62.969257228257675 -105.513956858201297
53.679094485764587 -61.095465352199263 -105.541852743052715
53.480243489570732 -62.193047193710257 -105.378022656827397
53.613061308574359 53.376440657090619 -105.192655418863495
53.693599949663977 53.299295997050301 -105.454532006135921
53.119568259253533 54.239735765547238 -105.711843977850691
53.001122769714563 55.492169009342874 -105.421830542371069
53.049930102177434 59.082723928591371 -105.381868620488916
53.594206287157093 -74.579451198663563 -105.653166309237278
53.473629181479446 -63.251413475735561 -105.728540596636805
54.085761723988426 -61.368038935650063 -106.390492765113549
54.157159204305820 52.319814561501353 -105.817988017459129
53.151423684802424 53.173369336148006 -105.534845070819017
53.412869539290206 56.182603840502416 -104.912400128100302
52.959838179032957 56.916968718265700 -105.521683612336972
53.114141370755043 58.363775957907407 -105.198202036585144
53.738032661258018 59.123605121132179 -106.303739372046266
55.187768704897366 -98.688546484897032 -106.246562504153928
53.820358297414430 -64.119261106086483 -106.250620873747522
53.695062882437142 52.428669552890575 -106.295464570337217
53.318336305571812 53.227421605095991 -106.305629270246627
53.205910651689976 54.024734895776788 -106.085226569073640
53.498393329018860 55.990922820745794 -106.355075395019213
52.921656625207376 57.296872411383042 -106.207546403666356
53.845130362184889 59.087714230868727 -105.813336121758212
53.480845228881385 57.759178737569073 -106.325506122047713
54.281239251423337 -99.009566827319617 -106.243877975664333
53.724814968568154 -75.003162615620539 -106.563490325506123
53.553822741974486 -63.825883039545161 -106.855378041929981
53.648872277201754 -61.100227825798768 -106.369234191511509
53.838800803539009 51.348200677306828 -106.816253870085276
53.440949504780697 52.334210863292569 -106.721624338987880
53.299144751544297 53.063640969279227 -106.497915412405121
52.474175432288661 55.394352578774516 -105.746342561419738
53.417101992189032 56.193904762337702 -106.688218984558318
53.099116632314029 57.305920527640161 -106.609498706115431
54.102638498156836 -75.169081176032009 -107.167588939438986
53.367293484391290 -64.590770080750175 -106.853110810111900
53.858960539395930 -60.790711229946375 -107.320204641972396
52.888696813240507 54.485184623655776 -106.349875642590575
53.387486614869097 55.472774549404477 -106.870155760853777
53.200063757135354 56.520152576405820 -106.896119216172693
53.646844436704313 57.119708173756685 -107.301932646981669
53.447260440512608 -98.489878841168036 -107.550123940411183
53.062089663606258 -66.017419071029224 -107.476309187396396
53.683435985237573 -63.823628411448539 -107.063372331245546
53.906638410954251 -64.818312491869591 -107.468433672999424
53.293575826216262 51.698465897352499 -107.127888764641895
53.444761747574510 51.343594205135417 -107.225950713064790
53.291655431058473 52.789853724263267 -107.575000208091552
52.870170198443141 53.624542010896000 -106.861072379316667
53.072989504332597 54.289228090970269 -107.599519684732954
53.272174590595732 54.900197503992338 -107.354639798193929
53.330473557473972 55.848209057299592 -107.164163484840500
54.311538857532526 -75.321379325853158 -107.806266180638715
53.903826507974976 -71.949432047095726 -108.138584595473276
53.641522160575931 -70.340363528432874 -108.063012445881313
53.019997411467166 -70.849282553386985 -107.836229339109167
53.877600791874983 -69.667622728602936 -108.320854706807822
53.342458129917269 -69.351085778554292 -107.783789929210755
53.717851938929442 -68.840275613506932 -107.527638916921546
53.455922205015973 -67.590563684987416 -107.666020442124719
53.195491501167709 -66.737739012486784 -107.841152856240328
54.433835190206608 -63.829265250047094 -108.252314885020951
53.931095188090275 -61.012457119605628 -107.618382083816769
53.333098275432377 51.031830358319489 -107.874461657331025
53.174582328429359 52.459683198976514 -107.766287076652446
53.177711275814943 53.849418726638447 -107.703420276456640
52.929752265093420 54.141401750055337 -108.148384520332357
54.297003684061970 56.285383388891056 -107.126558419079146
53.217723777520348 55.495143383782100 -108.040857599820271
53.581823048952998 -75.643428830558506 -107.945766939586846
53.424689430609703 -71.669452684738246 -108.035214101166318
53.413309543647479 -68.708214546858656 -108.434578284399990
53.358483150742849 -67.391076988648123 -108.056948567192194
53.570153477597991 -66.618010266156716 -108.226009228718709
53.498940652629344 -66.532412988942184 -107.582634922395755
53.326035729798214 -65.083776599969582 -107.636260356401536
53.356305219209339 -60.882181216793576 -108.359010721152714
53.728834768280620 50.498634932247484 -108.176338714102386
53.010833494346123 53.061431813914730 -108.073944278445552
53.016731087011919 54.381387333314272 -108.019493565957944
54.261909756752246 55.564913495226875 -108.181809790891208
54.532232043337522 -98.887415128127373 -108.336205531048890
54.165235980347227 -75.433145391646306 -108.336232987860910
54.060089186266467 -72.602105877194575 -108.118146304025558
54.007649694244883 -68.184854360895358 -108.450321761896348
52.991542836717606 -65.916155303207745 -108.835273190752162
53.815238192514201 -64.900952697077429 -108.731502506455342
54.328722334276584 49.633821607771473 -108.733495088276840
53.690102224828330 49.394333874241333 -108.806460894636473
53.346393870059757 50.563800684637968 -108.105523051388545
53.155606418900135 51.819943839945395 -108.287980874077377
53.161697530944004 52.490886564845091 -108.779089664960537
53.142507599636623 53.150805191690949 -108.166921213520112
53.790520085037954 54.776899761737972 -108.505030367780293
53.758942039701239 54.210727723502799 -108.283171705141910
53.697717814884491 -75.920329211991572 -109.198681468244843
53.729049289137656 -76.640563737931942 -109.032559631087921
54.332229995714947 -73.030215838274501 -108.657291587379348
53.414391194586628 -67.559083247384280 -108.666603466530816
53.092899313995396 -66.602201599535121 -108.465292237260442
53.711549603660096 -63.645054733751827 -108.332601349493274
54.057543141348688 -61.089090472742342 -109.001186816394494
53.707794148582757 50.389136183049672 -108.805035572239774
53.472356245681915 51.752038067314082 -109.273014589329520
53.588415734618131 54.557421816758598 -108.686283350023672
53.038388811331231 53.656706634871334 -109.311366098522925
53.753235304026674 -76.366646959756963 -109.667313040244380
53.699852080204295 -73.066879974825468 -109.242181935728397
53.771545243641420 -69.428378320096584 -109.051233330106243
53.422825984276685 -68.897482551957268 -109.217668769562394
53.303173593927752 -68.097599607203449 -109.621617395473436
52.856695540871620 -66.829493794235333 -109.907364843143455
53.400073497921966 -65.622957488546589 -109.077927198593656
53.467344203386268 -64.975618791225884 -109.316943352204888
53.572751963730695 -63.960951890025470 -109.576472112483671
53.623719878832965 49.378290031855776 -109.036771101244852
53.376483036085411 50.493370908490483 -109.106883582560798
52.669954931606540 51.491049333450654 -109.262391471613284
53.138976232338756 52.374749900950427 -109.340808323725639
53.830167963269211 53.621296343550405 -108.860611598995376
54.089939374275680 -98.555219861981882 -109.836824942488647
53.188091511525762 -64.881455126985557 -110.097406753537470
53.612730619908504 48.918242250622768 -109.420043579810624
53.514514006221503 49.924153982491056 -109.671639664790774
53.347772954917779 50.301360492634124 -109.567569857399363
53.063372038387492 51.315475300236990 -109.782410679370471
53.859738089960899 53.119831038169316 -109.569984291053075
53.303416243453874 52.694342792566957 -109.849263137339506
53.938084475295739 -76.448775299685366 -109.880306418073786
54.180216940955113 -72.878234930855399 -109.844957406921466
52.979792308412904 -72.771594550698183 -110.015052971954788
54.194685491748395 -69.440240377579883 -109.832473960665141
53.260800074020821 -68.519585765586470 -110.823936327646905
53.400484294835756 -67.400481693712720 -110.698090620202450
53.258143208430191 -66.434061727039094 -110.907145762946683
53.177822502980973 -66.088290182573246 -110.145086172690213
53.761167467958785 -60.689160666574395 -109.643786565894700
53.566415090160653 49.856539867851950 -109.992602139779407
53.252533456720379 50.360861261843382 -109.830378451505226
53.471853628535591 51.538942855275067 -110.266131735465109
53.844685612262779 -97.935531087267549 -109.874912212184583
54.038888541520990 -76.692785529059194 -110.267138806889676
53.122668671063757 -66.069574742853703 -110.588891895562355
53.366396208783939 -65.039679936961150 -110.523402678796089
53.849507132668229 -60.921084472402939 -110.400976266379899
53.914274576776691 48.874346089842291 -110.545025040452302
53.113080521729991 49.821940721891750 -110.621601892719141
53.324533381724954 50.676054632550112 -110.459393912516674
54.091976341712616 52.550437398000632 -110.135313937639879
53.661443333958779 51.186138252325257 -110.500052068155313
53.559342135600993 -76.455742449829557 -111.123845476629882
53.359465696245415 -67.404826115973080 -111.673643525985682
53.499889067938923 -63.620979837654779 -110.738490382804386
53.941823590055527 48.297945014277353 -110.566923955334218
53.679119493085778 48.836882475752667 -111.225809303758950
53.602726705123047 49.493412451753137 -110.849080653020224
53.232730070112190 50.565711727592188 -111.471884032250713
54.023395028447645 -98.033082663525235 -111.390353800476760
53.806116461360013 -77.562611747104086 -111.260639129061076
53.266707993818997 -67.152176570012472 -110.997069056415299
53.047326365245858 -66.407170952774635 -111.039463853740514
53.369790038898579 -64.669929136659718 -111.200898402887816
53.587585915488333 48.870822933117744 -111.382338756730775
53.680568560401817 49.556702399806177 -111.211203002308807
53.554624313836520 50.674391616304526 -110.862868808007704
53.805135329178341 -77.041511380054573 -112.057149423356279
53.486385433538970 -69.618515820820420 -111.310011045617017
53.062951778415460 -65.599196723925203 -112.158977841725346
53.322315883022092 -65.131745721835287 -111.917608510190618
53.901051918210307 -63.813852791650945 -111.476603090211270
53.180698401363479 -61.277747548730723 -112.116449939106417
53.947424429767580 47.205404502608623 -112.102758204782489
54.109677620079644 49.514138196408794 -111.856303275749255
53.611637725715042 49.410380896874749 -111.921701538549755
54.178045614376209 -77.636902028694863 -111.951564248006122
53.184188977922226 -72.587732314255149 -111.994287093024155
53.221052710032005 -68.594751666481443 -112.175076841143408
53.272660388298355 -66.864603261900513 -111.947798972945975
53.635617005222628 -64.603704499271814 -112.018182162953650
54.118289959680290 -63.902330906358209 -112.009781695031876
53.787818719636682 -60.115860164768293 -111.990451401965529
53.770631337076445 47.113303685693737 -112.259442974851495
53.413121182497626 48.413689197891976 -111.779996507826539
53.836878453637489 -77.963561920435296 -112.147083195208211
53.201705223184163 -72.472720259129673 -112.521060941938458
53.146567362652881 -71.197041111568623 -112.593958266923238
53.493483975761833 -68.541226378819886 -112.713027340055206
53.763026777988856 -67.720307407154408 -112.029575688471908
53.241656462878858 -66.959979629047822 -113.116807128991198
53.949731746473461 -63.983841860542654 -113.007075456255549
53.779210812774664 -60.389054760737451 -113.011352184642405
53.141391829928700 -61.033268284000243 -112.933731376401411
54.190159704768234 47.665429261866130 -112.279345708247078
54.262453372308691 48.494765005682694 -112.581787360059806
53.704792083528304 -97.888312821107789 -113.047414040292239
53.954287818663992 -77.817485236009460 -112.902801078467078
53.659434313178195 -72.864399429879612 -112.755870834792248
53.824714970254661 -68.487014879463146 -112.803675002519796
53.328237977264486 -65.806236011792137 -112.815825673127208
53.434187809185715 -65.230266895510013 -112.740753408577092
53.964920313305349 -78.689462654249809 -113.054236056058159
53.773717855562182 -72.009241362699200 -113.658803563935365
53.501070565570217 -67.570364826668822 -113.066820218725340
53.496514800826205 -64.015627077786959 -113.138316094379817
53.241738529768568 -97.556195981099677 -113.330373507146746
53.618970167870387 -78.855572502894603 -114.293496621996454
53.824495083477991 -71.253996276632435 -113.879600753745549
53.775036960049391 -68.019279191601498 -113.778796196628093
53.645198257476338 -67.024255880532536 -113.303157812066644
53.520385434121891 -65.689371988608102 -113.575464375940498
53.425961214631037 -64.672534508731843 -113.221622459659542
53.629626783748598 -63.661416010984702 -114.139376587482701
53.224296973649089 -61.084718415907091 -113.745852626089530
53.763772513540580 -97.354010065863335 -114.342732394088259
54.010601111812811 -79.265464156440359 -113.978366378203759
53.470762362140050 -66.881917023628546 -114.573139480784505
53.330452315947348 -65.855354179053919 -114.672342831032680
53.314037152873084 -64.737228043749383 -113.961051433333907
52.757733990914140 -61.091884120488061 -114.447144532917804
53.650625585202050 -60.336195522241624 -114.545294251301456
54.194156945322092 -97.560955191262181 -114.798068719827270
53.817913459885773 -80.623930692317757 -115.450841597363407
53.683703200541402 -71.467601392358276 -114.358083598188671
53.062182428212566 -70.432339662441123 -114.932840502121820
53.584376129665927 -65.783437885429180 -115.099846766469227
53.878983222566220 -81.294671228854796 -115.953127966057124
53.833988448050782 -71.045740840528296 -115.525944410899541
53.450992213952595 -65.668714685729483 -115.793805754588234
53.810567852456749 -64.309910904368152 -115.010132330328375
54.140016356065061 -59.925522986621210 -115.084775824875706
53.054648176925831 -69.510144854753491 -116.259370715954432
52.795258667693432 -61.043579203353907 -115.852041972991458
54.073023430524799 -60.337003633766955 -115.713062025319871
52.825379241280643 -96.930370914607735 -115.749735538178811
54.055424473407101 -69.867784315038833 -115.880920918407526
53.863100651005787 -60.156157069982264 -116.547849809039533
53.586321323445532 -96.890857731896233 -116.373956657405444
53.841122223946989 -82.890822023837259 -116.523366109815470
53.434594229806322 -69.765370377066944 -116.113050860364396
52.895419358778987 -61.448253849951975 -116.511031142327369
53.451254639619513 -96.531275882852142 -117.304415435822435
54.089589455909824 -82.879206928641494 -117.384397403287451
52.876567761872188 -68.516235798723812 -117.075048123007008
53.520289288944511 -60.145776491108045 -117.304456230353935
53.624788207972109 -83.945570983248089 -117.285981963313020
53.995434476561407 -69.081724393147724 -116.650067530656656
52.998548638254704 -68.647528212491878 -117.320256961217353
53.409930885835131 -60.765590097656229 -117.173014024730776
53.526737106909884 -84.738414041130724 -117.707843909466462
53.727223239226724 -68.485667622784376 -118.102167789234585
53.045986145626280 -67.693513330474701 -117.803799191802554
53.334349383194997 -60.873427710670811 -118.039890796471411
53.531122926447736 -59.754846510555225 -117.391321454316213
53.238868870761571 -85.960029211323160 -117.978649852889816
52.974728455315393 -67.850981827129146 -118.408243433174178
53.936483010358103 -85.808078233991068 -118.407112338858212
53.907450209801091 -86.934578733020444 -119.232434540072092
53.959109932487543 -68.192856910322405 -118.306076633593591
52.892221801715358 -67.853106422128121 -118.130746467770621
52.789389364181169 -66.566962535623432 -118.632426761845210
53.204198616011645 -61.955672563159681 -119.048825227322496
53.837518714613644 -59.719819493133969 -118.318361137841123
53.720377308283553 -95.864612930237584 -118.605462144993112
52.551619975914619 -95.424903582474855 -118.881671676821568
53.648709084524974 -68.015280208929880 -119.231908581829074
53.260617474520060 -67.058025764116152 -119.187588111562562
53.247918399242138 -61.186152844821052 -118.528294645342356
53.280140785645258 -95.760894866877791 -119.304138722076871
53.920416163375407 -95.385929975943341 -119.635153491678565
53.600541199831717 -87.059184823072187 -119.182625140098665
53.632883644611724 -88.282268294083394 -119.847890808666989
52.930335995804199 -88.021781233259361 -119.489039958434375
54.256747732097672 -67.891002384662215 -119.946071641740076
53.104909741839037 -66.167478914229264 -119.280453646327146
52.783915564469119 -62.258058743775251 -119.678700393802799
53.799763960791125 -59.908197264939176 -119.539425987118520
53.859980548831885 -88.658842212292768 -120.292841731011848
53.245057632637177 -66.983415290382055 -119.668079079097737
52.707139398365122 -63.659464794728841 -119.846427140273519
53.737684589729277 -60.463698930169855 -120.124602905431274
53.213075965488812 -60.815632022703198 -119.696036339362706
53.456993724747591 -94.975033334805772 -120.274597689380116
54.251205260158180 -89.643992839324682 -119.969024028956923
53.238492783632395 -65.762391270935083 -120.503125922660757
53.069516329612831 -64.498035416802665 -120.293114985696306
53.201097787560073 -61.663273899458716 -120.075004359027432
54.044368602697325 -94.975392459640915 -120.338408640913983
53.709446577644641 -89.088505171456319 -120.608843558801865
54.095731082265637 -66.522709124351408 -120.577732580793651
53.808600010431384 -65.763875571403418 -120.587613793475313
53.196071213144961 -65.176838778184035 -120.539356058878084
52.980213093488757 -64.117703256377084 -120.965570502742281
53.023085513030075 -62.316465888388400 -120.537257575766631
54.040822088846994 -60.545917614287220 -120.919448760389798
53.575761395841162 -60.809202617444548 -120.303627449640658
54.053948360715097 -93.814098391634445 -120.390121934792219
53.789432096573350 -93.652419630780287 -121.939092419272086
54.035811403301366 -91.897734495918741 -121.291254825527972
53.569631000236285 -90.205041523307884 -121.131807321278089
53.487061442326421 -65.922596868348890 -120.807741307902759
53.474002943226083 -64.508061132234914 -120.958688740757552
53.213765277919691 -64.091733227519569 -121.140040681669660
52.956832728607729 -62.953985398476838 -121.012525767469043
53.547090266556985 -60.307262644838886 -121.198652925209061
53.341829241346467 -92.395796273734632 -120.985244943303243
53.962984976844730 -65.273114430324028 -121.374577748869015
53.607777480007947 -64.622629815995580 -121.083234915577890
53.330881847955105 -61.841674141820796 -120.505328754493206
53.826598012909201 -61.382849561800278 -120.982207903413652
53.897610886044561 -64.474054324587044 -121.621378145957109
53.312547666465747 -63.695434742326299 -121.386870143978300
53.112751738180016 -63.185529846909546 -121.674030973400960
52.922244792330083 -62.287431107091777 -121.695771965885370
53.791557325478720 -61.067298423358942 -121.658944947955177
53.554955600834589 -63.827998425775519 -122.644998195539102
54.239049328203592 -61.607932302625002 -122.140853156090202
53.505167537761324 -62.684419828186272 -122.305768256241294
53.784466744778157 -62.150765311089451 -122.018470207153456
52.957077364341423 -5.236892307367960 -236.398029320828925
53.276999481161184 -4.752753418741232 -236.212709636536459
53.309026276046147 -3.618729022708942 -236.498789311751295
53.778271139908689 -8.941668107888628 -236.856502476567869
54.014280567254353 -7.480622315369901 -236.639303557931612
53.570057226615191 -6.744371015600564 -237.088435698054667
53.773129333351427 -6.706550144618919 -237.540045715975594
53.790007532706788 -5.811944423488652 -236.797632825408272
53.442462364722978 -4.767996910013087 -236.978038564865500
52.834613984051671 -3.812418585768288 -237.251625807362700
53.098453051257110 -2.908272476623958 -236.605065455348125
53.672326345705414 -10.484342744148229 -236.944506982081407
53.872841471332492 -10.000123272851246 -236.825428728986878
53.381683883318907 -5.565619864081150 -237.161878937812702
53.414814893293617 -5.149685640751101 -237.019870904226821
53.009501217078906 -3.542557002761733 -237.193784170551197
53.201218323603996 -2.919461970472097 -237.585996337702682
53.121077989854172 -1.702348988516754 -237.329938109679603
53.464900133938727 -1.409619690238733 -237.418606059466896
53.596357425177303 -0.102198847033464 -237.907548892226117
52.944779054339335 0.809082212261831 -237.244395787755963
53.251113560895398 11.671026575564294 -237.253610172023883
53.587790308463553 12.123343054378731 -237.666896065414306
53.382631954528300 13.650064388427722 -237.281571871852265
53.322616749680670 14.735137045618451 -237.384715078352286
53.193844369927881 -11.774987733987512 -237.676045156501175
53.252172980345534 -10.135090607389520 -238.058971885769580
53.401095599140646 -6.526498648267703 -238.504597725241041
53.790554575711020 -5.768371023301533 -237.483130077361835
52.932039382677381 -4.838769570071950 -238.065064873987950
53.008939309193330 -3.616831138943916 -237.733616416119673
52.970508362569554 -2.706535656411747 -237.473100270842679
53.853518371019319 -1.810469963096847 -237.733416481190574
53.100980543259588 -0.916206347409669 -237.396274591284026
53.107558109265476 1.135000036775311 -237.139910919357447
53.638165798291062 16.010916619838731 -237.835508694004460
53.367660201013798 -12.387902086780503 -237.958617127311982
53.517439264609997 -12.775056488706001 -238.583765965671859
53.418359282167259 -11.828613479936699 -238.257300195943486
53.014472966816975 -10.936992787968219 -238.131990151904972
53.353100060008643 -6.033334377909287 -238.188808306966564
53.400219204167897 -4.877390810909601 -238.291359684460701
53.395905779500318 -4.137525170175312 -238.275218774948939
54.265347051270460 -1.867251227200498 -238.501464250250848
53.976977393443647 -2.915673598008472 -238.003328381387234
53.666405735997181 0.628484865524690 -238.672404171226390
53.324094333126865 1.725392248128063 -237.981587805288115
54.168805724991763 10.596844828406638 -238.565213913999202
53.629378228603805 18.096011123283532 -238.234566235173759
53.999569323976687 17.153118324325266 -237.775338867869692
53.914236898233064 -13.258067381575398 -238.468758180883867
53.742625094670508 -13.267969181938980 -238.634595950795472
53.322040619629064 -12.486286084393388 -238.305014070793220
53.144515422696230 -11.318187351832082 -238.541836439498837
53.988507241765944 -7.395014055893965 -238.945926273781396
53.281908576285325 -6.861691967113334 -238.491990341144117
53.164569346266227 -5.550969519804608 -239.081468812433002
53.329500235366112 -3.327295410399596 -238.249913592069959
54.157768640295536 1.947794734649595 -238.998261812471753
53.657689325356799 1.860076108636953 -238.410188425698237
53.541621684442212 9.713347553343569 -237.853233943700559
52.919117795923121 12.488458507669012 -238.881634919211848
54.025719290315173 18.811999132045599 -238.831408197290585
52.903708740119356 -13.361164105960176 -239.029283214624769
52.974067378199976 -12.778691276922746 -238.879284918922508
53.234557306000127 -11.823742752909748 -239.090269537311173
53.028828664146047 -9.562797135380860 -238.857068150797687
53.869825561520287 -7.190761732257736 -238.888386057542931
54.166127632387202 -6.672139819237377 -239.257345162427839
53.192982573869720 -5.698179853705194 -239.365379104428285
53.300149479488738 -4.681889053940675 -238.686357693721760
53.720262771380675 -3.704332966120169 -239.346565674633212
53.024544319708809 -1.744364984310531 -238.693666915834399
53.209268701405080 -1.161719767902519 -238.720937274875581
53.312401698619659 0.312847353272508 -238.697124213489701
53.138299933492178 1.142974080010030 -239.267713307215615
53.372233974577611 2.217821335625445 -239.434331720437825
53.718755137781606 3.835617942878075 -239.355313688912958
54.415769295852634 8.761714682500426 -239.049948136089768
53.739913707027071 6.947293962665546 -239.286327423398433
53.690785943656053 7.882819859435361 -238.786301496215231
53.217330149328752 12.583958013510593 -238.859348103981802
54.090985719568863 19.803240680545795 -238.710912126196803
54.126185053504813 -14.817987500431581 -239.652393734514646
53.869079262322224 -15.494049565645682 -239.467413451569030
53.224089804655442 -14.404318379286151 -239.081675146731527
53.020095360777283 -13.529779947211734 -239.401036472000868
53.168984715792249 -12.433205513814455 -239.463010234725346
53.305656393134448 -9.359672695874448 -239.392497586461047
53.745692943242908 -5.881840834231232 -239.139568386330524
54.057144466749968 -3.848926857267412 -239.240490958444241
53.363441293048766 -4.795000222063440 -239.153193192215213
53.424253520479546 -1.722722780681279 -239.202210132848876
53.222064805774686 -0.971963007518144 -239.004907219341845
53.698231200916155 -0.056399049380509 -238.852734099918308
53.084874828871612 0.858034104215464 -239.300923812095476
53.867953520943459 4.917274657794515 -239.294860189876005
52.957006643069931 4.318484593804095 -239.079542994181310
53.176662114565701 5.784135634496749 -238.951194533550080
53.403323405288766 6.895280366620896 -239.775413294154532
52.998630995099234 9.487562946125351 -239.353194469391013
53.009595767720256 10.491158196244276 -238.633107322102774
52.798706305664339 12.486936557824867 -239.179827414056149
54.126107039926040 20.225935808669881 -238.871053014590757
53.479118607907211 -14.268033619343642 -239.717450966849242
53.351548705822410 -13.676636458692414 -239.636919359130445
53.345325917068386 -12.694230854358159 -239.579243371971842
53.422245249597403 -11.476247616052028 -239.228443918544997
53.188438918479413 -10.300663496349346 -239.609498929879294
53.036819325182726 -8.656141099798941 -239.173435713877268
53.094181553738075 -2.599442123237063 -240.104866269128706
53.119536494981411 -1.812641979165117 -240.229829431765552
53.373696128067898 -0.323253462346580 -239.917315483761769
53.299943795370254 1.365868521969185 -240.032442624121700
53.337817511709552 2.163312118156569 -240.204632583222207
54.092989985679559 4.687942966710090 -239.545419145671161
53.911673787222689 6.601430247479831 -239.613735290585510
53.852370400845835 5.497555067866415 -240.023139459183398
52.922205400871086 9.379833829918836 -239.775272058623472
52.981331970788659 10.304478361003333 -239.589686769997968
53.961998140844145 20.712915611128267 -240.035878867644527
53.541106637219542 -15.100273889079626 -240.253344839445333
53.294828430586257 -14.339042658186202 -240.504004418754732
53.209248892807231 -13.392793345577580 -240.486520064697487
53.295435215768457 -9.275060154488351 -240.404694114525086
53.155535327283580 -3.873417155868003 -240.304439589566840
53.117154861211972 -2.756517151217142 -239.940840140317619
53.594782655637538 -1.906875248701905 -240.156205946856261
53.330038673938198 -0.494256589028308 -240.337763337253818
52.904958317848731 1.079885682716443 -240.381967966072040
53.531110905712325 12.108154115214191 -240.463008818952403
54.199174795998537 14.063357294691452 -240.339049703188266
54.101299128680886 14.162946406000700 -240.680195372801563
53.423418591810197 15.024116602848926 -240.413668457852282
52.776052567905616 17.672890624799013 -239.849011129189591
54.271506928227879 21.400763126651746 -240.134542467195160
53.523549575507481 -16.057880703882425 -240.358561653792691
52.952296522468039 -15.139174543942415 -240.450894953343663
53.060739902110448 -14.198902938499135 -240.300546682818407
53.628794088146684 -12.003392387104620 -240.027390369904310
53.932139436727127 -10.600515239074733 -240.229531044791514
53.502517412899287 -8.458058758454280 -241.159467887282545
53.228691917606746 -7.523481680586111 -239.902917741854139
53.372388671844533 -7.182425257896466 -240.626342562292052
53.126519500808492 -3.826243543810205 -240.660893320088235
53.168906652117833 -2.940904369820212 -240.094265077195161
53.057230977071775 -1.867476461264777 -240.957784007770243
53.280597472701473 -0.965417017702169 -240.831794300159714
52.984055299439845 -0.148509804762433 -240.872348335443917
53.086369887053500 3.093538454581894 -240.574744555085346
54.071932649288783 11.381263736025632 -240.689963306550311
53.175874037947757 13.263355397895632 -241.057914536011936
53.712725617686900 16.175910499648641 -240.293924077654481
53.222405494329237 19.068966617068732 -240.414986662613131
53.885802268540189 21.495934770985674 -240.729129571085025
53.725533263042742 -16.741461999735023 -240.650099426819338
52.881768635549271 -15.249440047648342 -241.231120414100900
53.669518822509019 -12.407489672047364 -240.938273829161915
53.792979519237527 -11.613290715011528 -240.617060112761976
54.222044618465233 -10.638551341514679 -240.401704028375008
53.739949861129745 -9.354308081995955 -241.245682613889471
53.691034105739696 -7.742729314762184 -241.265826472048047
53.471643400252454 -5.454414265301347 -241.075102153034209
53.187815146935343 -3.938644917628550 -241.124700146855588
52.899533174342267 1.834813988362962 -241.164402955048502
53.249548364488760 2.795733386903250 -240.936119662701799
53.052484496388786 3.929198176320715 -240.889452085100800
53.020896092545918 4.822332116101991 -240.764146497834361
52.537357404362780 5.641503399247070 -240.683863621871041
54.085041243409300 10.394416803076632 -240.675606799127451
53.381666938277135 11.261512602340987 -240.813742464529696
53.175260181363662 14.706795784306783 -241.194884899538351
53.989311770485614 16.732078130374518 -241.305377848959807
54.024501014471717 16.988330642329220 -241.152363467701718
52.754163510341115 18.963443789455873 -241.001145124610446
54.003335901312759 -16.883746115059733 -240.886645879523172
53.360364954189087 -16.320804024770627 -241.302223102184456
53.363603233985032 -10.492793177951873 -241.198015997317697
53.378110915689213 -8.817716387905669 -241.445272677075934
52.937973262757993 -7.628096841207692 -241.370356103990360
53.969835899574392 0.824103420124331 -241.651009177140907
53.022979409592629 4.480312690348008 -241.704384708635473
53.445973967961990 9.510415255637788 -241.221108995947191
53.187425477767732 10.227778653748038 -241.391020650096777
52.953900013277298 15.696456220889658 -241.347583639262410
53.768112807752409 22.326302990479526 -241.212081905964908
54.221374154398767 -17.040352264448622 -241.732894262005971
53.751049614583586 -4.132051814626313 -241.619167078583473
53.635301108730168 -0.677477049064039 -241.824370039948406
53.846473868707321 -2.391300187367102 -241.708631971196155
53.501103036165141 -0.099676825603567 -241.375937234414238
54.298324431228266 7.819053629677255 -242.237057178128879
53.618228854881558 9.396814070144979 -241.715377983338101
53.069484717216532 20.372374294926363 -240.977117751021012
53.743119403757895 21.955709653620179 -241.279825674539410
53.965234536256588 -14.196573900351117 -242.403273534877798
54.196074236837930 -13.592198433322402 -242.197350016889089
53.851818698091826 -12.336669153086399 -242.254393226279234
53.763644551049993 -10.696327327983720 -242.647896114545148
54.167893905957776 -7.319903375882640 -242.315075628851019
53.955576620351735 -5.915712078524098 -242.184971843153249
54.448487017957703 -4.938512362897847 -241.899420865184254
52.694481214302769 -2.069946119189570 -242.172102236243973
53.467684262940473 2.003932642954254 -241.985242192435777
53.277557783206078 0.685888262784004 -242.055732762039554
53.674953141987054 2.006360117696280 -242.123515411277253
53.751384063020481 3.215364986099113 -242.407847727322576
53.971069761769563 6.559447615399068 -242.004275469747938
53.115334200457092 8.045635411703334 -242.268398393479515
52.867672501365860 9.317869186932954 -242.196246870336267
53.548521755323662 18.297946043594465 -241.902861469073287
53.433422291269018 22.517276609968768 -242.474109470387418
54.012477096467315 -16.945392861240585 -242.332792266578508
53.709218491965544 -13.295107225973300 -242.329048839552343
53.217756063837271 -12.425468650561390 -242.665312389897679
53.231832400054095 -11.235137960370315 -242.824041687909272
53.751031970451415 -8.381323289745865 -242.764440175778930
53.805461683057942 3.739339544836985 -242.844119696809770
53.841721738791698 5.432527020129284 -242.996675477381842
53.310475768114344 8.653025069320970 -242.421149567086502
54.043435189359826 17.726740406541985 -242.792613893959526
54.093120673189041 23.004493410651492 -242.225920448436455
53.701943453553902 -14.632120790911982 -243.203597043247981
53.322142462060874 -13.374431270939930 -242.754641427407819
54.256870781901242 -9.811496228522339 -242.378409119915091
53.384739463229586 2.822844551073876 -242.726368966610693
53.397717313353873 3.644502587385135 -243.120306357550476
54.210228799579205 5.243595204490052 -243.182644435096279
53.798743459413473 5.716185466923742 -243.245591855384134
53.151873849266849 6.572572712831184 -243.115485179560011
53.167398361092218 7.790793891843756 -242.823433953484567
53.617912573034388 15.725447815838555 -243.018023991241819
53.555582751620101 17.314213606178626 -242.993096948771409
53.204198370140034 17.925987131457791 -242.714103749177667
53.315258442140049 20.997962878228520 -243.125381561655729
54.270026885031861 22.841183660044219 -242.855013858026723
52.937460633189346 -15.703311531991119 -243.164425512007199
53.368494348916649 -14.252438326063592 -243.330410603663523
53.799723110366777 -13.229540128743890 -243.139891867449620
52.880980491187721 4.065258827363837 -243.583821909466224
53.722151788710782 4.874771911120999 -243.526632471239850
53.661376034882132 5.744235168911196 -243.151257979745793
53.515774112734348 6.718223545778158 -243.271100497881690
54.146908581838055 15.743520134723884 -242.944422930842052
53.371639142028251 15.933425324749459 -243.475431262783388
53.375532628337439 16.832797610603560 -243.416746557643080
52.998119435226833 18.334150996431234 -243.424230918543032
53.348429104750856 21.006768240224549 -243.416663709563863
53.568384941184220 23.257563774851828 -243.330786384604778
53.774785159738300 -16.724894036491534 -243.833877354835209
52.994538161814170 -16.324261024757650 -244.036950117019188
53.710833198070013 -14.113879732089881 -243.971334591461840
53.489336907792158 -13.467954635216890 -243.374873219612994
52.832593067533885 6.001738314800047 -244.042563653537854
53.595091242595863 14.561092532803865 -243.631012806636448
53.208738049004829 15.928890172638337 -243.803289909941526
52.994496912216157 17.166445142687834 -243.377929237326470
53.021019231072344 21.668105560471979 -243.614857572662970
54.020391865244697 -16.975653048159202 -243.867762314324466
53.292052857370955 -13.329426197115945 -244.042235854631912
52.722669470787920 -12.400618473077802 -244.087171462742049
54.342814619103613 14.195629344015837 -244.221035675780172
53.805831193051155 -17.452307507674206 -244.681648140456360
53.635049884365237 -15.592720176253810 -244.528971175811762
53.485504243730958 -13.487522857066892 -244.486385468137229
54.068587370654960 14.182794492386551 -244.546822693072329
53.548229476073544 21.655933365630421 -244.308940133173365
54.007743129717404 23.271896238765827 -244.385635326863763
53.572695657426301 -17.173726089699120 -244.684598391732123
53.159950530884387 -16.142859222408557 -244.931169770305189
53.704426686325682 13.740007476999498 -244.862407391077170
53.327228694289651 -17.427039342793975 -245.372785885132913
53.071694381256457 -16.355614787133476 -245.945225816745790
53.101665978457248 -15.354938087720852 -245.343347423026103
53.454761823002073 -14.075359679448812 -245.154377009972706
53.752317297912668 -13.446473948063764 -244.901091112214914
54.107319617064810 13.564973254578431 -245.550364066176485
53.573350086078598 23.553839530006428 -245.609243205528003
53.768418325359498 -13.022400877168634 -245.625409984005273
53.848692448066487 -13.130583629734176 -246.482323816757201
54.507892873730782 24.003711699787289 -245.552983682367369
52.834488002829801 -12.263062066783583 -245.580944768836986
53.720908486747106 12.466099235221785 -245.284250661186206
53.258269099313381 21.921150188141052 -246.059321069003289
53.399372895171226 24.577712422878896 -245.931942086333805
54.498994177934641 -17.238474237629529 -246.585132170019222
53.493987135826771 -15.993695990817169 -246.496472543379923
52.975587801738520 -15.506218336211655 -246.129511275139748
53.138456081221520 -12.481811223259667 -246.512789818278179
53.108044318830025 22.939860496117305 -246.417385127341220
53.561259851299354 -16.687318178743219 -247.016170867041097
52.948506333966229 -15.066062535607379 -246.821444344439413
54.131085305583625 -13.528946523695231 -246.983211793572877
53.121208725859454 -12.416648255570546 -247.096309793341021
53.870032274348169 12.184736062214494 -247.027805163350962
53.082355755276168 22.720149845372386 -247.200666880760224
54.264130102246149 -13.248666551826263 -247.312615900616009
52.797941048309042 -11.983416214701958 -247.097669953123869
53.580573452844881 10.698785456170260 -247.730544503399614
53.789377554537538 11.255327617023017 -247.205520358952413
53.120831276551080 12.588014613964694 -247.729783409192038
53.271500362595077 23.185370129250657 -247.842172937694812
53.445175337425681 24.066643579445397 -247.431568148909321
53.669509726027648 25.533736478418856 -247.297688397247498
53.122615351188301 -14.504617162570399 -247.343469351298893
53.144255697143791 22.799995495241237 -247.971124640141994
53.257405133703315 23.780657405917939 -247.889214723909845
53.575013044799455 27.659875992832500 -247.796338564930096
53.725422891174375 -16.038932919817913 -248.134088040371125
53.955432678853960 -12.700541080133636 -247.828697949064150
53.028889378754322 -12.465417184056271 -247.847803862336093
54.067925751713787 10.159636408740075 -248.582228097741080
53.218408020387081 11.408359291870022 -247.914344083326768
53.053432659143581 23.785765146009545 -248.113994575368338
53.122297481616613 24.821610717932554 -247.735496977638917
54.307931303085255 27.226411678218366 -248.711402424178516
53.595261282912574 -15.251499140103526 -247.874498343035242
53.327573229451808 -14.279424703549584 -248.411291747649756
53.817546071840908 10.066965737792712 -247.972022621184408
53.161652146553038 11.498004116323791 -248.669295465766055
53.430887322611113 23.523180014920314 -248.471422514181995
53.221255216992247 25.018893256180831 -248.793918708666126
53.302204320576514 25.525523091166288 -248.445756827837926
53.727424812036830 28.385492918680118 -248.228931121855936
53.598068071965486 -14.797428181042498 -249.157462018100148
53.515419159957389 -12.627390264213744 -248.807857713715578
53.827794368336036 21.684807571427331 -249.161468551113416
53.511173248697538 24.967799430237523 -249.085632120324419
53.074825754355921 25.907730161677851 -248.834551192599918
53.435192204240444 26.998077777113746 -248.774086731442651
53.698141246646273 28.377501539603191 -249.254894932668378
53.363810395742568 -14.322426201968009 -249.459988697896819
54.120768428634612 -12.779052824652856 -249.446608662919431
52.938200101873299 -12.223546336233079 -249.584750513195985
54.062881300517134 10.539070280181775 -249.518235948805710
53.280440229185814 11.374550935405281 -249.046745787456558
53.582110013356889 21.773417954808703 -249.051665179100922
53.388653439833043 24.773644918068335 -249.548530839346910
53.022733001720532 25.201176210470180 -249.250162680024999
53.362894813307008 26.479057500395204 -249.794013274437560
53.888919629272344 29.044657165088225 -249.314457539149544
53.665019469424884 -16.118610472177277 -249.112157686614125
53.516797342799769 -15.409622859163305 -250.065419790969429
53.729040923509565 -14.753642311097295 -249.912306361399601
53.491576684735783 11.388259093237313 -249.981246039217922
53.557910127536807 25.438226516604647 -250.172832969181258
54.031627236588555 26.829376364844371 -249.383064970704083
53.177324567800724 27.828186182673381 -249.837339108948157
53.997454707939276 29.284228801472004 -249.697364915116111
53.699836947980657 29.728841891339137 -249.864869181207524
52.906199291273730 30.377167854605855 -249.633609186829773
53.663421832682936 -12.601061730412036 -249.353661029903606
53.933175568771027 10.643065904496876 -249.613824082751563
53.399327405708384 12.504129862084129 -250.108369845899148
52.773855469639514 25.391932145351184 -250.033537386145156
53.394792255110019 26.850936146930216 -250.430065019251259
53.347651523021540 27.839118272501135 -249.932521373909026
53.976245624621477 -15.571714238103160 -250.354414209925807
53.380432681022143 -14.880612882744950 -250.653721681242132
53.990351859284132 -12.948507351859915 -250.937709536198554
53.794576970042030 11.005229999061765 -250.613940917053213
53.111400613486509 12.144737128472933 -250.782174401455308
53.374451034535063 25.798857143302708 -250.049058007356052
53.472997928307159 26.792286282999076 -250.020124995075008
53.469318676492257 27.451154853085111 -250.417218350217752
53.727273532669940 29.647202668352843 -250.386931445218153
54.032568107625814 -15.518778795166520 -250.669557159375785
54.016842774052101 12.011532984957396 -250.956781344126057
53.566145840011799 12.742100896426534 -251.068665939428826
52.899931978154207 13.850937132466720 -251.057580796031857
54.081423347028256 24.978107451370938 -250.827901919348363
53.269810094248605 26.321458863192820 -250.873000293921109
53.406593352965409 -14.350289131062876 -251.216066771637060
53.156064225585901 13.038630120086875 -251.527690545903056
53.579121680690761 24.368922785200240 -251.025118578646044
53.296475802305260 26.691188897010687 -251.487480609893481
53.448840202533276 27.878567827196679 -251.358525728855739
52.810918467687515 28.412388373820743 -251.273094623248596
54.054876918736952 30.057225530185441 -251.087014485007643
53.707452005122896 -14.534334265109681 -251.865294133816292
53.776498122071715 -12.878661994978851 -251.741107693016033
53.839316201264062 12.010794397289542 -251.699668567287006
53.548106347824863 13.374787501494412 -251.707051221389492
53.881780417566667 24.322942021200479 -251.784348346818831
53.710148797878588 24.302096322218024 -251.596898965585865
53.798103677894112 27.512320497977942 -251.226151320925453
53.434030612519628 13.190067208517984 -252.257843883134171
52.778150533772383 14.708452993183927 -251.801515573287617
53.587069491586711 26.547373549090839 -251.785038761989739
53.968146436417612 -14.704424088977065 -251.738239602511101
53.271180774930521 -14.413260886928914 -251.971236495968299
53.977290985562192 -12.899556983193316 -252.162562125969714
53.954349442685711 13.051151098276852 -252.465686182184811
53.624763810316331 13.158880510922868 -252.317855448530338
53.279121653092304 14.204790010313365 -252.801639987398914
53.258865535001952 26.872303890835166 -252.343673697638224
53.674405126534481 27.830445106389792 -252.420805793950791
53.841880343409471 29.790627038594121 -252.767681368501599
53.367448801502000 -14.314323279725169 -253.644751854243736
53.811620882665906 -13.224840908710776 -253.315708467618833
53.001782553899496 13.986920626201133 -252.604350098583524
53.326052105697151 27.710818741631162 -253.068139977262035
54.338395700978623 -14.390096794882091 -253.032689824871596
54.058775375888757 29.345964026641678 -253.126157105412489
54.066341962179571 -14.717479357016524 -253.725443234203198
53.832151043738257 -13.245659271011597 -254.086561465750236
53.515644852614649 14.428284345720355 -253.671434142022264
53.349348532447152 27.112256049207677 -253.323394336046135
53.695186145845483 -14.801833362259687 -254.565925948066194
53.329935995109892 14.418582944483333 -254.571199595414299
53.736096379348893 27.494697249303055 -253.884470892921257
53.755665777686900 29.731327247217585 -253.747604462645796
53.861835164963423 -13.068560877510576 -254.633377719244123
52.922316708117492 -13.559008936074537 -253.794098284450257
53.575574143668881 13.412475902112055 -254.520188229885662
53.790389978651334 14.539498811011482 -254.496255516425606
53.127714580439111 15.638821851817875 -254.583446944039110
53.710096370187102 27.473304318063771 -254.378382321054090
53.779580714839092 29.176782408752000 -254.526635975775093
52.816926887690698 29.252196355230751 -254.358707168917533
53.961325317495763 -13.892049220007953 -254.780339176408404
53.956756055983625 14.241694759984535 -255.284761434260787
52.903940701146063 15.323998982522287 -255.057427924400088
53.310794081657434 27.476405158634670 -254.603487490354951
53.506486587242151 28.836660004976018 -255.056010024554695
53.831598942688821 -15.248985931325999 -254.899994917513908
53.615119905621341 26.748071838178841 -255.175823847310397
53.780521082136190 -15.016938810953436 -255.751493863115883
54.046803321114510 -14.129812397455602 -255.729896150221009
53.869149606147332 27.131072394995311 -255.819285315800954
