# This PCD file was generated using the MATLAB® pcwrite function
# from Computer Vision Toolbox®.
# .PCD v.7 - Point Cloud Data file format
VERSION .7
FIELDS x y z
SIZE 8 8 8
TYPE F F F
COUNT 1 1 1
WIDTH 806
HEIGHT 1
VIEWPOINT 0 0 0 1 0 0 0
POINTS 806
DATA ascii
34.119964493595702 -63.649612513381605 -53.918880340395589
33.908636330551808 -63.297115728047061 -53.479562796190429
34.729670083961793 -61.533810247729662 -53.590366968592996
34.174385536271288 -87.254992155315335 -53.627643049354241
33.616624552653541 -62.954409786050192 -54.633328742863910
34.807763540786134 -61.160815015053288 -54.978144964992723
34.809544128769275 -89.129408620258801 -55.514203834540318
34.777781140712044 -60.566475974822502 -55.175130817015749
33.995028315466634 -90.057544976483811 -55.492073506852627
34.954273146837345 -89.866781439814119 -56.211649830474229
35.111519047258611 -59.000336053439980 -56.596135994540418
34.724842755090201 -91.162619415301322 -57.538417756823854
33.728305121218902 -91.312494633741068 -57.190996430274126
34.949454934455709 -92.090094345750487 -56.764240517247956
34.191652748044397 -59.212130379263741 -57.527891272615101
33.973376771337620 -91.835900878507516 -57.768159846671168
36.324281034694778 -92.567956588883192 -57.345570555274023
35.328974657250875 -56.475125708194192 -59.069416338474753
33.760983229901882 -92.178673008746159 -59.148206002686770
34.297316647219638 -58.649558347337141 -58.639083883154306
35.533114601221740 -93.049842394453819 -58.128350739294646
34.099172181181878 -93.074184682173282 -59.731794903865818
34.894209777812691 -57.135848477412281 -58.885155062731194
34.809227451868445 -94.152317481744006 -59.165336733794206
33.140396712284726 -93.567391885820001 -59.809753151305245
34.128853904991914 -57.146991937629842 -59.699278267590898
36.121902803681202 -93.663726754434350 -59.248167457702870
36.004213554240259 -56.995028039151272 -60.867977893654839
34.109601024244526 -94.714717233373975 -60.472389589533691
35.218875426926679 -58.178108433192634 -61.187072392091764
33.980235006035180 -94.828421792660180 -61.577843166473492
35.290393752084434 -57.305747251079829 -61.526751137312409
35.246282600900273 -96.114628454453523 -61.710952010064275
33.776292784351142 -95.433713556181772 -61.730204107085477
35.912243344842643 -57.502560915406242 -62.347210916911550
34.077253916786582 -96.245787307559468 -62.979050391931096
35.344234518249181 -57.163887799416564 -63.666185925159198
34.698491280616956 -95.082602285471154 -63.199223803057265
34.158520727340374 -57.011108877104142 -62.735561998723682
33.846359209936402 -57.997110089285719 -63.384853534893331
33.555020463206397 -97.587512211628834 -63.608070200141533
35.637811345955974 -96.253003812707561 -64.473561601897643
35.630151679049241 -57.480969601471600 -64.787233638138161
33.824783709065905 -97.183471183812784 -64.291070369138353
33.262903126059712 -96.051331716642423 -64.593101353373584
35.385595438334668 -57.726766824871383 -64.895130370625537
35.163368439553309 -56.570740390830842 -63.950677148687390
34.751815670796617 -96.470706853284511 -65.305134377792612
35.050790790234323 -57.480250603347983 -65.492214624227628
34.849722852094452 -96.766466106678877 -65.953152446425122
35.006583109172411 -96.910438987842440 -66.593072719412675
34.141267810920915 -97.666521613114242 -66.292812713542673
35.174238985323818 -58.371721713653770 -66.062535659959337
34.416094050365686 -97.853305507503634 -67.796424235121322
35.137892977644618 -57.712872034892165 -67.733256751772998
35.927610277211372 -98.532167648508150 -67.774576258957964
34.961007190936911 -57.914126406951844 -67.467078102696320
34.958238605414707 -97.618040362281647 -68.617609800280121
34.396580788889885 -57.613257757925268 -69.580704719561965
34.545795455836007 -58.300273331517538 -68.914433769748641
34.232558909257271 -96.888342537277722 -69.472064109639760
34.784568581956179 -58.769345196308436 -69.609182559383370
35.418312308155038 -99.112058181752801 -70.274136904602670
34.932545463220485 -98.572494269406079 -70.901529140745737
34.298286057219229 -57.346732706610908 -71.240776597923556
35.085766652633957 -98.167669775128871 -72.189479569225156
33.713768534326874 -98.121484685655815 -70.972828705753500
33.765813482558983 -98.108264832124860 -72.554102125874934
34.778065576507210 -58.052096974533235 -73.755118629689278
34.840116638550953 -99.340519710801630 -72.656043853935458
34.588423842310441 -98.532294262016151 -74.153029940813894
35.761676982879557 -98.558130932078342 -75.314911248366585
35.008960071822237 -57.440062930249795 -75.591860201788123
35.366316625419032 -99.206230474404563 -75.822394193325067
35.532888054815395 -57.976682448883132 -76.109178513897163
34.234575135255859 -58.495664771386025 -77.720466660605965
35.312688097771250 -98.058556581861595 -77.859575980478837
34.928716753847013 -57.472450252114804 -78.668714147223241
35.342683782984921 -99.307789842312872 -78.589145461296212
34.388637894089491 -98.933816661174220 -78.908152236379365
34.997244822590730 -99.759797077300121 -80.766334142701695
34.486882889764573 -98.483854868006560 -82.560782649806185
33.555660289716940 -58.366541997576839 -82.662785350430084
35.125356719802532 -57.681266286044632 -83.466326849570336
34.053579793352554 -57.881421356461011 -82.764617401194798
35.288723116311751 -99.387246368723112 -83.126120877031624
34.126123613561028 -97.833931381620488 -83.912708881042818
34.784166685790019 -98.907048413869433 -85.164426222684696
36.278764401557254 -59.213796876129983 -85.013182261437791
34.313795073459239 -97.074413664747254 -84.985355475604322
33.407921770039991 -97.712757105052745 -85.132226016424511
35.066027537188489 -58.397708255570507 -85.257080715204538
34.525525281077918 -97.874886153281722 -85.313510572877789
34.373279997049870 -99.100822833296135 -85.962156324998958
33.897100429324666 -58.615490785100540 -86.312692064795385
34.135042391817578 -98.052326141332202 -86.903675230400225
34.292411599075322 -58.846167647516353 -86.426047781702593
35.519099147562677 -59.564278507754217 -87.857920869926843
35.366316937207301 -97.873547576804810 -87.305869304645583
34.855839927605764 -60.063706339449510 -87.427319089780795
34.131635830173174 -99.166165173496040 -89.230293011715659
33.809658497029517 -59.813438758299398 -89.159290021054233
34.424297675013527 -98.377210121689757 -89.681392498146238
34.765260674054211 -97.936381242752262 -89.930714692268708
34.560455404884586 -60.047938154109055 -89.282677638805637
34.411175345323443 -97.928607078206937 -91.138663654147081
34.660058104850620 -97.777138602332641 -91.079375754690759
34.843141396243333 -59.652744441431317 -91.767004139406069
34.646778334651209 -98.227639416159079 -91.548517396974574
33.975538574748128 -61.729699098479827 -91.356836010494078
34.559209553594286 -97.336319461917455 -93.327310092745364
33.586714062122716 -97.061066503836869 -92.268292056638714
34.731807814673509 -97.386771025180337 -94.362717617920978
35.341992710532210 -60.438804449628165 -93.448699559756093
34.868944590696600 -61.205671051283531 -93.319548555455370
34.760198835823140 -62.530461885187066 -93.458692324307407
33.947412443995020 -61.566237497171464 -94.585086815959173
34.866835558534227 -62.804094814955626 -95.278466749042892
34.836326412364429 -63.495232362057237 -96.526684830533853
35.113725992067884 -97.093593132326660 -96.173173434593068
34.137742177117175 -63.358560316269589 -96.308549493411377
34.415807182725281 -96.480480322347347 -96.939583798074224
34.335444845647750 -96.513636659232191 -97.048415073813601
35.255887288352589 -63.473425949715200 -97.118043204608895
34.918317443189615 -63.838007574258967 -96.033564772356783
33.758490569956102 -96.362766082245031 -97.554532310255340
34.735843976604393 -95.644432994398088 -97.696430743254183
34.597513038056391 -63.772474031019371 -97.826176513570147
34.448197861429009 -95.780135691962457 -97.288843975307387
34.854111814268826 -64.825228600835757 -98.540029514299775
34.214469843447482 -64.564283733139007 -98.960360754169656
34.736269048488495 -65.385960651532514 -99.978614733560335
34.695761800195505 -66.095818984914743 -99.615192079526054
35.180850461347880 -95.905919928725240 -99.760149626682846
35.401863664755602 -95.366840877322389 -100.634813691223371
35.104928023969514 -66.388351703137062 -100.775604865232793
34.660564051461385 -67.059770433241070 -99.946344001916373
33.925198084669219 -95.169738731247207 -100.512043497665644
34.670749658590502 -94.927830642050026 -102.256152412082628
35.044644914851865 -67.952870763053170 -100.646927776412497
35.015921827921957 -68.328790159491632 -101.787064796321800
35.285583994112756 -95.256513499606626 -101.403718874989721
35.777403423579671 -67.966682862877079 -102.022694643184863
35.231441737795016 -68.550240520159520 -102.281284601848583
34.719140827341334 -95.091103912007057 -101.793023684535243
35.024252209199098 -94.755483147887077 -102.339720869279631
33.492647526109756 -94.958892873713722 -102.126654933864714
34.902601628301639 -69.532718568309917 -103.139659461032451
34.295995880184122 -70.177409900098809 -103.697337624904392
34.816513703632786 -94.462165659503754 -103.787407669096794
34.678854671163400 -70.885090338555969 -102.669290784558044
33.976507005181880 -93.184735754308406 -103.036159024418339
34.417979160218160 -71.321888426029091 -103.313992282558743
34.555955056473529 -72.473002978579132 -104.180115488146683
34.890325190476595 -94.158738176781256 -103.540259539047256
34.514445715145982 -74.088861957075423 -104.539764409457661
34.521689426942828 -72.753453279955124 -104.060387671523813
34.235108382849944 -94.175235543623188 -104.930528946098192
34.124038269928761 -93.513610476292328 -104.840332371277597
34.474928127818025 -75.249610132587904 -104.088351493696280
34.098635324998732 -93.407916270473436 -104.429528729646250
33.977035266158786 -75.953576813441387 -104.846888915490908
34.327434376147529 -76.925956097224301 -105.849507956457018
33.437196132661391 -92.122322097230253 -105.233089953125884
35.119892132181874 -77.982998612887869 -104.696449607582451
34.530592618309008 -92.423802082468214 -106.484295332803271
34.680298581442770 -92.537319978460047 -105.868076223778047
34.201707874012584 -79.257299985829789 -105.996615942955799
34.925463337923823 -80.507076861913603 -107.476425910719229
34.813013699606806 -81.093964296642881 -107.182338744580917
34.406703878434740 -92.130168059933808 -107.859549543525375
34.638417114971872 -91.379864798798593 -107.748360374834888
34.259145450945297 -82.225135462663218 -107.387933127652119
34.007233891948836 -83.549795301088466 -108.392464909812787
34.974186478464809 -83.015993394116308 -108.598044391130387
34.384194985825459 -90.066350270590874 -108.428095721794790
34.242283855401347 -90.126825408141116 -108.617470260856194
35.088345945434945 -84.410362423916808 -109.013709314953431
34.140978742421225 -90.094581364911150 -108.652404442676342
35.222681135645956 -88.180329148113259 -109.583645741967473
34.093649442852012 -88.417015478767652 -109.497684923176521
33.604048837428969 -88.253033686951554 -109.655397286754166
34.674617847200864 -87.091841998136786 -110.309403376545717
33.374402860625224 -86.852231461955228 -109.115582456386974
34.775001737738833 -85.740285456957977 -109.901118168823103
33.318321539377720 -73.580446376203312 -50.613308434709332
33.859623192792334 -76.309635376624698 -50.903907938732353
33.478014976817434 -75.608689904469031 -50.887823888114802
34.293337241338477 -72.639689790373779 -51.746055853326510
33.773766244668089 -71.577874427278644 -50.858712916465031
34.466459063269525 -80.011073299112994 -51.901637760009116
33.622812228186696 -78.930421848608447 -52.684708324344292
34.204812188640979 -77.865067330173403 -51.782680970302543
33.447853280759247 -76.490830056907740 -51.479380768273977
33.680181825799338 -70.046287046606622 -51.690419038935943
33.087582734026668 -70.424926950421309 -51.299626617110412
33.331722920782873 -81.062461874911691 -52.123212917745597
33.022920950415617 -80.018385892299165 -52.872529140707378
33.875285661782570 -70.062077279137611 -52.221495060640940
33.935582293369478 -82.248696892753244 -52.741375595162339
33.078935154617987 -82.393150268688331 -52.154389711445518
34.105884546680393 -67.675198345463969 -52.071691791870791
32.334757207001537 -67.600482230921557 -52.978460720187613
33.681137618568371 -66.882524308487405 -53.477417966786987
33.792252420493419 -83.956590061195996 -53.216064741433115
34.567448843865648 -85.094055414010114 -52.861889478639618
32.879283661912787 -83.992140310425981 -52.916069399827272
32.555408886038514 -66.921405691541523 -53.221947934901507
33.846034786969156 -65.737698171511695 -53.401426637038028
34.245654470560346 -85.152977770545718 -52.978513742097874
32.368557979774266 -66.952149842929387 -54.225978622046092
34.137762557391461 -65.137063578787391 -54.725189153994307
33.639443598646245 -63.769229243216110 -54.404804266195356
33.419061811020654 -86.678954855337423 -54.405661152545022
33.317929778699416 -85.694694490095429 -53.525327434842865
32.953121009145889 -65.071988510547286 -54.148012426634182
34.099816105049868 -89.455169320349086 -55.370876881761703
34.010982888226195 -88.290712726741788 -54.629904685395509
35.484201326175132 -62.303943406520631 -54.506340073307790
33.655163233062602 -61.861372313536243 -54.419212766935495
35.108356125921240 -61.397873911746920 -56.704446519875845
33.626786005648910 -88.695571315011605 -55.898861680677392
33.224778420516571 -89.513349294232299 -56.469075656271265
33.520205933730750 -90.226084607853906 -57.083958067234306
33.994212272014209 -59.897889191108369 -56.136398167783533
33.836422543390441 -90.821389463088252 -57.465608601289880
33.671446649824944 -91.171155515022775 -57.927751572377744
32.451786382177197 -90.141440250262178 -57.638206287534381
33.142749023972605 -58.695461776900707 -57.434908315212610
33.239118734524006 -92.115287650889357 -57.500327150937323
33.322389127768957 -58.674959717237989 -57.787106250895746
32.374935844282845 -58.837123069442292 -57.657349111505603
33.598162900758034 -91.363814813079387 -58.369222387760118
34.137627996801861 -58.325363360670679 -59.036854462514491
33.959402568088926 -93.343588323359711 -59.583178697222770
33.475328241134726 -58.112069758329149 -58.750031461230066
33.653487949375389 -94.089433805107149 -60.707763487075376
33.398664782013697 -93.536108853441377 -60.584933889394399
33.796738340354040 -57.752111832745911 -59.862652970264350
32.994274627649425 -94.168355192059082 -59.618654936731168
34.301658769006146 -57.447350494057964 -60.771510852356961
34.318650896523977 -93.942966471802890 -60.895702145077834
34.093044313676160 -94.377582387408609 -61.602257167950576
34.833232595388417 -56.623627792674775 -61.499162978041845
33.907907881658168 -95.482736758604872 -61.906320377857448
33.010667471742970 -58.335335639929461 -61.965971450258600
34.049749000392168 -94.158888238235690 -62.636261260786775
33.966718517215241 -58.451793270661980 -62.064466970156737
33.070772643789994 -95.890917849361884 -62.296690886346283
33.550512461082462 -96.051106876250074 -62.882692606450256
33.670683593756472 -95.088246006714940 -63.055896559945559
34.805227710551755 -57.141504632228795 -62.891511852052282
33.495063714590380 -57.824721295904887 -63.132293073335319
33.644817576532375 -95.687986414808762 -63.111681913338806
33.582565729492714 -57.687603177338815 -63.329049435266299
34.617441960108792 -95.952833471493051 -63.455695424346146
34.211469723960512 -57.457602967211635 -63.493366506775665
33.706275145741678 -58.093644055400965 -63.786537509427582
33.571144276486862 -96.831188411499852 -64.924591692175056
33.927431253732678 -57.590182925345985 -64.847781926489262
33.299993266700618 -58.757846331144286 -65.027122705539227
32.847619332214727 -96.267632186345793 -65.417900328106612
33.775864938549788 -56.967554396144720 -65.853103437187713
34.253520387880542 -96.837475421657615 -66.636970785868783
33.250811714274050 -58.155973852385323 -66.076863095680253
33.394666035435449 -97.676968532698140 -66.800622065237206
33.240665387835804 -56.712040394745351 -66.754136680166681
34.112563210042374 -57.307259348849151 -67.421506379459956
33.654561424354142 -96.538063168121852 -68.225645326611442
34.377379493734821 -96.792969134995630 -68.485276112272430
33.207456723120146 -97.850102523538922 -67.954774750044763
33.504250196615487 -97.721084365860335 -69.793558840713416
33.893256568104064 -57.932440955552316 -69.552782633527343
33.613923655072696 -98.016572965483363 -69.485397428593785
33.509087471769782 -56.912908384931185 -68.453568303282680
33.640873484350720 -57.624070475190031 -70.477779972653849
34.425431836996829 -97.934511683626539 -69.893379068534713
34.580348042977235 -57.498483090089209 -70.149116498109620
34.587996141487722 -97.909215203268076 -70.539089684020411
34.820247321878703 -97.817954919938330 -70.330186158666194
32.862750844928506 -58.350305556227141 -71.694360095469619
34.096069860283777 -98.449251400107073 -72.187422555738976
35.050686406123766 -57.501987837953322 -71.922083141466757
33.663229404949178 -57.313776025820999 -72.680409928306219
33.220496284413557 -97.994586031446929 -72.893019236799020
33.970916987510044 -57.235137769342451 -73.753221285499365
34.600789199250372 -99.181518673173855 -73.301439188115211
34.972307675548976 -57.338471101939291 -74.820743416083431
32.478716441126437 -99.015861543585487 -74.195006182306017
33.864560673330992 -57.460771240451926 -74.882998653504330
33.535866068979573 -58.491880547183932 -76.460039528684121
32.472442906440492 -98.124471289260597 -75.839382684729046
34.301533014137860 -98.425844958168227 -76.741657289316421
33.866426193730710 -57.586552811712487 -76.472729533006202
33.405049866972618 -98.618405595904989 -76.200537956004311
32.777758481546307 -98.027516113293586 -77.287948930850234
34.301491427833902 -99.167859700445220 -77.792282015377694
33.726086911216498 -98.666091456107409 -78.353829981749001
33.468336266606194 -99.254237017788981 -78.274507977204181
34.037159459719327 -98.496162264659219 -79.872515420603605
33.310446404296123 -57.521425867046794 -80.519343827221419
33.024808137301420 -97.996680019340445 -80.321681242902613
33.562473601220177 -98.143472717013566 -79.697780063073296
33.133693026902762 -97.763398038052898 -82.445532598597666
34.002291838967729 -57.457187372038739 -81.293774663447039
33.519884480618160 -98.277506204100348 -81.899297535452590
34.021608041022155 -57.539021032862919 -81.282768395142426
33.339276269907010 -98.510814753084318 -81.365568777713307
32.995212264236727 -99.137471958804198 -82.199683026252686
33.610138565957989 -57.702961441129808 -81.969744962494502
33.943263708936399 -98.026631355598226 -82.726104935674499
34.407306313702399 -58.089992476858697 -82.904553581963171
33.797518563530673 -98.897734102935530 -83.732665677302450
33.580735041752774 -58.922881324532760 -83.333159614143469
33.741086621369583 -58.107176949837978 -84.691223974738236
33.656713967604325 -97.879834246307908 -86.081200658312866
33.522577048379794 -58.927439547968426 -86.986528896265867
32.443048406997384 -59.225394622484600 -86.851151520262590
34.231319348769006 -98.003557724679354 -86.421866645704171
34.473270740106699 -58.862220058485320 -87.559754677291210
33.823341201760790 -97.988471924377492 -87.836065530797441
31.995845718716712 -58.515342621405914 -88.060267441440217
33.156594207604677 -97.175735319994104 -90.084052717910552
34.778286440317281 -59.976392054035792 -88.741210755005071
34.927972150327165 -59.542072570446905 -88.303873786575210
33.294993368911420 -97.479799748220827 -89.562325744931428
34.533599480036024 -60.058286697642231 -90.602501188815879
33.525380372270753 -60.764436566844395 -89.595910193450166
34.100003968660985 -97.105089820533934 -89.076164287555287
32.884154338207779 -97.461071791478531 -90.076913560805664
33.460604833161774 -97.731890120477701 -90.479722642284216
33.347047965666199 -98.186018417704489 -90.676226814348638
33.877248215322226 -97.166574754134828 -91.489793551282474
33.043326272612568 -60.491049068689087 -90.733591183229592
33.668824509536265 -60.076776814601345 -91.420796049493291
33.955625442882400 -60.724533713438333 -92.064018883236315
33.955137272897915 -96.788829468501518 -93.318212505937851
33.939401920315674 -61.504568882246517 -92.451618723851880
34.133607238028119 -96.643425732218432 -93.855517229130442
34.512888749102089 -62.193030132983374 -94.283162441132376
33.524657024747079 -96.854056796159696 -95.265967066768539
33.907233062670343 -61.876458006068873 -94.543713552433999
33.065525473115365 -96.444815492074142 -96.058618844775467
33.481038657041076 -97.490133005357748 -95.885641336128415
34.227086527578905 -62.602918569635200 -95.975028232921701
33.828103932016809 -97.407900511147531 -95.593523998029156
34.852768460448218 -95.577316968691420 -96.187472852661898
34.740230120317790 -62.761881495740660 -96.252709521668578
33.712882725495383 -95.348644978241865 -97.127964397746965
33.677601173572526 -64.024766293391380 -97.573851279890405
33.767377857251212 -95.482797526234521 -97.504935737321347
33.457415722456076 -62.909718309792211 -96.796711674328193
33.594751310959850 -64.404384619711919 -97.617180975229871
32.889773440732327 -96.056907453972798 -98.464544264946653
33.701749593158425 -64.072869019754037 -98.716074530888307
33.947936226118919 -95.589883922728689 -99.348460003760110
34.162428693221592 -64.694533364905084 -99.028278169034650
33.554230011827059 -95.364945430301248 -99.102780027383091
33.600946062800219 -65.402097314093623 -99.739029069850176
33.737139923325934 -65.392826606909622 -100.320257493479858
33.673729732725057 -95.384606111425427 -99.481254286035522
33.064778473982678 -94.694945054907222 -101.176197598256152
32.779546827687369 -65.842522952225124 -101.242699552035191
33.701546280771979 -95.466118224450824 -101.485273056414385
33.595651470583526 -66.468190766365211 -100.787587201661935
33.448087394271838 -93.583057678317417 -101.630097682624097
33.760658178242998 -67.336849455823611 -101.431813192401336
32.691558018304022 -94.591710079324386 -101.475013333001982
33.857042119152254 -67.639838956705702 -101.625980808101843
33.257456106391317 -68.884514306804789 -102.018826094642719
33.459765527847786 -68.679512074068683 -103.159539131361569
33.780984165854136 -93.509017967417307 -101.984489942429661
33.687597589913437 -70.266341550110596 -102.871499185859548
33.838496241378706 -94.152934213875014 -103.489405859746654
33.620879829895664 -71.146648847866985 -104.240208809731882
33.546766594327217 -93.995728985123918 -103.174080767117786
32.994992654116672 -93.321785207587837 -102.970243916143616
33.731326720158428 -71.458017135158869 -104.603371308658097
34.059713349695251 -93.409496669638784 -104.527711719941038
33.800700896747713 -72.753583599028971 -104.758054998798528
33.796898876153975 -74.433387035792634 -104.322688289402649
33.012203418661208 -92.775698954030617 -105.588696447506337
33.898417153202992 -93.618516013046261 -104.853571106552508
33.533817586900085 -75.212397476104371 -104.968024843571030
33.774717173557924 -75.084665321310339 -104.980951038707062
34.340959693767388 -77.445767262973803 -105.032264618205502
33.361347255050525 -76.235947557646796 -105.126990656582592
33.913913649082154 -78.909259663077393 -106.042052254133694
31.547016013900752 -90.434597331014061 -106.576311721598771
33.783806828857834 -78.269611715698233 -106.056681907438858
33.707275550702292 -79.675808349881237 -106.492938561516624
34.736958028956984 -79.632571348254970 -106.611061471118447
34.136667267762043 -81.219982515516065 -107.078953158541665
33.148570275432796 -91.219710727196357 -107.420530014656109
33.503918621408189 -81.655336273422904 -106.866474793941435
33.147737759325430 -90.930460873127842 -107.996193766490791
33.545198059144930 -83.051945321080254 -106.599669300185482
34.045407131702291 -90.431055648612357 -108.398697767205789
32.518726003988036 -88.494364588749761 -108.941975699272675
32.776134216957843 -89.296788634285164 -107.567247141184666
33.958852509052754 -82.444626501765967 -108.274811595759658
34.302731846302905 -84.148690109235602 -108.042595998476443
34.103568585961632 -89.095003986128830 -107.939988283091765
32.939165794855121 -88.547104200988883 -108.652006753114833
33.686926748105350 -85.013497281057496 -108.456818002046447
32.451863626068082 -84.590024249339024 -108.721630112528302
34.447698495660077 -85.336257376904314 -108.273321442722832
33.060973193277839 -84.641302326157117 -108.169497000168619
33.059197340674096 -88.382017223945681 -109.472687273767619
33.381780557606582 -87.470939396049744 -109.338739293171557
33.483135153670240 -87.871271495028168 -109.317482937019477
34.548228051764383 -86.598320685268121 -108.409035563831637
33.408152012145990 -86.403585126369777 -109.793444140783052
32.202439119251956 -74.971526941942912 -51.503538973004815
33.126366325564540 -73.552026140399803 -51.668772095070715
33.209879481334333 -72.451902489461801 -51.857142440674330
33.940121283715548 -72.011156197097478 -51.588499140818691
32.962094265808084 -80.286706940981645 -51.824094611261089
32.656086196764946 -77.437729305959394 -51.527187571310549
31.945690025422575 -76.610007738552468 -51.844623885855945
31.620149241073712 -74.364964171191005 -52.061836924900909
32.722535403605903 -71.013255378897824 -51.621480549306405
32.127868706952881 -71.337390106130059 -52.601521011326618
32.224384329743209 -80.763505370929266 -52.780868495948184
31.565114510613750 -79.608092803481938 -51.906290843252656
32.121062218985251 -79.291376998516796 -52.677958466746240
32.361999597767159 -70.670823794699956 -52.831609269685607
32.812874052785098 -69.212420327645020 -51.837719928921771
32.053451795058741 -69.978365492516744 -53.008765326978882
33.565957441947205 -83.146492230797705 -54.053139286941281
32.544488136666594 -81.927147253720520 -53.402616382347638
32.285107102682424 -68.947623139263484 -52.799103747986251
32.366648380896216 -67.654147195266532 -53.157424127286184
32.215321185020393 -68.899909234339432 -53.506689633616588
32.752192861650187 -82.532675451457990 -52.987653269874144
32.784194803579418 -84.606488935557735 -54.012911088829391
33.062274781442504 -84.206786410266432 -54.055936180137195
32.582018883299675 -85.539975485630421 -54.795791285738204
32.063094933349760 -84.527645500511639 -54.442323700080813
32.316529336267159 -64.718534360997182 -55.399656790022000
32.866749298684262 -88.835836227330603 -55.481216448466654
32.582798421669274 -86.598469350269966 -54.589643804506423
32.140329357851108 -63.929623257210444 -54.775573857743986
33.265258030224743 -88.780696707421654 -55.647779680066371
33.384143591143769 -88.781088751630790 -56.092892581461804
32.767918910382100 -61.256442223994249 -55.384174396701560
32.027135775850319 -60.501100161771845 -56.434032053280326
32.873098094454171 -90.180382912868211 -57.086540169242369
33.210936539507742 -61.328327830774576 -57.081299883612679
32.249656225338924 -91.274620871345121 -58.790130092431831
33.136352768646169 -60.236953082001826 -57.744832034933815
32.952712128110392 -59.784566524131037 -57.813206065397722
32.410460444285725 -59.587585562784369 -57.809227328669031
32.556343135626072 -59.463077359720316 -58.866977263677569
32.955088273798125 -91.924257392270903 -58.361903186860090
32.724588244658101 -90.820235655557440 -58.091010012173584
33.512491813029015 -92.633535850269126 -59.340702326257123
32.879978587240899 -91.998984987975177 -58.951573149422586
32.787742450901185 -57.711659616180718 -59.095235421449907
31.146775723713574 -59.215563556288842 -58.541606146378449
33.224773640861308 -92.299120176810675 -59.958704698021350
32.021048100840112 -58.384512112719939 -59.480331984024481
33.088787307997997 -93.724374826941755 -60.439906295531060
32.638471253748946 -59.313062876261753 -60.562389975464846
32.744558214193077 -58.172691358105823 -61.536019606617266
33.190590310566442 -94.652737592990675 -61.306765495954522
32.525478704713358 -94.555516064642831 -61.603220422670937
32.658344778908152 -94.498852280582582 -62.154017417415929
31.948329000103580 -93.990457377831774 -61.724489732280020
33.022847713742060 -59.077415615957420 -62.053581474048308
32.800395960227839 -95.210712060232282 -62.730710903056675
32.068295506344263 -93.802502466558437 -62.551946525732703
32.627377603926476 -57.556578700503870 -62.698775115173326
32.635208886770606 -95.194241647726031 -63.330805397474627
33.604287213896058 -57.968216218274186 -63.006414316424639
32.210395829406046 -95.459716971728966 -63.725483047123532
32.394835955347027 -94.606671435523126 -64.429593309186188
32.977259625019641 -96.134424242368084 -64.203994101762575
32.651638850185073 -58.504369071389789 -63.429996677302476
32.255443042703845 -95.536148286192869 -65.442984889147979
32.542802071058723 -96.247807076961465 -65.947252351855681
33.469728332041441 -57.519869022835671 -65.121079543476171
33.035820236713960 -96.482832198958334 -66.483366090285671
32.693702016865515 -58.159336676676851 -65.666080552322569
31.457809656177847 -95.379930851736546 -67.317076961960652
32.695162431287152 -58.584586356884515 -66.242412624668333
32.668681554198287 -58.362332546158086 -66.895061817359050
33.278964366666081 -97.597798245336222 -66.464401131999992
33.290954886659343 -57.960514464220893 -66.825187581510846
32.847327525591048 -57.657527346115103 -68.643116892205327
32.339511890131242 -96.455176508725515 -68.183922468318400
33.039157394391800 -57.583654609323958 -68.126463387189347
32.024107658010777 -57.968446971534554 -68.287203306002723
32.920942799232840 -96.931049402135685 -68.970772817757492
32.852469246166734 -97.252606642865985 -69.804651754148168
32.859795325648740 -97.527201740405815 -69.781697493591878
32.231487938819114 -58.215146604574912 -70.040942020726632
32.814979082164321 -97.639133137779851 -70.979521596313418
33.640781040641009 -58.385003038859146 -71.304141961373062
33.344559528890407 -97.236946233271027 -72.129739750136011
32.651117446706053 -98.087873189479268 -71.942407318367231
33.092290689709252 -58.051202830182824 -71.684657013140310
32.938988808145183 -98.393281031857811 -72.381177202337042
33.478757788206977 -57.056135225470385 -72.351942983327575
31.462042743004439 -57.116394910411479 -73.414251015781630
32.980030320409753 -97.754947196880380 -73.169859496295871
33.722964342731920 -57.793631073332335 -74.783886704980446
32.191667366839752 -98.467655198606238 -73.699257703796974
33.191602983948790 -98.731163427377467 -75.311877957020883
33.719023411719682 -58.137234540810795 -75.696330906356707
32.962099602907792 -98.004891764882657 -75.737998677374904
32.472661714377146 -57.265284729585282 -75.125490178561762
33.080542324240263 -98.546990213749979 -76.612131889270415
32.587902586244475 -57.671058435814487 -76.003653056047625
32.315629283554351 -98.421747567605948 -76.949478586480481
33.232951024094461 -98.884386232955094 -77.821772751406897
32.136874716616191 -57.898413820122720 -77.956683238921912
34.321211132672367 -57.818890653808417 -78.167390261540760
33.309332047586913 -98.078699494532856 -78.109650090287616
32.599770498589400 -98.471760166355224 -78.411209787389609
32.977011529878766 -98.861587015629254 -79.277664832862101
34.567750709267713 -57.410760231083870 -79.000063547741448
33.413629896622744 -98.571046385381393 -80.639176765278179
32.100565936037633 -57.399684884852768 -79.295855071446454
33.008514144408466 -57.766890822146181 -82.151620188528156
33.182985935409910 -59.004401390769196 -82.551456328831819
33.366668693461754 -56.634873091429341 -82.245052554072359
31.081106555235245 -58.152752586146576 -82.551995963227597
32.422266431009952 -97.880996111555049 -84.012981123653105
32.089012156533990 -59.381951437835191 -84.472716497727831
32.347377355590488 -98.824504230642219 -85.303809096069699
33.043342487223597 -58.582273411492558 -85.466979191087432
32.764428612404124 -58.160306683671806 -84.696867812513005
32.857986993450844 -98.118111845919017 -86.466859282359806
32.114582875970314 -97.613145789623985 -86.659352660212505
32.321027468734620 -59.013203483109031 -86.437971064750982
30.648374272226075 -58.954069658232925 -85.953136608912615
32.845834879433177 -97.845996152365700 -87.683946981471976
32.612508579907072 -96.716156644506867 -86.999592047963318
33.454429855423406 -97.553393452324073 -87.440355446243288
34.148577918622706 -59.661448253902904 -87.874127218593316
32.842391634414852 -97.537745490063330 -87.986433389854085
32.214740689713310 -97.693819663186403 -89.444091744542078
32.361844665414125 -59.572514413039585 -88.820203643197985
33.904868499488401 -97.088241084675047 -89.460182777411134
32.489291575353384 -60.439403746706788 -89.313347467999137
32.283873505104843 -60.500578098997188 -89.893264983475035
32.221536431817441 -60.692321634502960 -90.108216285353137
31.745761898108888 -60.365531160039559 -91.187778103551338
32.791785833645775 -96.632899366985285 -90.886534474071652
33.079520449580933 -97.448761872544267 -91.920157012059022
33.308933146597383 -60.793290644167406 -92.383518440240366
31.887995670753273 -96.571456397278965 -93.084707986519007
33.350649726207671 -61.128529161106890 -93.107547968071486
32.892448649930593 -97.300351665812343 -93.671834623765534
32.337658948696593 -96.906167282230044 -94.321473826618728
33.305862173174468 -61.453318756647477 -94.599853479575799
32.568315582712231 -96.543577623107780 -94.270740293071398
32.969554884194103 -61.112493360751913 -94.757380621084636
33.578257480538383 -96.646007973772214 -94.428027292348588
33.728362643069453 -63.050967677031949 -95.460285444754604
32.012890603258988 -62.740289914022512 -96.121533938284358
32.147448961492977 -96.265669040215727 -96.225618116337543
32.133917394483717 -63.967084174790948 -97.281278579415584
32.070231932874186 -63.284583471787471 -97.219192357072771
32.774893092810387 -95.768785465825800 -98.858708919986967
31.666324384408814 -94.477819521006083 -98.411715613743866
33.533031421479329 -63.325689485564716 -97.422669215375151
33.406838047539459 -95.578951413631799 -98.595322621019136
32.657434098330974 -64.267141111560875 -97.856188538873866
32.887379732654203 -94.959218946237385 -98.918154589430472
33.359712651943333 -64.199951413191457 -98.601660041702289
32.648849589636221 -95.208616788200544 -99.253835110228849
33.197814204426741 -65.728715482556481 -100.119543310156459
33.176417645325152 -66.275744641727556 -99.262845693420928
33.172467258576475 -95.116249547492842 -99.655390260928229
32.930775884746431 -93.619493671323696 -100.011129598732012
32.081847474461355 -94.902851542487539 -100.607913526830146
32.885822477511539 -65.919302785310720 -101.017418291549660
33.093278634599791 -93.384753135783598 -101.455834037821745
33.742144144449725 -67.113301680131428 -100.962070453002141
33.088219565328011 -66.431740828476862 -100.886697626004491
31.845237846417746 -93.516125490083695 -102.263421693383762
32.562225274473043 -67.788518413577890 -101.529084934995993
32.077103444446898 -92.068716147491770 -102.002804791370039
33.580980144507841 -67.690671725730553 -102.495664344673585
33.015301307678214 -68.389939248220486 -102.935631988198423
33.474665812218710 -93.543535671724626 -103.199612914198880
33.040015342918920 -69.139886253339824 -102.825179209952907
32.316554787069855 -92.640512776221939 -103.300151598009833
33.220944632184199 -70.073557476917387 -103.321302115557216
33.443464416637099 -91.930062185577782 -103.839278585314517
32.543722020055185 -92.595527270462767 -103.376508886241169
32.580978819326070 -71.157579657905018 -103.345520945203361
31.749873581487790 -91.666864929871466 -103.954545530780734
32.608756043066279 -70.997286453054969 -104.016444591570163
32.405061333602887 -91.646474206062592 -104.984683295065366
32.700735581810399 -73.133296371230912 -104.524576454954712
32.796976512121390 -92.010675295508335 -104.973126469007767
33.078182878697710 -74.235403395020612 -105.221758334875716
32.203721491342598 -91.410199237736606 -106.029779403429160
32.809180517726269 -76.349461044053839 -105.059926902243419
31.851215258509527 -90.671279026423761 -106.460096603473843
32.548753579670731 -76.727704655685429 -105.700772773242221
31.937069554355574 -76.663309976669382 -106.520654492090372
32.900072795234294 -90.525775506986449 -107.835232265112055
33.035979411963424 -78.620711073456548 -105.800535392608779
33.011762216957869 -78.942552532069072 -106.758474522544844
31.948521635188946 -79.222748145640651 -107.077565563866045
33.759876307403133 -90.563515606799768 -106.567466358817157
32.079513477875714 -89.370856958343282 -106.334236603167327
32.444773316125506 -80.796895841399319 -107.264770605517981
33.043831272724333 -89.151198744157270 -107.271777207766405
32.807345344548629 -89.070518782230536 -107.992027629100832
32.703760787206072 -82.028782107333697 -106.726578888475586
32.823404106820377 -89.691625078054642 -107.522774219463855
32.520506674177255 -88.463154436365883 -107.253355346294470
31.514980223823986 -87.699112217817699 -107.345463833182407
32.404618445918366 -84.925406757857516 -107.239366133817583
32.991162824709839 -83.101013496236106 -107.870477410826865
33.127505320732858 -87.785361972759176 -108.463783156316609
32.579394062151280 -86.933523793606952 -108.428404920965264
33.546303774302785 -86.792415133858071 -108.775742592245038
31.923841909137447 -86.954654975591367 -107.843808082464548
32.466503994354490 -85.609884854124687 -107.605975761536655
31.803326408990014 -85.097348885644180 -108.653251503282647
32.981308907129517 -83.866449566355328 -107.489135008466747
32.290063451171029 -77.671178596505584 -52.309114249714455
32.799820521858848 -73.146720022827623 -53.037837630293446
32.341718916406329 -72.787031197002122 -51.857094616646037
31.017688901260630 -78.757875012244796 -51.936903126112121
31.523520546678618 -77.628641089346132 -52.964277051756447
32.365407507062983 -75.283079771911289 -52.151327717717216
31.908076820887231 -70.970076125013534 -52.464394051707707
31.519801896214663 -72.802945588866265 -53.560068912026452
31.516103842615887 -81.661293302871769 -52.988751531635977
31.039899013962827 -79.749078370189039 -52.836714125710373
31.592585510328252 -75.874435115886214 -53.051103713225864
31.343950847672765 -73.757812779135705 -52.408189796055588
31.276508881276005 -70.772924316071723 -52.983550987222131
32.027625902019047 -69.733198297959106 -52.555201430239265
31.027903521359786 -81.746776386194583 -53.331391735201017
32.429117344600726 -67.782836468349871 -54.317409869295581
31.788455445075236 -82.212062805057201 -54.059742149936682
31.550784094582671 -67.507020667269757 -53.123245147919469
32.360546727788467 -66.993391403155670 -53.078947078283704
32.067498200309871 -84.627734740214891 -54.985795356107332
31.303708686768552 -83.121458265383239 -53.613103547702359
30.390683421618942 -82.816193863904829 -54.694272208902476
31.655559272067293 -65.438661619492962 -54.315765676056138
31.917222031166613 -85.292054112441988 -55.006123061637638
31.786091383629710 -65.444949391450137 -53.392599026617027
31.588824719046947 -65.289372674962934 -54.860757381211542
32.611998718841562 -62.825160503701703 -54.455235630374730
32.118916763447153 -86.588630829038138 -55.024359135455441
32.636535493235279 -62.378371638902124 -55.846250585027953
32.269485646429075 -87.354163539241114 -56.465773454861640
31.120178313966917 -86.735546008580656 -54.765688506466866
31.274071602705174 -62.995267611587316 -55.921069104070277
31.329721415108700 -89.342077310637137 -56.678227501196254
32.075473495453458 -61.669179200505688 -55.855160992607132
32.631809385091913 -60.863083352313652 -56.197922917530363
31.909824832752278 -89.236293849579809 -56.733703145750241
31.604770763575001 -89.263746508891714 -57.413180005215217
30.534426492536991 -60.717943566841505 -58.145900767610875
31.801066835976009 -90.631630218652674 -58.352273760315370
32.164970645925045 -60.117003610612130 -57.553317881283157
31.780480134323518 -91.525161732830441 -58.275401365060148
32.896833338236881 -59.416567938195975 -57.475083830740743
32.083435404041651 -91.177149443900930 -58.093235235194705
31.659699619944355 -91.609922784040336 -59.000070628853734
31.740688508986963 -59.121973903538390 -58.399169399429908
31.640430254672303 -58.953015351449309 -59.091642258307218
31.596862334774375 -60.827225352776757 -59.211203018374768
31.039334315996612 -92.729916509539379 -59.604953403316799
32.796707760783349 -59.167091522973415 -59.539884106870382
30.649030145428753 -60.172671471610478 -58.605986716090982
32.241558369876742 -92.252893669824985 -59.918959279814160
31.284385871093569 -92.135673483981051 -59.327126268127920
32.296500315386410 -59.654136821843579 -59.484925855869889
30.438226085942663 -59.649130192479205 -60.028007417811430
30.994687393200017 -61.014798599042990 -59.746211675084673
30.622881064739190 -60.651775965774682 -59.768537362398220
31.979413542468855 -58.997211641388240 -59.625320369366108
31.486467147194350 -92.868796912611543 -60.046496676093000
31.753554546766583 -60.868135958234333 -60.370631222951467
30.923500840058015 -58.547864272545269 -60.992584241074866
32.749032416421670 -93.674592754771851 -60.280412063922888
31.035490915485365 -59.013379244299863 -60.550131643739640
31.985304625335999 -93.446726816959924 -61.272493524462206
31.345891567107731 -93.563494533236479 -62.336843376386341
31.713674221825116 -58.596084337424081 -61.106247288260249
31.554616592231294 -93.727697973927647 -61.310978108237208
31.655176768876512 -59.222668919650019 -61.225931786697210
31.905917681277025 -93.908440155048211 -62.022783893793076
31.760398423904505 -58.283922857203805 -61.924801657676454
32.525624506271591 -95.016498164645512 -62.939935809498131
31.408806215832993 -57.505869668170874 -62.955286843908688
32.039701778359643 -95.646870266115954 -63.816931141228508
31.742738721164915 -58.050028743397448 -64.200581537281025
32.046570283306465 -95.593303814182335 -65.187129465639927
32.898484654650822 -58.052938060974007 -64.849681898704915
32.192441655905931 -95.324395682938700 -64.832465996744077
31.605010114314073 -95.308329329391555 -65.779424963348745
31.432895833674749 -58.683336772354188 -64.633427351502689
32.031803347121674 -58.515899176711564 -66.006852549081216
32.419867359528546 -96.340065074672680 -65.398852989587652
31.980507554945365 -58.524879256420391 -65.476219152513707
31.000329447989845 -96.204389537219299 -66.236760780304252
32.603558098201709 -57.890986650692170 -67.118253578012883
31.259717679165320 -97.143364745665906 -67.011155561655173
31.960223544996360 -57.978847727683942 -66.950860588796687
32.519898857628114 -95.928354816595245 -67.716237999633293
31.341233647422115 -59.092968058777934 -68.066027935334091
31.855536319027610 -58.047374291201862 -69.036201983806478
30.790029250448232 -96.901706288519350 -67.794012321939761
32.552084777396828 -58.133367691020624 -69.186218762448078
31.896802706182687 -97.262533487905571 -68.583136494067148
30.936103408169473 -57.464317372600028 -69.398150285737472
32.503344907054704 -57.872352575924594 -69.653087209764777
31.960310589756936 -96.500948238942854 -69.909053306754785
30.777654642874605 -58.425125682888655 -69.165301617684975
32.563259290797362 -97.794423604954744 -69.127217162762577
32.411561640239434 -96.190885784220072 -71.028681599431209
31.702575809796222 -97.961299687016094 -71.042546515973470
31.720561799980953 -97.588862041640056 -72.399487980428489
32.558026081998506 -57.513022481903135 -71.915208675088110
31.509124281257975 -98.016260252973609 -72.542683386741686
31.731640278803241 -57.772741282255090 -71.574729072969177
31.184406409232565 -58.413924118691575 -72.531360442292893
31.119104945482025 -58.210149708819742 -72.437606931642208
32.130161264917412 -97.764616591819205 -72.655881077880196
31.509130990837356 -98.070306191498588 -74.102419368574616
31.275641322904740 -57.420152315679800 -74.440859698126971
32.753979744523534 -57.190543097757335 -75.001362786290500
31.250487705288791 -97.681852069398303 -74.826975519225584
31.658569051636839 -57.590727416634031 -75.155411003015416
31.729551907694383 -97.177595735118160 -75.138408001780647
32.556075211184520 -56.975265613275418 -75.617988058931459
30.985144774769253 -97.967104341997668 -77.561196330656188
31.557860945931434 -98.636150031290370 -78.194514490497923
32.621520681564348 -98.383496944799035 -79.094901535763370
31.711079377937850 -97.976780582915524 -79.513584486921985
31.657133923893852 -98.469478488563297 -80.063132787796235
31.892489633374531 -58.265819038429370 -81.094315565534515
32.580260396583007 -57.616710835613375 -80.491465720398708
32.322349488511556 -97.857033589593428 -80.340517858136778
32.323479599196553 -57.813204828364320 -80.728977990031652
30.872251163983456 -98.153641392544273 -81.430891480498758
31.162355610822537 -57.346597954572260 -80.717809972695704
31.112886341546456 -97.450445039278790 -83.095486334955154
32.474092144867363 -97.894182164201894 -82.905275303069757
31.465135164716504 -57.274666854863575 -82.730578561658575
31.159344132417043 -97.350390199432027 -84.087094972030584
30.297668201171248 -96.991487552070851 -84.392527546359901
31.562615990534699 -58.561224936674449 -85.014675276973080
32.347925543246987 -98.372986026345401 -86.084692101440410
31.560280648571293 -97.529131765122628 -84.603926683925010
31.911399539731374 -59.067362387979337 -85.324307031310582
31.414276351924610 -97.484313407655080 -85.641959964382181
31.525827142694766 -59.042387776188875 -86.267281341866180
31.923223049956867 -96.868620232837245 -87.127541167819132
31.331806146870193 -59.254723001578782 -88.375663650780311
31.371618351047935 -59.415788015833911 -88.091116838105549
31.763177724431081 -97.314757429891657 -88.943351277519639
32.340193981097663 -60.457790638265948 -88.646289735681506
32.182630369976188 -59.709453562644704 -89.008831878411684
31.754779697528193 -96.524719678991104 -90.277920629257991
32.490864943173470 -97.131484482400893 -90.232789547294175
30.881129060489847 -96.472028209777818 -91.483317828898322
31.455450435797871 -60.570339505107057 -89.760793870168854
32.206728103007265 -96.323550442209694 -91.840712637530672
32.085546622724927 -96.593440816978358 -91.789904416315480
30.820260538144410 -96.097068044272888 -91.585139522144075
31.807965478966661 -97.173360540850823 -91.866888383813645
32.357130324461210 -96.819362555001803 -92.323620452006480
32.198142687361802 -61.116222275353806 -91.825264129473652
32.528034649258259 -96.181243586931174 -92.739578225460349
31.953976573267276 -60.462081166631371 -92.898499478389780
31.169410551138757 -61.618132922778258 -94.060877447947476
32.314230378037479 -96.348004531024316 -93.558284324183205
30.848066014041660 -61.966024025052555 -93.968741041089942
31.565254950095174 -96.275435304196904 -94.179635973070972
31.840248804972976 -94.690389247419020 -94.991781221879137
30.961320178863442 -62.483519395827365 -95.509804708199781
30.903912654302250 -95.324003704574665 -95.209637655540064
32.156248394348118 -63.123094767257633 -96.069974846232441
31.725796005446355 -63.438974605030324 -96.609339605088337
32.876600014685295 -96.194639480871260 -95.763165389121212
32.066547907657835 -95.414467631798445 -97.468854511780933
31.600958798682829 -63.283460055848934 -96.965380684276496
32.598387133348155 -95.359846322531794 -96.669688710963214
31.879192457963402 -63.571614926480990 -97.149267812499062
31.711290189719783 -94.995969053710908 -98.248464835651490
32.675743694091018 -63.855675969449273 -97.873293245858321
31.712647968931378 -93.606662253954582 -97.939014809692182
31.782168002251229 -94.360351781362482 -97.605010011611697
31.437370299122044 -65.326247455468618 -98.705167438254747
31.089605949476510 -94.232924300261345 -99.537798980968034
31.853006951638470 -94.738023809076424 -99.526245719765967
31.359423144854258 -93.789080977978955 -99.379158147978956
31.601122045455959 -64.773949205251711 -99.805336939887610
31.800935463129552 -65.774799788948627 -100.032645416658127
31.735560106309251 -93.194879653016002 -100.218923122158202
31.863962198765552 -65.408758918271587 -100.649757196406298
31.175292581804321 -94.431165979583113 -100.592754383954315
