-148.164993286133 -76.742088317871 -280.060180664063 2.084765911102
-167.644958496094 -74.191276550293 -282.847808837891 1.822515487671
-7.442059040070 -73.624237060547 -279.952514648438 2.346393585205
-143.658599853516 -73.155540466309 -280.239501953125 2.273303031921
-9.189604759216 -72.708610534668 -283.836212158203 2.196114540100
14.292325973511 -76.071380615234 -286.861816406250 2.547245740891
-135.618377685547 -71.252265930176 -286.584442138672 1.311668157578
-64.859596252441 -77.114608764648 -287.859344482422 3.082205533981
-31.845504760742 -78.005615234375 -289.544189453125 1.538505434990
-110.969184875488 -74.292518615723 -283.405426025391 4.581147193909
-95.472023010254 -79.511856079102 -290.545074462891 3.912408590317
-87.156906127930 -74.928184509277 -292.109161376953 2.923036813736
-49.362312316895 -76.280006408691 -292.982482910156 4.340413570404
-114.549552917480 -80.227981567383 -287.885162353516 4.185032844543
-113.986267089844 -75.851661682129 -290.908905029297 2.320715904236
-32.187332153320 -71.239105224609 -288.347564697266 1.878497719765
-115.028762817383 -75.574958801270 -294.462738037109 2.737138986588
-126.819450378418 -68.457168579102 -289.755645751953 2.074222087860
-143.366088867188 -76.945274353027 -295.167602539063 3.290587663651
8.494932174683 -75.266525268555 -291.069671630859 2.088469982147
19.569154739380 -77.203071594238 -293.051361083984 3.842201471329
-160.007263183594 -73.478172302246 -293.060974121094 2.017167329788
-158.899780273438 -78.393516540527 -301.554840087891 4.954935550690
-146.850265502930 -75.722511291504 -310.727355957031 1.480925083160
-151.408615112305 -73.111015319824 -311.074432373047 2.023404359818
-151.146957397461 -74.598777770996 -315.191741943359 2.608237266541
28.945775985718 -78.269645690918 -14.010001182556 5.615635871887
35.079792022705 -70.876052856445 -19.533334732056 2.552556991577
22.040781021118 -73.939888000488 -25.541353225708 2.172893047333
30.147672653198 -70.626449584961 -39.370914459229 1.517440199852
-57.975708007813 -72.412712097168 -50.704994201660 3.067034482956
-63.963260650635 -73.063949584961 -51.124217987061 2.223913192749
-38.330837249756 -77.913368225098 -49.379886627197 5.989451408386
-85.537597656250 -66.626113891602 -66.206314086914 5.827383518219
81.299964904785 -78.006568908691 -75.382034301758 2.944863796234
-12.215559005737 -69.814384460449 -71.720329284668 4.392294406891
90.230812072754 -75.236297607422 -63.402511596680 5.615577220917
101.503425598145 -74.461181640625 -75.731925964355 3.366546869278
-91.117660522461 -70.323219299316 -75.543983459473 2.479586362839
66.993347167969 -74.452209472656 -80.643218994141 3.991692781448
-38.998424530029 -77.574157714844 -87.072395324707 2.380642414093
102.509559631348 -74.479011535645 -80.915084838867 3.946985960007
-56.287628173828 -70.602691650391 -88.782745361328 1.360253810883
50.927700042725 -75.066055297852 -90.892066955566 2.075513839722
71.035278320313 -82.111686706543 -90.123916625977 6.908475875854
55.083522796631 -73.001419067383 -95.886871337891 0.820330619812
53.688827514648 -76.174057006836 -99.016639709473 1.639038562775
76.317314147949 -78.671485900879 -96.210266113281 3.800670385361
48.167030334473 -73.694305419922 -108.347816467285 1.870815992355
99.170623779297 -75.653480529785 -102.028182983398 4.130947589874
106.240211486816 -80.587112426758 -107.610519409180 5.593548297882
78.851318359375 -72.314750671387 -103.967285156250 2.456849575043
94.678390502930 -76.355056762695 -104.910255432129 5.794857025146
101.161148071289 -75.351081848145 -93.637023925781 4.687508583069
110.974449157715 -76.477668762207 -104.275604248047 3.253981351852
40.789817810059 -73.613838195801 -106.759727478027 0.834467530251
114.540039062500 -72.227912902832 -117.864921569824 2.032698869705
115.477798461914 -76.951431274414 -119.474571228027 3.852765798569
31.228620529175 -72.144332885742 -124.760604858398 1.324728012085
45.585361480713 -76.272331237793 -118.423561096191 1.043764472008
116.411499023438 -76.279762268066 -132.106964111328 1.866302251816
35.246719360352 -73.726249694824 -127.029502868652 3.059909582138
117.657676696777 -81.050804138184 -127.034774780273 6.946805477142
108.945663452148 -76.934402465820 -122.661903381348 3.502071857452
28.142086029053 -76.694931030273 -134.230880737305 1.217638969421
-45.908786773682 -74.476921081543 -133.833679199219 3.689006805420
-50.961307525635 -71.780639648438 -135.170379638672 1.166901230812
112.616447448730 -75.044616699219 -135.484558105469 1.760849237442
-66.688186645508 -79.100097656250 -140.015258789063 6.416002273560
-70.430740356445 -74.289932250977 -140.957336425781 2.598166465759
-58.841812133789 -74.236846923828 -139.928848266602 1.137267351151
31.952716827393 -75.525901794434 -145.151580810547 2.434828758240
120.057540893555 -78.569908142090 -146.996719360352 6.416556835175
-68.972297668457 -69.523376464844 -148.324951171875 1.059689998627
-48.079597473145 -74.374427795410 -141.837997436523 2.222505092621
33.969188690186 -75.214340209961 -152.878479003906 2.113041162491
-67.167358398438 -75.283081054688 -148.254470825195 0.868270516396
115.390396118164 -74.167167663574 -139.836227416992 1.727846622467
112.563743591309 -73.139877319336 -157.862136840820 1.449242830276
117.549629211426 -76.989807128906 -154.251678466797 3.059223651886
-37.397888183594 -77.739494323730 -152.876770019531 0.848602116108
-62.717624664307 -73.623695373535 -165.907394409180 1.604380846024
-65.959983825684 -68.853691101074 -158.263412475586 1.470678687096
30.154890060425 -76.019508361816 -144.518249511719 2.871663331985
-0.850503027439 -76.890937805176 -162.192123413086 2.166903972626
111.196342468262 -74.262367248535 -162.617614746094 1.016228556633
113.392761230469 -73.190048217773 -152.388427734375 1.068876624107
113.832397460938 -79.665130615234 -159.419128417969 2.568041324615
-61.634429931641 -71.099250793457 -158.763473510742 2.208513498306
-43.659965515137 -76.631256103516 -167.865310668945 2.503029108047
-2.243304014206 -73.968261718750 -165.445541381836 2.402981758118
-29.614755630493 -75.228126525879 -175.449111938477 2.748758554459
106.945785522461 -74.189559936523 -167.906600952148 0.682284653187
-31.563703536987 -78.789230346680 -160.224853515625 3.918447494507
110.128669738770 -73.524864196777 -167.513168334961 1.398741602898
-40.487503051758 -74.610343933105 -174.714813232422 0.432561099529
109.342254638672 -72.592948913574 -169.880020141602 2.127027034760
-151.809906005859 -74.601112365723 -179.743728637695 2.758767604828
-24.410490036011 -69.332023620605 -177.860427856445 3.060184955597
-18.171701431274 -74.992515563965 -184.323394775391 1.655636310577
26.004140853882 -79.165939331055 -177.105926513672 1.843842625618
15.720187187195 -73.534164428711 -184.183853149414 2.025651693344
29.979013442993 -75.587722778320 -183.045776367188 3.528592586517
104.044616699219 -81.881652832031 -184.586257934570 5.303203105927
-150.864685058594 -69.077789306641 -184.417083740234 2.602668762207
-17.858798980713 -77.118080139160 -182.750854492188 1.870291829109
102.617553710938 -77.569351196289 -178.591018676758 3.317261219025
104.379714965820 -70.985092163086 -189.159622192383 1.730969667435
110.498001098633 -77.711929321289 -176.563980102539 0.374756395817
101.563179016113 -77.665657043457 -193.172714233398 1.171872496605
-149.466796875000 -72.225952148438 -198.747283935547 2.113153457642
101.100509643555 -76.471817016602 -206.404159545898 1.895810842514
-26.732900619507 -72.084442138672 -199.085906982422 1.326690554619
97.875656127930 -75.490303039551 -194.637298583984 2.532800197601
-117.996757507324 -78.535568237305 -202.162582397461 6.865751743317
-28.758203506470 -79.767791748047 -188.869674682617 0.738461732864
-141.077346801758 -67.587730407715 -199.057373046875 2.456907033920
97.384765625000 -75.641677856445 -197.767196655273 1.502170324326
9.775507926941 -75.076301574707 -199.927886962891 1.994123339653
25.944566726685 -72.590873718262 -191.846206665039 1.492961049080
-147.391235351563 -75.194473266602 -204.980529785156 1.959876418114
-136.259613037109 -72.820182800293 -203.280838012695 2.148696660995
-8.077838897705 -74.226898193359 -208.870025634766 1.330791831017
-122.883583068848 -73.033432006836 -206.083892822266 3.196747779846
-143.026596069336 -75.080062866211 -197.930648803711 2.365552186966
2.958525896072 -75.327339172363 -199.001541137695 6.516427993774
-24.392644882202 -76.984756469727 -200.572189331055 2.331498384476
22.470108032227 -79.055320739746 -201.580627441406 2.658143520355
7.024631023407 -76.826469421387 -213.262649536133 1.303616642952
84.380012512207 -71.175216674805 -209.110855102539 4.321732521057
-16.396112442017 -71.423805236816 -212.379928588867 0.635655343533
92.120452880859 -72.505256652832 -209.118743896484 1.444958925247
99.499481201172 -78.845550537109 -206.992431640625 2.565269231796
-146.744644165039 -75.249938964844 -214.516555786133 2.028382062912
96.581192016602 -78.489662170410 -211.598083496094 2.916268587112
5.652762889862 -72.785636901855 -206.401016235352 1.624429225922
3.961150884628 -77.204597473145 -214.713378906250 3.690703392029
-30.594161987305 -73.958534240723 -206.222717285156 1.682311773300
-87.975654602051 -73.272987365723 -213.418167114258 1.365687489510
-23.616706848145 -77.058052062988 -210.290847778320 2.236788988113
87.000213623047 -74.020545959473 -217.926757812500 0.775166571140
92.011108398438 -74.442375183105 -215.668533325195 1.669508218765
-29.941654205322 -73.196067810059 -211.966369628906 1.958502292633
-82.286476135254 -69.754722595215 -220.139114379883 5.423764705658
1.327561020851 -76.969619750977 -219.686431884766 2.886402368546
80.303192138672 -70.258834838867 -211.843246459961 5.928776741028
-151.118423461914 -79.632942199707 -222.161132812500 2.886548280716
-164.887878417969 -71.157783508301 -215.195922851563 2.719413518906
-161.976364135742 -77.597297668457 -222.619354248047 5.177572727203
-20.173259735107 -76.534027099609 -227.296768188477 2.284048795700
-153.294906616211 -78.413810729980 -223.178604125977 2.370539903641
-3.042494058609 -75.368049621582 -224.172393798828 1.789982438087
7.335000991821 -76.867843627930 -218.731781005859 2.011262655258
-167.674438476563 -73.294151306152 -227.117523193359 2.383845567703
-155.659942626953 -73.687721252441 -229.094985961914 2.320650577545
80.253890991211 -79.950332641602 -232.103530883789 3.571589708328
0.154882997274 -74.107627868652 -226.188766479492 1.248392343521
-157.754776000977 -66.458496093750 -227.368347167969 2.247943401337
-141.350326538086 -76.378326416016 -224.005599975586 0.825162827969
-17.296915054321 -72.686775207520 -224.046127319336 1.753569126129
-0.555840015411 -79.421974182129 -220.974533081055 1.189157009125
81.308364868164 -71.853347778320 -226.802612304688 1.503069400787
-159.552062988281 -70.942909240723 -228.781204223633 2.737084150314
-140.552078247070 -70.118972778320 -233.529754638672 1.677297472954
-124.308670043945 -71.339370727539 -232.479278564453 1.336816549301
79.501350402832 -78.276580810547 -226.106018066406 1.610293269157
-114.384269714355 -74.002502441406 -230.156616210938 1.576072692871
-142.708877563477 -73.391975402832 -230.333496093750 1.448645830154
-149.682647705078 -71.732337951660 -232.895751953125 3.123537540436
-148.409515380859 -74.506477355957 -232.854217529297 1.897617936134
-154.324035644531 -74.497703552246 -230.079193115234 2.875634908676
-163.448974609375 -74.165946960449 -229.452697753906 1.799230933189
-131.282119750977 -74.730369567871 -237.772262573242 4.024827957153
-131.764297485352 -74.893608093262 -234.385574340820 1.919682979584
-150.646759033203 -79.527099609375 -234.483963012695 2.227405548096
-144.014450073242 -69.065780639648 -238.816574096680 2.050499677658
-149.536499023438 -74.475410461426 -236.613922119141 1.869026660919
77.038414001465 -78.793472290039 -233.372070312500 3.410520076752
68.716690063477 -68.390914916992 -234.894714355469 1.358765006065
-153.922897338867 -71.319847106934 -236.329467773438 2.415089130402
74.318344116211 -69.255912780762 -233.147338867188 1.920128941536
-18.978088378906 -72.064758300781 -236.828826904297 1.832221508026
13.978905677795 -77.006652832031 -238.420623779297 3.309571743011
9.256220817566 -75.679908752441 -236.164993286133 2.120398283005
-154.197784423828 -73.669761657715 -242.342315673828 4.203654766083
17.339195251465 -74.211448669434 -241.562500000000 1.921628475189
60.872146606445 -73.347801208496 -238.622329711914 2.054560184479
14.769098281860 -71.481193542480 -238.538146972656 1.232136964798
6.238944053650 -74.954048156738 -241.625778198242 1.684059619904
-5.089766979218 -71.172546386719 -240.010894775391 0.805575966835
-20.231521606445 -72.538734436035 -243.347320556641 1.196517229080
-0.889654994011 -74.901397705078 -241.106689453125 2.074063777924
6.251871109009 -78.475135803223 -246.416152954102 1.953869700432
58.969917297363 -76.941436767578 -241.003662109375 2.472357034683
-53.245330810547 -79.902801513672 -245.344512939453 1.678535699844
21.922798156738 -73.752708435059 -248.299377441406 1.865652441978
-56.775741577148 -75.116119384766 -240.849044799805 3.062554836273
-9.012082099915 -75.133430480957 -248.511962890625 1.432758569717
-65.279708862305 -69.752044677734 -251.251586914063 2.612270593643
-84.173004150391 -70.954818725586 -254.829925537109 1.587049245834
-80.791755676270 -75.951782226563 -254.461898803711 0.668940186501
-6.671394824982 -73.991584777832 -256.772155761719 5.365935802460
-121.900047302246 -74.000740051270 -262.284210205078 1.608845233917
-12.438699722290 -75.523040771484 -252.011398315430 1.846167802811
-115.356559753418 -73.698753356934 -255.674438476563 1.605902433395
-116.091598510742 -71.935440063477 -259.799896240234 2.636158704758
-102.217346191406 -73.898590087891 -255.681991577148 1.897554516792
-141.662216186523 -72.126983642578 -261.428405761719 2.055154800415
-142.990676879883 -73.353187561035 -269.248291015625 4.380551338196
-167.508758544922 -73.633232116699 -264.332946777344 1.845016241074
22.792951583862 -79.715980529785 -280.825988769531 7.090957164764
-58.476680755615 -71.724670410156 -285.749633789063 1.452268362045
-66.482315063477 -73.147544860840 -283.020202636719 2.684272289276
-40.542301177979 -76.705001831055 -283.135162353516 4.027787685394
-25.220701217651 -75.429359436035 -287.764404296875 1.945789694786
-94.107879638672 -77.291450500488 -291.488891601563 3.042933940887
-29.991369247437 -72.226760864258 -285.243286132813 2.123326778412
-1.969769954681 -74.475349426270 -285.986999511719 1.305020093918
-165.629653930664 -73.953865051270 -290.868835449219 1.121170639992
-16.808849334717 -77.673866271973 -285.768035888672 3.172991991043
7.162456035614 -76.411010742188 -288.172973632813 1.387944817543
15.615198135376 -81.139823913574 -280.746307373047 4.553321361542
-55.406082153320 -78.319473266602 -286.274383544922 2.316021203995
-33.416202545166 -76.033042907715 -292.524139404297 2.708713769913
16.038549423218 -72.736663818359 -294.111999511719 2.250519037247
-69.943603515625 -72.198516845703 -294.692413330078 2.365692615509
-40.561084747314 -70.938781738281 -288.675994873047 1.134814381599
-16.409749984741 -72.332061767578 -289.882843017578 0.538661301136
15.983250617981 -78.064384460449 -291.837432861328 1.566092491150
-10.469764709473 -77.591247558594 -296.016510009766 4.633361816406
6.128582000732 -73.876281738281 -295.189117431641 2.918331861496
16.080272674561 -78.416091918945 -289.105621337891 1.375064015388
-133.256927490234 -72.926307678223 -295.260009765625 1.498891353607
-143.471298217773 -76.640571594238 -299.031860351563 3.346636533737
-151.570632934570 -73.431533813477 -314.518585205078 1.815809726715
45.498168945313 -73.047096252441 -14.205378532410 3.159455060959
30.626392364502 -73.531822204590 -11.785139083862 2.915889978409
40.935249328613 -74.015853881836 -15.072005271912 2.507996797562
23.727342605591 -68.867195129395 -18.245670318604 3.429513216019
46.478977203369 -70.682968139648 -23.265773773193 2.678796052933
27.084278106689 -70.440780639648 -25.127141952515 1.868230342865
24.476243972778 -73.773735046387 -26.743703842163 2.287401437759
27.412717819214 -74.657188415527 -40.831016540527 3.888859987259
38.390167236328 -77.309036254883 -30.983884811401 6.525751113892
26.868118286133 -78.915649414063 -37.522068023682 7.610724925995
44.742912292480 -71.899291992188 -39.589282989502 1.502260088921
33.062587738037 -74.387405395508 -41.086757659912 2.786239624023
41.333526611328 -75.835426330566 -35.473526000977 4.206664562225
31.664340972900 -72.083526611328 -40.193099975586 0.358238339424
45.974346160889 -73.911514282227 -42.077880859375 4.882555007935
33.512905120850 -72.869712829590 -37.745239257813 1.113700628281
-41.292476654053 -72.010917663574 -47.924106597900 2.510583400726
-28.482580184937 -67.326263427734 -50.571815490723 2.145510673523
-89.259094238281 -72.878654479980 -54.261577606201 5.140567302704
-89.051841735840 -73.509559631348 -66.714485168457 3.316745281219
78.114959716797 -77.280288696289 -64.463676452637 7.217819690704
85.466835021973 -72.877288818359 -72.637458801270 0.844295322895
-19.712011337280 -71.025642395020 -75.222358703613 2.786068677902
-86.990669250488 -71.305244445801 -72.707786560059 3.588992595673
-23.967304229736 -71.811172485352 -77.046302795410 0.689569711685
-48.423896789551 -74.599670410156 -85.085243225098 2.635496139526
67.130455017090 -70.156066894531 -86.368743896484 2.070201396942
53.236789703369 -72.209182739258 -93.839866638184 1.954099416733
100.624320983887 -71.723800659180 -91.357093811035 2.448166608810
70.119789123535 -76.632057189941 -96.822647094727 2.489798307419
-68.774810791016 -73.318801879883 -89.768363952637 5.218094825745
-58.782646179199 -69.221542358398 -99.227569580078 7.178899765015
45.759937286377 -73.461006164551 -97.509933471680 0.944472968578
78.579879760742 -71.805274963379 -98.060623168945 2.463644742966
56.254169464111 -83.327575683594 -105.233955383301 6.215820312500
102.904373168945 -73.820411682129 -95.316421508789 1.967695474625
-93.562751770020 -75.685203552246 -108.033424377441 3.147944688797
42.559322357178 -73.272956848145 -109.588073730469 1.825887084007
108.660423278809 -75.705039978027 -109.274269104004 2.661015510559
50.425155639648 -73.965888977051 -111.477447509766 2.273898839951
101.732215881348 -75.867805480957 -110.643722534180 4.145291805267
-83.559722900391 -72.017875671387 -117.630981445313 1.576465725899
36.732849121094 -77.736732482910 -112.757888793945 2.514646291733
108.552261352539 -72.201416015625 -116.478858947754 1.861647009850
105.976882934570 -70.892234802246 -115.961914062500 1.240830183029
105.258338928223 -74.766098022461 -114.884521484375 1.531002521515
112.343627929688 -72.602363586426 -113.700141906738 0.761406779289
42.241714477539 -77.054527282715 -108.255973815918 1.684771418571
33.625755310059 -69.052215576172 -115.797569274902 3.261019468307
40.522663116455 -73.234260559082 -112.552398681641 1.671797513962
106.450546264648 -76.390396118164 -120.687690734863 2.556872129440
42.328804016113 -71.459991455078 -121.579292297363 1.140388131142
111.020042419434 -72.864501953125 -132.311248779297 1.528679132462
111.318672180176 -72.616447448730 -130.811508178711 1.768654942513
34.858520507813 -70.463706970215 -118.667633056641 2.303023576736
-77.223213195801 -73.403404235840 -123.618148803711 4.653334617615
113.855850219727 -70.370056152344 -133.345291137695 1.822454452515
-51.915573120117 -73.193260192871 -138.394577026367 0.954818487167
36.118118286133 -74.677299499512 -134.089523315430 3.119101762772
-72.364761352539 -73.212524414063 -134.109710693359 3.220301628113
26.826805114746 -77.145904541016 -129.952529907227 1.696099996567
-79.593620300293 -73.855003356934 -144.107498168945 2.903050422668
-44.208492279053 -76.591438293457 -142.105773925781 1.665431976318
-74.169563293457 -75.167655944824 -138.895797729492 0.573747575283
110.466461181641 -73.188446044922 -135.797149658203 1.771991014481
120.943565368652 -71.714416503906 -140.847091674805 4.887632846832
120.252548217773 -78.224021911621 -147.152587890625 6.211238861084
-79.085113525391 -72.739768981934 -143.588928222656 2.063689708710
8.019142150879 -68.818519592285 -150.690109252930 2.358147859573
-49.557788848877 -73.698059082031 -148.065261840820 3.203435897827
-50.623100280762 -74.496345520020 -155.023223876953 2.013971090317
107.295295715332 -75.080032348633 -162.800201416016 2.325593948364
-39.622604370117 -75.971595764160 -148.387985229492 1.678376913071
15.741817474365 -70.432937622070 -158.247543334961 1.233207821846
23.689502716064 -76.193954467773 -157.129287719727 2.046600580215
115.734199523926 -72.568885803223 -164.685195922852 1.382880687714
31.542139053345 -72.629455566406 -166.989593505859 3.220731258392
0.427605003119 -75.356773376465 -163.715713500977 2.005394458771
33.166141510010 -74.558143615723 -160.123138427734 1.837985396385
-66.432182312012 -71.459136962891 -156.425018310547 1.677485346794
-65.293869018555 -73.102134704590 -159.231475830078 1.749127984047
-68.420585632324 -70.636352539063 -166.425857543945 2.639887332916
115.759391784668 -69.772491455078 -161.295394897461 3.036475419998
-43.518333435059 -73.753036499023 -163.095489501953 1.188303828239
17.557151794434 -73.683204650879 -164.912948608398 1.772994041443
-62.646411895752 -71.314704895020 -170.020767211914 2.290618896484
-63.315891265869 -70.280311584473 -171.713714599609 3.583401203156
-41.774112701416 -74.962684631348 -160.827209472656 2.756791353226
-33.465293884277 -76.911720275879 -167.731079101563 0.974585294724
116.986434936523 -77.396675109863 -170.972732543945 3.688715219498
-36.044433593750 -66.385528564453 -181.761749267578 4.740732669830
13.649815559387 -74.820968627930 -172.224334716797 3.673972606659
111.804916381836 -77.835380554199 -185.458724975586 4.002692699432
-146.001281738281 -74.615684509277 -176.401855468750 2.148916721344
-145.122955322266 -71.725349426270 -172.390716552734 2.972931146622
-145.771621704102 -69.971237182617 -181.807998657227 2.632255315781
-140.888610839844 -75.105140686035 -184.416625976563 3.239765405655
-31.460685729980 -71.433357238770 -184.842697143555 2.023088932037
-22.069923400879 -74.044219970703 -185.347579956055 1.979074120522
24.914340972900 -68.317558288574 -192.084701538086 2.779585361481
-139.487854003906 -71.575546264648 -186.867965698242 2.913663148880
-146.621963500977 -73.004447937012 -189.127014160156 1.564883351326
-20.749643325806 -70.955146789551 -185.381347656250 1.912731885910
10.889069557190 -73.372467041016 -182.438827514648 3.637261867523
-148.901840209961 -72.218856811523 -195.751831054688 2.330957412720
-30.350803375244 -73.373077392578 -189.183898925781 0.819237053394
101.079063415527 -74.688522338867 -187.791259765625 2.155422449112
106.595153808594 -72.301574707031 -189.286712646484 1.778976082802
26.212995529175 -67.765518188477 -193.196640014648 3.516474246979
-9.347858428955 -73.392227172852 -188.325439453125 7.473651409149
-27.345418930054 -75.640502929688 -192.715560913086 1.254983544350
-154.994232177734 -74.556587219238 -201.457702636719 2.919124603271
-131.611450195313 -73.728195190430 -197.026580810547 1.330686211586
-124.387649536133 -68.918830871582 -194.918334960938 0.444024711847
-124.790344238281 -70.930763244629 -197.682571411133 2.201907396317
-20.629983901978 -68.348663330078 -195.040832519531 2.171181678772
15.349243164063 -76.671188354492 -191.880233764648 0.741591036320
92.831428527832 -80.226776123047 -200.785964965820 5.009399890900
-149.989776611328 -67.314285278320 -194.671295166016 1.255892276764
-143.020645141602 -69.000694274902 -199.200531005859 3.208353996277
-150.457748413086 -72.298027038574 -201.358566284180 2.178049087524
-153.551544189453 -69.388145446777 -196.779129028320 1.490971565247
-22.716182708740 -72.158729553223 -199.614852905273 1.930564165115
-7.217845916748 -69.732223510742 -194.780670166016 6.821358203888
-143.691970825195 -66.695404052734 -203.197036743164 1.575451850891
-18.756830215454 -72.439704895020 -202.252227783203 2.386296510696
-159.422271728516 -71.573005676270 -202.192184448242 2.482666492462
-133.327941894531 -72.045906066895 -199.437576293945 1.460078477859
16.314231872559 -77.182617187500 -206.703384399414 0.562468409538
-158.372375488281 -67.585113525391 -204.710067749023 2.049307823181
-145.085983276367 -74.707435607910 -207.011779785156 2.631738185883
8.202692985535 -70.941368103027 -204.176864624023 3.351101636887
-153.077987670898 -68.813453674316 -202.672424316406 0.551452040672
-24.094148635864 -72.116050720215 -202.719573974609 1.429511308670
95.535636901855 -75.610115051270 -198.558135986328 2.609391689301
-158.601409912109 -73.930541992188 -211.057983398438 2.424962759018
-163.082031250000 -77.000976562500 -206.745513916016 5.620683670044
-74.485237121582 -70.201644897461 -206.814346313477 4.365377426147
91.389923095703 -73.526168823242 -207.751235961914 2.043936014175
-2.531544923782 -72.562141418457 -219.694763183594 1.782626152039
-155.148193359375 -70.800315856934 -213.158477783203 3.116826772690
-85.898101806641 -73.619293212891 -212.863433837891 2.211968421936
-8.598116874695 -77.344726562500 -210.864624023438 2.319487810135
17.375974655151 -73.163360595703 -218.085525512695 2.294775247574
-142.822204589844 -73.117393493652 -221.262298583984 2.434567689896
-2.682159900665 -79.477523803711 -220.754074096680 1.783310294151
-16.298362731934 -75.871940612793 -216.483154296875 2.623947381973
-13.207224845886 -69.858894348145 -221.370025634766 2.400975704193
92.808341979980 -74.519493103027 -220.720596313477 2.947093725204
-18.664728164673 -71.813949584961 -216.067245483398 2.774002313614
-32.146167755127 -72.568183898926 -217.988067626953 2.074127674103
-106.396659851074 -66.232940673828 -225.895156860352 1.297192573547
-15.160064697266 -71.367546081543 -223.846008300781 1.049985527992
95.276687622070 -72.111976623535 -218.582397460938 4.486226558685
76.571502685547 -75.678405761719 -221.298797607422 3.328163862228
9.752226829529 -75.152336120605 -218.556320190430 1.295383334160
-10.131750106812 -69.744903564453 -225.562316894531 2.227144479752
80.433799743652 -74.494369506836 -221.395263671875 1.434153556824
-120.158752441406 -77.680854797363 -225.669113159180 5.269102096558
-16.612691879272 -70.978141784668 -223.670227050781 1.400290369987
-94.252922058105 -72.296173095703 -223.617782592773 1.256236076355
-99.490478515625 -72.894851684570 -223.183746337891 1.535642147064
-128.253707885742 -75.047561645508 -229.686614990234 0.861900031567
82.466156005859 -74.999237060547 -222.951034545898 0.907189548016
-121.374649047852 -73.665191650391 -227.782699584961 1.438237071037
5.592435836792 -72.557380676270 -229.280441284180 1.564495682716
83.283401489258 -72.602104187012 -224.457153320313 0.963991284370
-15.099512100220 -75.089004516602 -233.550872802734 3.173877716064
-13.024165153503 -74.530616760254 -225.487792968750 0.816151320934
1.306380987167 -80.975563049316 -230.008712768555 1.871777892113
12.883705139160 -76.717102050781 -227.742675781250 2.600062847137
92.050407409668 -76.232460021973 -227.360137939453 6.142546653748
10.696048736572 -71.827522277832 -231.082229614258 2.191493272781
8.266584396362 -72.586341857910 -229.786285400391 1.401117086411
-7.667531013489 -74.312789916992 -232.015502929688 1.722873687744
-5.344057083130 -75.258415222168 -228.227798461914 2.123630285263
21.434572219849 -72.455101013184 -233.444015502930 3.326501607895
-11.139600753784 -69.880081176758 -232.982894897461 0.783239424229
72.274299621582 -75.006942749023 -240.698074340820 3.985623836517
-8.335879325867 -72.172836303711 -239.642791748047 0.687008500099
20.725822448730 -74.842498779297 -235.718643188477 1.324326038361
-159.318298339844 -69.868865966797 -240.169692993164 2.015586376190
-4.566069126129 -70.584869384766 -235.996765136719 1.341936945915
-5.905120849609 -75.787696838379 -239.287109375000 2.394336223602
-166.057113647461 -73.648757934570 -250.780166625977 1.291607975960
-9.637973785400 -71.057098388672 -244.089843750000 2.332954883575
16.261781692505 -70.303146362305 -245.006103515625 2.214111089706
-146.860046386719 -74.490684509277 -252.144180297852 1.089638829231
-74.476524353027 -73.133132934570 -252.200775146484 1.040968894958
-60.804817199707 -74.914642333984 -247.505722045898 1.877956748009
52.770019531250 -70.678047180176 -246.856719970703 1.726266264915
-71.702301025391 -72.443962097168 -246.352233886719 1.877583861351
17.416509628296 -74.355155944824 -249.866058349609 2.829417467117
-71.413688659668 -74.561508178711 -250.996170043945 2.300733804703
-14.474780082703 -70.761100769043 -243.101837158203 2.481585979462
-143.943847656250 -76.311386108398 -252.992370605469 2.345066547394
46.740112304688 -69.141914367676 -250.922912597656 1.444791793823
-79.590652465820 -77.170989990234 -257.124786376953 3.711992263794
-101.806137084961 -68.790069580078 -255.619415283203 1.449045062065
-98.993362426758 -74.654411315918 -254.621459960938 2.191730499268
-119.963394165039 -69.071479797363 -251.919876098633 5.111049652100
-104.745635986328 -68.526123046875 -257.632171630859 2.829088687897
-103.759750366211 -71.862953186035 -257.741088867188 2.071636438370
22.436847686768 -69.160865783691 -257.548034667969 1.962419509888
-129.108764648438 -69.430557250977 -265.568450927734 2.392480373383
-14.045496940613 -74.646545410156 -275.179504394531 2.226824998856
-147.499359130859 -68.805206298828 -284.637115478516 1.852937579155
-167.497039794922 -74.831520080566 -287.158538818359 2.875169038773
-123.805305480957 -74.071197509766 -283.310485839844 1.792543768883
-112.916656494141 -68.873985290527 -287.141357421875 2.100424051285
-74.458518981934 -68.061851501465 -283.208190917969 4.385533809662
-56.720916748047 -75.125831604004 -286.946563720703 2.551244974136
-40.044841766357 -71.952751159668 -285.944458007813 1.586277365685
-14.423938751221 -78.635696411133 -291.257507324219 2.749392032623
-12.552500724792 -70.671569824219 -293.554656982422 3.116494178772
-37.704723358154 -76.996330261230 -291.162902832031 2.206350803375
-33.418014526367 -73.677017211914 -288.967956542969 2.947974443436
-18.200744628906 -69.450386047363 -288.783477783203 2.769140958786
-72.214645385742 -72.081939697266 -294.561065673828 3.466044187546
-55.330890655518 -72.529716491699 -291.634246826172 1.846915245056
-17.836944580078 -68.942695617676 -292.084930419922 3.325115442276
-12.843784332275 -76.184059143066 -289.143676757813 1.693270206451
-2.528819084167 -73.190818786621 -293.656219482422 3.685590028763
3.687025070190 -69.069816589355 -293.089080810547 1.160714983940
-92.670448303223 -73.059890747070 -293.946746826172 2.536976575851
-137.247756958008 -75.906524658203 -296.728424072266 3.810622692108
-114.473365783691 -74.010208129883 -293.129211425781 1.015425324440
-152.388977050781 -69.737136840820 -294.101348876953 1.833616852760
-149.510360717773 -73.781028747559 -299.897888183594 2.905729770660
-146.339324951172 -69.497611999512 -300.724182128906 2.071043252945
44.394321441650 -68.687881469727 -22.561754226685 2.036460161209
21.043548583984 -76.393524169922 -23.333215713501 3.786680459976
50.996482849121 -67.911331176758 -23.881378173828 2.394604921341
48.115013122559 -73.507972717285 -35.563735961914 2.331468343735
89.294944763184 -72.384521484375 -71.490875244141 2.074396371841
97.016593933105 -75.054954528809 -74.286117553711 2.747625827789
102.508346557617 -73.126312255859 -76.387374877930 3.356368064880
99.347595214844 -72.702339172363 -84.011184692383 1.716151237488
56.738803863525 -73.686355590820 -90.003791809082 2.598731756210
44.764255523682 -79.471366882324 -89.492179870605 7.911570072174
64.491806030273 -71.483337402344 -90.713165283203 2.420633077621
-64.496406555176 -69.705535888672 -94.233917236328 1.481841206551
72.937171936035 -70.936614990234 -87.135856628418 3.463448286057
101.100662231445 -63.893688201904 -99.430999755859 1.165431976318
75.526184082031 -72.841423034668 -101.792800903320 1.781029462814
94.407379150391 -71.333717346191 -103.235336303711 0.667714357376
-85.732460021973 -72.476097106934 -105.404396057129 2.738428354263
46.936988830566 -70.643280029297 -95.905639648438 1.446224212646
-86.919929504395 -73.299926757813 -100.456230163574 5.624551296234
52.759288787842 -73.714202880859 -110.034255981445 2.873762607574
37.612964630127 -80.365707397461 -102.990333557129 5.005628585815
100.728706359863 -71.620452880859 -103.092971801758 2.251100540161
37.673667907715 -72.612091064453 -104.465972900391 3.192821741104
45.782070159912 -74.896003723145 -120.783233642578 1.557503342628
43.455440521240 -73.048660278320 -113.008941650391 2.123561143875
112.601715087891 -71.400703430176 -111.184280395508 1.188745260239
-79.563598632813 -78.155059814453 -122.265640258789 7.562643051147
113.964241027832 -78.474983215332 -122.371414184570 4.306358814240
42.752269744873 -67.492439270020 -125.306678771973 3.673427820206
41.018856048584 -72.392120361328 -119.876007080078 2.034474134445
35.388473510742 -73.453056335449 -119.855400085449 2.089886426926
-53.995368957520 -77.963592529297 -129.603530883789 5.064980030060
30.750068664551 -71.195617675781 -123.221305847168 1.085183382034
-76.907760620117 -68.135971069336 -138.831192016602 1.664451956749
-54.006069183350 -76.949195861816 -132.645904541016 3.073698043823
-78.476921081543 -68.947128295898 -135.256744384766 1.399279952049
37.851314544678 -70.160797119141 -131.990325927734 1.489712953568
-58.985675811768 -74.167541503906 -133.657257080078 2.230674266815
36.331100463867 -71.883872985840 -132.949203491211 1.739548802376
-70.216072082520 -69.466690063477 -139.971435546875 1.100506901741
-58.254783630371 -67.282333374023 -142.662719726563 1.568166494370
24.727495193481 -74.004127502441 -144.554809570313 1.342635631561
112.934890747070 -76.376335144043 -142.706909179688 2.304269552231
115.963241577148 -67.812622070313 -137.468292236328 2.561190605164
31.387577056885 -73.189758300781 -142.842590332031 2.597582101822
-48.881458282471 -74.814109802246 -139.926254272461 2.527374505997
106.111083984375 -70.274055480957 -152.580245971680 3.850462436676
-75.512641906738 -71.717926025391 -142.732315063477 1.222301602364
-57.550613403320 -71.855697631836 -142.375259399414 0.589623391628
32.760063171387 -66.298919677734 -146.104888916016 3.171809911728
-77.355514526367 -73.844047546387 -146.240524291992 2.763124465942
-69.349418640137 -71.327735900879 -150.081802368164 2.139791488647
114.854476928711 -78.729057312012 -149.143447875977 3.688596725464
-63.511737823486 -70.168716430664 -155.971954345703 3.469239711761
-38.572582244873 -67.956329345703 -151.862213134766 3.883753299713
25.463401794434 -70.934013366699 -144.616058349609 1.494433760643
-71.131927490234 -72.662124633789 -144.320861816406 2.273891210556
13.395795822144 -71.193008422852 -148.911392211914 1.481445789337
32.858104705811 -72.218849182129 -158.475982666016 0.742505133152
32.329402923584 -69.487304687500 -151.917404174805 2.274764299393
18.202499389648 -77.865722656250 -153.692321777344 4.595561504364
-49.824108123779 -74.747108459473 -153.207550048828 2.578598022461
23.976285934448 -75.555488586426 -153.217758178711 1.953676342964
-46.087093353271 -71.037384033203 -151.377624511719 2.042180538177
4.313619136810 -72.605239868164 -154.380676269531 2.863309144974
20.290697097778 -71.476837158203 -150.084762573242 3.007685899734
-66.265235900879 -70.676033020020 -158.801345825195 1.114077925682
-46.418521881104 -68.571975708008 -154.413421630859 2.581082820892
-67.693572998047 -71.875724792480 -152.246337890625 1.541058063507
21.143255233765 -71.049507141113 -158.771118164063 2.340079307556
24.523376464844 -71.563201904297 -150.205154418945 1.810317039490
3.386708021164 -72.601844787598 -166.678863525391 3.300533771515
22.807447433472 -71.361534118652 -152.174041748047 1.313297152519
31.551771163940 -71.588134765625 -168.889663696289 3.318987131119
-46.345706939697 -73.146919250488 -164.383132934570 1.636218786240
-37.722740173340 -81.386306762695 -164.677444458008 1.226484537125
-40.823783874512 -73.658973693848 -161.393585205078 2.861907720566
28.596885681152 -73.389411926270 -157.635879516602 3.491754293442
-43.755062103271 -69.174209594727 -166.538299560547 3.195291757584
-38.435409545898 -70.304550170898 -169.083389282227 1.941026449203
22.669157028198 -70.518005371094 -165.453994750977 0.801440894604
-38.829544067383 -72.879966735840 -176.694656372070 2.239631652832
28.211729049683 -67.276756286621 -170.213699340820 2.711251735687
111.234420776367 -68.578651428223 -163.364517211914 2.488968133926
-33.475391387939 -72.361724853516 -172.451507568359 1.492571711540
101.010147094727 -69.907188415527 -173.462097167969 5.045879840851
-33.778976440430 -71.832305908203 -178.168869018555 2.410336494446
-37.195236206055 -76.264617919922 -182.373779296875 3.942302465439
23.630039215088 -76.045021057129 -178.426284790039 2.430145502090
107.361900329590 -74.105201721191 -181.922409057617 1.423335909843
-32.292057037354 -70.069053649902 -182.092102050781 0.937343358994
-35.258117675781 -71.884475708008 -179.877716064453 1.048169732094
-21.977098464966 -77.995399475098 -187.691101074219 1.587321758270
-148.380950927734 -71.830398559570 -190.054275512695 2.643761396408
11.979249954224 -71.952362060547 -183.553512573242 2.379686594009
104.889381408691 -71.436065673828 -192.272201538086 1.916856288910
-160.109802246094 -71.039871215820 -192.829162597656 2.940109252930
-20.062112808228 -67.566375732422 -188.362060546875 3.126980066299
-114.881309509277 -74.237907409668 -198.371505737305 3.335594892502
-128.112121582031 -73.717559814453 -195.012069702148 2.878127336502
-105.787437438965 -73.087821960449 -200.586227416992 5.777880191803
-114.051467895508 -70.386764526367 -200.626434326172 1.602264881134
-10.336819648743 -73.756683349609 -196.533172607422 2.763617992401
20.647279739380 -70.091094970703 -196.063308715820 1.180922508240
-15.049710273743 -67.578094482422 -202.323303222656 2.647397518158
-127.549652099609 -71.618171691895 -206.683212280273 2.711841583252
-19.540092468262 -67.245208740234 -201.387207031250 1.077194213867
-127.140602111816 -69.188209533691 -203.382171630859 0.709870457649
-15.846830368042 -72.041503906250 -198.883193969727 1.197124838829
-146.353958129883 -69.954086303711 -201.953796386719 2.346355199814
92.656509399414 -67.467590332031 -205.994506835938 3.236420869827
-163.311889648438 -63.940811157227 -201.710128784180 1.541360378265
-1.047582030296 -73.500518798828 -220.584518432617 1.696275234222
13.106848716736 -74.485786437988 -210.485595703125 3.175688982010
11.073978424072 -76.292831420898 -217.427734375000 2.516096353531
83.208297729492 -73.074363708496 -216.015029907227 2.391447544098
10.389820098877 -73.861824035645 -213.556762695313 2.420122861862
12.250481605530 -71.243278503418 -215.239868164063 1.813510656357
-14.932263374329 -75.902091979980 -215.563812255859 2.257081508636
-89.499519348145 -73.038063049316 -213.128952026367 1.543822288513
-97.648841857910 -71.839553833008 -217.138214111328 0.900997161865
3.297074079514 -71.455047607422 -218.272048950195 3.622721195221
-165.699676513672 -74.216384887695 -221.761016845703 2.728508710861
17.219324111938 -69.424644470215 -218.195129394531 2.407531976700
-143.852233886719 -70.724922180176 -220.595916748047 0.870287179947
14.613606452942 -73.144714355469 -225.065490722656 1.941809296608
-134.401672363281 -73.730209350586 -225.479934692383 2.058987855911
-114.439620971680 -72.902252197266 -228.866226196289 1.613353133202
18.271465301514 -71.757369995117 -220.335235595703 1.379038453102
80.499748229980 -73.037048339844 -219.443634033203 2.900006532669
7.141869068146 -73.204353332520 -223.859786987305 2.485908269882
-107.834800720215 -70.388420104980 -231.915435791016 3.310762882233
70.581840515137 -74.360565185547 -227.464416503906 3.387871742249
86.599464416504 -74.643707275391 -229.379058837891 3.903138160706
-125.391059875488 -71.219352722168 -237.385894775391 2.504100561142
-117.894515991211 -71.375244140625 -230.430038452148 1.452383875847
-8.280937194824 -67.501914978027 -226.236038208008 2.890820980072
73.030990600586 -73.542007446289 -232.993453979492 2.690022945404
65.572235107422 -73.434234619141 -232.253311157227 3.484414100647
73.118812561035 -72.276618957520 -228.429138183594 1.504594683647
-135.496490478516 -66.839393615723 -234.329757690430 1.409205436707
70.112579345703 -74.439895629883 -230.587600708008 1.549133419991
66.742759704590 -69.572044372559 -235.012878417969 0.852747440338
-164.963851928711 -68.911224365234 -232.122650146484 0.873365581036
3.065763950348 -81.063842773438 -242.412872314453 3.611987352371
21.728513717651 -74.407272338867 -239.175323486328 2.063374280930
-5.079738140106 -68.726188659668 -241.815216064453 3.399334430695
18.114070892334 -65.381301879883 -239.455337524414 2.453693628311
68.225936889648 -74.005165100098 -237.732147216797 0.445470839739
8.495585441589 -69.672958374023 -244.951049804688 2.084219932556
-10.544316291809 -65.091110229492 -240.460327148438 2.252015352249
-0.777649998665 -68.295967102051 -235.690704345703 1.511376976967
65.877914428711 -73.372200012207 -242.119674682617 1.537054896355
2.449131011963 -72.382003784180 -242.622116088867 1.858898401260
-5.008551120758 -73.288978576660 -243.355392456055 2.040386199951
15.680971145630 -76.218498229980 -242.031433105469 2.831107616425
-166.582397460938 -74.282272338867 -241.713287353516 0.638987421989
55.273422241211 -74.138893127441 -247.183731079102 2.824503660202
49.780090332031 -64.726211547852 -253.012634277344 1.411776781082
60.752285003662 -73.545394897461 -243.167999267578 2.047436237335
-11.205818176270 -69.492874145508 -248.178100585938 1.438991546631
58.073940277100 -71.931846618652 -244.972213745117 1.633291482925
-73.533233642578 -71.583770751953 -251.343338012695 1.874637603760
51.258296966553 -73.213615417480 -248.152770996094 1.637860655785
-86.475547790527 -70.969245910645 -253.359741210938 1.916722655296
-120.779411315918 -72.584854125977 -258.637359619141 3.292153835297
-130.911041259766 -71.812683105469 -252.771377563477 2.272770643234
48.423259735107 -74.953926086426 -251.491790771484 2.909698724747
-129.640167236328 -75.000167846680 -252.204803466797 4.614636421204
-107.376594543457 -68.519668579102 -254.479522705078 0.527883112431
-116.489883422852 -68.983566284180 -258.393310546875 1.696818470955
-83.391937255859 -72.095138549805 -254.839538574219 1.130626082420
-109.482948303223 -68.162788391113 -258.615783691406 1.806810855865
-123.193466186523 -75.895790100098 -263.200592041016 1.380129694939
-146.255172729492 -68.358207702637 -269.169647216797 3.501414299011
-14.183949470520 -70.177574157715 -268.047821044922 1.543113708496
-172.455718994141 -74.554718017578 -265.508728027344 5.631020545959
-13.840396881104 -70.941917419434 -275.200744628906 2.187181949615
-157.548980712891 -66.948768615723 -267.789428710938 3.056139230728
-151.700210571289 -72.399452209473 -272.940551757813 1.433586239815
-169.898895263672 -71.107170104980 -278.324645996094 2.653035402298
-14.153825759888 -72.998695373535 -282.227386474609 4.075758457184
-127.056289672852 -74.610023498535 -283.293975830078 2.575111865997
-155.947952270508 -71.052322387695 -286.945434570313 1.521935224533
-142.067718505859 -70.073638916016 -281.054016113281 3.667844057083
-133.867843627930 -74.345970153809 -278.514190673828 6.166537761688
-7.120317935944 -64.281524658203 -284.390747070313 3.007280111313
-125.156669616699 -75.281005859375 -283.365966796875 0.943660557270
-139.676162719727 -67.769378662109 -286.436981201172 2.718770742416
-114.300277709961 -76.148681640625 -286.011566162109 2.674759626389
-79.959495544434 -68.620666503906 -289.492706298828 1.900104165077
-58.664028167725 -73.539047241211 -287.244201660156 3.131973981857
-6.942976951599 -73.748306274414 -287.928527832031 1.891260027885
-53.578090667725 -70.340995788574 -283.933990478516 3.843966007233
-55.730201721191 -68.853652954102 -288.998168945313 3.044573545456
-70.283996582031 -69.703804016113 -290.673431396484 2.021177291870
-87.948974609375 -69.889541625977 -295.697448730469 3.504950284958
-92.173217773438 -69.493820190430 -288.299377441406 1.452852964401
-158.264419555664 -70.767486572266 -292.188476562500 1.868636846542
-159.221542358398 -72.110115051270 -295.270080566406 1.711700201035
-123.079986572266 -75.170692443848 -293.888153076172 2.386052131653
-143.341949462891 -71.010452270508 -294.935241699219 0.287651151419
-150.527130126953 -74.061439514160 -305.987487792969 4.313308715820
-151.370437622070 -75.004203796387 -312.114959716797 1.961572527885
49.014099121094 -70.189254760742 -12.983780860901 4.363654136658
15.572601318359 -73.820075988770 -31.667421340942 5.193953037262
43.143196105957 -66.639831542969 -35.297885894775 3.120476007462
-13.908453941345 -75.152603149414 -66.285377502441 3.868119716644
82.309547424316 -69.613899230957 -65.004173278809 1.317780733109
91.212303161621 -66.849761962891 -65.981872558594 2.772223234177
79.378822326660 -77.305801391602 -65.064956665039 6.470103263855
72.768829345703 -74.132904052734 -69.868003845215 2.535197973251
91.679199218750 -74.111763000488 -76.035209655762 1.711257100105
-96.877029418945 -67.008224487305 -70.690155029297 2.725600004196
66.839775085449 -72.227523803711 -75.156242370605 3.784774541855
-35.655761718750 -74.213531494141 -78.013633728027 1.229700565338
98.939613342285 -71.536750793457 -85.359863281250 1.519737005234
63.259544372559 -67.762428283691 -90.574668884277 0.745670378208
108.406585693359 -78.137763977051 -92.188179016113 8.413902282715
100.259880065918 -77.493606567383 -98.826469421387 3.267802953720
74.154640197754 -72.038841247559 -101.514877319336 1.564980745316
-81.142082214355 -67.965942382813 -103.259994506836 1.703622698784
55.191951751709 -70.764076232910 -105.936309814453 1.452008008957
108.970489501953 -67.951843261719 -106.737617492676 0.989309489727
46.701763153076 -71.438873291016 -114.130653381348 1.223742485046
80.330360412598 -70.346572875977 -106.302299499512 2.512105464935
42.098125457764 -71.138282775879 -108.191780090332 1.566527605057
103.344696044922 -71.769874572754 -103.094596862793 1.081597805023
48.099384307861 -71.390205383301 -107.990112304688 1.796596169472
106.662971496582 -79.182807922363 -109.143539428711 4.637861251831
111.445320129395 -76.609840393066 -109.913574218750 3.678475141525
-79.459213256836 -68.188201904297 -114.745239257813 1.590397953987
-82.656646728516 -68.352149963379 -120.956748962402 2.394217491150
44.363094329834 -75.316696166992 -119.762184143066 1.489108562469
114.286041259766 -73.975418090820 -122.946739196777 1.702358841896
113.993446350098 -72.064773559570 -123.445350646973 0.699065327644
-88.362525939941 -69.749847412109 -127.151168823242 1.071340680122
105.725219726563 -74.732978820801 -127.131172180176 4.026677131653
-59.074676513672 -76.983886718750 -132.328277587891 4.541691780090
-85.619110107422 -71.648544311523 -128.392150878906 1.974304676056
-70.196723937988 -71.991905212402 -127.103057861328 4.948111057281
-59.551200866699 -66.860130310059 -127.220664978027 1.814587116241
32.634422302246 -71.455665588379 -131.035659790039 0.665817677975
44.799160003662 -68.092521667480 -136.013473510742 6.866215705872
-70.900177001953 -70.701690673828 -136.644104003906 2.489294767380
29.434244155884 -68.370643615723 -130.048187255859 2.947275638580
113.428047180176 -71.774795532227 -144.782791137695 1.366174936295
-37.639537811279 -71.577087402344 -149.859436035156 2.730170965195
33.893184661865 -73.955581665039 -149.664978027344 0.973025918007
113.782020568848 -69.704574584961 -148.987792968750 1.832737326622
36.692863464355 -72.488784790039 -142.515869140625 1.711909413338
110.445861816406 -70.431083679199 -139.638809204102 1.944488763809
-51.094173431396 -70.728927612305 -150.059417724609 2.160725116730
-72.746551513672 -67.291252136230 -151.993057250977 1.368517875671
-56.811290740967 -71.614097595215 -151.420516967773 4.057061195374
