-143.607452392578 -74.909576416016 -260.345245361328 1.834651470184
-129.625350952148 -73.721977233887 -259.980560302734 2.139898061752
-156.283035278320 -73.364250183105 -262.826751708984 1.584521651268
21.670339584351 -69.628074645996 -273.919311523438 2.991858005524
-152.424682617188 -77.928619384766 -279.063964843750 2.132653951645
-172.043365478516 -76.171005249023 -281.464752197266 4.756794929504
-11.998954772949 -68.473602294922 -281.033721923828 2.085883617401
-148.086288452148 -74.138626098633 -279.195770263672 1.688314080238
-13.851092338562 -67.514076232910 -284.857879638672 5.245962142944
9.702753067017 -69.716201782227 -288.355041503906 3.264271020889
-140.247497558594 -71.672973632813 -285.598876953125 1.159659624100
-69.329528808594 -74.295021057129 -288.160247802734 1.560195207596
-36.341819763184 -73.642181396484 -290.384399414063 1.982623219490
-115.437011718750 -73.698699951172 -282.902984619141 3.777713060379
-99.845787048340 -77.983139038086 -290.448516845703 3.752962827682
-91.770889282227 -72.981544494629 -291.990570068359 0.992279648781
-53.973834991455 -72.599197387695 -293.492797851563 3.332510948181
-118.824645996094 -79.643386840820 -287.518341064453 2.407462835312
-118.508247375488 -75.151741027832 -290.405822753906 1.909198045731
-36.964553833008 -66.939659118652 -288.962097167969 4.868896007538
-119.622077941895 -74.808914184570 -293.932128906250 2.629319190979
-131.636856079102 -68.384056091309 -288.812927246094 1.857832908630
-147.878036499023 -77.432365417480 -294.242492675781 1.700111389160
3.804821968079 -69.039535522461 -292.444061279297 1.336217999458
14.919191360474 -70.410446166992 -294.659210205078 3.201344251633
-164.619125366211 -74.788253784180 -291.766204833984 1.650687813759
-163.437683105469 -79.374732971191 -300.432312011719 9.525423049927
-151.676254272461 -75.871391296387 -309.698150634766 3.241047143936
-156.351684570313 -73.458335876465 -309.889068603516 1.738004922867
-156.093750000000 -74.800468444824 -314.056365966797 3.047471284866
29.058443069458 -79.968933105469 -15.980372428894 6.657316207886
34.762432098389 -72.133560180664 -21.353456497192 4.346027374268
21.773048400879 -75.588676452637 -27.255754470825 3.302788734436
29.488834381104 -71.472854614258 -41.093528747559 1.260161876678
-58.646644592285 -76.867813110352 -51.113918304443 2.487764120102
-64.605461120605 -77.774642944336 -51.461425781250 3.596443176270
-38.756534576416 -81.516601562500 -50.273658752441 8.535057067871
-86.697593688965 -71.837539672852 -65.989173889160 1.045359969139
80.301979064941 -75.384498596191 -78.114433288574 1.223405241966
-13.410259246826 -71.538558959961 -72.739234924316 3.793631792068
89.302078247070 -72.598541259766 -66.190505981445 2.787165164948
100.318519592285 -70.922340393066 -78.661087036133 1.884003281593
-92.264686584473 -75.482231140137 -75.355148315430 2.873694658279
65.764122009277 -72.312561035156 -83.034461975098 2.352007865906
-40.076828002930 -80.003593444824 -87.920104980469 3.404200315475
101.236518859863 -70.729164123535 -83.857025146484 2.524470567703
-57.686023712158 -73.767723083496 -89.133758544922 3.656639575958
49.570533752441 -73.322402954102 -93.047882080078 1.689255833626
69.982254028320 -79.475135803223 -92.821876525879 5.228912830353
53.545028686523 -70.913925170898 -98.036308288574 2.476675033569
52.240306854248 -74.044593811035 -101.246116638184 3.223210573196
75.001884460449 -75.607536315918 -98.873611450195 2.152231216431
46.456249237061 -71.519454956055 -110.404640197754 2.198393344879
97.596168518066 -71.377754211426 -104.943000793457 3.875593185425
104.783050537109 -75.806694030762 -110.792396545410 2.690237283707
77.118331909180 -68.898391723633 -106.457061767578 2.155583620071
93.091499328613 -72.188728332520 -107.776550292969 2.441917181015
99.713050842285 -71.254188537598 -96.578262329102 1.588246464729
109.385231018066 -71.596618652344 -107.398674011230 1.846917629242
39.110733032227 -71.822502136230 -108.700714111328 1.472294092178
112.527221679688 -66.758354187012 -120.895439147949 1.214656352997
113.647163391113 -71.380943298340 -122.672927856445 0.462650150061
29.190065383911 -70.211181640625 -126.493736267090 2.743403434753
43.821765899658 -73.887992858887 -120.518066406250 1.933382987976
114.335937500000 -70.264541625977 -135.289566040039 1.677160978317
33.235668182373 -71.536994934082 -128.875076293945 1.558522462845
115.879219055176 -75.134178161621 -130.395904541016 0.904078006744
107.067726135254 -71.556632995605 -125.756462097168 1.939225077629
26.149461746216 -74.591392517090 -136.058731079102 0.591701447964
-47.909297943115 -75.728507995605 -134.442581176758 2.939587354660
-53.098873138428 -73.221458435059 -135.612045288086 1.180591702461
110.432945251465 -69.094482421875 -138.565826416016 2.419575929642
-68.563713073730 -81.084060668945 -140.449417114258 7.285015583038
-72.532333374023 -76.419898986816 -141.175720214844 1.249426007271
-60.941539764404 -75.877197265625 -140.325637817383 2.664990663528
29.718708038330 -72.903366088867 -146.993103027344 2.958051443100
117.827720642090 -71.911010742188 -150.300903320313 2.334926128387
-71.412757873535 -71.359436035156 -148.405334472656 0.870935440063
-50.217765808105 -75.468284606934 -142.404708862305 1.324784874916
31.588142395020 -72.254455566406 -154.735992431641 1.771461844444
-69.351989746094 -77.031211853027 -148.551086425781 2.324831008911
113.090934753418 -67.954246520996 -142.928924560547 1.266904592514
109.916435241699 -66.479988098145 -160.865692138672 4.336113929749
115.129371643066 -70.214584350586 -157.460632324219 1.180110692978
-39.585186004639 -77.993835449219 -153.711639404297 2.183331489563
-65.280235290527 -74.609642028809 -166.207138061523 1.604185104370
-68.602027893066 -70.237380981445 -158.362060546875 1.981834650040
27.955650329590 -73.497520446777 -146.348480224609 2.444300174713
-3.274955034256 -75.200950622559 -163.559143066406 0.886014580727
108.520080566406 -67.510467529297 -165.633575439453 2.770403146744
110.839447021484 -66.667602539063 -155.410049438477 2.667047739029
111.448089599609 -72.888313293457 -162.654571533203 1.227325916290
-64.189788818359 -72.268486022949 -159.002166748047 0.635848999023
-46.143371582031 -76.690719604492 -168.557189941406 3.353906393051
-4.851525783539 -72.241584777832 -166.693344116211 2.065185546875
-32.305110931396 -74.414085388184 -176.307678222656 3.081937789917
104.181541442871 -67.460433959961 -170.850906372070 4.235594749451
-33.835300445557 -78.544097900391 -161.179565429688 1.828176498413
107.337844848633 -66.665802001953 -170.485290527344 3.840590715408
-43.180587768555 -74.310974121094 -175.385299682617 2.674084186554
106.470703125000 -65.695144653320 -172.807968139648 4.604421615601
-154.461929321289 -79.160736083984 -178.686706542969 7.741335391998
-27.410371780396 -68.215270996094 -178.605331420898 2.560705661774
-21.035865783691 -73.379287719727 -185.345672607422 2.054040431976
23.397953033447 -75.785011291504 -178.953399658203 2.979007244110
12.754838943481 -70.399398803711 -185.683395385742 2.067515611649
27.108238220215 -71.843231201172 -184.833984375000 1.233345150948
101.344001770020 -74.738624572754 -187.726104736328 2.280016183853
-153.843093872070 -73.453895568848 -183.191131591797 2.864360332489
-20.601957321167 -75.537742614746 -183.848464965820 2.308098554611
99.827903747559 -70.688819885254 -181.571762084961 4.651028633118
101.115638732910 -63.697456359863 -191.945556640625 7.667811393738
107.740081787109 -70.540611267090 -179.672744750977 2.871979236603
98.532073974609 -70.366584777832 -196.130737304688 1.344785213470
-152.549179077148 -76.076316833496 -197.636489868164 1.972482442856
97.792648315430 -68.772644042969 -209.307357788086 4.071923732758
-29.966943740845 -70.389976501465 -199.870895385742 4.673055171967
94.726997375488 -68.314025878906 -197.466171264648 4.288735389709
-120.891578674316 -80.848136901855 -201.743118286133 6.987886428833
-31.474500656128 -78.479354858398 -189.881088256836 1.306761741638
-144.381240844727 -71.056983947754 -197.924728393555 1.500462174416
94.190406799316 -68.387298583984 -200.591369628906 2.791908025742
6.619013786316 -71.704154968262 -201.375473022461 2.423652172089
22.795780181885 -68.751678466797 -193.468246459961 1.790337204933
-150.449249267578 -78.747543334961 -203.994827270508 1.337474822998
-139.407318115234 -75.929244995117 -202.391036987305 1.420865058899
-11.403321266174 -71.375350952148 -210.007537841797 3.200348138809
-126.084472656250 -75.449455261230 -205.406372070313 3.803587436676
-145.975265502930 -78.661758422852 -197.013412475586 1.357176661491
-0.163338005543 -72.291793823242 -200.352371215820 7.691159725189
-27.436128616333 -75.129791259766 -201.552597045898 2.426770687103
19.448514938354 -75.051864624023 -203.353759765625 0.743958294392
3.723431110382 -73.149597167969 -214.716110229492 3.089634418488
80.809272766113 -64.151596069336 -211.580261230469 8.896863937378
-19.896501541138 -68.839462280273 -213.294723510742 3.677954196930
88.600051879883 -65.130317687988 -211.751480102539 5.071135997772
96.289260864258 -71.196144104004 -209.948028564453 1.726256966591
-149.962417602539 -78.469047546387 -213.536437988281 2.979863643646
93.280433654785 -70.825218200684 -214.493850708008 2.218430519104
2.289242982864 -69.396049499512 -207.705673217773 6.053747177124
0.655719995499 -73.618934631348 -216.130813598633 3.326396465302
-33.861156463623 -72.207275390625 -207.004501342773 1.250651240349
-91.329788208008 -73.880256652832 -213.284255981445 0.789769649506
-26.822399139404 -74.857444763184 -211.279312133789 1.133997440338
83.403999328613 -66.592727661133 -220.523956298828 3.197409629822
88.466232299805 -66.860122680664 -218.358596801758 2.431714773178
-33.340644836426 -71.233016967773 -212.729598999023 3.378246307373
-85.917701721191 -69.896072387695 -219.973922729492 2.617477416992
-2.069569110870 -73.344154357910 -221.052154541016 1.629449725151
76.649971008301 -63.333126068115 -214.217773437500 9.406881332397
-154.265365600586 -82.798309326172 -221.251525878906 4.228405475616
-168.278900146484 -75.179534912109 -213.800674438477 4.814035892487
-165.209426879883 -81.240730285645 -221.474777221680 8.567123413086
-23.694231033325 -73.635551452637 -228.310317993164 3.829192161560
-156.510925292969 -81.646667480469 -222.194778442383 5.001675128937
-6.582003116608 -71.798744201660 -225.415176391602 1.770237326622
3.942668914795 -73.002159118652 -220.187820434570 1.385715484619
-171.168975830078 -77.057357788086 -225.741134643555 6.372791767120
-159.184097290039 -76.845390319824 -227.916229248047 4.089127540588
76.689529418945 -72.364654541016 -234.780792236328 1.662059664726
-3.478585004807 -70.331634521484 -227.438537597656 2.199404478073
-161.569488525391 -69.776840209961 -225.922027587891 2.731828451157
-144.684661865234 -79.049278259277 -223.139694213867 0.509938955307
-20.937566757202 -69.768348693848 -224.980621337891 3.010189533234
-3.863348960876 -75.836532592773 -222.390380859375 2.242831945419
77.471717834473 -64.401878356934 -229.235046386719 4.542706966400
-163.188812255859 -74.290298461914 -227.452682495117 1.954755187035
-144.327575683594 -72.459159851074 -232.465423583984 1.934177875519
-128.030456542969 -72.978820800781 -231.707061767578 1.192303061485
75.964820861816 -70.919036865234 -228.720840454102 0.805313527584
-117.959335327148 -75.264595031738 -229.626632690430 3.144343137741
-146.281906127930 -75.926544189453 -229.344818115234 0.635683357716
-153.365112304688 -74.502029418945 -231.743179321289 2.584883928299
-151.969100952148 -77.215843200684 -231.812042236328 1.369301915169
-157.830276489258 -77.562454223633 -228.946945190430 3.802374362946
-166.949005126953 -77.662673950195 -228.168716430664 5.553360939026
-134.934494018555 -76.509948730469 -236.999404907227 4.436553955078
-135.351486206055 -76.802902221680 -233.612808227539 3.147832870483
-154.007644653320 -82.277603149414 -233.570159912109 3.086256980896
-147.922485351563 -71.394760131836 -237.660751342773 3.759769201279
-153.159851074219 -77.115509033203 -235.550811767578 2.834924221039
73.404663085938 -71.314018249512 -235.960891723633 1.716609716415
64.603012084961 -61.253940582275 -237.013702392578 5.398188591003
-157.677078247070 -74.171638488770 -235.095504760742 2.581054925919
70.266433715820 -61.920864105225 -235.382492065430 5.088265895844
-22.861032485962 -68.814628601074 -237.708587646484 2.969299554825
10.251756668091 -72.212043762207 -239.971237182617 1.274457931519
5.513516902924 -71.172355651855 -237.600585937500 2.969901084900
-157.948760986328 -76.338233947754 -241.176940917969 2.694765806198
13.430441856384 -69.169189453125 -243.071731567383 1.106870770454
56.925174713135 -66.437858581543 -240.779403686523 1.898415088654
10.792808532715 -66.655639648438 -239.920318603516 1.142204165459
2.374840021133 -70.409156799316 -242.987350463867 0.414608389139
-9.082162857056 -67.195869445801 -241.074493408203 1.000643372536
-24.202312469482 -69.136116027832 -244.218917846680 4.478893280029
-4.739203929901 -70.694618225098 -242.356475830078 2.518022775650
2.463548898697 -73.771217346191 -247.889862060547 3.513708829880
55.144939422607 -70.035682678223 -243.247161865234 1.927950024605
-56.884197235107 -77.913749694824 -245.944213867188 1.239963412285
17.874290466309 -68.289215087891 -249.860198974609 2.848367691040
-60.547786712646 -73.437210083008 -241.240585327148 3.538213729858
-12.967464447021 -71.055923461914 -249.638702392578 1.078599572182
-69.457313537598 -68.132392883301 -251.329330444336 2.702408313751
-88.336112976074 -70.070907592773 -254.652069091797 2.235852241516
-84.729782104492 -74.919532775879 -254.499938964844 1.048245906830
-10.820219993591 -69.546333312988 -257.892425537109 2.510638237000
-126.010734558105 -74.575141906738 -261.616790771484 1.942560911179
-16.432085037231 -71.487625122070 -253.095535278320 1.948532819748
-119.376213073730 -74.189773559570 -255.102783203125 1.150659441948
-120.258865356445 -72.330467224121 -259.156555175781 2.937614679337
-106.243164062500 -73.796600341797 -255.320343017578 1.833402872086
-145.819442749023 -73.622695922852 -260.394256591797 1.230377554893
-147.224182128906 -74.657058715820 -268.228546142578 1.166757106781
-171.618652343750 -76.199287414551 -262.945861816406 5.385325908661
18.458358764648 -73.164794921875 -282.573883056641 1.312985658646
-63.158359527588 -68.692916870117 -285.974639892578 3.165328264236
-71.045242309570 -70.561813354492 -283.169525146484 3.390153646469
-44.978141784668 -72.940498352051 -283.802368164063 4.650404930115
-29.809225082397 -70.828010559082 -288.624176025391 1.344570279121
-98.598129272461 -75.674453735352 -291.340301513672 1.778804779053
-34.674499511719 -67.925979614258 -285.926147460938 5.599632740021
-6.597157955170 -68.883842468262 -287.176788330078 0.832467556000
-170.176788330078 -75.586784362793 -289.503997802734 5.048963546753
-21.273101806641 -72.753578186035 -286.832702636719 3.238464117050
2.573924064636 -70.334915161133 -289.566009521484 3.045708656311
11.353575706482 -74.912658691406 -282.429656982422 2.446711301804
-59.806232452393 -75.122413635254 -286.762115478516 2.782516002655
-38.049106597900 -71.648223876953 -293.273590087891 3.020397901535
11.175584793091 -66.076171875000 -295.518554687500 4.116860866547
-74.742568969727 -69.397346496582 -294.749481201172 4.799458503723
-45.347728729248 -67.006881713867 -289.150848388672 5.215342044830
-21.182210922241 -67.270454406738 -290.776428222656 4.580055713654
11.396310806274 -71.470924377441 -293.418731689453 2.425101995468
-15.118474960327 -72.057777404785 -297.169952392578 4.341036796570
1.309437990189 -67.626480102539 -296.478729248047 3.872182369232
11.555162429810 -71.905014038086 -290.701690673828 2.332346916199
-137.961044311523 -72.960762023926 -294.360015869141 2.475225687027
-148.062149047852 -77.009399414063 -298.092620849609 0.766502916813
-156.557571411133 -73.675621032715 -313.338928222656 2.009536504745
45.355945587158 -74.001754760742 -16.261272430420 2.378696918488
30.563676834106 -75.233657836914 -13.628154754639 3.080245733261
40.826713562012 -75.147094726563 -17.088331222534 1.960831165314
23.355173110962 -70.680809020996 -19.825181961060 2.479583501816
46.076831817627 -71.307502746582 -25.253669738770 1.172207117081
26.661878585815 -71.880737304688 -26.805564880371 1.192415475845
24.177972793579 -75.274543762207 -28.489604949951 3.078343153000
26.911899566650 -75.574096679688 -42.642051696777 5.432385444641
38.161815643311 -78.041557312012 -33.058017730713 6.566257953644
26.613746643066 -79.956352233887 -39.466007232666 9.040978431702
44.120498657227 -72.078659057617 -41.579372406006 3.422793149948
32.538990020752 -75.041801452637 -42.976303100586 4.111162185669
40.960113525391 -76.294021606445 -37.542144775391 4.728420734406
31.054790496826 -72.833045959473 -41.986286163330 1.397662043571
45.398063659668 -73.952758789063 -44.151176452637 5.900530338287
32.977745056152 -73.612899780273 -39.594341278076 2.027247667313
-41.953201293945 -75.803222656250 -48.580070495605 4.197009563446
-29.411497116089 -70.463516235352 -51.271320343018 1.648686885834
-89.933914184570 -78.630004882813 -54.198955535889 9.185873985291
-89.909675598145 -78.852684020996 -66.667549133301 7.511859893799
77.273132324219 -75.151824951172 -67.130149841309 4.701888561249
84.281990051270 -70.162857055664 -75.268547058105 3.767492771149
-20.903511047363 -72.974090576172 -76.162460327148 3.356806039810
-88.050582885742 -76.367294311523 -72.616813659668 1.487495541573
-25.149843215942 -73.892021179199 -77.944992065430 1.839233636856
-49.590484619141 -77.522163391113 -85.691078186035 1.330727338791
65.612640380859 -67.833839416504 -88.617965698242 1.285074472427
51.699752807617 -70.271575927734 -95.936149597168 3.068777084351
99.053794860840 -67.729507446289 -94.172973632813 2.809243917465
68.710144042969 -73.831108093262 -99.322967529297 3.373100280762
-70.054641723633 -77.011253356934 -90.014129638672 6.359522342682
-60.416652679443 -72.167434692383 -99.487983703613 5.877181529999
44.225040435791 -71.741355895996 -99.528945922852 0.803071856499
76.924537658691 -68.590667724609 -100.533401489258 3.146231889725
55.016246795654 -80.872848510742 -107.732872009277 4.504887580872
101.357635498047 -69.593597412109 -98.233543395996 1.355235457420
-95.018264770508 -79.908126831055 -107.960723876953 5.234949588776
40.815135955811 -71.311973571777 -111.543479919434 1.682939648628
106.954750061035 -70.769790649414 -112.332992553711 1.362108945847
48.670906066895 -71.588798522949 -113.576065063477 0.405500382185
100.018478393555 -71.200950622559 -113.599571228027 4.691079616547
-85.352592468262 -75.488677978516 -117.587051391602 2.996509313583
35.140541076660 -75.930366516113 -114.766868591309 2.294651508331
106.568550109863 -67.046188354492 -119.416694641113 2.409581661224
103.946510314941 -65.871650695801 -118.817420959473 4.684246063232
103.419677734375 -69.806419372559 -117.856201171875 4.092230796814
110.420532226563 -67.364349365234 -116.711601257324 2.096904754639
40.688980102539 -75.144653320313 -110.330909729004 1.840744018555
31.598461151123 -67.302093505859 -117.472625732422 4.918168544769
38.728862762451 -71.270454406738 -114.473060607910 1.440544247627
104.584632873535 -71.189048767090 -123.727119445801 2.778338670731
40.300998687744 -69.129013061523 -123.464035034180 1.527106165886
108.794937133789 -67.091079711914 -135.298614501953 3.094903945923
109.107574462891 -66.877861022949 -133.796371459961 2.495328664780
32.844123840332 -68.564132690430 -120.406036376953 1.590492367744
-79.062934875488 -76.395057678223 -123.713714599609 6.103040218353
111.498847961426 -64.439537048340 -136.294372558594 4.763050556183
-54.043701171875 -74.571922302246 -138.865524291992 1.632695078850
34.028896331787 -72.221702575684 -135.975051879883 1.691294431686
-74.396202087402 -75.650154113770 -134.267410278320 4.197127819061
24.928232192993 -75.237693786621 -131.777557373047 4.277858734131
-81.757530212402 -76.298141479492 -144.167709350586 6.074673652649
-46.256793975830 -77.498802185059 -142.804687500000 2.177357196808
-76.192878723145 -77.530746459961 -139.086334228516 3.255449056625
108.197395324707 -67.328102111816 -138.784240722656 4.762875556946
118.511360168457 -65.222541809082 -143.944961547852 5.663122177124
118.004455566406 -71.551879882813 -150.448379516602 2.664331912994
-81.290512084961 -75.178253173828 -143.620925903320 5.035614013672
5.419631958008 -67.108444213867 -151.938171386719 4.850188255310
-51.829883575439 -74.660621643066 -148.582885742188 1.926631331444
-52.976242065430 -75.283393859863 -155.545898437500 1.745425820351
104.656814575195 -68.496948242188 -165.782363891602 4.948986530304
-41.810142517090 -76.472381591797 -149.133560180664 1.105765700340
13.077481269836 -68.130691528320 -159.663024902344 1.511161327362
21.291814804077 -73.560264587402 -158.856857299805 1.563605546951
112.942283630371 -65.548889160156 -167.714736938477 3.523225307465
28.809669494629 -69.332061767578 -168.715835571289 1.828066706657
-2.092477083206 -73.562812805176 -165.051391601563 2.292243719101
30.634067535400 -71.403976440430 -161.942047119141 1.951208472252
-68.926437377930 -72.918884277344 -156.602706909180 1.186010718346
-67.763732910156 -74.418365478516 -159.478652954102 1.625172495842
-71.118621826172 -71.867454528809 -166.539321899414 4.101142406464
112.900230407715 -62.863945007324 -164.236145019531 6.067539691925
-46.049392700195 -73.962921142578 -163.698623657227 0.734879016876
14.922721862793 -71.081153869629 -166.458404541016 3.584020853043
-65.381668090820 -72.169532775879 -170.243469238281 1.312130331993
-66.125160217285 -71.112815856934 -171.891143798828 2.659604310989
-44.214832305908 -75.164550781250 -161.498367309570 1.807395219803
-35.945526123047 -76.515350341797 -168.590087890625 2.047956705093
114.301773071289 -70.111930847168 -174.175338745117 3.056234598160
-39.228469848633 -65.673210144043 -182.227630615234 6.755253791809
10.946713447571 -72.159744262695 -173.741699218750 6.820149421692
108.900367736816 -70.320724487305 -188.585952758789 2.090186595917
-148.602676391602 -79.020141601563 -175.437438964844 5.799977302551
-147.786224365234 -76.222793579102 -171.348083496094 4.963407039642
-148.671813964844 -74.199691772461 -180.691818237305 0.626960039139
-143.609741210938 -79.022216796875 -183.542144775391 3.826598167419
-34.477146148682 -70.408195495605 -185.542510986328 1.636425971985
-24.989261627197 -72.575492858887 -186.277816772461 1.543732643127
21.572238922119 -64.523727416992 -193.550964355469 4.587573051453
-142.409393310547 -75.356521606445 -185.898239135742 1.110603928566
-149.509963989258 -77.032745361328 -188.092010498047 0.685406923294
-23.808725357056 -69.430526733398 -186.231063842773 0.905866205692
7.951563835144 -70.511543273926 -183.859405517578 5.825223922729
-151.934448242188 -76.139472961426 -194.651519775391 1.721461772919
-33.355602264404 -72.156188964844 -189.961456298828 2.633934974670
98.006973266602 -67.587783813477 -190.648025512695 5.144265651703
103.385078430176 -64.907966613770 -192.149902343750 6.201694011688
22.825983047485 -63.878440856934 -194.664260864258 5.246923446655
-12.361157417297 -71.255691528320 -189.429443359375 5.193680286407
-30.312395095825 -74.171783447266 -193.611450195313 2.380686044693
-158.012359619141 -78.566024780273 -200.335723876953 4.531063556671
-134.618057250977 -76.826126098633 -196.242523193359 1.834319949150
-127.581108093262 -71.765747070313 -194.090332031250 1.660621762276
-127.940498352051 -73.704437255859 -196.912292480469 2.803841352463
-23.968954086304 -66.513969421387 -195.800903320313 1.774787783623
12.393780708313 -73.302429199219 -193.471511840820 2.051741600037
89.795463562012 -73.074241638184 -203.687500000000 4.109181880951
-153.221435546875 -71.325973510742 -193.394561767578 2.155127286911
-146.261779785156 -72.550834655762 -198.083862304688 0.938110351563
-153.580032348633 -76.109527587891 -200.233093261719 2.049176931381
-156.722427368164 -73.489921569824 -195.513641357422 2.222314357758
-25.960443496704 -70.266128540039 -200.464141845703 1.545498490334
-10.506006240845 -67.298965454102 -195.793823242188 4.745829582214
-147.102767944336 -70.151634216309 -201.992034912109 1.738392591476
-22.037736892700 -70.283874511719 -203.170288085938 1.720724344254
-162.580780029297 -75.763191223145 -200.903640747070 3.613627672195
-136.448394775391 -75.146766662598 -198.570373535156 2.114210605621
13.129424095154 -73.295913696289 -208.316635131836 3.189414501190
-161.752441406250 -71.653594970703 -203.305816650391 0.489913493395
-148.202728271484 -78.092391967773 -206.044525146484 1.971659541130
4.791747093201 -67.510688781738 -205.462173461914 5.972882747650
-156.374832153320 -72.706436157227 -201.391616821289 3.534838676453
-27.391323089600 -70.186439514160 -203.544097900391 4.198892116547
92.328575134277 -68.413887023926 -201.352127075195 3.568926095963
-161.805923461914 -77.796821594238 -209.853408813477 5.439922809601
-166.071578979492 -81.202400207520 -205.574707031250 9.369512557983
-77.879760742188 -70.416320800781 -206.793289184570 4.313884258270
87.939010620117 -66.226318359375 -210.406921386719 4.846732616425
-6.120852947235 -69.117156982422 -220.856674194336 2.030920982361
-158.531723022461 -74.448547363281 -211.903701782227 2.425146341324
-89.229774475098 -74.150077819824 -212.773376464844 1.042121410370
-11.817834854126 -74.448135375977 -212.094665527344 3.691279411316
13.818069458008 -68.871223449707 -219.576416015625 0.990516781807
-146.253738403320 -75.947349548340 -220.268814086914 1.497189164162
-5.981040000916 -75.994911193848 -222.138961791992 1.211258292198
-19.670112609863 -73.145278930664 -217.542144775391 1.535563826561
-16.933237075806 -66.845886230469 -222.277175903320 3.250549077988
89.180442810059 -66.739738464355 -223.422225952148 4.695925235748
-22.207593917847 -69.213485717773 -216.957244873047 2.616516590118
-35.672615051270 -70.513084411621 -218.692687988281 6.066965103149
-110.254898071289 -67.282905578613 -225.237747192383 1.690952301025
-18.858552932739 -68.361167907715 -224.770599365234 2.942030429840
91.574890136719 -64.292922973633 -221.244964599609 6.176522731781
73.003929138184 -68.610549926758 -223.786483764648 3.758213043213
6.283661842346 -71.185882568359 -219.993865966797 2.494886398315
-13.937340736389 -66.459434509277 -226.510635375977 2.557779550552
76.807426452637 -67.251083374023 -223.903991699219 2.562057971954
-123.487312316895 -79.341102600098 -225.172866821289 4.606630325317
-20.323904037476 -68.043479919434 -224.559707641602 4.212213039398
-97.816184997559 -72.862068176270 -223.348068237305 1.024113774300
-103.013755798340 -73.709869384766 -222.852767944336 0.879229187965
-131.758453369141 -76.948463439941 -228.976318359375 1.731506824493
78.833625793457 -67.613830566406 -225.506713867188 0.868080139160
-124.916587829590 -75.318870544434 -227.134994506836 0.271574586630
1.831333041191 -68.439788818359 -230.561737060547 1.861203432083
79.517601013184 -65.135375976563 -226.946182250977 2.512486457825
-18.796573638916 -71.764114379883 -234.591690063477 3.087731361389
-16.611917495728 -71.370643615723 -226.547760009766 2.169383764267
-2.087007999420 -77.015098571777 -231.498275756836 1.837762594223
9.325737953186 -72.313514709473 -229.273834228516 2.346171617508
88.387268066406 -68.272109985352 -230.101669311523 6.994617462158
6.866097927094 -67.423339843750 -232.417541503906 1.812286019325
4.495163917542 -68.331962585449 -231.109603881836 1.948635697365
-11.381636619568 -70.703025817871 -233.147048950195 0.853502035141
-8.954515457153 -71.663467407227 -229.428695678711 1.669588565826
17.580377578735 -67.490272521973 -234.964584350586 3.396301746368
-15.063693046570 -66.402732849121 -233.915176391602 4.273780822754
68.353149414063 -67.513999938965 -243.084579467773 2.578727483749
-12.273769378662 -68.352760314941 -240.689056396484 2.043862819672
16.940309524536 -69.833305358887 -237.304763793945 1.170911431313
-163.196029663086 -72.843452453613 -238.802230834961 2.021917581558
-8.517271041870 -66.713729858398 -237.051910400391 0.726668417454
-9.678649902344 -71.863861083984 -240.489379882813 1.226015925407
-169.938446044922 -76.582397460938 -249.424942016602 4.176669597626
-13.699421882629 -67.155342102051 -245.076583862305 2.624249458313
12.121752738953 -65.205413818359 -246.368667602539 3.439900398254
-150.748779296875 -76.513824462891 -251.112869262695 2.582168102264
-78.509056091309 -71.892684936523 -252.245971679688 2.582333326340
-64.693992614746 -73.205017089844 -247.823928833008 2.293749094009
48.573829650879 -63.874404907227 -248.795700073242 1.879549264908
-75.669654846191 -71.266349792480 -246.421691894531 2.665183305740
13.373446464539 -69.043869018555 -251.375747680664 5.910786151886
-75.365646362305 -73.219261169434 -251.136260986328 1.669078588486
-18.527185440063 -67.109466552734 -244.004638671875 4.636260509491
-147.769119262695 -78.173149108887 -252.065170288086 1.214914321899
42.413452148438 -62.482585906982 -252.715652465820 2.437808275223
-83.520805358887 -75.997634887695 -257.219512939453 3.053373336792
-106.059036254883 -68.679336547852 -255.097213745117 0.948366761208
-102.971206665039 -74.439781188965 -254.335128784180 2.943573474884
-124.120445251465 -69.897270202637 -251.128112792969 3.856986999512
-109.041038513184 -68.484031677246 -257.054504394531 1.031762361526
-107.909408569336 -71.767822265625 -257.287689208984 1.639478921890
18.026481628418 -63.385677337646 -258.960693359375 6.207046031952
-133.470550537109 -70.232048034668 -264.637878417969 1.204243302345
-18.468486785889 -69.944618225098 -276.194976806641 5.278079032898
-152.191055297852 -69.827598571777 -283.388854980469 2.460129022598
-171.940109252930 -76.665863037109 -285.795898437500 3.809535503387
-128.266784667969 -74.059539794922 -282.602111816406 2.602560043335
-117.687019348145 -68.256874084473 -286.429229736328 1.945652127266
-79.242218017578 -65.837539672852 -283.067657470703 6.590634822845
-61.273281097412 -71.971466064453 -287.309143066406 2.415501594543
-44.740623474121 -68.083305358887 -286.462219238281 4.467994213104
-18.941005706787 -73.430992126465 -292.386962890625 2.282730340958
-17.465536117554 -65.321243286133 -294.451293945313 6.941445350647
-42.266765594482 -72.846908569336 -291.878326416016 2.649305105209
-38.095695495605 -69.409515380859 -289.642730712891 3.102846622467
-23.080978393555 -64.509071350098 -289.555877685547 6.163347721100
-77.013999938965 -69.387542724609 -294.579223632813 4.400026321411
-60.079929351807 -69.166847229004 -291.930450439453 3.022179126740
-22.796131134033 -63.880252838135 -292.844207763672 8.096666336060
-17.436111450195 -70.979400634766 -290.218841552734 1.397468209267
-7.342701911926 -67.381416320801 -294.790344238281 5.101325035095
-1.307983994484 -63.004558563232 -294.185180664063 3.733311176300
-97.392547607422 -71.306007385254 -293.680511474609 3.397846460342
-141.839385986328 -76.069450378418 -295.863067626953 4.317516326904
-119.114463806152 -73.264114379883 -292.556915283203 1.656173944473
-157.193847656250 -70.676170349121 -292.801635742188 1.655357122421
-154.236450195313 -74.398864746094 -298.771118164063 3.170257091522
-151.273910522461 -69.952598571777 -299.505981445313 1.697261214256
43.917556762695 -69.431953430176 -24.452629089355 1.354052186012
20.923696517944 -78.154098510742 -25.113805770874 5.690613746643
50.455249786377 -68.316726684570 -25.848251342773 2.543881654739
47.628635406494 -73.661460876465 -37.661251068115 3.450796365738
88.103202819824 -69.534866333008 -74.165885925293 4.712157726288
95.887741088867 -71.763725280762 -77.166152954102 1.558817505836
101.251701354980 -69.523262023926 -79.288047790527 2.416154146194
97.946540832520 -68.998847961426 -86.844070434570 3.739225864410
55.328582763672 -71.711158752441 -92.205093383789 2.344617843628
43.634143829346 -78.043632507324 -91.697433471680 6.576275825500
62.962574005127 -69.139244079590 -92.962066650391 2.071346521378
-66.017768859863 -73.067893981934 -94.424934387207 1.425371646881
71.434547424316 -68.326858520508 -89.500007629395 4.239202022552
99.043891906738 -59.631889343262 -101.993080139160 2.610745906830
73.857276916504 -69.643669128418 -104.249710083008 0.609129965305
92.625373840332 -67.240798950195 -105.934425354004 2.004995346069
-87.295372009277 -76.434852600098 -105.349792480469 3.929487705231
45.302345275879 -68.926124572754 -97.851844787598 2.041503190994
-88.360969543457 -77.469078063965 -100.413398742676 3.138526439667
51.015605926514 -71.278358459473 -112.161743164063 3.050939321518
36.302242279053 -78.827743530273 -105.105247497559 3.771954536438
98.954696655273 -67.246604919434 -105.899414062500 2.926155090332
35.992332458496 -71.036087036133 -106.327468872070 3.578921556473
43.916954040527 -72.429496765137 -122.834266662598 0.302494645119
41.642299652100 -70.938308715820 -114.968650817871 1.218105912209
110.667381286621 -66.233276367188 -114.162109375000 1.579692363739
-81.165992736816 -81.288200378418 -122.481132507324 10.461869239807
112.154167175293 -72.877845764160 -125.594223022461 1.408823966980
40.484039306641 -65.029319763184 -127.065879821777 4.675188064575
39.062931060791 -70.173210144043 -121.772041320801 1.608869671822
33.486583709717 -71.487068176270 -121.698928833008 1.688653588295
-55.759651184082 -79.709648132324 -130.203918457031 6.869216442108
28.695844650269 -69.334678649902 -124.917030334473 2.638726234436
-79.240242004395 -70.635337829590 -138.749557495117 1.900940656662
-55.867069244385 -78.600074768066 -133.210983276367 4.633297443390
-80.710929870605 -71.630226135254 -135.179641723633 2.019484281540
35.594383239746 -67.701034545898 -133.756454467773 2.082834482193
-60.982109069824 -76.014884948730 -134.053649902344 4.776031970978
34.136455535889 -69.459381103516 -134.747497558594 1.028406381607
-72.516166687012 -71.625846862793 -140.036163330078 1.284016132355
-60.711418151855 -68.819488525391 -142.839538574219 1.633428454399
22.443990707397 -71.728775024414 -146.235107421875 2.073224544525
110.688064575195 -70.179031372070 -145.831893920898 2.264801025391
113.420028686523 -61.659240722656 -140.363739013672 7.199550628662
29.089200973511 -70.670051574707 -144.600524902344 1.224747061729
-50.966743469238 -76.004539489746 -140.496154785156 2.173565387726
103.432846069336 -64.078285217285 -155.393676757813 7.349350452423
-77.753143310547 -74.024253845215 -142.786788940430 2.025466442108
-59.799358367920 -73.363296508789 -142.712631225586 2.262787103653
30.097772598267 -63.623615264893 -147.656753540039 4.581023216248
-79.558578491211 -76.118125915527 -146.333648681641 5.071028232574
-71.738784790039 -73.121910095215 -150.214157104492 1.320422530174
112.601310729980 -72.235931396484 -152.370834350586 1.183472752571
-66.059150695801 -71.513229370117 -156.152984619141 1.844203233719
-41.177364349365 -68.310997009277 -152.359832763672 2.991849660873
23.041198730469 -68.628211975098 -146.207366943359 2.918916463852
-73.362236022949 -74.718727111816 -144.472991943359 1.096450448036
10.926117897034 -69.293701171875 -150.321487426758 0.530214488506
30.250020980835 -69.134773254395 -160.214736938477 1.870297670364
29.711257934570 -66.640815734863 -153.562988281250 2.164583206177
15.943766593933 -75.586723327637 -155.391799926758 3.311529159546
-52.136234283447 -75.555763244629 -153.751983642578 2.645301818848
21.616062164307 -73.034835815430 -154.931457519531 1.021659016609
-48.537811279297 -71.741668701172 -151.859893798828 2.348228693008
1.824584007263 -70.938545227051 -155.692718505859 3.514957904816
17.805953979492 -69.228713989258 -151.610137939453 1.490310907364
-68.834831237793 -72.053512573242 -158.954467773438 0.814938426018
-49.030151367188 -69.197967529297 -154.807983398438 1.543765783310
-70.097061157227 -73.525238037109 -152.420837402344 1.463222503662
18.491388320923 -68.486030578613 -160.290054321289 3.346298933029
22.035627365112 -69.120239257813 -151.798828125000 2.016463756561
0.690298974514 -70.583984375000 -167.968383789063 3.479259967804
20.279317855835 -68.933341979980 -153.733261108398 3.300781011581
28.740701675415 -68.231178283691 -170.580764770508 2.468120098114
-48.922370910645 -73.444068908691 -164.921829223633 2.348338127136
-39.946994781494 -81.272644042969 -165.618759155273 2.799819707870
-43.333278656006 -73.801879882813 -162.036483764648 1.654734373093
26.060047149658 -70.522537231445 -159.347442626953 1.537041664124
-46.548221588135 -69.291748046875 -166.985885620117 4.060272216797
-41.227352142334 -70.099166870117 -169.648620605469 1.495169639587
19.878684997559 -67.672988891602 -166.974822998047 1.468759655952
-41.635162353516 -72.445220947266 -177.332977294922 3.140308380127
25.189891815186 -64.034683227539 -171.711318969727 2.774400234222
108.292160034180 -61.809852600098 -166.194839477539 7.242055892944
-36.238334655762 -71.821929931641 -173.158569335938 0.847202956676
97.967712402344 -63.274734497070 -176.170898437500 10.262459754944
-36.661998748779 -71.124313354492 -178.850204467773 2.301424980164
-39.948047637939 -75.569541931152 -183.144302368164 5.268997669220
20.865102767944 -72.733734130859 -180.134140014648 2.249567747116
104.356048583984 -66.909584045410 -184.861236572266 3.356073379517
-35.321792602539 -69.171356201172 -182.736267089844 2.966980457306
-38.166072845459 -71.188499450684 -180.536727905273 2.184526443481
-24.760137557983 -76.441566467285 -188.750366210938 1.635723471642
-151.334991455078 -75.910179138184 -188.953063964844 2.944478273392
8.958335876465 -69.008834838867 -184.943847656250 5.733783721924
101.592109680176 -64.025306701660 -195.078750610352 7.119688987732
-163.132705688477 -75.561058044434 -191.518676757813 6.957112789154
-23.323484420776 -65.920684814453 -189.109725952148 1.517667651176
-117.907005310059 -76.537696838379 -197.862304687500 4.597704887390
-131.089065551758 -76.722091674805 -194.283172607422 2.186642169952
-108.912239074707 -74.908554077148 -200.178817749023 4.947084903717
-117.287933349609 -72.582969665527 -200.002746582031 4.001931190491
-13.471755027771 -71.401916503906 -197.628402709961 1.203625798225
17.321693420410 -66.359832763672 -197.518859863281 2.097717285156
-18.552703857422 -65.260261535645 -203.139831542969 2.804805278778
-130.818466186523 -74.227615356445 -205.886779785156 4.030172348022
-23.036960601807 -65.160270690918 -202.123947143555 4.545859813690
-130.462265014648 -71.888397216797 -202.514816284180 1.999969840050
-19.091735839844 -69.862724304199 -199.835510253906 2.433049678802
-149.595428466797 -73.565101623535 -200.814865112305 2.355129718781
88.963897705078 -60.176013946533 -208.472946166992 10.085350036621
-166.797958374023 -68.333450317383 -200.112243652344 2.474795103073
-4.611826896667 -69.958755493164 -221.799499511719 2.334053516388
9.741444587708 -70.626968383789 -211.958572387695 1.885581493378
7.673851966858 -72.301094055176 -218.923751831055 2.520291566849
79.606605529785 -65.880058288574 -218.523834228516 4.897068023682
6.947686195374 -70.028343200684 -214.965270996094 0.589126944542
8.661026954651 -67.276115417480 -216.590499877930 1.768169403076
-18.288654327393 -73.143165588379 -216.645553588867 3.044183254242
-92.857490539551 -73.723640441895 -212.963943481445 1.602128744125
-101.118858337402 -72.766319274902 -216.805221557617 3.028498888016
-0.324111014605 -67.794395446777 -219.488983154297 3.312605619431
-169.064651489258 -78.060295104980 -220.448852539063 6.483514785767
13.493117332458 -65.141777038574 -219.561340332031 4.435543060303
-147.377929687500 -73.626274108887 -219.508743286133 2.041428804398
10.939800262451 -68.754127502441 -226.508438110352 1.519655227661
-137.886901855469 -76.044761657715 -224.634124755859 2.382464885712
-118.041793823242 -74.209754943848 -228.300277709961 2.845494270325
14.611779212952 -67.355110168457 -221.792587280273 2.349258184433
76.841407775879 -65.855377197266 -221.907043457031 4.958066940308
3.499639987946 -69.189109802246 -225.189773559570 1.448598027229
-111.608169555664 -71.304512023926 -231.367614746094 1.316210150719
66.857925415039 -67.367790222168 -229.812240600586 3.902296543121
82.837524414063 -66.867065429688 -231.982925415039 5.609828948975
-129.200073242188 -72.751007080078 -236.589782714844 2.249537467957
-121.587303161621 -72.790901184082 -229.759658813477 1.379492998123
-12.200005531311 -64.114891052246 -227.139266967773 2.946145772934
69.174171447754 -66.263381958008 -235.348846435547 1.241893768311
61.731632232666 -66.515747070313 -234.490158081055 2.809511184692
69.282798767090 -65.141799926758 -230.747528076172 3.462719440460
-139.437454223633 -68.931060791016 -233.236022949219 1.114151358604
66.339843750000 -67.368362426758 -232.928710937500 2.847164630890
62.681968688965 -62.518497467041 -237.139816284180 4.126960754395
-168.741577148438 -72.398971557617 -230.641738891602 2.969570159912
-0.535764992237 -76.627548217773 -243.924453735352 2.414119482040
17.863924026489 -69.243080139160 -240.760482788086 2.860947132111
-9.211730003357 -64.695137023926 -242.797836303711 1.362561464310
13.846588134766 -60.384929656982 -240.689376831055 1.718782663345
64.314971923828 -66.791069030762 -240.025161743164 1.231452941895
4.337237834930 -64.928138732910 -246.172790527344 3.001461744308
-14.809150695801 -61.355312347412 -241.240417480469 5.581627845764
-4.829987049103 -64.267288208008 -236.729904174805 1.810390949249
61.867107391357 -66.124755859375 -244.352783203125 2.404453992844
-1.542163014412 -67.980094909668 -243.840270996094 2.985873699188
-8.963358879089 -69.198532104492 -244.487243652344 2.304446220398
11.855609893799 -71.232963562012 -243.580261230469 0.553080379963
-170.281326293945 -77.528343200684 -240.376556396484 5.215247154236
51.223083496094 -67.206626892090 -249.274368286133 0.829917192459
45.217792510986 -57.869777679443 -254.706771850586 5.516406536102
56.737270355225 -66.495307922363 -245.326705932617 2.276870727539
-15.404433250427 -65.533569335938 -249.086761474609 3.413318872452
53.959510803223 -64.947341918945 -247.035522460938 1.352331042290
-77.621368408203 -70.330551147461 -251.353073120117 1.458205819130
47.154876708984 -66.432846069336 -250.150360107422 0.216981530190
-90.610496520996 -70.236114501953 -253.147644042969 1.917544722557
-124.892715454102 -73.227416992188 -257.943389892578 1.513739585876
-134.947891235352 -73.100715637207 -251.899124145508 2.893805742264
44.344074249268 -68.191642761230 -253.500167846680 1.782662987709
-133.526809692383 -76.244125366211 -251.456756591797 4.721665859222
-111.615905761719 -68.696960449219 -253.862976074219 3.520716190338
-120.764434814453 -69.446014404297 -257.648223876953 2.555769205093
-87.505279541016 -71.173965454102 -254.711029052734 2.272683143616
-113.805816650391 -68.303428649902 -257.952270507813 1.067333817482
-127.233749389648 -76.496345520020 -262.574462890625 2.994737386703
-150.706237792969 -69.819419860840 -267.936157226563 2.471555709839
-18.685169219971 -65.716598510742 -268.919738769531 6.695016860962
-176.538818359375 -77.304862976074 -264.074401855469 10.366213798523
-18.429082870483 -66.235725402832 -276.098266601563 6.458611965179
-162.026626586914 -68.965484619141 -266.335906982422 1.344904780388
-156.028839111328 -73.979522705078 -271.752349853516 3.250784397125
-174.355590820313 -73.337776184082 -276.808868408203 6.583728313446
-18.769493103027 -68.078964233398 -283.182708740234 6.827515125275
-131.489776611328 -74.744667053223 -282.552856445313 1.487405419350
-160.568969726563 -72.378479003906 -285.638244628906 1.915431499481
-146.648376464844 -70.963668823242 -279.933654785156 2.589010715485
-138.224395751953 -74.940887451172 -277.662078857422 6.873364925385
-12.169120788574 -58.988842010498 -285.168701171875 3.774661064148
-129.563629150391 -75.326667785645 -282.676147460938 1.404320836067
-144.453399658203 -68.383079528809 -285.274841308594 1.684198260307
-118.725730895996 -75.618949890137 -285.516510009766 2.051868915558
-84.818466186523 -66.442733764648 -289.281158447266 2.988133668900
-63.289943695068 -70.465202331543 -287.524627685547 1.336824297905
-11.629991531372 -68.320114135742 -289.016296386719 3.469352483749
-58.296260833740 -67.148483276367 -284.190826416016 4.363520145416
-60.597972869873 -65.598632812500 -289.169769287109 4.643845081329
-75.125701904297 -67.050209045410 -290.646331787109 2.715728521347
-92.847389221191 -67.871658325195 -295.399597167969 4.837185859680
-96.959167480469 -67.903419494629 -287.927978515625 1.677551984787
-162.984298706055 -72.031005859375 -290.832702636719 1.757161498070
-163.932678222656 -73.316268920898 -293.941345214844 2.389221191406
-127.672431945801 -74.786659240723 -293.220031738281 0.406892776489
-148.114486694336 -71.512954711914 -293.816680908203 1.513781547546
-155.342697143555 -74.530105590820 -304.850158691406 1.593401193619
-156.246810913086 -75.313667297363 -310.991363525391 1.738515496254
48.761199951172 -71.028778076172 -15.001523971558 2.590699195862
15.203136444092 -75.564956665039 -33.273738861084 6.328794002533
42.360881805420 -67.036491394043 -37.094127655029 1.757911801338
-14.771276473999 -77.118629455566 -67.456069946289 4.206273555756
81.112121582031 -67.290733337402 -67.484710693359 3.824877500534
89.865005493164 -64.098144531250 -68.509300231934 4.777412414551
78.526512145996 -75.101089477539 -67.751441955566 3.673529148102
71.701293945313 -72.077621459961 -72.345298767090 1.929030537605
90.484756469727 -71.006752014160 -78.800621032715 5.183707237244
-98.083038330078 -72.587097167969 -70.306968688965 4.827548980713
65.604499816895 -70.273521423340 -77.475990295410 1.865010142326
-36.734321594238 -76.786842346191 -78.809196472168 2.104839801788
97.464233398438 -67.810348510742 -88.147460937500 4.130571842194
61.568225860596 -65.484008789063 -92.682975769043 2.313265562057
107.098983764648 -73.756202697754 -95.333641052246 3.217268228531
98.820411682129 -73.268257141113 -101.820373535156 2.925193071365
72.456237792969 -68.913040161133 -103.924507141113 1.292832374573
-82.874900817871 -71.793121337891 -103.130485534668 3.964131116867
53.383426666260 -68.353988647461 -108.007736206055 2.536917924881
106.961883544922 -63.095508575439 -109.549407958984 3.103097200394
44.794193267822 -69.148750305176 -116.087295532227 2.363240242004
78.468429565430 -66.791915893555 -108.749130249023 2.589885473251
40.282970428467 -69.245979309082 -110.071189880371 1.369032025337
101.574340820313 -67.277793884277 -105.946434020996 2.295959949493
46.292049407959 -69.233352661133 -109.970825195313 0.250208258629
105.116775512695 -74.336494445801 -112.285072326660 1.717310667038
109.765968322754 -71.527206420898 -113.044563293457 0.787730872631
-81.378555297852 -71.572166442871 -114.641548156738 2.344668388367
-84.670242309570 -71.681556701660 -120.804840087891 2.925909996033
42.535633087158 -72.946159362793 -121.805656433105 1.914663910866
112.265327453613 -68.352264404297 -126.027114868164 1.690382957458
111.879470825195 -66.441802978516 -126.458427429199 2.620561361313
-90.412239074707 -73.136466979980 -126.952522277832 4.476499557495
103.677139282227 -69.360977172852 -130.100997924805 4.754762649536
-60.922988891602 -78.873413085938 -132.816207885742 6.317276477814
-87.608345031738 -74.868911743164 -128.297225952148 5.408277988434
-72.166366577148 -74.557525634766 -127.259025573730 4.961532592773
-61.763656616211 -68.949813842773 -127.373703002930 2.726498842239
30.457304000854 -69.259658813477 -132.763946533203 1.332779169083
42.374015808105 -65.194076538086 -137.816986083984 7.675264835358
-73.088104248047 -72.996131896973 -136.740783691406 2.275372982025
27.139999389648 -66.355209350586 -131.626739501953 3.168621778488
110.940429687500 -65.495948791504 -147.763687133789 3.954944610596
-40.050098419189 -71.948150634766 -150.491134643555 1.601941227913
31.510547637939 -71.103729248047 -151.482284545898 1.198883533478
111.130523681641 -63.278568267822 -151.903747558594 6.859319686890
