51.140563964844 -70.845993041992 -111.235473632813 2.685644149780
102.462692260742 -72.297660827637 -110.424278259277 1.618735074997
-82.862152099609 -70.153274536133 -117.268478393555 1.593343019485
37.479362487793 -74.757316589355 -112.423416137695 2.091323137283
109.245559692383 -68.692306518555 -116.340225219727 2.342638969421
106.659721374512 -67.394737243652 -115.846740722656 1.084403038025
105.975074768066 -71.251998901367 -114.690605163574 1.051547527313
113.042999267578 -69.005104064941 -113.558479309082 3.002305269241
42.986812591553 -73.937965393066 -107.942687988281 1.868111133575
34.295822143555 -66.162414550781 -115.633911132813 4.818287372589
41.231151580811 -70.219787597656 -112.313240051270 1.247193694115
107.175094604492 -72.982917785645 -120.461250305176 1.392728805542
43.013069152832 -68.612800598145 -121.376205444336 1.695853233337
111.702819824219 -69.653785705566 -132.158950805664 1.138753056526
112.000862121582 -69.373016357422 -130.664855957031 1.465595960617
35.537574768066 -67.621063232422 -118.476387023926 2.624981880188
-76.520217895508 -71.605773925781 -123.233985900879 3.356673479080
114.516372680664 -67.156867980957 -133.246429443359 2.438467025757
-51.230243682861 -71.480186462402 -138.041595458984 2.454607009888
36.817161560059 -72.134117126465 -133.811660766602 2.201509475708
-71.674186706543 -71.585586547852 -133.733001708984 2.298487901688
27.551261901855 -74.597091674805 -129.614746093750 1.607393860817
-78.907478332520 -72.490592956543 -143.707244873047 1.854878783226
-43.498451232910 -74.887382507324 -141.692626953125 1.394028067589
-73.467231750488 -73.652023315430 -138.476562500000 0.854050219059
111.148475646973 -70.052642822266 -135.636947631836 1.174133658409
121.607604980469 -68.592422485352 -140.727966308594 6.485523700714
120.965309143066 -75.233505249023 -146.900115966797 4.896535873413
-78.407890319824 -71.360877990723 -143.211883544922 1.624030590057
8.652819633484 -66.848739624023 -150.493743896484 3.273886919022
-48.878070831299 -72.160057067871 -147.702911376953 2.631362676620
-49.943637847900 -73.107498168945 -154.642105102539 1.460643172264
107.966072082520 -72.515266418457 -162.592605590820 0.455436199903
-38.924339294434 -74.355712890625 -147.991485595703 2.814727783203
16.381217956543 -68.550064086914 -158.026229858398 2.807196378708
24.378492355347 -74.220069885254 -156.801452636719 2.811438798904
116.381507873535 -69.971527099609 -164.537826538086 1.855242490768
32.190692901611 -70.789070129395 -166.740905761719 3.551665782928
1.103685975075 -73.712257385254 -163.375885009766 1.753579616547
33.837909698486 -72.565071105957 -159.838882446289 2.161523818970
-65.779258728027 -70.232711791992 -156.086135864258 1.627197384834
-64.629936218262 -71.922317504883 -158.860260009766 0.964650213718
-67.784683227539 -69.628646850586 -166.099182128906 3.151067018509
116.386482238770 -67.107208251953 -161.205123901367 4.949899673462
-42.853591918945 -72.467254638672 -162.736114501953 1.222184300423
18.217235565186 -71.918693542480 -164.626892089844 0.834151268005
-62.008625030518 -70.330627441406 -169.686508178711 1.907702922821
-62.688545227051 -69.336280822754 -171.399185180664 3.999205112457
-41.096904754639 -73.616134643555 -160.445968627930 2.307691812515
-32.778892517090 -75.633857727051 -167.318969726563 2.004117727280
117.668190002441 -74.914436340332 -170.728225708008 3.663472652435
-35.461212158203 -65.414978027344 -181.555969238281 4.975931167603
14.312262535095 -73.236648559570 -171.909225463867 2.850842237473
112.475891113281 -75.688980102539 -185.196289062500 2.861236572266
-145.338989257813 -74.462966918945 -175.901092529297 1.463772058487
-144.481094360352 -71.484992980957 -171.950103759766 3.224874258041
-145.154113769531 -69.926750183105 -181.400054931641 2.936492443085
-140.230484008789 -75.070846557617 -183.910415649414 4.068298339844
-30.838041305542 -70.485076904297 -184.539932250977 2.294406652451
-21.426040649414 -73.026252746582 -185.003173828125 2.269281387329
25.501235961914 -67.040359497070 -191.909988403320 4.067916393280
-138.862136840820 -71.579719543457 -186.434097290039 3.585615634918
-145.986175537109 -73.114059448242 -188.655410766602 0.999915778637
-20.131980895996 -69.927452087402 -185.100799560547 2.577976703644
11.529015541077 -72.017837524414 -182.147567749023 3.358978033066
-148.279312133789 -72.481536865234 -195.292022705078 2.470487833023
-29.716184616089 -72.502540588379 -188.842437744141 1.441656589508
101.721443176270 -72.680442810059 -187.579101562500 3.033170461655
107.215621948242 -70.277679443359 -189.128906250000 0.784367501736
26.794046401978 -66.499931335449 -193.034378051758 4.857303142548
-8.712972640991 -72.327125549316 -188.008636474609 8.300540924072
-26.695301055908 -74.815299987793 -192.331222534180 2.059184551239
-154.357482910156 -74.985229492188 -200.942398071289 2.597626924515
-130.978088378906 -73.870315551758 -196.556549072266 0.790144145489
-123.793106079102 -68.958610534668 -194.554244995117 0.557178258896
-124.181564331055 -71.029228210449 -197.276885986328 1.738277912140
-20.044162750244 -67.515441894531 -194.811004638672 1.906016230583
16.007373809814 -75.468589782715 -191.525817871094 0.699709653854
93.507804870605 -78.549110412598 -200.449722290039 4.064139366150
-149.407623291016 -67.565521240234 -194.309326171875 1.201641440392
-142.429061889648 -69.284080505371 -198.811874389648 2.496017217636
-149.840194702148 -72.686920166016 -200.894180297852 2.389552831650
-152.953857421875 -69.711463928223 -196.370697021484 1.965219020844
-22.102682113647 -71.434471130371 -199.304809570313 1.674268007278
-6.620543003082 -68.780242919922 -194.538864135742 7.638689994812
-143.123916625977 -67.065628051758 -202.853256225586 1.299727559090
-18.143766403198 -71.735176086426 -201.940658569336 2.110017776489
-158.811370849609 -72.054534912109 -201.731643676758 2.614258289337
-132.711181640625 -72.251548767090 -198.998931884766 1.238424539566
16.961639404297 -76.270782470703 -206.336776733398 0.790783405304
-157.797805786133 -68.109535217285 -204.330673217773 2.125940322876
-144.453948974609 -75.164466857910 -206.504013061523 2.505026578903
8.800148010254 -70.048507690430 -203.927001953125 3.335933208466
-152.491149902344 -69.251792907715 -202.274932861328 1.026964545250
-23.484102249146 -71.466064453125 -202.408111572266 2.087840795517
96.175109863281 -73.865791320801 -198.318634033203 1.944146633148
-157.979568481445 -74.583435058594 -210.549072265625 3.138371467590
-162.429672241211 -77.603950500488 -206.170257568359 6.450915336609
-73.893707275391 -70.059967041016 -206.481033325195 4.893029212952
92.002593994141 -72.002784729004 -207.546981811523 1.746116399765
-1.935703992844 -72.072517395020 -219.396362304688 1.178931713104
-154.555084228516 -71.467185974121 -212.716339111328 3.398294687271
-85.283363342285 -73.695144653320 -212.446472167969 1.839026451111
-7.952644824982 -76.727027893066 -210.464416503906 1.976237058640
17.977807998657 -72.473136901855 -217.798889160156 2.121015548706
-142.218154907227 -73.843170166016 -220.786361694336 3.329589843750
-2.028875112534 -79.008888244629 -220.315841674805 1.764603734016
-15.670763015747 -75.432914733887 -216.102386474609 2.040206432343
-12.635565757751 -69.493804931641 -221.113159179688 2.020984888077
93.416236877441 -73.245529174805 -220.495346069336 3.502107858658
-18.070955276489 -71.387481689453 -215.765579223633 2.404442787170
-31.547470092773 -72.294052124023 -217.654861450195 1.681139707565
-105.856872558594 -66.746421813965 -225.600219726563 1.452984571457
-14.578077316284 -71.068519592285 -223.555908203125 1.210157871246
95.866287231445 -70.774620056152 -218.409042358398 4.784381389618
77.189208984375 -74.552848815918 -221.030853271484 2.834521055222
10.370689392090 -74.535469055176 -218.220474243164 2.216106891632
-9.565413475037 -69.438461303711 -225.310546875000 2.193657159805
81.041244506836 -73.338447570801 -221.155746459961 2.528094053268
-119.521377563477 -78.303184509277 -225.127105712891 6.231012821198
-16.033767700195 -70.687919616699 -223.386291503906 1.402979373932
-93.659973144531 -72.659790039063 -223.215408325195 1.612242221832
-98.891830444336 -73.293762207031 -222.763183593750 0.799983143806
-127.642387390137 -75.819869995117 -229.187301635742 1.854526758194
83.076225280762 -73.857429504395 -222.703414916992 1.167831897736
-120.773345947266 -74.341377258301 -227.319778442383 2.366374492645
6.178230762482 -72.192573547363 -228.989807128906 2.152502298355
83.871635437012 -71.484352111816 -224.258529663086 1.748602271080
-14.495868682861 -74.984359741211 -233.183837890625 2.975612878799
-12.417154312134 -74.245933532715 -225.136108398438 0.637944221497
1.962821960449 -80.659606933594 -229.543106079102 1.677265167236
13.505989074707 -76.258743286133 -227.377090454102 3.133333921432
92.666099548340 -75.098419189453 -227.098114013672 6.143164634705
11.273657798767 -71.456169128418 -230.811981201172 1.958610415459
8.852014541626 -72.209167480469 -229.498123168945 2.051903486252
-7.069169998169 -74.114631652832 -231.673233032227 1.912909388542
-4.733942985535 -74.964019775391 -227.869964599609 2.708427190781
22.014707565308 -72.040611267090 -233.173339843750 4.051508426666
-10.579600334167 -69.731796264648 -232.725692749023 1.128863930702
72.866828918457 -74.309143066406 -240.434616088867 3.533097028732
-7.763327121735 -72.134696960449 -239.341308593750 0.862637341022
21.323879241943 -74.479309082031 -235.398513793945 1.780929565430
-158.760269165039 -71.116043090820 -239.735885620117 3.222616434097
-4.003396987915 -70.441741943359 -235.732513427734 0.892762541771
-5.301711082458 -75.721008300781 -238.915679931641 2.172832727432
-165.477615356445 -75.165946960449 -250.260009765625 1.042547106743
-9.079319000244 -71.119926452637 -243.808425903320 2.427962064743
16.812187194824 -70.166069030762 -244.770339965820 2.264749288559
-146.275497436523 -75.873176574707 -251.629486083984 1.040973544121
-73.906158447266 -73.906250000000 -251.799102783203 0.935899794102
-60.215122222900 -75.477249145508 -247.085266113281 2.283876180649
53.320392608643 -70.270118713379 -246.656219482422 1.280687689781
-71.131942749023 -73.075851440430 -245.968933105469 1.377942562103
17.996232986450 -74.305404663086 -249.548965454102 2.599149942398
-70.830131530762 -75.284141540527 -250.569564819336 1.685579299927
-13.917452812195 -70.844886779785 -242.820846557617 2.408233880997
-143.344863891602 -77.685943603516 -252.444244384766 2.714048624039
47.273586273193 -68.867263793945 -250.745422363281 1.260811448097
-78.990928649902 -78.085632324219 -256.634643554688 3.506183624268
-101.274986267090 -69.863815307617 -255.272277832031 1.075553417206
-98.411689758301 -75.682899475098 -254.159606933594 2.942091703415
-119.425460815430 -70.223762512207 -251.546325683594 5.356007575989
-104.218650817871 -69.665351867676 -257.286468505859 2.478491544724
-103.204681396484 -72.995254516602 -257.329254150391 1.774644494057
22.964658737183 -69.224960327148 -257.340057373047 1.664433836937
-128.581283569336 -70.935256958008 -265.174072265625 2.258079290390
-13.487803459167 -75.372871398926 -274.814147949219 1.797638893127
-146.995819091797 -70.849922180176 -284.229705810547 0.572926700115
-166.944335937500 -77.094421386719 -286.605407714844 3.394162178040
-123.256713867188 -75.887939453125 -282.825195312500 2.128435850143
-112.416320800781 -70.677360534668 -286.772949218750 2.324429512024
-73.962471008301 -69.461532592773 -282.902465820313 3.662826776505
-56.169532775879 -76.449554443359 -286.518646240234 2.473576068878
-39.519897460938 -73.116287231445 -285.600463867188 0.544242739677
-13.848763465881 -79.688598632813 -290.807983398438 2.919393301010
-12.047105789185 -71.756919860840 -293.267456054688 2.688899517059
-37.142475128174 -78.244178771973 -290.718902587891 2.048500061035
-32.881786346436 -74.845207214355 -288.596405029297 2.192488908768
-17.700645446777 -70.487449645996 -288.515197753906 2.054270505905
-71.696166992188 -73.690750122070 -294.174621582031 2.906272649765
-54.806274414063 -73.936889648438 -291.259368896484 1.247371673584
-17.344497680664 -70.043403625488 -291.826660156250 2.170167684555
-12.287268638611 -77.181571960449 -288.745880126953 1.622315883636
-2.002576112747 -74.193023681641 -293.330078125000 2.685176134109
4.178748130798 -70.009117126465 -292.853515625000 0.415231227875
-92.142326354980 -74.828697204590 -293.516510009766 2.494655609131
-136.696746826172 -78.106948852539 -296.187469482422 3.170689821243
-113.935585021973 -75.946289062500 -292.654174804688 2.838851213455
-151.886947631836 -72.013816833496 -293.667419433594 2.831327676773
-148.980087280273 -76.149383544922 -299.384643554688 1.470205426216
-145.846252441406 -71.856895446777 -300.300872802734 0.704026579857
45.155353546143 -63.826461791992 -22.437189102173 2.367990255356
21.869846343994 -71.742889404297 -23.025485992432 0.836908578873
51.749366760254 -63.021007537842 -23.780014038086 3.715472698212
48.903522491455 -68.876296997070 -35.343730926514 1.539965033531
90.036064147949 -68.130340576172 -71.334930419922 3.913358211517
97.777191162109 -70.791366577148 -74.084899902344 2.532457113266
103.250289916992 -68.859222412109 -76.231117248535 2.822768688202
100.078353881836 -68.615821838379 -83.858177185059 0.347359091043
57.473365783691 -70.080062866211 -89.779304504395 2.289809465408
45.548721313477 -75.954429626465 -89.136978149414 5.851718902588
65.206726074219 -67.826454162598 -90.542129516602 1.072067737579
-63.795398712158 -67.208625793457 -93.945365905762 1.880249619484
73.650779724121 -67.136428833008 -86.986564636230 6.737025260925
101.741203308105 -60.105537414551 -99.454536437988 1.473521828651
76.240966796875 -69.314598083496 -101.605171203613 1.755507111549
95.107269287109 -67.677017211914 -103.100158691406 1.249270796776
-85.018554687500 -70.383071899414 -105.032569885254 2.664783000946
47.640182495117 -67.239486694336 -95.729705810547 1.329683542252
-86.193992614746 -71.116912841797 -100.067398071289 6.188210964203
53.473941802979 -70.545555114746 -109.800407409668 2.901681184769
38.391582489014 -77.181190490723 -102.605880737305 4.110335350037
101.430931091309 -67.907463073730 -102.959518432617 1.513126254082
38.385185241699 -69.458686828613 -104.237632751465 2.723405838013
46.496089935303 -72.002792358398 -120.515113830566 1.648645877838
44.161785125732 -70.018692016602 -112.776901245117 0.779412388802
113.293449401855 -67.750793457031 -111.067665100098 2.745163679123
-78.818946838379 -76.348754882813 -121.783172607422 5.952877044678
114.704452514648 -75.037567138672 -122.111488342285 2.794127702713
43.399177551270 -64.717811584473 -125.183334350586 5.490776062012
41.712783813477 -69.521400451660 -119.652923583984 2.039294958115
36.091598510742 -70.629188537598 -119.604263305664 1.208040714264
-53.260696411133 -76.089591979980 -129.153686523438 3.854810953140
31.430854797363 -68.479324340820 -123.009513854980 1.982392668724
-76.264755249023 -66.643829345703 -138.550506591797 1.890810847282
-53.283061981201 -75.136901855469 -132.215881347656 1.465877771378
-77.823371887207 -67.395919799805 -134.958572387695 1.272564411163
38.514202117920 -67.561721801758 -131.805999755859 1.586277365685
-58.287048339844 -72.418334960938 -133.277221679688 1.108814477921
37.007656097412 -69.316551208496 -132.728164672852 1.786117911339
-69.563209533691 -67.940757751465 -139.671615600586 1.952324032784
-57.623561859131 -65.710273742676 -142.420547485352 2.223906040192
25.410654067993 -71.768341064453 -144.274917602539 1.076608896255
113.636787414551 -73.358329772949 -142.483932495117 1.749485969543
116.597869873047 -64.665428161621 -137.422653198242 4.907092094421
32.065338134766 -70.863426208496 -142.587341308594 1.010846495628
-48.184078216553 -73.105941772461 -139.543869018555 0.989488065243
106.751594543457 -67.514266967773 -152.470230102539 3.917177677155
-74.843338012695 -70.291847229004 -142.380264282227 1.233765006065
-56.880428314209 -70.270797729492 -142.041763305664 0.861352264881
33.376167297363 -64.028457641602 -145.989547729492 5.425839900970
-76.671699523926 -72.503784179688 -145.842712402344 2.012679100037
-68.691078186035 -69.997993469238 -149.743408203125 1.539036870003
115.569686889648 -75.824134826660 -148.873992919922 2.212440729141
-62.869380950928 -68.908813476563 -155.662643432617 4.566111087799
-37.945690155029 -66.403587341309 -151.627868652344 5.177338600159
26.120496749878 -68.693984985352 -144.398925781250 1.823274612427
-70.456398010254 -71.230895996094 -143.954635620117 2.303097724915
14.051170349121 -69.141403198242 -148.673873901367 1.167567610741
33.511760711670 -70.195701599121 -158.238861083984 1.914499759674
32.966609954834 -67.336967468262 -151.736068725586 3.826589107513
18.909315109253 -75.868408203125 -153.324966430664 3.475059986115
-49.140712738037 -73.314834594727 -152.822677612305 2.057540178299
24.663824081421 -73.500434875488 -152.903930664063 1.303413629532
-45.433372497559 -69.537544250488 -151.072357177734 0.417383670807
4.975732803345 -70.740280151367 -154.102828979492 2.414917469025
20.947032928467 -69.390655517578 -149.849441528320 3.189182996750
-65.621353149414 -69.496315002441 -158.477981567383 1.325220823288
-45.788722991943 -67.136756896973 -154.156845092773 1.922438502312
-67.032852172852 -70.575546264648 -151.898422241211 0.966098308563
21.787147521973 -69.131462097168 -158.543655395508 2.237818956375
25.180168151855 -69.443702697754 -149.973083496094 1.246719717979
4.036369800568 -70.992797851563 -166.397476196289 3.034733295441
23.460599899292 -69.296287536621 -151.943588256836 0.702830374241
32.189590454102 -69.786239624023 -168.661590576172 4.163510799408
-45.687297821045 -71.911109924316 -164.032379150391 0.397966235876
-36.995231628418 -80.081703186035 -164.170700073242 0.749881982803
-40.158214569092 -72.316139221191 -161.039642333984 1.747557044029
29.261453628540 -71.385002136230 -157.370285034180 1.916567802429
-43.132541656494 -67.960968017578 -166.270278930664 3.949474096298
-37.806098937988 -69.097488403320 -168.798339843750 1.745712876320
23.301725387573 -68.722015380859 -165.237686157227 1.204181075096
-38.186138153076 -71.829154968262 -176.355667114258 2.276112079620
28.811851501465 -65.530784606934 -170.068344116211 3.579187870026
111.849479675293 -65.993583679199 -163.292556762695 3.663265228271
-32.832267761230 -71.180259704590 -172.130172729492 1.788850903511
101.626586914063 -67.611778259277 -173.349182128906 5.913552284241
-33.146114349365 -70.768859863281 -177.856689453125 1.835006475449
-36.529003143311 -75.313774108887 -181.967315673828 2.756054162979
24.296197891235 -74.501296997070 -178.097045898438 2.968021869659
108.005058288574 -71.925849914551 -181.730651855469 1.498776793480
-31.678140640259 -69.072631835938 -181.816421508789 0.558311641216
-34.626491546631 -70.867973327637 -179.562377929688 2.202427148819
-21.302160263062 -77.022979736328 -187.266662597656 2.113168001175
-147.755981445313 -71.973838806152 -189.604095458984 2.664896488190
12.606011390686 -70.611358642578 -183.291946411133 2.604923725128
105.499565124512 -69.487007141113 -192.129226684570 3.020023107529
-159.493896484375 -71.338455200195 -192.380462646484 3.244058847427
-19.476167678833 -66.593818664551 -188.150039672852 3.661448001862
-114.245605468750 -74.265853881836 -197.910720825195 3.116694927216
-127.476936340332 -73.789520263672 -194.546798706055 3.036491394043
-105.164031982422 -73.083976745605 -200.158935546875 6.222168922424
-113.450660705566 -70.454116821289 -200.243820190430 1.721167683601
-9.707127571106 -72.865409851074 -196.206176757813 3.609794378281
21.245306015015 -68.929748535156 -195.846984863281 1.676692128181
-14.477989196777 -66.844879150391 -202.114135742188 2.397388219833
-126.944076538086 -71.921325683594 -206.258560180664 2.248478412628
-18.970075607300 -66.531082153320 -201.179626464844 1.444267511368
-126.552253723145 -69.421890258789 -203.007675170898 1.120532989502
-15.233828544617 -71.244552612305 -198.583786010742 1.278286814690
-145.756973266602 -70.320915222168 -201.541412353516 2.406604766846
93.219657897949 -65.899528503418 -205.914276123047 4.274713993073
-162.764938354492 -64.447265625000 -201.398986816406 0.957007706165
-0.444757014513 -73.016098022461 -220.268783569336 1.428427815437
13.727724075317 -73.677963256836 -210.168792724609 3.404843568802
11.703186035156 -75.641769409180 -217.070678710938 2.930829763412
83.809082031250 -71.786834716797 -215.808517456055 3.186131715775
11.002404212952 -73.139030456543 -213.248703002930 2.243018627167
12.839138031006 -70.539360046387 -214.986465454102 2.018699407578
-14.303527832031 -75.432991027832 -215.184249877930 2.165197372437
-88.889831542969 -73.149795532227 -212.719375610352 1.857132434845
-97.053062438965 -72.101226806641 -216.742355346680 1.136406540871
3.884776115417 -70.887802124023 -218.003173828125 3.894788742065
-165.085998535156 -75.145019531250 -221.235748291016 2.821129083633
17.789419174194 -68.738845825195 -217.983673095703 3.284846544266
-143.267715454102 -71.446517944336 -220.167144775391 1.436685681343
15.208312034607 -72.618606567383 -224.774536132813 1.615732550621
-133.797012329102 -74.469856262207 -225.000762939453 1.405156373978
-113.846122741699 -73.541954040527 -228.426681518555 1.522486448288
18.859090805054 -71.105300903320 -220.077545166016 0.917725205421
81.096839904785 -71.841545104980 -219.233978271484 1.610574126244
7.738573074341 -72.716964721680 -223.559051513672 1.917384982109
-107.265899658203 -71.034492492676 -231.533767700195 3.137237787247
71.182365417480 -73.410247802734 -227.214691162109 2.884004592896
87.199867248535 -73.596771240234 -229.142196655273 3.884724140167
-124.820030212402 -72.123733520508 -236.965576171875 1.648258924484
-117.315391540527 -72.076011657715 -230.016860961914 1.477324843407
-7.734327793121 -67.193977355957 -226.031539916992 2.823902130127
73.618896484375 -72.682754516602 -232.762008666992 2.370732784271
66.160255432129 -72.623023986816 -232.015365600586 3.299904823303
73.700637817383 -71.324844360352 -228.224243164063 1.455961346626
-134.959060668945 -67.768447875977 -233.986434936523 1.232694387436
70.710632324219 -73.556518554688 -230.335083007813 1.055678009987
67.295265197754 -68.807540893555 -234.853622436523 1.579031705856
-164.405578613281 -70.043937683105 -231.703125000000 2.027826070786
3.710323095322 -80.983238220215 -241.945053100586 3.587542533875
22.319351196289 -74.105453491211 -238.864456176758 2.553276300430
-4.538667201996 -68.705215454102 -241.586639404297 3.262011528015
18.628385543823 -65.117790222168 -239.322143554688 2.520540475845
68.813140869141 -73.281936645508 -237.484710693359 0.926075875759
9.040996551514 -69.600463867188 -244.718811035156 1.564855217934
-10.032431602478 -65.089790344238 -240.298858642578 2.570025920868
-0.234172001481 -68.115249633789 -235.477142333984 1.859516859055
66.455406188965 -72.757453918457 -241.881332397461 1.829038143158
3.020041942596 -72.312896728516 -242.328567504883 1.932899236679
-4.430437088013 -73.297386169434 -243.034591674805 1.575111150742
16.284460067749 -76.024894714355 -241.676315307617 2.169593572617
-165.988327026367 -75.620834350586 -241.181579589844 1.433064699173
55.852657318115 -73.715606689453 -246.916351318359 2.613190412521
50.273979187012 -64.469116210938 -252.927352905273 1.553693652153
61.330364227295 -72.995010375977 -242.919876098633 1.238319754601
-10.664483070374 -69.651771545410 -247.925521850586 1.559347271919
58.636638641357 -71.440841674805 -244.753097534180 1.673563718796
-72.975143432617 -72.332000732422 -250.974197387695 1.968284845352
51.828865051270 -72.843978881836 -247.899093627930 1.032831311226
-85.924224853516 -71.867515563965 -252.987258911133 2.065269708633
-120.218521118164 -73.878692626953 -258.190612792969 2.472448110580
-130.350372314453 -73.073875427246 -252.329437255859 3.085732936859
49.005275726318 -74.675163269043 -251.198989868164 2.524274110794
-129.052001953125 -76.238441467285 -251.700195312500 4.768268108368
-106.846382141113 -69.617500305176 -254.131484985352 1.262614369392
-115.959373474121 -70.237144470215 -258.024322509766 2.047910213470
-82.832710266113 -72.996978759766 -254.447708129883 1.473567605019
-108.959861755371 -69.361923217773 -258.271606445313 2.183481693268
-122.609100341797 -77.301269531250 -262.683319091797 2.958153009415
-145.739776611328 -70.080513000488 -268.775848388672 3.129745483398
-13.656838417053 -70.762268066406 -267.773864746094 1.479139447212
-171.883239746094 -76.422798156738 -264.959747314453 5.750006198883
-13.314077377319 -71.667831420898 -274.910308837891 2.057824134827
-157.043701171875 -68.738876342773 -267.410980224609 1.563283562660
-151.154251098633 -74.242805480957 -272.458068847656 2.352297782898
-169.368652343750 -73.213027954102 -277.845581054688 1.529006004333
-13.617209434509 -73.868499755859 -281.893707275391 3.884118795395
-126.503005981445 -76.453742980957 -282.793975830078 2.315508604050
-155.427413940430 -73.214363098145 -286.482208251953 3.108698606491
-141.550018310547 -71.999938964844 -280.628173828125 3.687394618988
-133.311706542969 -76.150810241699 -278.012420654297 6.417960166931
-6.659905910492 -65.137702941895 -284.240722656250 2.128481626511
-124.597862243652 -77.109985351563 -282.854644775391 2.276945114136
-139.183486938477 -69.784629821777 -286.059356689453 3.214319705963
-113.737197875977 -77.939208984375 -285.495086669922 4.258919239044
-79.464889526367 -70.193412780762 -289.167938232422 1.314555406570
-58.126300811768 -74.885543823242 -286.845916748047 2.594449996948
-6.406054973602 -74.672088623047 -287.587097167969 1.081556677818
-53.064254760742 -71.578559875488 -283.606903076172 3.303700923920
-55.234001159668 -70.211898803711 -288.697479248047 2.142360687256
-69.781776428223 -71.218460083008 -290.338043212891 1.512479066849
-87.449630737305 -71.654571533203 -295.336395263672 3.379416942596
-91.669563293457 -71.145355224609 -287.942779541016 2.388336896896
-157.751525878906 -73.054916381836 -291.727203369141 1.062274456024
-158.700378417969 -74.467460632324 -294.779998779297 2.584306955338
-122.532844543457 -77.194435119629 -293.379394531250 3.329245328903
-142.830322265625 -73.227302551270 -294.486145019531 1.804430007935
-150.000625610352 -76.561149597168 -305.466156005859 3.531261444092
-150.842132568359 -77.634414672852 -311.572357177734 2.001237869263
49.797370910645 -65.095283508301 -12.836360931396 4.407206535339
16.368883132935 -69.384346008301 -31.403409957886 3.864959239960
43.874042510986 -62.046390533447 -35.210540771484 2.397701978683
-13.134889602661 -71.663688659668 -65.952552795410 2.220762729645
83.034042358398 -65.288475036621 -64.897155761719 2.347478151321
91.912094116211 -62.469593048096 -65.940925598145 3.447877645493
80.168449401855 -73.004501342773 -64.799362182617 3.747084617615
73.526985168457 -69.985038757324 -69.657585144043 1.527777910233
92.430236816406 -69.928718566895 -75.846336364746 4.369947910309
-96.173812866211 -64.310272216797 -70.422470092773 1.787966847420
67.576667785645 -68.236824035645 -74.976142883301 0.994667112827
-34.901233673096 -71.144950866699 -77.671623229980 0.716004312038
99.659156799316 -67.481163024902 -85.229606628418 1.916639924049
63.943168640137 -64.114036560059 -90.477226257324 1.636301040649
109.174720764160 -74.138450622559 -91.934631347656 6.739618301392
101.016136169434 -73.697105407715 -98.574913024902 1.102313637733
74.862968444824 -68.518180847168 -101.341873168945 1.794889807701
-80.464332580566 -65.791999816895 -102.984985351563 0.561895310879
55.885704040527 -67.492935180664 -105.765663146973 3.381179094315
109.637680053711 -64.243705749512 -106.687149047852 3.328426837921
47.393238067627 -68.404518127441 -113.934684753418 2.000119924545
81.019294738770 -66.870780944824 -106.169746398926 1.640137553215
42.793235778809 -68.023056030273 -107.997634887695 0.772735416889
104.048088073730 -68.034812927246 -102.961235046387 1.185024023056
48.796615600586 -68.220207214355 -107.798034667969 1.346020698547
107.422836303711 -75.540000915527 -108.863403320313 2.089284181595
112.182456970215 -72.942817687988 -109.690811157227 1.851251244545
-78.791275024414 -66.231697082520 -114.465400695801 2.260510206223
-81.993499755859 -66.547889709473 -120.668556213379 1.947571516037
45.081760406494 -72.414764404297 -119.484107971191 2.055292367935
114.987586975098 -70.547973632813 -122.777809143066 1.757786750793
114.678329467773 -68.650306701660 -123.314498901367 2.737664937973
-87.693618774414 -68.118362426758 -126.826774597168 1.572931408882
106.429244995117 -71.462005615234 -126.935981750488 2.182684898376
-58.350872039795 -75.207954406738 -131.891616821289 2.822182893753
-84.935493469238 -70.018486022949 -128.032455444336 0.902868807316
-69.509460449219 -70.205619812012 -126.754959106445 5.820686817169
-58.907863616943 -64.987602233887 -126.988616943359 1.959918737411
33.309425354004 -68.881042480469 -130.819259643555 1.885283350945
45.440219879150 -65.516464233398 -135.878280639648 7.934947490692
-70.233467102051 -69.114112854004 -136.319244384766 2.454447507858
30.084262847900 -65.803848266602 -129.890396118164 4.056764602661
114.088882446289 -68.795600891113 -144.652770996094 1.041381955147
-36.980014801025 -69.975204467773 -149.553588867188 3.822579145432
34.570426940918 -71.745552062988 -149.395858764648 2.166409730911
114.421073913574 -66.807716369629 -148.899063110352 2.858393669128
37.364833831787 -70.111251831055 -142.281097412109 2.103883266449
111.100646972656 -67.373603820801 -139.533401489258 2.739244937897
-50.441543579102 -69.244827270508 -149.754699707031 1.439737319946
-72.124176025391 -66.029701232910 -151.731643676758 2.194076299667
-56.152339935303 -70.205490112305 -151.090911865234 3.438129186630
-41.287883758545 -75.082031250000 -164.953094482422 2.474510669708
4.884551048279 -72.195854187012 -155.633056640625 2.169636011124
110.168647766113 -69.799598693848 -152.833831787109 2.169622421265
109.741165161133 -68.960502624512 -160.632141113281 2.826322793961
12.252177238464 -69.349807739258 -156.781387329102 1.584084391594
3.338538885117 -68.787879943848 -160.496307373047 2.406609535217
22.496067047119 -67.362777709961 -154.162246704102 1.545509576797
27.329223632813 -67.679046630859 -155.610504150391 2.155093669891
108.659706115723 -69.021865844727 -165.192138671875 1.309857249260
112.221481323242 -73.401931762695 -167.278152465820 1.887430071831
25.361431121826 -66.501998901367 -176.061630249023 2.242077112198
25.567949295044 -73.080810546875 -164.927352905273 2.726844549179
112.848724365234 -66.478034973145 -162.007995605469 4.150987148285
-28.551767349243 -68.447860717773 -178.907913208008 1.959071159363
111.910560607910 -69.868309020996 -167.198379516602 2.027595043182
19.178184509277 -69.956817626953 -164.996459960938 2.268509149551
22.692087173462 -69.719223022461 -169.047485351563 1.188596725464
109.336196899414 -69.968620300293 -172.327163696289 1.711512684822
28.767648696899 -68.540832519531 -169.940444946289 2.584941625595
115.017478942871 -67.988746643066 -184.842636108398 6.002206802368
-37.284145355225 -69.577537536621 -179.471603393555 2.913427591324
25.370403289795 -69.599662780762 -169.382354736328 1.155618429184
109.186248779297 -69.556030273438 -184.498367309570 1.998174071312
23.953323364258 -71.105293273926 -176.981292724609 2.664237260818
-150.002838134766 -68.618583679199 -186.244308471680 1.681949377060
-26.614305496216 -66.468063354492 -190.047882080078 2.322621107101
25.505712509155 -66.811737060547 -185.196609497070 3.011169195175
-114.045913696289 -73.003166198730 -192.328079223633 3.683553695679
-110.508613586426 -67.153968811035 -192.838134765625 3.304841995239
26.261344909668 -70.834014892578 -187.718368530273 1.497586607933
12.137586593628 -66.616584777832 -184.690322875977 3.820918798447
-25.715950012207 -66.157752990723 -190.583984375000 2.125486850739
-27.615316390991 -75.686912536621 -189.188339233398 2.250735759735
-27.550075531006 -70.805130004883 -188.193191528320 0.962433576584
14.320036888123 -66.911064147949 -180.109603881836 3.510464906693
-149.427902221680 -70.724922180176 -196.069244384766 1.564695477486
-144.961288452148 -69.972526550293 -192.414779663086 1.848013043404
-145.044708251953 -75.243453979492 -199.414138793945 1.166605353355
-22.274669647217 -69.025825500488 -191.474212646484 1.190107941628
15.736681938171 -66.870079040527 -199.741012573242 1.312057018280
99.799781799316 -68.163993835449 -192.457763671875 3.534678220749
-112.210357666016 -68.840553283691 -198.556243896484 1.715554594994
22.587490081787 -75.029617309570 -197.639587402344 2.061536550522
-12.436899185181 -68.676460266113 -194.859878540039 2.997453689575
-15.899400711060 -70.069572448730 -198.506790161133 2.344271421432
102.888557434082 -68.075157165527 -200.031112670898 4.505526542664
8.504714965820 -73.212608337402 -198.135467529297 2.615180492401
-20.830442428589 -68.245803833008 -196.771575927734 0.883612334728
-119.240425109863 -74.642585754395 -204.293670654297 4.226658821106
-133.096374511719 -71.367752075195 -203.302093505859 1.465518951416
-112.955032348633 -64.317741394043 -206.231094360352 3.306111812592
-140.837280273438 -74.959846496582 -203.216491699219 2.124934673309
18.170417785645 -69.754371643066 -197.846343994141 1.257755398750
94.083122253418 -72.036849975586 -199.792785644531 1.672725081444
-164.122100830078 -64.700271606445 -200.414382934570 2.188089847565
101.527160644531 -68.968879699707 -201.376663208008 2.751512289047
-21.865131378174 -75.964317321777 -205.203384399414 2.450972557068
96.076423645020 -66.295349121094 -209.241958618164 4.482537746429
89.653030395508 -72.565635681152 -209.410171508789 0.999866724014
12.068250656128 -73.082641601563 -203.261962890625 1.676425814629
22.110935211182 -69.105529785156 -212.883132934570 4.443166255951
14.733548164368 -66.174728393555 -208.341293334961 0.944741129875
-9.457328796387 -70.904747009277 -223.597991943359 0.460786342621
-92.396003723145 -74.321952819824 -219.700851440430 1.356270670891
-10.706298828125 -73.466377258301 -211.189102172852 2.460959196091
89.387260437012 -70.945533752441 -217.276824951172 1.559173583984
-92.925506591797 -74.261566162109 -216.558822631836 2.179898500443
-98.528869628906 -67.222946166992 -222.169876098633 1.113622307777
-94.699989318848 -70.488273620605 -219.136367797852 1.868851661682
90.593589782715 -73.161865234375 -222.292327880859 2.816178321838
-134.368331909180 -72.204689025879 -225.300888061523 1.047464847565
-129.767837524414 -78.041297912598 -227.668945312500 2.690013885498
-115.059120178223 -71.433547973633 -224.808792114258 2.102721214294
-111.956649780273 -67.888236999512 -221.714065551758 3.795472621918
-131.329711914063 -68.735023498535 -228.067291259766 3.389833688736
-111.722862243652 -80.496307373047 -228.116180419922 6.990102291107
-109.876434326172 -70.405456542969 -228.508911132813 1.941969990730
-5.591575145721 -75.622062683105 -223.811019897461 2.230298757553
-13.748238563538 -74.319450378418 -223.081253051758 1.722966194153
0.621590018272 -67.761917114258 -229.891067504883 1.125824451447
-8.540848731995 -66.793334960938 -226.927307128906 2.215674638748
17.180541992188 -72.073577880859 -233.986206054688 0.566676139832
-18.816852569580 -68.442008972168 -229.503372192383 2.820867061615
-165.419448852539 -69.462524414063 -220.949600219727 0.849208116531
-3.857986927032 -71.774345397949 -233.788116455078 1.671983957291
82.511100769043 -66.391265869141 -232.183425903320 5.778456211090
13.446944236755 -73.453529357910 -233.182281494141 2.298728227615
-3.920641899109 -70.240745544434 -235.373703002930 0.609883546829
-155.649505615234 -68.858657836914 -236.096725463867 1.209262013435
-141.801132202148 -69.363204956055 -228.767272949219 3.204816341400
62.553661346436 -69.544677734375 -236.504776000977 1.183964967728
-4.099710941315 -71.958953857422 -233.182235717773 1.853903293610
12.486738204956 -73.613182067871 -229.142074584961 2.084295749664
71.035758972168 -74.093154907227 -227.319747924805 3.211861610413
78.359680175781 -70.479232788086 -234.514129638672 1.604529976845
73.145057678223 -72.399757385254 -242.259567260742 3.909162044525
-0.407705992460 -75.174392700195 -234.664871215820 2.749133348465
60.037677764893 -68.194351196289 -236.714462280273 2.231486082077
-17.809909820557 -74.898574829102 -240.089126586914 1.634366393089
-12.911560058594 -67.436256408691 -239.868026733398 0.837068557739
9.310129165649 -70.865852355957 -238.480270385742 1.867733001709
65.534690856934 -75.439521789551 -236.517974853516 1.738423585892
68.884391784668 -68.713661193848 -241.373413085938 2.978738069534
50.225532531738 -71.644363403320 -245.623062133789 1.882535576820
62.485622406006 -75.278556823730 -242.405090332031 1.512497067451
-13.762499809265 -78.101776123047 -248.835952758789 3.743392467499
-82.394950866699 -67.830513000488 -256.666625976563 3.734886407852
-75.427673339844 -68.981933593750 -253.728012084961 2.071182727814
45.571956634521 -75.064125061035 -246.824996948242 4.798510551453
-150.253814697266 -73.943313598633 -249.918045043945 2.439381122589
36.846050262451 -70.929931640625 -256.938293457031 1.821795940399
-90.811401367188 -77.289207458496 -251.817077636719 3.427565097809
-155.697616577148 -66.700157165527 -254.252059936523 2.043322801590
-138.396789550781 -62.495422363281 -252.379745483398 4.779693126678
44.885341644287 -70.539657592773 -253.981307983398 1.521690607071
-124.044609069824 -67.400634765625 -258.646179199219 1.290950894356
-116.158378601074 -73.127258300781 -254.669021606445 1.765489697456
-90.176208496094 -66.518577575684 -256.786315917969 1.909634709358
-11.610900878906 -66.283378601074 -248.070571899414 0.549757063389
33.616878509521 -70.764831542969 -256.249786376953 1.940712451935
26.503889083862 -67.844596862793 -258.935821533203 1.401291012764
-158.610473632813 -65.477828979492 -261.160675048828 3.651834487915
-113.043449401855 -75.157897949219 -262.656951904297 2.751123428345
-11.962886810303 -71.475883483887 -262.090576171875 2.645702123642
-130.451232910156 -71.592353820801 -265.819732666016 1.358571410179
-13.016219139099 -70.260437011719 -270.215301513672 0.864317715168
-162.163024902344 -71.621925354004 -271.346496582031 2.641118764877
-4.555262088776 -72.955787658691 -278.325683593750 3.211157083511
-158.510116577148 -73.584159851074 -287.612945556641 2.527651786804
-163.312301635742 -76.031898498535 -278.086578369141 4.606525897980
-140.797592163086 -73.125228881836 -285.062530517578 1.069164752960
-170.141647338867 -75.483367919922 -284.476959228516 1.529440999031
15.982563018799 -75.543922424316 -288.556427001953 1.460963249207
-101.626457214355 -73.868812561035 -286.339202880859 1.606989026070
-86.183891296387 -65.968055725098 -285.561706542969 3.283327579498
-167.161926269531 -68.761917114258 -284.157806396484 1.952294588089
-91.212051391602 -79.040924072266 -281.634704589844 6.681212425232
-154.239700317383 -73.610839843750 -289.015747070313 2.473101615906
-75.551017761230 -74.454010009766 -296.575408935547 6.263941287994
-70.605255126953 -71.439094543457 -288.728240966797 2.274534940720
-81.828613281250 -74.510551452637 -291.784667968750 1.677403569221
-2.010432004929 -69.891479492188 -287.996978759766 2.683679103851
-88.707237243652 -72.291900634766 -287.223907470703 1.870813488960
-97.734397888184 -74.932769775391 -290.329620361328 1.803193330765
-116.982521057129 -72.823745727539 -292.851867675781 1.010864496231
-115.253578186035 -68.467941284180 -293.028259277344 1.654183864594
-132.706359863281 -72.991493225098 -291.240478515625 2.959206581116
-140.888412475586 -72.457015991211 -300.671417236328 4.329176425934
-143.056732177734 -74.574394226074 -311.988800048828 0.477495640516
25.513540267944 -62.246387481689 -14.346405029297 0.331979036331
34.603996276855 -64.966651916504 -15.686897277832 2.292904615402
31.161268234253 -68.499641418457 -17.677507400513 0.702897548676
46.123821258545 -62.210948944092 -19.488660812378 1.597998380661
25.290327072144 -65.422866821289 -31.543199539185 1.956496238708
-73.322288513184 -65.214653015137 -46.516994476318 1.920551538467
91.033103942871 -60.901470184326 -66.319435119629 4.548328876495
-17.602481842041 -63.270053863525 -66.891197204590 3.774981737137
105.643737792969 -66.167320251465 -73.316223144531 3.319632291794
95.408714294434 -71.355224609375 -75.285766601563 1.232146859169
69.807037353516 -67.871971130371 -78.612533569336 2.746812582016
73.473274230957 -71.448074340820 -81.766433715820 3.146343708038
-42.828575134277 -71.180114746094 -81.711082458496 1.125576376915
62.278400421143 -72.386650085449 -80.910995483398 4.147034168243
-91.995185852051 -67.949447631836 -88.826324462891 4.492010593414
-46.201011657715 -64.520118713379 -84.347351074219 1.762913346291
-54.762538909912 -74.356674194336 -84.966789245605 4.627339363098
104.001487731934 -74.514389038086 -98.050743103027 1.606709957123
61.610248565674 -70.992263793945 -90.299179077148 2.599731445313
68.791969299316 -66.362770080566 -90.592315673828 3.029000282288
-93.117256164551 -60.536914825439 -97.253265380859 6.162693500519
109.633453369141 -69.169486999512 -90.914184570313 5.360994815826
44.196411132813 -65.624557495117 -99.005523681641 1.677601456642
103.795440673828 -66.774749755859 -97.992149353027 1.571496963501
108.808387756348 -64.165000915527 -106.145027160645 3.246001482010
101.860633850098 -67.709815979004 -103.377281188965 1.940621852875
75.826881408691 -71.062690734863 -98.833503723145 1.996610045433
88.607223510742 -70.017929077148 -107.422218322754 2.162263631821
51.994361877441 -66.250000000000 -110.900024414063 2.559080362320
112.202148437500 -63.074840545654 -102.138534545898 5.721769809723
49.108261108398 -71.844810485840 -104.018585205078 1.544270277023
40.325260162354 -65.635414123535 -101.757179260254 4.433365345001
115.035636901855 -68.315330505371 -110.128356933594 2.617879152298
-76.628547668457 -63.573204040527 -108.823104858398 0.983454942703
47.282546997070 -66.266494750977 -112.498451232910 2.494447469711
35.009670257568 -70.956695556641 -115.602447509766 1.500487923622
107.601127624512 -64.587165832520 -110.294990539551 1.559919595718
39.274452209473 -64.501434326172 -111.346870422363 4.330856323242
-85.634918212891 -67.575210571289 -111.089691162109 1.532954931259
-93.550186157227 -63.523704528809 -114.242942810059 4.333514690399
103.966758728027 -73.076728820801 -119.384193420410 2.325958728790
-93.219764709473 -68.771629333496 -118.569419860840 2.557005405426
41.117477416992 -71.613716125488 -120.546455383301 1.774031400681
38.282691955566 -68.021583557129 -122.116477966309 2.116423845291
-83.161941528320 -67.912971496582 -123.634460449219 3.318784713745
34.895477294922 -65.939125061035 -133.799209594727 3.360950469971
113.768867492676 -69.356735229492 -130.941635131836 1.374010920525
-51.477081298828 -68.160491943359 -137.925842285156 1.572198390961
-86.268043518066 -66.415649414063 -132.755752563477 2.140554428101
39.974636077881 -72.852279663086 -130.092315673828 1.134527444839
-85.392578125000 -62.843151092529 -136.344085693359 2.490745544434
-86.485748291016 -71.697326660156 -140.360885620117 4.825797557831
-48.432369232178 -68.621894836426 -136.015075683594 1.722140669823
-69.370986938477 -65.492332458496 -138.726409912109 4.079393386841
-49.010417938232 -67.325355529785 -132.285964965820 2.438582658768
118.707473754883 -64.451057434082 -136.468978881836 5.337983131409
-70.342361450195 -70.443885803223 -134.466323852539 2.620381116867
39.138736724854 -69.127273559570 -130.287261962891 1.443285226822
-76.857925415039 -66.141738891602 -140.755569458008 1.301228046417
-70.729408264160 -68.339675903320 -135.048812866211 2.467796802521
-91.970252990723 -65.828399658203 -141.646820068359 1.799658417702
-53.368980407715 -64.533470153809 -145.545516967773 2.444733619690
33.221939086914 -62.841896057129 -145.774856567383 6.067630290985
29.054307937622 -66.632987976074 -148.754379272461 1.525997161865
21.842132568359 -61.781875610352 -144.295974731445 2.412172555923
114.228088378906 -67.419143676758 -145.841918945313 1.577331781387
-89.723892211914 -66.537734985352 -151.462921142578 3.107773303986
12.960460662842 -69.988822937012 -152.029052734375 2.793238162994
-69.971778869629 -67.775741577148 -154.484039306641 2.582022905350
25.435890197754 -66.581695556641 -148.931838989258 1.869471669197
-47.631690979004 -67.020729064941 -155.152954101563 3.646522045135
11.532315254211 -66.721343994141 -153.564346313477 1.316433668137
18.345087051392 -71.777175903320 -158.666351318359 1.429099917412
18.877031326294 -74.426872253418 -163.421356201172 0.738759756088
-48.910041809082 -71.360351562500 -163.055404663086 2.237187862396
-36.909442901611 -66.732124328613 -155.131179809570 4.329903602600
-45.585773468018 -69.648262023926 -161.805557250977 1.257727622986
-101.558830261230 -69.817665100098 -172.628738403320 1.624078392982
23.590322494507 -70.620620727539 -174.481704711914 3.543137550354
-32.098197937012 -68.986869812012 -177.583480834961 2.679941892624
17.256608963013 -74.186485290527 -177.930694580078 0.720335245132
-140.843627929688 -68.282722473145 -175.950729370117 0.775287985802
-29.900339126587 -64.685447692871 -172.362960815430 3.639182090759
-154.460983276367 -76.165763854980 -177.932586669922 5.506422996521
26.319322586060 -62.544158935547 -181.533935546875 6.405152320862
-32.233417510986 -70.646987915039 -170.217971801758 2.292078971863
-105.222007751465 -66.084449768066 -175.986846923828 1.751101851463
-105.208480834961 -75.285987854004 -183.898071289063 6.212179183960
-28.823253631592 -62.767150878906 -185.650955200195 5.413522720337
-22.429367065430 -74.494140625000 -181.263046264648 0.639472126961
14.382025718689 -67.748504638672 -188.846054077148 2.243083715439
17.861127853394 -65.630561828613 -198.519683837891 1.757946133614
15.054081916809 -69.486274719238 -187.140945434570 1.894458055496
-140.870635986328 -66.958702087402 -186.844253540039 1.188946962357
25.500867843628 -64.102371215820 -189.623565673828 5.493369579315
7.702147960663 -68.332321166992 -196.567153930664 2.312356948853
-133.569671630859 -67.206199645996 -193.467620849609 0.470493286848
-111.196464538574 -68.599929809570 -195.211410522461 2.799547910690
16.698877334595 -66.911346435547 -203.283630371094 2.137511491776
-116.592857360840 -67.332633972168 -196.825027465820 2.054191112518
-105.916778564453 -61.911529541016 -192.505493164063 5.792496681213
-164.843505859375 -71.039115905762 -201.420700073242 0.968170583248
-22.648195266724 -67.356857299805 -199.778610229492 3.115100622177
12.791362762451 -66.958938598633 -199.578002929688 1.780781984329
-143.015747070313 -70.172622680664 -204.102554321289 1.306354165077
-135.739547729492 -73.055068969727 -207.028106689453 3.831469297409
-19.827259063721 -66.929115295410 -207.722564697266 1.371892929077
-10.614617347717 -70.234992980957 -205.082000732422 1.880196809769
-12.168209075928 -70.650337219238 -205.663848876953 1.020838022232
-137.216079711914 -74.448043823242 -202.820770263672 2.138838529587
-15.501169204712 -69.184944152832 -212.728012084961 0.801801681519
-7.498050212860 -75.330566406250 -214.252319335938 0.894893407822
19.739761352539 -65.598014831543 -211.101943969727 3.445811748505
-15.028438568115 -74.842979431152 -211.481277465820 1.741137623787
12.070802688599 -70.494430541992 -208.998245239258 2.353479623795
-9.300422668457 -71.083160400391 -215.030838012695 1.749842166901
-21.369176864624 -65.377845764160 -211.593231201172 4.993154048920
13.577924728394 -76.483848571777 -220.405578613281 2.124828338623
-0.595616996288 -76.165618896484 -218.912536621094 1.981232047081
12.882678985596 -64.713058471680 -220.449035644531 3.793132305145
-4.712199211121 -73.050003051758 -227.948898315430 2.104536533356
-158.507827758789 -71.485229492188 -226.590499877930 1.530598998070
82.324676513672 -72.704452514648 -219.320404052734 2.565281867981
-133.956970214844 -67.215774536133 -224.019638061523 1.423539519310
