-106.892440795898 -64.189109802246 -168.472351074219 1.524101972580
-100.306251525879 -68.904960632324 -163.608810424805 2.286765575409
23.303779602051 -69.060745239258 -165.974822998047 0.924540102482
27.779943466187 -66.683937072754 -167.266082763672 2.926658630371
-109.295143127441 -71.668701171875 -172.736557006836 2.388407230377
-141.191452026367 -64.862014770508 -173.038238525391 2.828079700470
-17.134214401245 -69.460838317871 -190.287704467773 2.410877704620
-26.362527847290 -67.687522888184 -180.212341308594 3.151840686798
-115.662879943848 -70.521224975586 -186.358718872070 3.507737398148
-142.472351074219 -63.577327728271 -185.699127197266 2.466861009598
-100.465408325195 -64.663581848145 -180.885787963867 5.183858394623
-158.289093017578 -68.686920166016 -188.464233398438 5.208082199097
-129.871887207031 -74.293907165527 -195.004074096680 1.825911641121
-131.717010498047 -71.520477294922 -195.881866455078 1.559496641159
-18.120367050171 -66.784355163574 -187.258758544922 4.997117042542
-117.766548156738 -69.492378234863 -198.771331787109 3.484965801239
-117.246086120605 -64.009384155273 -199.873031616211 1.430988550186
-27.249563217163 -72.033264160156 -192.686782836914 1.996715784073
-153.089889526367 -65.356765747070 -195.288070678711 1.660861372948
-131.458755493164 -70.087898254395 -204.557937622070 0.979782760143
-123.702713012695 -65.560585021973 -203.413955688477 1.741244673729
19.798259735107 -72.651962280273 -201.501083374023 1.615641951561
-161.265975952148 -68.902450561523 -201.509124755859 2.464699268341
14.219326972961 -67.086593627930 -216.508468627930 1.367852926254
15.602274894714 -70.988075256348 -215.084533691406 0.596499621868
-14.291288375854 -64.105377197266 -210.051773071289 3.894586563110
-3.710108041763 -69.074218750000 -216.499938964844 0.402865439653
-170.960250854492 -64.981651306152 -210.436767578125 5.763981819153
-158.095840454102 -63.508335113525 -211.959030151367 3.691815376282
-93.656288146973 -68.117469787598 -218.622146606445 2.383089303970
-95.669525146484 -71.377868652344 -221.137695312500 1.804179668427
-159.730712890625 -70.182952880859 -226.243896484375 2.867068290710
-107.506462097168 -65.806724548340 -218.616744995117 3.970543861389
-10.482721328735 -66.904747009277 -211.662292480469 2.113836526871
-127.013427734375 -70.997619628906 -220.916076660156 3.367783546448
-141.843582153320 -69.096557617188 -222.661209106445 0.428078562021
-1.945556998253 -71.820114135742 -221.015777587891 0.920149624348
-133.014816284180 -66.437370300293 -223.786788940430 1.975592613220
-122.445030212402 -74.135528564453 -221.665191650391 3.674100160599
-113.104415893555 -72.392341613770 -223.398986816406 3.398327112198
-0.209677994251 -61.951896667480 -228.974121093750 5.630640029907
-106.402153015137 -66.201728820801 -231.458572387695 2.665061712265
-160.377761840820 -61.331134796143 -222.239913940430 4.847373485565
-144.606582641602 -67.931129455566 -225.857543945313 1.870219349861
-163.757843017578 -68.110702514648 -225.405670166016 2.899210214615
-7.053144931793 -67.139892578125 -225.313796997070 2.071740150452
-6.931223869324 -69.783439636230 -233.324340820313 1.631112694740
79.638435363770 -72.869003295898 -224.888076782227 1.275578022003
-0.105654999614 -72.259788513184 -228.691986083984 2.445044040680
-142.115631103516 -68.715522766113 -237.612365722656 1.685136795044
-13.377862930298 -66.489639282227 -229.235061645508 2.701852083206
75.143577575684 -69.941177368164 -227.451660156250 1.846800208092
75.314338684082 -70.044700622559 -233.052032470703 2.620183467865
-133.246002197266 -66.698837280273 -231.608398437500 1.630248665810
-155.177810668945 -73.185882568359 -228.027679443359 1.876903653145
-112.679481506348 -66.509422302246 -232.552444458008 2.133827924728
-124.164772033691 -63.084228515625 -236.239883422852 2.452046871185
-161.612442016602 -67.162971496582 -234.787445068359 1.889975547791
-159.709411621094 -69.622871398926 -235.059173583984 2.638974666595
-146.747390747070 -62.772411346436 -232.580917358398 0.697558403015
-13.631775856018 -66.552017211914 -234.277877807617 3.603638648987
-4.694181919098 -67.843261718750 -241.738555908203 3.324069738388
-159.221969604492 -67.302986145020 -242.082763671875 1.369709730148
6.802640914917 -69.916564941406 -236.906738281250 2.622270107269
2.118956089020 -70.777435302734 -237.786422729492 2.039445877075
-158.105163574219 -68.379814147949 -237.126480102539 1.668909788132
19.393787384033 -74.522659301758 -240.495437622070 1.048482060432
52.049312591553 -72.542655944824 -245.928543090820 1.622748851776
50.358100891113 -73.247146606445 -243.492156982422 1.853934884071
-15.986622810364 -70.368125915527 -246.930175781250 3.079902172089
48.551147460938 -68.361679077148 -249.596939086914 0.850377678871
-159.008804321289 -64.027191162109 -248.682952880859 3.775112628937
-156.001724243164 -69.447738647461 -246.363647460938 1.317375063896
-160.082351684570 -74.334793090820 -248.856826782227 1.225195527077
56.854198455811 -68.736030578613 -247.444412231445 2.069896697998
-92.649932861328 -67.426856994629 -252.463134765625 2.531378269196
-123.304504394531 -67.273933410645 -254.335556030273 2.015817880630
-105.265892028809 -74.694267272949 -252.350891113281 4.758395671844
26.002698898315 -74.773994445801 -257.388885498047 3.507920503616
40.914020538330 -66.611244201660 -251.381942749023 1.291086196899
-99.568580627441 -65.720695495605 -254.314956665039 3.127950429916
-92.174621582031 -63.451656341553 -249.208938598633 6.687614440918
46.628929138184 -75.246910095215 -255.236587524414 4.690743446350
42.066001892090 -67.262374877930 -256.968627929688 1.176889657974
-153.394927978516 -75.278175354004 -256.997802734375 2.139424562454
29.816312789917 -69.659988403320 -259.836090087891 2.368872404099
-142.648941040039 -72.071960449219 -264.523712158203 1.955812573433
-111.869216918945 -68.896499633789 -262.360748291016 2.965705871582
-137.198760986328 -66.204505920410 -261.688842773438 2.414963960648
33.672424316406 -68.584999084473 -262.731567382813 2.447056293488
-125.372497558594 -67.638488769531 -262.447998046875 0.858853578568
-10.577112197876 -67.591583251953 -256.434661865234 1.460222601891
21.190931320190 -73.442924499512 -270.927001953125 1.832470417023
-3.298118114471 -76.202766418457 -263.989196777344 7.319084644318
19.934076309204 -72.480728149414 -280.153778076172 1.593151926994
-153.652023315430 -72.316307067871 -281.965667724609 2.079113245010
-10.849802017212 -67.284133911133 -280.607910156250 1.266437768936
-151.851715087891 -73.165443420410 -281.181274414063 2.332643032074
-121.754531860352 -72.643005371094 -284.500549316406 3.550830125809
-162.549072265625 -76.723381042480 -285.572235107422 1.271213531494
-114.325782775879 -68.980117797852 -286.456726074219 1.473143935204
-102.915679931641 -70.203659057617 -289.763366699219 2.776711940765
-6.236651897430 -67.758468627930 -284.252014160156 2.044620990753
-107.025062561035 -71.698196411133 -287.913909912109 0.970305263996
-116.216743469238 -66.709884643555 -282.914031982422 5.523519039154
-121.879135131836 -65.390220642090 -291.461364746094 2.037136316299
-138.812652587891 -69.679260253906 -289.613098144531 2.855427742004
-126.409416198730 -65.130996704102 -290.550384521484 0.436007857323
-157.862792968750 -75.347267150879 -288.866302490234 1.612222433090
-146.529861450195 -65.735702514648 -291.008789062500 1.715090274811
-158.684249877930 -65.909141540527 -302.388854980469 5.333153247833
-153.893722534180 -67.467247009277 -310.302642822266 2.826558113098
-159.668289184570 -66.559623718262 -300.712402343750 5.960888385773
-139.071746826172 -70.743827819824 -309.639953613281 4.921088218689
-148.284805297852 -72.631904602051 -314.155181884766 1.657600045204
36.944995880127 -67.596092224121 -6.746016025543 5.243235111237
50.157112121582 -72.587615966797 -16.677368164063 3.689811468124
25.275232315063 -65.216049194336 -21.572162628174 2.678989171982
52.643966674805 -68.030906677246 -25.591678619385 3.552812099457
29.299585342407 -69.954452514648 -33.546482086182 1.838058829308
33.354469299316 -68.298728942871 -32.746185302734 3.271781206131
-55.886146545410 -62.219711303711 -48.051162719727 3.852990388870
78.971252441406 -62.561408996582 -59.260353088379 2.022878885269
84.191215515137 -69.196006774902 -67.194305419922 2.517413616180
-88.157318115234 -69.264625549316 -62.466991424561 1.929193377495
-11.362760543823 -64.306419372559 -59.394084930420 1.678990721703
-90.945899963379 -69.032890319824 -71.054077148438 2.823969841003
98.266815185547 -70.777252197266 -66.876091003418 4.232240200043
-10.583531379700 -64.193328857422 -66.830856323242 1.666871547699
69.187309265137 -71.377342224121 -80.648193359375 1.673551678658
-42.389583587646 -72.050392150879 -80.346755981445 1.747417926788
-24.733297348022 -70.580574035645 -73.713409423828 1.313180685043
57.335201263428 -62.366130828857 -86.192070007324 2.119008302689
-41.630378723145 -78.016395568848 -83.087570190430 2.290029048920
66.579528808594 -57.703117370605 -87.065643310547 3.080427646637
53.873680114746 -73.419990539551 -90.586669921875 1.427654623985
56.788562774658 -66.934715270996 -93.980087280273 1.773202538490
59.746971130371 -75.047805786133 -90.031623840332 2.339605808258
57.741760253906 -62.808155059814 -95.246932983398 2.232753276825
100.490272521973 -63.854450225830 -97.908241271973 0.589632511139
108.535110473633 -62.187602996826 -99.286018371582 4.153043270111
62.157451629639 -70.944808959961 -100.237274169922 3.159569978714
109.201972961426 -63.072593688965 -100.136932373047 4.591236591339
-76.268447875977 -66.732856750488 -98.219032287598 1.854241728783
-71.867462158203 -67.748107910156 -102.498962402344 0.378291338682
101.789993286133 -63.878421783447 -97.958976745605 1.418566346169
54.780471801758 -68.962554931641 -100.513931274414 1.022573351860
71.808959960938 -69.988525390625 -96.907379150391 1.163645386696
-69.940673828125 -67.817565917969 -108.197029113770 1.286678910255
-84.218933105469 -65.966339111328 -107.454093933105 2.182783842087
88.575378417969 -72.247421264648 -102.753097534180 1.659660458565
40.512886047363 -70.173027038574 -102.340873718262 1.664631009102
107.461967468262 -63.625160217285 -106.922103881836 3.744697809219
49.517074584961 -71.299224853516 -113.122695922852 1.327236771584
112.361679077148 -68.746101379395 -101.773277282715 3.368981122971
-76.402297973633 -67.676200866699 -111.538932800293 1.681316137314
104.628585815430 -62.632534027100 -108.373664855957 4.739875316620
-81.859230041504 -64.576492309570 -121.120384216309 1.887518882751
-56.908004760742 -70.484191894531 -127.468612670898 0.540613114834
-55.492809295654 -67.146453857422 -123.425537109375 2.347828865051
-69.968940734863 -70.078598022461 -129.910171508789 3.579172134399
-49.102210998535 -69.300247192383 -130.628738403320 2.002478122711
-82.480453491211 -69.559806823730 -133.464706420898 3.151760816574
-76.154541015625 -63.262752532959 -131.346130371094 1.894726037979
-77.958854675293 -68.512283325195 -132.035171508789 1.464642047882
-59.781429290771 -73.399917602539 -141.662994384766 1.607656359673
-69.373641967773 -68.181198120117 -140.854431152344 2.188608884811
-59.097560882568 -73.471572875977 -132.639816284180 1.957392930984
-55.875202178955 -67.678245544434 -142.212539672852 2.323776483536
14.576619148254 -63.260036468506 -144.858123779297 3.064716100693
-89.908149719238 -68.795852661133 -140.249145507813 1.523239135742
-47.041854858398 -73.651412963867 -148.095809936523 2.960370302200
-93.528190612793 -66.084060668945 -149.373275756836 2.014019250870
-100.401931762695 -64.495704650879 -147.127304077148 1.920835852623
21.421892166138 -70.877738952637 -154.183471679688 1.382515788078
16.061092376709 -69.622634887695 -158.374954223633 1.932559609413
-93.948158264160 -70.819725036621 -160.000442504883 4.117058753967
-102.794830322266 -68.595558166504 -151.273590087891 3.700405359268
-98.473091125488 -66.453773498535 -167.137466430664 3.273561954498
22.827720642090 -67.666664123535 -169.905410766602 1.178776025772
-110.709068298340 -67.823501586914 -172.812332153320 1.703337311745
25.862272262573 -68.028640747070 -164.486312866211 1.568491458893
-146.737716674805 -68.405876159668 -176.221420288086 1.693782210350
19.300565719604 -67.700500488281 -175.595001220703 1.457267284393
26.085605621338 -69.579177856445 -185.528121948242 2.395143747330
-150.659301757813 -66.284469604492 -185.470916748047 2.521551847458
22.283796310425 -70.159645080566 -174.503952026367 3.165293931961
20.340799331665 -60.401256561279 -180.779510498047 6.217536926270
-143.998672485352 -72.547164916992 -182.301788330078 0.949875235558
-150.768325805664 -64.350494384766 -188.907272338867 2.275950431824
20.963970184326 -69.099922180176 -187.195098876953 2.602779150009
19.778366088867 -71.768356323242 -189.658508300781 2.870037555695
-140.527069091797 -70.868431091309 -193.664306640625 2.043303012848
-108.449142456055 -68.722404479980 -197.050674438477 2.096485614777
27.045053482056 -68.995979309082 -198.858276367188 5.765930175781
-124.322570800781 -68.857788085938 -194.139114379883 0.397542357445
10.711248397827 -71.820571899414 -200.415390014648 1.043154597282
-127.780952453613 -61.144962310791 -193.480682373047 4.412463665009
-160.880676269531 -65.371154785156 -188.036666870117 7.376399517059
-159.409591674805 -66.526054382324 -195.806121826172 2.591800928116
-155.825408935547 -70.373977661133 -192.601654052734 1.131032586098
-20.206497192383 -69.175125122070 -206.598663330078 0.631066858768
-167.764495849609 -70.934700012207 -198.452865600586 3.763842582703
-26.687721252441 -63.766273498535 -192.444168090820 4.988094329834
-14.669749259949 -70.042968750000 -193.258392333984 2.961910724640
8.009404182434 -62.019908905029 -195.561904907227 7.029949188232
-155.878494262695 -68.996879577637 -205.720260620117 2.621759414673
-105.704063415527 -66.487632751465 -202.192947387695 4.440529823303
-15.702925682068 -64.431747436523 -199.199874877930 4.618135452271
-160.247879028320 -61.526336669922 -200.554443359375 4.498683452606
18.416450500488 -69.374603271484 -201.806686401367 2.151565551758
-169.965026855469 -65.648033142090 -205.426742553711 3.849072933197
-118.792930603027 -70.862258911133 -201.796524047852 2.680038928986
-114.959434509277 -65.141479492188 -208.332672119141 4.492472648621
-121.761421203613 -67.896423339844 -203.165557861328 1.294391632080
-14.841821670532 -67.102439880371 -202.147918701172 2.553232669830
-18.047393798828 -69.360885620117 -203.058349609375 1.290361642838
-163.146453857422 -67.661178588867 -211.030487060547 1.211051940918
-158.828521728516 -65.456619262695 -211.049148559570 2.942119121552
-163.847244262695 -69.038284301758 -218.849777221680 2.387550592422
-138.606079101563 -71.177650451660 -213.093704223633 7.021904945374
-144.358078002930 -67.607994079590 -224.294952392578 1.723049402237
-0.277065008879 -66.535842895508 -218.554718017578 4.507708072662
-7.936079025269 -74.363365173340 -216.504348754883 3.156389474869
-99.961723327637 -65.705207824707 -219.945556640625 3.262082815170
-6.666346073151 -66.566078186035 -234.514373779297 0.964592397213
-167.921401977539 -64.754318237305 -230.007431030273 3.497312545776
-104.103546142578 -66.001251220703 -233.417098999023 5.688114166260
3.191854953766 -69.087020874023 -226.057647705078 1.334064006805
2.994514942169 -67.917160034180 -228.947448730469 0.975760340691
-111.007644653320 -68.435012817383 -233.263031005859 1.472833037376
-0.621528983116 -70.054809570313 -226.808837890625 1.304641485214
-117.693748474121 -64.520660400391 -233.497039794922 1.143356442451
-7.188251972198 -64.651420593262 -231.224182128906 3.000375270844
-0.813763976097 -67.308280944824 -234.474990844727 1.803264975548
-1.577002048492 -67.598930358887 -238.406463623047 1.780000209808
73.382804870605 -64.555084228516 -236.240509033203 3.794579744339
-8.664374351501 -72.100730895996 -237.126464843750 1.121205568314
10.887251853943 -69.481170654297 -235.501800537109 1.471607804298
12.222457885742 -67.706558227539 -237.343612670898 2.448793172836
6.063312053680 -70.178329467773 -238.195037841797 2.998920202255
5.068802833557 -70.843261718750 -241.134674072266 1.297564864159
64.120452880859 -62.853332519531 -239.138549804688 3.904369115829
69.780792236328 -63.877193450928 -240.230361938477 5.161540985107
7.574480056763 -67.889770507813 -248.073425292969 3.325660705566
52.800216674805 -70.717277526855 -242.067398071289 2.170602560043
56.179737091064 -73.789688110352 -239.813964843750 2.960459232330
47.831901550293 -64.050247192383 -250.563964843750 1.971032619476
43.231838226318 -64.960418701172 -251.165206909180 1.600427269936
41.662063598633 -67.340156555176 -258.155364990234 0.503822684288
-129.314224243164 -62.216617584229 -259.267944335938 3.313544511795
-8.039318084717 -67.548919677734 -247.274887084961 1.698905467987
31.289049148560 -66.342483520508 -257.053344726563 2.459985017776
44.636230468750 -67.026565551758 -245.226684570313 2.722026586533
30.218439102173 -72.020805358887 -252.229583740234 3.669034957886
-103.217727661133 -71.243385314941 -259.017211914063 2.015737533569
30.967893600464 -70.097946166992 -255.477355957031 0.988677203655
-144.412780761719 -70.692123413086 -261.284912109375 2.522599220276
-115.791275024414 -71.324272155762 -255.412429809570 2.038599491119
-109.986312866211 -68.503959655762 -257.939331054688 1.182567477226
-0.965961992741 -72.099304199219 -258.249359130859 7.421818256378
-151.172485351563 -69.780334472656 -256.522735595703 2.539319038391
37.830181121826 -69.121978759766 -262.449523925781 3.499487876892
-107.218200683594 -66.846023559570 -255.157104492188 1.303583741188
26.610624313354 -73.973304748535 -258.141296386719 4.136803150177
-133.892562866211 -71.869270324707 -264.025085449219 0.673565506935
-115.907157897949 -67.793899536133 -265.710510253906 1.837950825691
-110.223869323730 -67.953163146973 -261.931427001953 1.824322462082
-113.167594909668 -75.748756408691 -260.458465576172 2.300880193710
-140.822952270508 -70.573127746582 -254.621490478516 1.189242959023
30.552459716797 -69.388107299805 -258.446594238281 1.900204777718
-116.147254943848 -66.304664611816 -261.902221679688 0.515489280224
-143.952606201172 -70.043746948242 -262.938354492188 1.797519922256
-4.149407863617 -65.881401062012 -269.984558105469 1.589678645134
-149.144332885742 -71.245063781738 -279.519653320313 3.746781110764
-8.126652717590 -69.931381225586 -288.370941162109 2.217311143875
-4.755794048309 -66.138008117676 -280.777130126953 0.338735222816
-133.649291992188 -67.937759399414 -288.757171630859 1.881400108337
-128.571594238281 -69.101837158203 -291.565399169922 1.965835809708
-134.832153320313 -67.813735961914 -294.424407958984 2.454280138016
-126.033355712891 -65.719581604004 -289.446929931641 1.174566984177
-155.151733398438 -68.410339355469 -293.701293945313 1.423322439194
-157.136672973633 -69.318977355957 -299.252471923828 3.336210966110
-147.743225097656 -72.946533203125 -300.968750000000 2.050554275513
-148.604248046875 -70.754096984863 -304.091979980469 4.316621780396
-144.273941040039 -68.106788635254 -297.426696777344 3.589737176895
-150.027603149414 -68.108024597168 -305.372772216797 3.090013504028
-144.964950561523 -65.615509033203 -315.870941162109 4.304470062256
20.783744812012 -69.606559753418 -25.319581985474 1.113911986351
52.033157348633 -70.108863830566 -35.829486846924 2.065658092499
25.975193023682 -73.630393981934 -35.863178253174 2.749586582184
33.512001037598 -66.964591979980 -43.152851104736 2.843631267548
-40.288921356201 -59.097206115723 -48.020744323730 2.215361833572
-73.374885559082 -62.476490020752 -49.616405487061 4.764615058899
81.620071411133 -66.473617553711 -60.795772552490 1.346252679825
75.214859008789 -67.816307067871 -61.095634460449 2.248398542404
73.952644348145 -69.647743225098 -64.250839233398 2.918469667435
-99.348472595215 -66.365188598633 -71.049423217773 3.749221801758
99.977386474609 -71.863899230957 -74.878501892090 2.789425134659
-26.846008300781 -69.114471435547 -84.469551086426 6.787211418152
63.062599182129 -64.630760192871 -74.633705139160 2.202532291412
-40.869754791260 -62.572513580322 -83.165252685547 4.414017200470
-54.435153961182 -64.351303100586 -80.881393432617 2.969470977783
52.857379913330 -67.408821105957 -89.889472961426 0.837625384331
103.770248413086 -65.151756286621 -90.078056335449 2.317796468735
64.468696594238 -64.787162780762 -92.119972229004 1.365591049194
57.527893066406 -65.200904846191 -90.909034729004 3.134961128235
49.348133087158 -63.343246459961 -101.471107482910 1.178097367287
57.581733703613 -62.835533142090 -101.453948974609 3.627901315689
103.933433532715 -64.891212463379 -97.123886108398 1.818241834641
70.339881896973 -66.412353515625 -107.175895690918 3.699465036392
53.176879882813 -67.123321533203 -105.396423339844 3.339198827744
77.104576110840 -73.327674865723 -106.931427001953 4.193719387054
99.958328247070 -63.042644500732 -106.977661132813 2.571528196335
-72.813591003418 -63.598178863525 -98.513000488281 3.454407215118
-85.324249267578 -66.752273559570 -109.503219604492 2.821763277054
-80.701362609863 -67.223091125488 -111.507904052734 2.124369859695
-59.293140411377 -66.555435180664 -118.274902343750 1.778581738472
-56.077861785889 -70.958076477051 -125.746223449707 1.474932432175
-93.493179321289 -65.954299926758 -120.828460693359 1.043774962425
-72.776832580566 -69.368499755859 -118.308120727539 4.633259296417
-75.789802551270 -71.026428222656 -132.254653930664 1.590219020844
-59.288982391357 -63.217304229736 -127.143478393555 3.048221111298
-86.868392944336 -62.670810699463 -130.030242919922 1.318550586700
-88.609382629395 -65.439353942871 -130.187286376953 0.515697777271
-47.278392791748 -70.344795227051 -134.442184448242 2.181379318237
-49.589408874512 -68.688781738281 -136.807373046875 1.973094105721
-76.474685668945 -70.356040954590 -137.662185668945 2.219943761826
-53.467082977295 -69.530479431152 -140.728210449219 2.785393238068
-72.504554748535 -71.744926452637 -144.358169555664 1.983430981636
20.810916900635 -64.520065307617 -138.814117431641 2.304970502853
-56.740165710449 -72.060829162598 -143.578033447266 1.378727674484
-54.553337097168 -63.298488616943 -145.558547973633 3.818350553513
10.113013267517 -71.633605957031 -154.628494262695 2.335055828094
18.557182312012 -65.566307067871 -150.202285766602 1.404183387756
-140.421218872070 -68.180694580078 -172.695404052734 3.346497058868
-108.979942321777 -65.533302307129 -177.148788452148 1.032108068466
-110.007659912109 -63.170509338379 -189.656921386719 1.747847080231
-151.929656982422 -69.618515014648 -189.571731567383 1.847344160080
-112.137771606445 -66.628364562988 -185.523666381836 1.883693218231
-150.313446044922 -62.221370697021 -196.067260742188 0.834250569344
-113.105415344238 -66.358779907227 -198.400558471680 1.189660191536
-149.845428466797 -63.962284088135 -200.467590332031 1.449022650719
-148.652816772461 -66.983741760254 -206.009017944336 2.874954223633
-152.614761352539 -72.466453552246 -204.929428100586 0.943879306316
-147.959106445313 -67.525718688965 -223.923202514648 2.740939855576
-148.253723144531 -71.015579223633 -225.618270874023 3.405276775360
-104.224845886230 -64.442901611328 -227.579437255859 3.599869251251
-99.094673156738 -67.663330078125 -220.287658691406 1.837777853012
-121.926872253418 -62.136501312256 -231.557113647461 3.487842798233
-106.122283935547 -67.670043945313 -224.947021484375 1.584738731384
-156.121246337891 -68.160118103027 -230.045059204102 1.842107415199
-2.187215089798 -67.282768249512 -224.194519042969 0.908190786839
-132.116226196289 -71.218070983887 -229.377258300781 2.940989255905
-152.562362670898 -68.360336303711 -234.885360717773 0.625651240349
-137.660797119141 -71.399330139160 -231.839630126953 1.630549311638
-9.478373527527 -66.187164306641 -233.716522216797 1.586911916733
9.996758460999 -67.901397705078 -243.517089843750 1.389124989510
63.911811828613 -62.083171844482 -239.783416748047 4.485497474670
18.925157546997 -72.450225830078 -248.870910644531 1.826113343239
55.410022735596 -67.583641052246 -241.849105834961 2.087142705917
41.614933013916 -70.899841308594 -249.225936889648 0.692446231842
62.536563873291 -64.135681152344 -252.052688598633 6.409540653229
-152.264389038086 -67.874481201172 -248.309783935547 1.115725874901
-146.395843505859 -71.840797424316 -254.071655273438 2.000563383102
44.677642822266 -66.594589233398 -255.889358520508 1.701123952866
28.950500488281 -68.058494567871 -253.846206665039 3.049844503403
49.450935363770 -64.336990356445 -253.190536499023 1.927789330482
-144.233047485352 -71.104057312012 -261.914184570313 2.440113306046
-136.644149780273 -66.236778259277 -253.968200683594 2.695951700211
-123.146347045898 -65.193473815918 -258.576538085938 2.593053340912
-132.358062744141 -67.704719543457 -255.286453247070 2.530614852905
-139.054992675781 -69.097755432129 -257.468292236328 2.679439783096
-122.124458312988 -67.024284362793 -259.288940429688 3.155500411987
-142.152175903320 -65.722793579102 -259.540130615234 1.979801416397
-126.268234252930 -70.707824707031 -257.521331787109 3.303152561188
-119.374244689941 -68.997535705566 -264.437622070313 2.058966875076
-128.105590820313 -68.370933532715 -264.704742431641 2.732962369919
-121.164886474609 -63.883964538574 -263.629974365234 3.057520151138
-4.216791152954 -68.612136840820 -265.959289550781 2.456059455872
30.255535125732 -63.824172973633 -260.921569824219 1.932124495506
-144.809249877930 -61.957710266113 -266.823272705078 2.994323015213
27.194921493530 -69.652923583984 -270.445831298828 3.613289594650
-5.059597969055 -61.887844085693 -275.712219238281 5.060974597931
18.373872756958 -74.655220031738 -282.565673828125 1.474185943604
-140.253509521484 -68.738250732422 -288.851440429688 2.493166685104
-123.864006042480 -70.763061523438 -286.446014404297 1.361555576324
-130.010314941406 -63.070964813232 -290.101074218750 3.246385574341
-158.766403198242 -63.211162567139 -292.238922119141 3.851315975189
-125.832115173340 -62.202938079834 -288.883209228516 3.391115665436
-117.182144165039 -66.005065917969 -288.382659912109 1.796192765236
-123.830787658691 -71.305809020996 -296.830108642578 1.536344528198
-151.426300048828 -71.622512817383 -291.368988037109 2.930835485458
30.462415695190 -69.717491149902 -10.835372924805 1.631101727486
30.814634323120 -70.656837463379 -17.082418441772 1.083870768547
38.800514221191 -65.166419982910 -20.464757919312 2.823630809784
48.860034942627 -60.968788146973 -22.731050491333 1.091078877449
29.931705474854 -72.362533569336 -27.349258422852 3.916183948517
20.378120422363 -69.677062988281 -32.966514587402 1.172104358673
-32.468879699707 -67.853324890137 -44.978988647461 4.154680252075
-79.854454040527 -68.516464233398 -52.954059600830 3.463962554932
-15.848866462708 -66.194976806641 -58.779449462891 2.595553874969
75.262802124023 -64.042312622070 -64.099075317383 2.465268373489
104.923614501953 -65.380531311035 -68.239280700684 4.464698791504
65.774818420410 -63.501617431641 -83.251144409180 0.959580183029
62.293624877930 -60.465431213379 -83.637596130371 0.929929912090
99.276275634766 -67.162910461426 -84.047782897949 1.535327672958
-63.312023162842 -63.242416381836 -90.466743469238 2.476861476898
-64.959770202637 -66.465110778809 -89.169746398926 2.540079355240
52.124214172363 -63.150077819824 -91.503547668457 2.044965982437
-66.686042785645 -69.292778015137 -95.330085754395 3.472751379013
-71.827033996582 -65.776664733887 -101.195243835449 2.092998504639
-94.079307556152 -66.046302795410 -101.432395935059 3.891667127609
-75.023887634277 -61.512771606445 -98.880165100098 2.930091381073
48.097728729248 -61.787628173828 -101.692207336426 3.088096857071
-64.601654052734 -69.008743286133 -102.876617431641 4.086104869843
49.171585083008 -63.664840698242 -103.680259704590 2.008016824722
96.703651428223 -65.229202270508 -104.439346313477 2.115848541260
90.860649108887 -66.392723083496 -112.955459594727 4.646909713745
-70.635551452637 -65.608772277832 -115.005180358887 4.284243583679
-85.442031860352 -67.874954223633 -111.547454833984 1.656217336655
-60.873607635498 -65.815605163574 -118.381263732910 1.561330199242
-94.700080871582 -61.062980651855 -118.021842956543 2.967299461365
-75.209373474121 -68.819915771484 -126.663879394531 1.546350717545
-92.910224914551 -57.919742584229 -126.154579162598 3.404580593109
-63.032573699951 -64.615844726563 -116.416603088379 2.107541084290
-59.189361572266 -59.267971038818 -121.067657470703 2.102821826935
-88.855758666992 -67.857810974121 -129.844451904297 1.523474812508
-62.664833068848 -69.350463867188 -126.023239135742 3.626386642456
-82.856742858887 -65.080322265625 -132.887954711914 2.311216831207
-82.155647277832 -66.728759765625 -134.270736694336 1.281161308289
-60.145336151123 -71.576911926270 -135.980209350586 2.462363004684
-59.321178436279 -62.187736511230 -133.545242309570 1.622460007668
-54.076347351074 -59.107719421387 -133.419372558594 1.673095107079
-97.858222961426 -62.583206176758 -130.686920166016 6.821842193604
-96.368209838867 -61.569744110107 -144.227737426758 3.354126930237
-89.707489013672 -66.262641906738 -135.593597412109 2.143359661102
20.408611297607 -69.179489135742 -149.897720336914 2.613612413406
-49.224815368652 -66.944458007813 -139.971786499023 1.236047506332
20.645027160645 -66.742538452148 -150.950012207031 1.895367026329
-96.982978820801 -67.240074157715 -164.941497802734 4.265245914459
-102.216735839844 -72.317909240723 -170.273910522461 3.508799314499
-101.458969116211 -62.203556060791 -170.734008789063 2.802268981934
-107.374076843262 -59.094581604004 -173.479766845703 4.570725440979
-107.842811584473 -66.973640441895 -178.250152587891 2.130491018295
-109.536163330078 -65.981986999512 -178.437744140625 0.633379161358
-141.475357055664 -63.610893249512 -186.066009521484 2.817511796951
-110.562126159668 -65.010269165039 -185.346328735352 2.306372165680
-133.091079711914 -63.215885162354 -201.136734008789 1.066705346107
-149.643539428711 -69.234970092773 -197.907989501953 1.252746939659
-127.543029785156 -66.830009460449 -197.933609008789 3.052841424942
-157.180404663086 -68.682296752930 -194.945266723633 1.237254977226
-146.207946777344 -70.859634399414 -201.840957641602 1.752560496330
-125.575744628906 -60.211063385010 -196.854980468750 3.091333150864
-133.745727539063 -64.178329467773 -199.531372070313 1.473897576332
-138.732192993164 -73.273422241211 -206.103164672852 4.539347648621
-129.969345092773 -68.859725952148 -222.386154174805 2.840965747833
-108.018699645996 -69.394966125488 -230.077087402344 2.913638353348
-141.380279541016 -67.497749328613 -227.018722534180 1.780588030815
-119.085975646973 -65.032196044922 -231.751220703125 1.531103134155
-115.758232116699 -60.900928497314 -230.297302246094 3.369646549225
-120.637657165527 -68.309936523438 -231.967437744141 3.830672979355
-132.112167358398 -66.073272705078 -233.565063476563 0.995868742466
-114.132751464844 -62.949226379395 -237.925079345703 5.529077053070
6.316874980927 -65.693664550781 -236.126602172852 0.601866245270
-151.615097045898 -68.852821350098 -238.421295166016 2.698421001434
6.945957183838 -67.222785949707 -236.147506713867 1.863089442253
5.060826778412 -62.299003601074 -243.991653442383 2.108423948288
3.278685092926 -69.502914428711 -242.090499877930 1.857423067093
14.077714920044 -63.267120361328 -240.727386474609 1.458567500114
-142.491775512695 -63.697635650635 -234.409790039063 1.750763893127
-4.941462039948 -69.420188903809 -247.990844726563 4.052595615387
20.316030502319 -66.624824523926 -239.252578735352 3.829817056656
52.195728302002 -64.567771911621 -250.202468872070 1.693592667580
51.612621307373 -65.017654418945 -251.291854858398 2.028935909271
-145.881698608398 -68.986755371094 -251.973907470703 1.839568853378
-4.346705913544 -68.508995056152 -250.657043457031 3.821967124939
22.107542037964 -67.917419433594 -254.194824218750 1.583355069160
-130.407470703125 -60.096786499023 -257.618621826172 5.160070896149
-121.459922790527 -65.292739868164 -256.579956054688 4.206153869629
-122.936523437500 -69.015396118164 -257.743377685547 2.105888605118
27.976667404175 -66.284828186035 -257.580139160156 2.090101718903
-132.609054565430 -63.005649566650 -266.205108642578 4.201540470123
33.980068206787 -64.056449890137 -259.188934326172 3.023120403290
35.022891998291 -66.623908996582 -262.840393066406 2.173753023148
-153.146759033203 -69.174217224121 -267.630859375000 1.953864693642
-145.057357788086 -73.033531188965 -285.911895751953 2.009781122208
-147.739791870117 -62.175800323486 -287.039459228516 1.676553368568
-143.337585449219 -65.127021789551 -295.359039306641 2.027374744415
15.121573448181 -70.687088012695 -291.886413574219 1.915168642998
-153.734756469727 -64.804512023926 -303.154998779297 3.473845243454
47.918693542480 -69.846702575684 -25.749504089355 2.148371934891
37.060813903809 -71.977920532227 -39.454959869385 0.658957183361
-58.146499633789 -61.506092071533 -46.441371917725 3.286889314651
-70.339813232422 -62.436595916748 -47.007064819336 3.268051385880
-25.522491455078 -61.756919860840 -50.824375152588 2.112248897552
-21.722944259644 -69.166717529297 -54.420398712158 1.393366575241
-8.608570098877 -61.389102935791 -66.860076904297 3.085695505142
-26.714590072632 -60.522068023682 -70.113334655762 2.659898519516
65.574317932129 -65.341056823730 -74.446266174316 0.530056059361
-94.995262145996 -58.375373840332 -79.211395263672 4.629080295563
-44.848815917969 -65.901939392090 -87.584823608398 4.074696063995
55.580905914307 -66.949287414551 -85.743217468262 1.671169400215
61.593902587891 -65.736389160156 -85.492416381836 1.850241661072
61.556800842285 -66.111518859863 -88.251892089844 2.877170562744
108.278533935547 -64.228141784668 -90.488052368164 3.453934431076
53.411373138428 -62.880382537842 -89.024070739746 1.736723780632
99.215202331543 -57.961330413818 -99.847877502441 2.892899990082
-82.500816345215 -67.621147155762 -103.884658813477 0.316555976868
-91.035644531250 -64.651588439941 -100.848159790039 6.992397308350
75.374565124512 -61.137496948242 -113.561508178711 3.685972690582
-77.694084167480 -65.566749572754 -103.868133544922 2.552983760834
-76.775039672852 -70.408615112305 -112.588096618652 0.971833884716
-83.468284606934 -72.322860717773 -119.281288146973 1.598370909691
-54.405319213867 -66.709335327148 -126.217109680176 0.859406292439
-75.600112915039 -64.888244628906 -129.303070068359 1.189241886139
-62.492923736572 -60.563400268555 -128.240524291992 2.314617872238
-85.282997131348 -67.403343200684 -135.669021606445 2.733421325684
-75.512825012207 -63.932247161865 -132.920883178711 0.980080425739
-78.526580810547 -63.296894073486 -125.181129455566 0.819072127342
-88.956947326660 -63.760505676270 -129.577011108398 2.270493268967
-66.338577270508 -61.968906402588 -135.350997924805 4.283482074738
-89.681510925293 -65.853660583496 -131.563491821289 1.759998679161
-49.557964324951 -67.928314208984 -132.560943603516 2.069859981537
-54.258827209473 -71.526542663574 -138.914520263672 1.754815578461
28.845642089844 -65.345649719238 -141.529602050781 3.467034101486
-55.317089080811 -58.639652252197 -136.253997802734 1.901582002640
16.421079635620 -70.731819152832 -142.785385131836 4.209971904755
15.293207168579 -63.394470214844 -147.453231811523 0.772076904774
18.407363891602 -61.038867950439 -154.240875244141 2.657987833023
-97.886177062988 -63.777832031250 -145.328292846680 3.048395395279
-89.157844543457 -65.514236450195 -148.786209106445 2.662664651871
-95.793403625488 -61.778915405273 -150.275802612305 0.776199281216
-105.264350891113 -66.081069946289 -163.385162353516 1.350264549255
-97.571617126465 -63.784366607666 -159.877670288086 2.043637752533
-151.633071899414 -63.010288238525 -175.674850463867 1.219818234444
-153.258285522461 -65.529930114746 -175.291687011719 1.894668698311
-112.163017272949 -62.983390808105 -181.889343261719 3.004903316498
-140.404098510742 -63.631736755371 -176.891952514648 2.150276422501
-109.044097900391 -61.595890045166 -182.060073852539 0.809041023254
-147.566528320313 -57.010978698730 -187.110687255859 5.313820362091
-110.667732238770 -61.612785339355 -190.795318603516 3.360590457916
-110.072181701660 -66.845108032227 -181.431213378906 2.149550437927
-144.925537109375 -64.946273803711 -200.113296508789 1.171693682671
-127.427940368652 -67.399856567383 -196.607955932617 3.973019123077
-105.143615722656 -65.911437988281 -197.608184814453 3.466058015823
-115.430328369141 -58.842872619629 -198.302780151367 4.941630840302
-112.736053466797 -67.355148315430 -200.176010131836 2.684113025665
-115.959541320801 -60.000476837158 -202.533706665039 3.369975090027
-133.579101562500 -62.553451538086 -196.490798950195 1.375404953957
-140.293670654297 -65.557205200195 -203.236724853516 1.741157174110
-129.241989135742 -63.623447418213 -208.705215454102 3.986587047577
-128.075439453125 -59.651634216309 -200.157302856445 4.044177055359
-121.900695800781 -63.221420288086 -204.659149169922 0.396097332239
-111.196624755859 -64.734413146973 -204.977691650391 2.300844669342
-148.542770385742 -64.274955749512 -212.549835205078 1.693902611732
-152.237319946289 -64.776771545410 -218.128021240234 4.059995651245
-152.558959960938 -65.180419921875 -221.403289794922 3.460414886475
-138.560379028320 -70.942604064941 -224.699111938477 2.272848844528
-130.979232788086 -60.379119873047 -227.512832641602 4.369986057281
-120.121856689453 -67.742828369141 -217.664321899414 7.933694362640
-139.766647338867 -68.094459533691 -229.623977661133 3.534824371338
-151.213012695313 -67.317672729492 -224.392593383789 1.854843378067
-132.833602905273 -66.797409057617 -225.667785644531 0.861970901489
-132.813934326172 -62.108951568604 -227.945037841797 2.320397853851
-146.509521484375 -64.462539672852 -228.380233764648 2.795570135117
-135.059188842773 -57.690525054932 -228.170791625977 6.022131919861
-128.291000366211 -64.518653869629 -231.779495239258 1.965875744820
-11.755459785461 -67.672149658203 -236.926025390625 1.894547462463
6.023513793945 -64.022300720215 -241.645492553711 1.788048267365
14.910676002502 -59.459278106689 -243.449569702148 1.640236020088
10.032736778259 -68.636657714844 -243.405532836914 1.296167135239
-6.866613864899 -68.834884643555 -237.629455566406 0.835955739021
-12.659148216248 -66.250114440918 -246.388534545898 2.342709302902
36.503803253174 -63.760887145996 -249.161758422852 2.487040996552
47.601707458496 -64.798286437988 -253.730072021484 2.358545541763
-146.464767456055 -64.651451110840 -253.633544921875 1.453808426857
43.148952484131 -63.101970672607 -254.338012695313 0.835273385048
40.563243865967 -67.140792846680 -253.494430541992 0.834030210972
-159.201019287109 -70.946708679199 -255.899597167969 3.102759361267
-149.845596313477 -65.987808227539 -256.153320312500 1.242186188698
-151.849838256836 -68.378852844238 -258.348632812500 2.492460489273
3.587615013123 -67.579833984375 -262.928955078125 4.162222862244
-150.194961547852 -66.973678588867 -266.998809814453 1.675714731216
-0.167364999652 -66.244369506836 -273.775878906250 1.479596376419
-145.362030029297 -69.382789611816 -274.862274169922 1.453739166260
-147.430892944336 -66.757225036621 -280.591339111328 2.163023471832
-150.408584594727 -65.993515014648 -286.266204833984 0.204874590039
-149.430313110352 -56.569171905518 -282.695648193359 5.738401412964
-145.319778442383 -63.830867767334 -291.784454345703 0.657600104809
-154.471954345703 -65.084892272949 -284.410369873047 0.264540731907
-150.776702880859 -66.724708557129 -285.802917480469 0.822287917137
-152.391708374023 -62.213237762451 -287.701507568359 1.724304318428
-147.640716552734 -65.357589721680 -288.059387207031 1.046506285667
-143.740402221680 -65.827674865723 -286.497253417969 1.851031899452
10.902317047119 -67.672889709473 -282.649230957031 5.112321853638
-145.990829467773 -65.191787719727 -295.063537597656 1.626928091049
-157.635681152344 -61.085449218750 -292.199340820313 4.253478527069
-156.442520141602 -59.458835601807 -287.715332031250 4.128792285919
-149.346328735352 -63.261283874512 -292.533691406250 1.738047122955
-147.356658935547 -57.914188385010 -287.531097412109 4.755328655243
-146.415267944336 -68.397567749023 -291.752685546875 2.791595220566
6.858635902405 -68.066375732422 -292.188659667969 1.892313480377
-143.331085205078 -62.429904937744 -294.396514892578 3.144908189774
-147.650939941406 -61.701007843018 -292.375274658203 2.360059976578
30.434469223022 -57.532375335693 -14.670045852661 3.620969533920
44.025859832764 -69.154457092285 -21.055727005005 2.090102672577
43.827304840088 -60.946598052979 -21.096784591675 1.848542213440
17.319662094116 -68.461837768555 -31.615945816040 3.602364778519
25.932527542114 -54.148078918457 -35.037673950195 2.460857629776
37.686672210693 -63.487026214600 -36.220699310303 0.687682151794
-54.503479003906 -62.402976989746 -45.012546539307 0.586237490177
-49.320487976074 -63.507938385010 -40.717891693115 4.412071228027
91.763259887695 -64.122642517090 -66.021392822266 3.813939809799
-94.178329467773 -61.834369659424 -65.072731018066 2.374132394791
98.380355834961 -74.293724060059 -61.066368103027 8.840062141418
69.550849914551 -66.489318847656 -71.344795227051 1.982888817787
100.181564331055 -66.567932128906 -78.625686645508 4.070339202881
63.943752288818 -69.962280273438 -76.394393920898 3.166193008423
-41.343620300293 -64.187080383301 -77.377090454102 1.097638249397
60.492046356201 -61.417663574219 -81.907737731934 2.167683601379
-49.702899932861 -60.620326995850 -76.870529174805 2.982627391815
57.013767242432 -63.779594421387 -83.162658691406 2.888677120209
64.041969299316 -60.211246490479 -86.330627441406 2.727651119232
-97.317390441895 -63.306255340576 -83.929580688477 2.014067411423
52.583618164063 -62.169208526611 -84.197692871094 4.791501522064
52.839855194092 -69.942283630371 -93.062774658203 1.912041068077
66.577713012695 -65.214218139648 -91.692268371582 1.659811139107
53.183300018311 -63.242786407471 -96.567306518555 1.622837781906
-79.498016357422 -62.061527252197 -106.522720336914 1.994150757790
83.697036743164 -68.877044677734 -106.130859375000 2.030498266220
-82.018836975098 -68.514221191406 -119.347763061523 2.568034172058
-76.338134765625 -61.738338470459 -104.704757690430 1.517078518867
-78.730873107910 -65.219665527344 -123.320434570313 0.620699763298
-84.108573913574 -62.616886138916 -115.978622436523 2.507824420929
-94.360214233398 -59.566131591797 -119.390991210938 3.260639429092
-80.579452514648 -65.184761047363 -120.729103088379 1.225509881973
-50.061119079590 -62.339637756348 -124.282867431641 4.283946514130
-77.371475219727 -61.263164520264 -134.963485717773 3.152704477310
-56.031768798828 -58.502773284912 -128.717224121094 2.082072973251
-87.611770629883 -60.852153778076 -136.907546997070 3.702249288559
30.612867355347 -63.428207397461 -137.884429931641 2.221006631851
20.359382629395 -64.229743957520 -140.907119750977 0.353598207235
-93.429359436035 -53.082824707031 -143.812835693359 9.910415649414
22.993299484253 -66.585319519043 -148.060897827148 3.055994272232
-88.843566894531 -67.285682678223 -146.793746948242 2.999301433563
-93.539939880371 -58.733753204346 -147.339675903320 4.166600227356
19.228288650513 -64.888214111328 -161.687057495117 5.181222438812
-95.347686767578 -62.893638610840 -147.716049194336 1.240167498589
-98.203155517578 -61.377063751221 -146.173080444336 3.145024299622
-103.343536376953 -62.876960754395 -155.030960083008 3.182813644409
-93.525009155273 -63.749778747559 -161.932128906250 4.935976982117
-102.308898925781 -67.227142333984 -179.704055786133 3.396486043930
-109.187469482422 -71.194572448730 -169.089416503906 3.669386863708
-96.561820983887 -65.129066467285 -164.986450195313 4.437187194824
-104.005020141602 -65.159790039063 -167.449752807617 2.504921674728
-139.415649414063 -65.053771972656 -178.424819946289 3.366706132889
-110.565124511719 -63.793266296387 -177.330108642578 1.644080996513
-139.347717285156 -64.118652343750 -187.377990722656 3.939901113510
-147.683868408203 -59.924236297607 -190.657516479492 3.323122501373
-153.831085205078 -58.406314849854 -187.461730957031 6.071768760681
-121.018470764160 -61.179821014404 -196.238601684570 1.688037514687
-127.659111022949 -68.216407775879 -193.411865234375 2.018922805786
-121.342208862305 -61.399200439453 -200.905670166016 2.805221796036
-143.507293701172 -66.600524902344 -200.970947265625 2.600301265717
-122.369163513184 -67.984260559082 -203.103698730469 1.190680861473
-146.192901611328 -64.555030822754 -202.879348754883 2.841419219971
-151.393524169922 -63.518444061279 -204.875259399414 2.364486455917
-153.721466064453 -62.217391967773 -226.352584838867 0.581279635429
-142.733795166016 -70.435005187988 -231.149749755859 1.935681343079
-127.593048095703 -61.291290283203 -230.950393676758 3.664219141006
-152.359695434570 -62.441448211670 -229.325546264648 0.893515527248
-1.962661981583 -69.910263061523 -239.458023071289 1.072166085243
12.622667312622 -61.200786590576 -237.887664794922 4.272682189941
-0.622411012650 -68.845901489258 -243.398742675781 2.549902200699
-150.290725708008 -62.796234130859 -244.477081298828 2.820245981216
-7.816708087921 -62.291584014893 -241.214996337891 3.171701192856
-152.669342041016 -70.054298400879 -253.161895751953 0.677495062351
-6.300079822540 -69.958076477051 -249.856399536133 4.539443969727
-147.794143676758 -66.546958923340 -254.117843627930 1.555381655693
21.471677780151 -65.864044189453 -251.511779785156 3.043258190155
-151.333999633789 -58.940532684326 -254.942352294922 2.966018676758
-149.036880493164 -63.892467498779 -255.058486938477 1.354812860489
-150.895416259766 -63.773914337158 -253.619934082031 1.153759837151
-148.645202636719 -62.700416564941 -258.012420654297 1.678460240364
33.356437683105 -65.209503173828 -259.305114746094 2.227105379105
32.444404602051 -64.575798034668 -264.449462890625 3.532072067261
-144.618484497070 -64.436012268066 -254.057495117188 1.249719619751
-151.574920654297 -58.687934875488 -259.243225097656 4.060630798340
-152.925537109375 -68.257026672363 -259.368103027344 2.962414979935
-146.110641479492 -61.351562500000 -258.320495605469 1.729648947716
28.282932281494 -63.200607299805 -262.634643554688 0.313647150993
30.199293136597 -63.822998046875 -267.024353027344 3.819491147995
-155.471923828125 -65.658363342285 -262.050292968750 1.924148678780
-142.842773437500 -63.493469238281 -263.242401123047 0.501398801804
-147.682159423828 -60.014533996582 -262.213928222656 1.674279093742
-142.847000122070 -63.363220214844 -264.771118164063 1.426249265671
-142.663040161133 -67.188949584961 -262.021484375000 1.026009440422
-144.293853759766 -69.849250793457 -265.310516357422 1.312408804893
-147.533126831055 -61.440509796143 -266.091552734375 0.874074280262
-149.509994506836 -59.729267120361 -286.321716308594 3.385111570358
-145.786819458008 -63.761318206787 -281.757049560547 1.566154718399
-147.061218261719 -64.344909667969 -278.363586425781 1.148636698723
17.236700057983 -64.060951232910 -281.352691650391 2.516720533371
-153.473419189453 -59.865093231201 -285.456695556641 2.382392406464
-146.105194091797 -62.915176391602 -289.959381103516 2.089702367783
-5.216588973999 -72.145950317383 -286.407928466797 1.068767428398
5.664658069611 -63.708747863770 -291.860717773438 2.340807437897
-152.370010375977 -64.486824035645 -293.859039306641 1.556848764420
28.318536758423 -69.799644470215 -21.257549285889 0.839708805084
47.579170227051 -64.312263488770 -27.745471954346 3.380911111832
51.181308746338 -69.138496398926 -32.770565032959 3.198430061340
41.294013977051 -58.963848114014 -36.738166809082 2.772285938263
27.207258224487 -71.004325866699 -36.865882873535 1.508311271667
46.641876220703 -66.376022338867 -40.819854736328 3.618894577026
79.850502014160 -59.690280914307 -63.328521728516 5.084794044495
78.534843444824 -63.450222015381 -63.136856079102 3.181195259094
