40.945972442627 -78.102920532227 -131.199218750000 0.882097601891
36.211856842041 -71.154190063477 -132.228790283203 1.505080819130
-42.790794372559 -73.834419250488 -142.129318237305 1.805018544197
-68.517234802246 -78.118675231934 -143.357818603516 4.212389469147
-51.291149139404 -73.973770141602 -148.791717529297 1.764428377151
-72.795150756836 -79.449073791504 -145.945220947266 3.484917163849
-36.877361297607 -74.721641540527 -147.777862548828 4.411608219147
107.970794677734 -76.151672363281 -155.952835083008 2.979941606522
-69.981124877930 -77.374023437500 -156.369537353516 1.099894285202
25.199180603027 -80.289207458496 -146.298156738281 2.354364395142
30.448413848877 -78.047218322754 -149.599670410156 1.121648430824
113.089851379395 -79.013572692871 -162.154479980469 2.393779277802
11.440393447876 -78.632255554199 -159.140396118164 3.825949430466
34.900653839111 -72.964027404785 -155.300979614258 1.831826567650
-61.303443908691 -77.612632751465 -159.387832641602 2.715565443039
-38.708961486816 -77.564956665039 -173.441604614258 0.461856424809
23.172142028809 -75.387733459473 -163.093109130859 2.152673244476
-63.463741302490 -74.156135559082 -156.998550415039 1.910183429718
-68.317672729492 -75.339210510254 -165.675292968750 3.089722871780
115.597633361816 -77.942367553711 -165.779891967773 2.487970829010
-6.496315002441 -76.946807861328 -165.150695800781 1.327255964279
-63.684703826904 -73.851905822754 -172.118408203125 1.953308463097
-32.833168029785 -77.386016845703 -167.031555175781 0.753851771355
-52.623382568359 -74.152206420898 -171.819091796875 3.049976587296
32.189006805420 -74.906570434570 -174.714782714844 3.742577552795
113.101387023926 -73.232421875000 -172.457336425781 0.247039422393
104.014457702637 -74.434555053711 -183.093627929688 0.903829157352
106.654861450195 -75.571258544922 -188.946029663086 2.441325664520
108.378776550293 -73.286079406738 -175.871765136719 2.578665733337
-49.595504760742 -74.225585937500 -191.943511962891 2.177167654037
-46.138671875000 -72.074874877930 -183.204544067383 4.715950012207
29.076698303223 -75.590141296387 -183.480422973633 2.951972007751
-46.275108337402 -74.149299621582 -185.777938842773 2.626384019852
-19.014900207520 -75.910911560059 -183.760696411133 1.751371026039
-49.310108184814 -78.561676025391 -191.384780883789 1.889829516411
-150.179367065430 -74.358680725098 -192.792358398438 1.092167973518
102.816871643066 -78.216026306152 -192.106399536133 1.648040652275
-42.645774841309 -72.680046081543 -194.699584960938 4.127586841583
-10.920310020447 -77.417167663574 -198.977767944336 3.579543113708
-137.854232788086 -74.925697326660 -193.139068603516 3.966659784317
-39.950611114502 -73.081848144531 -198.646926879883 0.854950845242
102.964111328125 -74.663566589355 -196.194946289063 1.090575098991
109.361656188965 -73.817420959473 -184.639724731445 1.252821087837
-41.495800018311 -75.337387084961 -195.573654174805 1.616096496582
-20.773000717163 -83.047393798828 -198.957824707031 4.047047138214
-145.531661987305 -78.801910400391 -200.300399780273 1.840454578400
-23.362581253052 -75.457817077637 -195.527893066406 1.141241073608
-157.765747070313 -75.957328796387 -197.141891479492 3.453362464905
-151.003936767578 -82.859504699707 -205.166793823242 3.548083066940
-142.821777343750 -77.746315002441 -201.954376220703 1.960528969765
-36.814151763916 -76.503860473633 -200.677536010742 2.565481185913
103.439537048340 -77.221511840820 -202.636093139648 2.937159776688
-40.276851654053 -73.556518554688 -199.798477172852 1.632423520088
-140.790328979492 -79.397743225098 -204.957916259766 2.900464534760
-35.704673767090 -71.614479064941 -205.365036010742 2.076905012131
-20.256446838379 -81.349845886230 -209.728042602539 5.227006912231
99.423309326172 -78.905029296875 -205.274261474609 1.801578879356
92.136085510254 -77.792259216309 -214.182922363281 1.889466404915
-34.997543334961 -73.878532409668 -217.106277465820 4.296533584595
-86.452407836914 -77.225212097168 -210.174270629883 1.756260633469
-74.016021728516 -76.907768249512 -211.655151367188 1.667229771614
-17.507146835327 -75.946456909180 -210.321624755859 1.444338560104
-148.283370971680 -77.756103515625 -202.564697265625 2.280264854431
93.146980285645 -75.534729003906 -213.537841796875 0.583208680153
90.292442321777 -72.787460327148 -217.631347656250 1.344864606857
91.621376037598 -76.669097900391 -220.306808471680 1.676048159599
-100.990303039551 -76.760971069336 -218.805206298828 3.638655185699
-152.716735839844 -78.295127868652 -221.216934204102 3.800829172134
-18.546260833740 -74.001274108887 -223.601776123047 0.911980807781
82.350639343262 -72.595298767090 -226.905151367188 1.884297609329
-148.493927001953 -79.956680297852 -222.159423828125 3.791346311569
-27.332347869873 -77.457603454590 -217.312057495117 1.327349066734
-132.438888549805 -74.005073547363 -232.834793090820 0.998592555523
-9.583154678345 -78.918083190918 -231.236755371094 2.837134838104
18.929027557373 -74.886650085449 -228.419219970703 2.792355775833
21.820308685303 -77.076713562012 -233.100494384766 3.277732133865
-153.716598510742 -79.014724731445 -235.385681152344 3.320021152496
-124.761344909668 -71.850158691406 -232.815963745117 1.446081876755
-6.578317165375 -75.644271850586 -235.428070068359 1.515165090561
1.854676961899 -75.146018981934 -237.524658203125 0.588199853897
70.816139221191 -75.879829406738 -231.083404541016 2.064824342728
71.142234802246 -72.636779785156 -238.772186279297 1.081737518311
1.420289993286 -73.725494384766 -240.122131347656 1.737126946449
17.753828048706 -71.705947875977 -239.890029907227 0.818958222866
-29.539684295654 -67.865730285645 -241.339111328125 6.699985504150
-30.915588378906 -84.983741760254 -242.032653808594 5.028917789459
-46.891387939453 -75.889877319336 -236.264892578125 3.845588684082
-38.700195312500 -73.705245971680 -239.958160400391 2.888576030731
-14.852652549744 -77.443710327148 -242.849182128906 2.541420936584
-50.283973693848 -73.989440917969 -244.232833862305 2.512836456299
3.418838977814 -76.747520446777 -245.136230468750 1.948843955994
-66.727210998535 -78.244400024414 -242.914703369141 4.090447425842
23.106044769287 -77.529716491699 -247.035598754883 0.369378030300
-140.890716552734 -78.631584167480 -244.164215087891 5.365178108215
-71.333671569824 -78.940910339355 -253.378997802734 2.561401605606
18.008174896240 -77.278213500977 -249.761154174805 1.147126555443
-159.482894897461 -74.778587341309 -249.460617065430 1.315149188042
14.987443923950 -80.573120117188 -253.485992431641 2.448275327682
-78.699424743652 -69.974411010742 -250.923171997070 0.819641888142
-74.079711914063 -76.565788269043 -250.465209960938 1.542838931084
20.288087844849 -78.271697998047 -254.111419677734 1.925365328789
-87.826911926270 -75.373176574707 -251.075073242188 1.364079475403
-124.154403686523 -72.291328430176 -254.666656494141 1.207175254822
-130.839508056641 -80.098381042480 -260.438415527344 3.808818578720
-134.451171875000 -79.302154541016 -252.790130615234 4.245317935944
-145.230911254883 -78.120780944824 -261.614318847656 2.564169645309
-144.300857543945 -72.580818176270 -252.729644775391 1.336789250374
-132.599304199219 -74.364448547363 -261.818786621094 0.938207149506
-160.101150512695 -72.371520996094 -260.532257080078 2.654491186142
-126.327629089355 -76.081047058105 -267.246612548828 4.421982765198
-134.674819946289 -70.561866760254 -263.050842285156 0.648610174656
-160.869171142578 -72.806144714355 -270.009124755859 2.567175388336
-154.047897338867 -73.237312316895 -264.658752441406 2.866204500198
-146.530761718750 -74.172142028809 -265.825836181641 1.446511030197
-147.101104736328 -76.919601440430 -265.764160156250 0.513484954834
18.884468078613 -78.965881347656 -278.819030761719 3.706375360489
-164.781845092773 -76.174247741699 -265.981414794922 2.129840135574
-149.845062255859 -77.885238647461 -273.511993408203 1.273445367813
-3.452169895172 -84.612258911133 -272.479431152344 3.402532339096
-153.557846069336 -73.516403198242 -275.040100097656 1.889700531960
13.668895721436 -80.117355346680 -283.117919921875 2.595611095428
-151.034240722656 -75.689819335938 -281.570587158203 1.324452996254
-164.218338012695 -77.655982971191 -288.649047851563 3.463690757751
-153.730804443359 -79.185562133789 -278.196197509766 2.336664438248
-162.902328491211 -73.790374755859 -289.135803222656 2.136070728302
2.271410942078 -80.202224731445 -286.972747802734 4.243844032288
8.965261459351 -81.883926391602 -281.477447509766 3.295011281967
-103.299560546875 -74.194564819336 -292.605621337891 2.303349018097
-154.327285766602 -82.813140869141 -287.772003173828 1.152538657188
-146.381317138672 -73.678596496582 -285.232391357422 1.918026566505
-104.377693176270 -75.109138488770 -291.878082275391 2.274348020554
-151.495361328125 -79.656967163086 -293.006256103516 2.243596315384
-146.653869628906 -80.741134643555 -288.745941162109 0.528153777122
-73.135902404785 -80.065216064453 -293.312652587891 6.081305503845
-166.104415893555 -78.727447509766 -288.994201660156 4.861807346344
-120.902671813965 -72.456420898438 -291.582489013672 1.202586174011
-41.205596923828 -81.162361145020 -285.837890625000 3.992743015289
-149.823104858398 -75.897789001465 -287.799774169922 2.165289402008
-129.858703613281 -71.073928833008 -293.799285888672 2.997801065445
-18.255367279053 -73.956359863281 -294.701934814453 3.942520856857
-127.333389282227 -72.170845031738 -293.171966552734 1.886773943901
7.932388782501 -77.791107177734 -294.924163818359 2.767744302750
16.888147354126 -73.797660827637 -292.368713378906 1.484058260918
-131.641616821289 -71.889862060547 -291.023742675781 3.665383338928
-143.791687011719 -78.354270935059 -298.567230224609 3.617497444153
-154.568939208984 -80.064125061035 -315.290008544922 3.823400259018
-70.166213989258 -68.622047424316 -52.890918731689 3.269176244736
-20.177614212036 -67.443244934082 -65.919685363770 4.861852169037
-17.933446884155 -76.811080932617 -65.081863403320 3.215291738510
72.907669067383 -71.567794799805 -78.478721618652 2.795742750168
91.994056701660 -73.305648803711 -75.794494628906 1.637253522873
-34.692871093750 -73.782424926758 -79.968025207520 3.057646274567
77.667160034180 -73.037994384766 -80.705154418945 3.007674932480
91.735862731934 -78.020713806152 -82.777626037598 2.230920791626
68.009857177734 -74.363906860352 -84.190650939941 2.511090755463
74.861968994141 -72.724548339844 -90.539070129395 1.838944435120
-48.456451416016 -74.549797058105 -85.257774353027 2.578396320343
-90.185348510742 -76.618408203125 -89.613479614258 2.467828989029
60.929229736328 -77.221076965332 -93.931274414063 3.600335359573
51.997493743896 -76.625267028809 -100.057159423828 1.250591397285
94.545074462891 -70.314025878906 -101.278533935547 1.755463600159
-89.271057128906 -68.362464904785 -101.912757873535 5.255925178528
81.894950866699 -69.038993835449 -100.334495544434 1.303724527359
73.473052978516 -74.984031677246 -101.281120300293 3.346610784531
92.930793762207 -76.952705383301 -98.068611145020 3.051725149155
85.311233520508 -74.420959472656 -96.602920532227 0.715748727322
82.431587219238 -77.299736022949 -99.003860473633 2.255892515182
-86.577796936035 -75.797821044922 -102.815322875977 5.171833992004
45.612621307373 -71.374427795410 -105.112976074219 2.000502824783
106.549407958984 -75.809432983398 -110.805892944336 2.399333000183
108.567527770996 -75.257377624512 -110.717575073242 1.151458621025
51.326782226563 -77.899085998535 -120.312477111816 5.377798557281
114.640342712402 -78.096092224121 -119.670585632324 4.287212848663
118.971725463867 -78.512123107910 -135.101806640625 3.693888664246
-49.084102630615 -71.287940979004 -129.678588867188 3.089915037155
29.341783523560 -73.997444152832 -134.979660034180 2.280709266663
42.663490295410 -78.309967041016 -133.811996459961 3.512018918991
26.207923889160 -71.668899536133 -142.199310302734 2.118106365204
114.400260925293 -78.863761901855 -137.097808837891 3.247858285904
113.076988220215 -76.299552917480 -130.342498779297 1.196352005005
-71.985534667969 -73.994384765625 -148.547424316406 1.054258346558
-42.007907867432 -73.124275207520 -140.863235473633 3.436860084534
-69.750221252441 -72.126953125000 -152.808532714844 1.418101072311
20.255657196045 -72.355621337891 -148.331314086914 2.551210641861
113.686492919922 -71.747421264648 -148.255096435547 2.294990539551
-52.510150909424 -76.164459228516 -152.300369262695 1.749877572060
-70.695022583008 -73.053665161133 -152.488662719727 1.864263176918
-37.665149688721 -77.690261840820 -151.640930175781 2.065420150757
33.325328826904 -68.757713317871 -154.069610595703 2.609086990356
110.419807434082 -70.729568481445 -150.564620971680 1.846639752388
118.353096008301 -73.740478515625 -161.912063598633 0.921844661236
-66.693008422852 -70.812644958496 -156.319381713867 1.078332543373
-73.230621337891 -76.846977233887 -160.510391235352 3.447320938110
23.496274948120 -79.387893676758 -163.588668823242 0.996674656868
-58.724281311035 -71.723464965820 -167.380981445313 2.572807550430
-30.898214340210 -71.998672485352 -163.682632446289 1.949877142906
10.122266769409 -76.395881652832 -164.196929931641 4.247056484222
109.006057739258 -71.859901428223 -161.638168334961 1.692483901978
11.465671539307 -78.675857543945 -168.422515869141 7.034179687500
-30.863351821899 -74.714332580566 -166.113372802734 2.071461200714
-1.771456003189 -68.728225708008 -165.048492431641 3.686690330505
108.302398681641 -70.710540771484 -167.030181884766 1.719744920731
-40.167755126953 -71.743957519531 -164.008148193359 3.151795625687
31.884120941162 -71.889785766602 -173.590347290039 3.272474527359
116.002204895020 -79.641418457031 -172.422805786133 4.810018539429
-55.550621032715 -70.825958251953 -175.997283935547 2.986540079117
-26.287328720093 -78.004974365234 -175.794952392578 1.669374108315
103.321769714355 -75.599189758301 -174.528381347656 2.919366359711
30.940361022949 -72.000015258789 -168.116378784180 3.154804468155
106.308609008789 -76.741989135742 -175.920806884766 2.532276868820
-35.263442993164 -69.973320007324 -179.510513305664 2.520331621170
111.270912170410 -78.983772277832 -180.864334106445 3.678785800934
-61.632030487061 -70.807830810547 -177.895065307617 3.990577459335
-24.175588607788 -79.136573791504 -178.009490966797 2.771545171738
-145.805862426758 -67.524887084961 -184.905883789063 3.540931940079
-52.421081542969 -73.291351318359 -179.360671997070 1.187773942947
-145.793518066406 -74.618782043457 -186.269699096680 1.163191318512
-33.347946166992 -71.959419250488 -183.800674438477 1.538243412971
30.607320785522 -80.182067871094 -179.002380371094 5.126646995544
107.428031921387 -76.137321472168 -183.630386352539 1.422011494637
-34.701110839844 -73.734161376953 -182.296203613281 2.008877515793
12.124784469604 -75.234802246094 -191.108016967773 1.254043817520
17.845308303833 -74.336883544922 -205.590179443359 2.050554990768
-147.623901367188 -74.708587646484 -188.450912475586 0.907413959503
108.125549316406 -78.446067810059 -195.977233886719 3.802402019501
-21.656164169312 -72.279273986816 -193.113784790039 2.787433624268
102.251846313477 -76.542160034180 -187.244979858398 1.837618947029
13.603965759277 -71.559944152832 -190.617324829102 1.771126270294
-138.243148803711 -74.094261169434 -205.975402832031 4.907777786255
-136.101776123047 -73.284500122070 -199.757141113281 1.845166087151
103.848770141602 -79.147117614746 -201.618865966797 2.487261772156
-10.160897254944 -79.274360656738 -200.084228515625 4.535163879395
-15.605205535889 -75.257690429688 -204.458007812500 2.032261371613
13.022008895874 -77.388938903809 -207.618881225586 1.822999238968
-148.283142089844 -73.261993408203 -206.532119750977 1.624447345734
-144.827178955078 -75.551826477051 -209.760986328125 2.259694814682
102.733413696289 -69.008720397949 -205.749359130859 3.157945871353
-82.870864868164 -74.103103637695 -207.765502929688 3.707676649094
-33.622310638428 -75.892433166504 -200.756790161133 0.735006153584
21.748966217041 -78.653953552246 -215.163818359375 4.589129924774
-22.917499542236 -75.362731933594 -211.027084350586 1.965189218521
-73.363563537598 -72.366371154785 -206.083023071289 4.532536983490
92.699821472168 -75.288131713867 -209.108291625977 1.395049214363
-77.546142578125 -71.463912963867 -212.431533813477 1.455173730850
-146.279083251953 -74.111076354980 -219.495880126953 2.003754854202
-78.613075256348 -72.531181335449 -212.797592163086 1.802159905434
-10.049841880798 -68.465606689453 -207.898605346680 2.892560243607
-18.766485214233 -71.689888000488 -220.248947143555 1.616357684135
20.079933166504 -75.470085144043 -214.696960449219 2.279844284058
-3.466964960098 -76.556457519531 -222.032241821289 1.728188037872
-86.726593017578 -80.277076721191 -219.374572753906 3.631280899048
94.727233886719 -74.142898559570 -213.868255615234 2.128250598907
-98.297950744629 -72.707145690918 -215.667663574219 1.160647153854
-152.052215576172 -72.302452087402 -225.567840576172 2.043325185776
-27.051591873169 -73.874015808105 -224.692413330078 3.017134904861
20.595815658569 -76.106666564941 -215.837417602539 2.928837299347
-100.484611511230 -75.175102233887 -220.252243041992 1.474819421768
9.061178207397 -69.948722839355 -217.743850708008 2.725951194763
-25.388174057007 -74.546798706055 -214.848815917969 1.712978720665
84.166717529297 -72.810935974121 -224.889587402344 0.550878822803
-142.844009399414 -72.516761779785 -217.759262084961 1.848944425583
15.676604270935 -74.022895812988 -225.975006103516 1.675291895866
-7.741646766663 -78.641319274902 -227.871459960938 2.397054195404
19.470932006836 -66.951721191406 -223.658569335938 3.857698202133
85.646652221680 -76.561729431152 -222.756591796875 1.159337401390
-12.676741600037 -78.555908203125 -229.298110961914 2.700671195984
-128.731628417969 -76.451141357422 -227.239334106445 3.352891921997
-13.182069778442 -74.504486083984 -224.349227905273 1.491716146469
18.448574066162 -74.665702819824 -229.497863769531 1.852686762810
-125.971023559570 -77.416252136230 -227.321151733398 2.383821010590
-151.565689086914 -70.608314514160 -231.339233398438 3.081463813782
-141.334045410156 -73.059318542480 -229.443664550781 0.855659246445
-126.893745422363 -71.907119750977 -226.784606933594 1.126836180687
-9.823368072510 -71.579307556152 -224.408813476563 0.915324151516
73.653778076172 -74.782333374023 -227.265167236328 2.017131090164
-142.626083374023 -69.600318908691 -239.559173583984 2.919785737991
70.496810913086 -76.071563720703 -228.289230346680 3.340015649796
-19.412797927856 -78.927062988281 -231.240783691406 2.486358642578
-140.818588256836 -77.301239013672 -228.496231079102 2.200698614120
78.317001342773 -82.922737121582 -229.196273803711 6.447757244110
11.895336151123 -80.111167907715 -232.173843383789 1.318856239319
-138.463638305664 -78.222381591797 -236.363937377930 5.147186279297
-147.877059936523 -73.298591613770 -233.510635375977 1.804013967514
19.397180557251 -70.476089477539 -230.850112915039 2.133064508438
-0.727504014969 -78.695816040039 -239.139358520508 1.188142299652
-27.732172012329 -73.720275878906 -236.991622924805 1.589681148529
0.244675993919 -69.912979125977 -236.527542114258 0.787766456604
-158.832046508789 -77.618499755859 -238.189102172852 3.818750619888
7.732141017914 -72.577842712402 -242.886917114258 0.418072491884
-163.074630737305 -75.572769165039 -241.063095092773 2.159994840622
-10.228696823120 -76.010787963867 -237.592483520508 3.502939701080
60.748928070068 -76.109687805176 -239.196929931641 2.990557909012
-11.763127326965 -73.207763671875 -236.807449340820 1.224440455437
-23.242527008057 -74.429237365723 -247.226470947266 5.430532455444
-22.664142608643 -74.272415161133 -241.884704589844 1.788221120834
-9.233777999878 -78.834465026855 -240.125701904297 5.805004119873
-144.663513183594 -75.060218811035 -228.762329101563 1.396183371544
9.625256538391 -73.627182006836 -241.616989135742 1.324671506882
65.889259338379 -74.769531250000 -244.721572875977 3.768563508987
17.359722137451 -71.843009948730 -245.317321777344 1.175213217735
-166.944473266602 -72.170745849609 -243.102416992188 2.505223274231
-49.758495330811 -73.449722290039 -239.139007568359 3.110558271408
6.746870040894 -82.212165832520 -248.902297973633 1.282171845436
19.044105529785 -75.335525512695 -243.391372680664 2.646143436432
-52.066280364990 -74.269493103027 -247.619033813477 1.815438508987
-0.242836996913 -69.402526855469 -250.156799316406 5.679926872253
22.410186767578 -82.211372375488 -248.742721557617 1.996812224388
-169.920822143555 -71.573776245117 -249.501617431641 3.798436403275
-63.759422302246 -79.002624511719 -249.214736938477 1.206712365150
-50.564411163330 -72.644752502441 -247.913772583008 1.988736152649
-80.806747436523 -72.697959899902 -253.045272827148 2.515803813934
-160.135116577148 -75.881538391113 -246.791519165039 2.835578203201
-148.897537231445 -65.140541076660 -248.482711791992 2.653566598892
-58.805088043213 -76.882537841797 -250.031509399414 1.362861514091
-66.899337768555 -74.117622375488 -249.196456909180 1.888911962509
-151.890213012695 -71.556587219238 -252.589981079102 1.510408997536
-150.350982666016 -75.670921325684 -252.519424438477 1.562313199043
-73.019615173340 -69.625961303711 -255.256759643555 3.432090759277
-91.747543334961 -70.937240600586 -256.868164062500 2.181727409363
-161.569366455078 -67.294898986816 -253.974258422852 2.945619344711
-155.582122802734 -74.760864257813 -261.562683105469 0.584018290043
-133.618011474609 -76.555664062500 -260.437652587891 1.785003900528
-81.547424316406 -73.899055480957 -250.249298095703 1.461128950119
-160.003555297852 -69.958595275879 -254.066406250000 1.858831048012
-139.900665283203 -71.429290771484 -257.661041259766 2.170370101929
-83.116981506348 -73.278221130371 -249.174865722656 2.169406652451
-95.639686584473 -72.352050781250 -262.053039550781 3.398479223251
-141.536392211914 -75.532394409180 -255.674453735352 1.895922541618
-90.784698486328 -74.162239074707 -256.113708496094 2.341808319092
-152.673858642578 -71.850006103516 -255.872940063477 2.074208498001
-101.948410034180 -73.828903198242 -255.072280883789 1.607699275017
-169.135574340820 -72.904335021973 -259.135223388672 3.119011163712
-160.364837646484 -76.456581115723 -266.479187011719 3.555932760239
-126.082283020020 -78.741287231445 -256.501953125000 2.264624357224
-150.694229125977 -74.738418579102 -260.022216796875 1.712983965874
-108.217994689941 -70.319458007813 -263.200408935547 1.580058574677
-12.199687957764 -72.559234619141 -262.290191650391 3.118814945221
-139.093017578125 -73.834686279297 -261.068847656250 3.091497659683
-125.078773498535 -73.234291076660 -260.536651611328 1.383193373680
-151.654617309570 -71.845397949219 -263.801116943359 1.940203666687
26.427490234375 -76.177673339844 -272.311065673828 5.707055091858
-147.777786254883 -77.201309204102 -279.790222167969 2.110492706299
-167.267181396484 -74.699272155762 -282.555969238281 1.917804121971
-7.060081958771 -73.859390258789 -279.977722167969 2.204454898834
-143.277496337891 -73.608825683594 -280.001251220703 2.880329132080
-8.816645622253 -72.971351623535 -283.863739013672 2.164066791534
14.664703369141 -76.316070556641 -286.913787841797 2.377316713333
-135.252700805664 -71.733322143555 -286.373931884766 1.549151182175
-64.487228393555 -77.491317749023 -287.749786376953 3.387714385986
-31.475103378296 -78.340644836426 -289.493499755859 1.179046630859
-110.592529296875 -74.714080810547 -283.223785400391 4.942579269409
-95.100952148438 -79.954261779785 -290.360290527344 4.492189407349
-86.796241760254 -75.367469787598 -291.969848632813 3.078664302826
-49.001304626465 -76.664825439453 -292.908477783203 4.394356250763
-114.172096252441 -80.683692932129 -287.658569335938 4.796453475952
-113.621696472168 -76.325874328613 -290.711273193359 2.736623287201
-31.825428009033 -71.567184448242 -288.339385986328 1.402710795403
-114.671546936035 -76.073516845703 -294.264739990234 3.087329626083
-126.464431762695 -68.944549560547 -289.580108642578 2.673669099808
-143.007965087891 -77.493286132813 -294.905426025391 3.535209894180
8.857852935791 -75.547294616699 -291.115295410156 2.182499647141
19.931283950806 -77.478858947754 -293.106262207031 4.290355205536
-159.650543212891 -74.039237976074 -292.788391113281 1.960168838501
-158.551712036133 -79.006927490234 -301.252868652344 4.823932647705
-146.524368286133 -76.375396728516 -310.465789794922 0.823946833611
-151.087554931641 -73.773406982422 -310.820617675781 2.198944330215
-150.831527709961 -75.287010192871 -314.928863525391 2.767158985138
29.852544784546 -76.749511718750 -14.082637786865 3.997770309448
35.963962554932 -69.381599426270 -19.665014266968 2.723840713501
22.918203353882 -72.504417419434 -25.627849578857 1.459574460983
30.992856979370 -69.266448974609 -39.494098663330 0.871048092842
-57.149433135986 -71.264938354492 -50.644165039063 1.728791475296
-63.136741638184 -71.928337097168 -51.047512054443 1.491387963295
-37.493247985840 -76.725822448730 -49.322418212891 5.049250125885
-84.750656127930 -65.621170043945 -66.128143310547 6.942398548126
82.086723327637 -76.795028686523 -75.557395935059 1.813876390457
-11.434483528137 -68.728134155273 -71.765121459961 4.294037818909
91.036415100098 -73.934173583984 -63.613277435303 5.693027496338
102.283767700195 -73.219871520996 -75.969406127930 3.434274196625
-90.342956542969 -69.386650085449 -75.431106567383 3.586603879929
67.764221191406 -73.297042846680 -80.813148498535 2.691005945206
-38.234718322754 -76.628250122070 -87.014953613281 2.887176990509
103.279838562012 -73.269187927246 -81.154304504395 3.067614078522
-55.538349151611 -69.695312500000 -88.735916137695 1.736811637878
51.679672241211 -74.001800537109 -91.026428222656 1.293327569962
71.799957275391 -81.010444641113 -90.252685546875 5.742134094238
55.822460174561 -71.962493896484 -96.042427062988 1.176764726639
54.426753997803 -75.157249450684 -99.149162292480 2.247636079788
77.064620971680 -77.600784301758 -96.371177673340 2.906882047653
48.882850646973 -72.745872497559 -108.485145568848 1.503109097481
99.901710510254 -74.583686828613 -102.252922058105 4.017076969147
106.968315124512 -79.541610717773 -107.817481994629 4.794966697693
79.573356628418 -71.289672851563 -104.173530578613 1.660804390907
95.405006408691 -75.310775756836 -105.121665954590 5.081868648529
101.908073425293 -74.224578857422 -93.867767333984 3.745282411575
111.702445983887 -75.403457641602 -104.518119812012 3.985382795334
41.508621215820 -72.666992187500 -106.883171081543 1.822411417961
115.234779357910 -71.234870910645 -118.141220092773 1.494714498520
116.176963806152 -75.967071533203 -119.722534179688 3.272237777710
31.910078048706 -71.327590942383 -124.874328613281 1.589440464973
46.285709381104 -75.392257690430 -118.539169311523 1.689246773720
117.085006713867 -75.374557495117 -132.360763549805 1.735466241837
35.926280975342 -72.917572021484 -127.140945434570 3.387990951538
118.348686218262 -80.111145019531 -127.260681152344 6.601819515228
109.638618469238 -75.980758666992 -122.897125244141 3.018406867981
28.812408447266 -75.943435668945 -134.309326171875 0.462669789791
-45.241001129150 -73.840515136719 -133.781448364258 4.168632984161
-50.300422668457 -71.160850524902 -135.125427246094 0.929609954357
113.281410217285 -74.167022705078 -135.738739013672 2.260655879974
-66.024963378906 -78.536041259766 -139.892745971680 6.187934398651
-69.777030944824 -73.737930297852 -140.858154296875 2.018664598465
-58.186229705811 -73.659889221191 -139.852706909180 1.562403321266
32.599906921387 -74.838081359863 -145.244689941406 2.904418468475
120.705726623535 -77.753906250000 -147.242706298828 6.111215114594
-68.340560913086 -69.016189575195 -148.258880615234 1.414630293846
-47.427543640137 -73.792556762695 -141.781997680664 2.403212308884
34.600841522217 -74.572639465332 -152.977355957031 2.767250537872
-66.526275634766 -74.772453308105 -148.155181884766 1.544459581375
116.045486450195 -73.312965393066 -140.101318359375 1.276268959045
113.182121276855 -72.405242919922 -158.127853393555 1.006367921829
118.181175231934 -76.224121093750 -154.502670288086 3.690603494644
-36.761962890625 -77.211051940918 -152.819931030273 1.148348689079
-62.113559722900 -73.218711853027 -165.827011108398 2.118980169296
-65.348663330078 -68.405174255371 -158.207290649414 2.165910959244
30.804107666016 -75.330490112305 -144.604705810547 3.167371273041
-0.234181001782 -76.363937377930 -162.211990356445 1.458187699318
111.807266235352 -73.560226440430 -162.873397827148 1.482153058052
114.021865844727 -72.419151306152 -152.655578613281 1.803485274315
114.458183288574 -78.938270568848 -159.645675659180 1.747763633728
-61.020507812500 -70.647003173828 -158.701461791992 2.953215837479
-43.054958343506 -76.208450317383 -167.802978515625 2.429492950439
-1.637984991074 -73.464302062988 -165.481262207031 1.946863293648
-29.026798248291 -74.831451416016 -175.423034667969 2.648449182510
107.546318054199 -73.527931213379 -168.154434204102 1.020209670067
-30.940416336060 -78.298400878906 -160.172576904297 3.713023900986
110.728897094727 -72.855682373047 -167.771469116211 1.661619424820
-39.899070739746 -74.226249694824 -174.671417236328 0.718602061272
109.936386108398 -71.940139770508 -170.142669677734 1.875642418861
-151.230911254883 -74.425888061523 -179.482543945313 2.411859273911
-23.836675643921 -68.942604064941 -177.882095336914 3.298503398895
-17.601425170898 -74.634315490723 -184.320999145508 1.829847693443
26.594997406006 -78.691436767578 -177.163467407227 1.774776458740
16.288291931152 -73.121292114258 -184.257064819336 2.646851062775
30.552572250366 -75.144897460938 -183.133789062500 3.729814529419
104.625007629395 -81.330924987793 -184.778961181641 4.958384513855
-150.303634643555 -68.931007385254 -184.192871093750 3.056242704391
-17.282062530518 -76.749298095703 -182.735534667969 1.569872021675
103.202713012695 -76.982711791992 -178.808578491211 2.781940698624
104.933769226074 -70.463249206543 -189.422393798828 1.653265833855
111.087318420410 -77.099830627441 -176.796081542969 1.068461894989
102.120132446289 -77.173759460449 -193.387268066406 0.981326997280
-148.928588867188 -72.168350219727 -198.505401611328 1.843667626381
101.629806518555 -76.065132141113 -206.625137329102 2.324316501617
-26.195976257324 -71.834121704102 -199.084976196289 1.582026720047
98.426284790039 -75.013648986816 -194.858474731445 2.206075429916
-117.455200195313 -78.449653625488 -201.941940307617 7.234569072723
-28.189096450806 -79.455307006836 -188.816009521484 1.297488212585
-140.547195434570 -67.518882751465 -198.861480712891 2.518367528915
97.929550170898 -75.185783386230 -197.986389160156 1.137992262840
10.315464973450 -74.773323059082 -199.979278564453 1.547166943550
26.496219635010 -72.210685729980 -191.945251464844 1.819766402245
-146.860412597656 -75.173294067383 -204.723632812500 1.870385885239
-135.729324340820 -72.770530700684 -203.060897827148 2.024614572525
-7.556582927704 -74.009361267090 -208.891708374023 1.686593413353
-122.358444213867 -72.980422973633 -205.888702392578 3.363300323486
-142.482238769531 -75.006950378418 -197.683181762695 1.777646183968
3.500709056854 -75.029258728027 -199.038009643555 5.949163913727
-23.850776672363 -76.740097045898 -200.544555664063 2.385614871979
23.013175964355 -78.742645263672 -201.631423950195 2.820568799973
7.541450977325 -76.612930297852 -213.297195434570 0.929530680180
84.895614624023 -70.812469482422 -209.332855224609 3.890763759613
-15.886145591736 -71.241928100586 -212.403152465820 0.375246971846
92.638145446777 -72.130241394043 -209.347396850586 1.490226149559
100.031433105469 -78.445106506348 -207.195114135742 2.484009981155
-146.232284545898 -75.288589477539 -214.260360717773 2.557307004929
97.103622436523 -78.123260498047 -211.797225952148 2.925613880157
6.176472187042 -72.530570983887 -206.458816528320 1.975147128105
4.475762844086 -77.005172729492 -214.739486694336 3.251457452774
-30.068111419678 -73.759857177734 -206.202133178711 2.017283916473
-87.464515686035 -73.211357116699 -213.289566040039 1.591045737267
-23.093633651733 -76.874191284180 -210.264053344727 2.405960798264
87.503211975098 -73.709846496582 -218.135528564453 0.973236143589
92.519157409668 -74.109291076660 -215.884460449219 1.962889909744
-29.428001403809 -73.033027648926 -211.951797485352 1.598015308380
-81.794067382813 -69.727035522461 -220.043930053711 5.661014080048
1.832129001617 -76.806121826172 -219.708770751953 3.354705333710
80.812026977539 -69.920021057129 -212.063049316406 5.666302204132
-150.613922119141 -79.727241516113 -221.868255615234 3.099392414093
-164.383346557617 -71.229667663574 -214.930328369141 3.021977424622
-161.475967407227 -77.711807250977 -222.318206787109 5.401935100555
-19.684127807617 -76.453254699707 -227.279678344727 2.125018835068
-152.794326782227 -78.518089294434 -222.889221191406 2.454928159714
-2.549204111099 -75.240158081055 -224.196319580078 1.361367940903
7.841244220734 -76.688720703125 -218.766540527344 1.485274195671
-167.189666748047 -73.446510314941 -226.832580566406 2.017340660095
-155.178436279297 -73.833610534668 -228.830993652344 2.441788196564
80.738815307617 -79.740699768066 -232.260971069336 3.565464735031
0.642221987247 -73.987556457520 -226.226928710938 0.950952708721
-157.281463623047 -66.596847534180 -227.146423339844 2.551410198212
-140.854660034180 -76.468955993652 -223.752548217773 1.164389133453
-16.807624816895 -72.580772399902 -224.059280395508 2.072641372681
-0.049848001450 -79.269638061523 -220.977523803711 1.602608323097
81.790641784668 -71.608383178711 -227.013885498047 1.333439826965
-159.074325561523 -71.093040466309 -228.527114868164 2.405978679657
-140.084960937500 -70.269256591797 -233.317977905273 1.699311494827
-123.837600708008 -71.457130432129 -232.291519165039 1.140511989594
79.995269775391 -78.029899597168 -226.272781372070 1.513519883156
-113.904449462891 -74.089622497559 -229.971328735352 1.681556344032
-142.230285644531 -73.525215148926 -230.096694946289 1.026431441307
-149.211685180664 -71.893043518066 -232.655853271484 2.778586864471
-147.934036254883 -74.664833068848 -232.599105834961 1.906791329384
-153.843139648438 -74.647743225098 -229.812622070313 3.267026424408
-162.967361450195 -74.326484680176 -229.170410156250 1.589803695679
-130.815902709961 -74.892913818359 -237.549102783203 4.012834072113
-131.291213989258 -75.035301208496 -234.160507202148 2.296856641769
-150.166397094727 -79.699302673340 -234.192413330078 2.172323703766
-143.559295654297 -69.255332946777 -238.604644775391 1.788853883743
-149.068374633789 -74.659553527832 -236.356719970703 2.237375974655
77.519020080566 -78.597061157227 -233.530563354492 3.070116043091
69.177719116211 -68.217666625977 -235.103256225586 1.369142770767
-153.459259033203 -71.509201049805 -236.083831787109 1.871450662613
74.784141540527 -69.062599182129 -233.361358642578 1.820006608963
-18.514659881592 -72.043014526367 -236.842361450195 1.557376265526
14.447038650513 -76.942634582520 -238.467071533203 3.141072511673
9.726634979248 -75.609024047852 -236.210723876953 1.814396023750
-153.742080688477 -73.897888183594 -242.080993652344 3.634445428848
17.796731948853 -74.162208557129 -241.633285522461 1.521965146065
61.333881378174 -73.210693359375 -238.783828735352 1.912840127945
15.228157043457 -71.416793823242 -238.621368408203 1.499631166458
6.697579860687 -74.922821044922 -241.670104980469 1.665553689003
-4.634003162384 -71.149085998535 -240.057220458984 0.869079709053
-19.780014038086 -72.560577392578 -243.355239868164 1.215885281563
-0.430070012808 -74.878181457520 -241.137405395508 2.420363903046
6.706820964813 -78.474388122559 -246.437942504883 1.710285186768
59.432777404785 -76.822463989258 -241.138473510742 2.434397220612
-52.785820007324 -79.989654541016 -245.240829467773 1.289603829384
22.366476058960 -73.739204406738 -248.381896972656 1.980120420456
-56.315132141113 -75.179992675781 -240.769088745117 2.769104957581
-8.566508293152 -75.170372009277 -248.525161743164 1.609603762627
-64.847900390625 -69.895927429199 -251.188995361328 2.373194217682
-83.746170043945 -71.151512145996 -254.722640991211 1.646424412727
-80.356224060059 -76.140647888184 -254.329345703125 1.053463339806
-6.243729114532 -74.077552795410 -256.797027587891 5.687645435333
-121.482719421387 -74.304855346680 -262.083526611328 2.109350681305
-11.999300003052 -75.587745666504 -252.015335083008 1.739457488060
-114.926872253418 -73.950294494629 -255.488616943359 1.960615158081
-115.672760009766 -72.214515686035 -259.623809814453 2.380056619644
-101.787399291992 -74.129310607910 -255.520599365234 1.605423331261
-141.246154785156 -72.457054138184 -261.201019287109 2.101020336151
-142.587860107422 -73.735252380371 -269.010314941406 4.558701515198
-167.095870971680 -74.022850036621 -264.045349121094 1.232094764709
23.182878494263 -79.908561706543 -280.871429443359 7.514333724976
-58.108860015869 -72.077903747559 -285.687011718750 1.936083316803
-66.106880187988 -73.496032714844 -282.932891845703 2.885024785995
-40.161479949951 -77.012962341309 -283.075897216797 4.253510951996
-24.850978851318 -75.742561340332 -287.743164062500 2.251373767853
-93.742202758789 -77.737770080566 -291.320922851563 3.578396320343
-29.621850967407 -72.531517028809 -285.233154296875 1.723053216934
-1.598191976547 -74.740310668945 -286.017333984375 1.320221662521
-165.267883300781 -74.509857177734 -290.582275390625 0.956669688225
-16.431678771973 -77.960922241211 -285.748962402344 3.045091152191
7.532847881317 -76.675384521484 -288.208770751953 1.198551535606
16.007581710815 -81.343269348145 -280.768646240234 4.728574752808
-55.028739929199 -78.671028137207 -286.175659179688 2.428959131241
-33.054748535156 -76.389617919922 -292.482879638672 2.571036338806
16.391477584839 -73.024925231934 -294.188476562500 2.535238981247
-69.592384338379 -72.627021789551 -294.604125976563 2.183583974838
-40.200275421143 -71.282257080078 -288.653350830078 0.862144947052
-16.049135208130 -72.644859313965 -289.898529052734 0.907051146030
16.349130630493 -78.338104248047 -291.879852294922 1.940286159515
-10.112688064575 -77.933654785156 -296.010131835938 4.775123119354
6.481269836426 -74.187126159668 -295.238922119141 2.688310861588
16.452032089233 -78.672210693359 -289.146057128906 1.734145641327
-132.905441284180 -73.458946228027 -295.043212890625 1.986842155457
-143.121170043945 -77.213424682617 -298.771331787109 3.939075469971
-151.255752563477 -74.116165161133 -314.262329101563 1.626064538956
46.396144866943 -71.502044677734 -14.343704223633 3.109318733215
31.529901504517 -71.994926452637 -11.891337394714 2.398783206940
41.833103179932 -72.483558654785 -15.195207595825 1.918189644814
24.610837936401 -67.382591247559 -18.367990493774 2.830692052841
47.355537414551 -69.194244384766 -23.420898437500 2.477105140686
27.956892013550 -68.994728088379 -25.245836257935 2.978564262390
25.351055145264 -72.342079162598 -26.835998535156 1.278463244438
28.261520385742 -73.310760498047 -40.923103332520 2.484483242035
39.262340545654 -75.882270812988 -31.080747604370 5.102384090424
27.730176925659 -77.548881530762 -37.585998535156 6.266384124756
45.589660644531 -70.517478942871 -39.732891082764 1.634688377380
33.910446166992 -73.033645629883 -41.191612243652 2.232191085815
42.194591522217 -74.432670593262 -35.585445404053 3.387469768524
32.510253906250 -70.726333618164 -40.309940338135 1.347725510597
46.819469451904 -72.543594360352 -42.211006164551 4.819834709167
34.364830017090 -71.493942260742 -37.860729217529 1.385282039642
-40.461486816406 -70.818908691406 -47.898536682129 2.253648519516
-27.664281845093 -66.130920410156 -50.601123809814 1.657173514366
-88.438896179199 -71.803237915039 -54.136505126953 4.504862785339
-88.254859924316 -72.513282775879 -66.585517883301 2.367496728897
78.921813964844 -76.004135131836 -64.637680053711 6.047040462494
86.250709533691 -71.641723632813 -72.853752136230 1.683569312096
-18.935787200928 -69.973625183105 -75.244674682617 3.500052213669
-86.208885192871 -70.344001770020 -72.596778869629 4.373354911804
-23.193357467651 -70.777534484863 -77.055244445801 1.716261982918
-47.661048889160 -73.656120300293 -85.028381347656 2.403563499451
67.883316040039 -69.037315368652 -86.566223144531 1.769288539886
53.978443145752 -71.160133361816 -93.996902465820 2.541627883911
101.369880676270 -70.583671569824 -91.609977722168 2.253414392471
70.862663269043 -75.575141906738 -96.984428405762 1.311790108681
-68.023056030273 -72.437477111816 -89.679763793945 5.097766876221
-58.055892944336 -68.384819030762 -99.184448242188 7.773523330688
46.496479034424 -72.447235107422 -97.644287109375 1.099618196487
79.312599182129 -70.742942810059 -98.269714355469 3.178396463394
56.991439819336 -82.346221923828 -105.325714111328 6.145516872406
103.645568847656 -72.701896667480 -95.560302734375 1.644129633904
-92.842681884766 -74.959770202637 -107.880836486816 2.916383743286
43.272071838379 -72.341354370117 -109.717094421387 2.300956726074
109.377464294434 -74.666427612305 -109.517074584961 2.196457147598
51.135314941406 -73.033843994141 -111.617385864258 2.736456632614
102.446868896484 -74.848930358887 -110.871910095215 3.301796913147
-82.864219665527 -71.337898254395 -117.521141052246 1.140984058380
37.446594238281 -76.834518432617 -112.846969604492 1.714650988579
109.249679565430 -71.209037780762 -116.743644714355 1.601477503777
106.673217773438 -69.900672912598 -116.230026245117 1.839382052422
105.962974548340 -73.768714904785 -115.126541137695 1.751524329185
113.047080993652 -71.586219787598 -113.969848632813 1.317531943321
42.963108062744 -76.114845275879 -108.360275268555 1.424306273460
34.319698333740 -68.174530029297 -115.935905456543 3.352839469910
41.229591369629 -72.324813842773 -112.677619934082 1.601662635803
107.146476745605 -75.428123474121 -120.921546936035 1.632748723030
43.015319824219 -70.605331420898 -121.719161987305 0.756432533264
111.687698364258 -71.969238281250 -132.576293945313 1.577448368073
111.988853454590 -71.711143493652 -131.078735351563 2.010636806488
35.549129486084 -69.602348327637 -118.799308776855 1.507465243340
-76.537162780762 -72.751541137695 -123.511734008789 4.431137084961
114.517501831055 -69.476943969727 -133.631759643555 1.869735121727
-51.258697509766 -72.595527648926 -138.338684082031 1.503992557526
36.785461425781 -73.912277221680 -134.196441650391 2.635945558548
-71.699447631836 -72.619918823242 -134.013778686523 3.081720829010
27.506177902222 -76.369178771973 -130.025619506836 1.420691370964
-78.946716308594 -73.337669372559 -143.993103027344 2.085408687592
-43.553424835205 -76.005088806152 -142.043182373047 1.573007822037
-73.510437011719 -74.608421325684 -138.783767700195 0.978149294853
111.127861022949 -72.316299438477 -136.058944702148 1.449913978577
121.592742919922 -70.857902526855 -141.138671875000 5.356306552887
120.899879455566 -77.408714294434 -147.401153564453 5.970113277435
-78.438980102539 -72.218345642090 -143.482666015625 1.451972961426
8.644898414612 -68.204193115234 -150.779067993164 2.815365791321
-48.918930053711 -73.158302307129 -148.010528564453 3.446954250336
-49.996498107910 -74.002670288086 -154.961166381836 1.889845609665
107.907180786133 -74.385231018066 -163.043136596680 1.534067988396
-38.980770111084 -75.418067932129 -148.338180541992 2.385753631592
16.355424880981 -69.854560852051 -158.341156005859 1.868302941322
24.314481735229 -75.595687866211 -157.201721191406 2.462608575821
116.338371276855 -71.872772216797 -164.960617065430 1.339366555214
32.142200469971 -72.081733703613 -167.099899291992 3.516222715378
1.038504004478 -74.837501525879 -163.747833251953 2.087600231171
33.782646179199 -73.963973999023 -160.224472045898 1.959528684616
-65.813117980957 -70.999580383301 -156.351379394531 1.830247282982
-64.677642822266 -72.658638000488 -159.149536132813 1.265962004662
-67.822288513184 -70.243804931641 -166.353363037109 2.746537923813
116.365692138672 -69.054763793945 -161.588775634766 3.345266819000
-42.908653259277 -73.299621582031 -163.051895141602 1.810754776001
18.162986755371 -73.144416809082 -164.989227294922 1.264746189117
-62.054046630859 -70.935913085938 -169.955154418945 1.997674703598
-62.728473663330 -69.913414001465 -171.653366088867 4.009369373322
-41.158088684082 -74.491989135742 -160.779357910156 2.914594411850
-32.859611511230 -76.471862792969 -167.686889648438 1.423758268356
117.586105346680 -76.738601684570 -171.219665527344 3.994554042816
-35.482887268066 -66.039543151855 -181.779357910156 4.525783538818
14.243258476257 -74.335021972656 -172.285552978516 3.072157144547
112.377113342285 -77.277976989746 -185.692413330078 3.917995929718
-145.415786743164 -74.409896850586 -176.152008056641 1.505273818970
-144.534286499023 -71.492630004883 -172.161117553711 3.034669160843
-145.204071044922 -69.799690246582 -181.588104248047 2.801378250122
-140.317932128906 -74.942382812500 -184.173477172852 3.845646858215
-30.897071838379 -71.099647521973 -184.837005615234 2.413655757904
-21.503145217896 -73.698768615723 -185.343582153320 1.913500308990
25.458694458008 -67.940620422363 -192.208984375000 3.234393119812
-138.927612304688 -71.426284790039 -186.650024414063 3.522031545639
-146.063796997070 -72.880905151367 -188.885940551758 1.287707805634
-20.187877655029 -70.607879638672 -185.399642944336 2.007733345032
11.460327148438 -72.956123352051 -182.503646850586 3.247773885727
-148.357803344727 -72.141235351563 -195.511169433594 2.456601619720
-29.792535781860 -73.065277099609 -189.167892456055 0.916434884071
101.641723632813 -74.163108825684 -188.023986816406 2.238885402679
107.151062011719 -71.777000427246 -189.545410156250 1.364261627197
26.754297256470 -67.393630981445 -193.326980590820 4.141884803772
-8.787959098816 -73.045593261719 -188.350418090820 7.940001964569
-26.790405273438 -75.350418090820 -192.690902709961 1.573447942734
-154.457550048828 -74.525009155273 -201.190093994141 2.410742998123
-131.067550659180 -73.631225585938 -196.810089111328 0.808652341366
-123.847366333008 -68.797042846680 -194.746688842773 0.605130612850
-124.252220153809 -70.827209472656 -197.497253417969 1.710740685463
-20.091184616089 -68.062911987305 -195.075775146484 2.246313333511
15.907394409180 -76.307952880859 -191.932525634766 0.329570531845
93.377693176270 -79.797279357910 -200.966934204102 4.406765460968
-149.451492309570 -67.231597900391 -194.459823608398 1.244462251663
-142.488510131836 -68.935813903809 -198.991821289063 2.807302713394
-149.924514770508 -72.258659362793 -201.114227294922 2.173863649368
-153.014038085938 -69.324523925781 -196.547409057617 1.811202883720
-22.180181503296 -71.905403137207 -199.621307373047 2.010410070419
-6.676370143890 -69.423484802246 -194.833023071289 7.371379852295
-143.171295166016 -66.657150268555 -203.001647949219 1.530444860458
-18.225522994995 -72.196922302246 -202.264572143555 2.270688295364
-158.891784667969 -71.553207397461 -201.934921264648 2.174910783768
-132.791412353516 -71.967079162598 -199.228393554688 1.351899147034
16.844354629517 -76.912452697754 -206.753967285156 0.579362630844
-157.853179931641 -67.579803466797 -204.480255126953 2.296701669693
-144.559906005859 -74.695571899414 -206.762451171875 2.823103189468
8.727770805359 -70.668090820313 -204.251449584961 3.311486959457
-152.552871704102 -68.786705017090 -202.445159912109 0.894882559776
-23.564250946045 -71.884727478027 -202.723541259766 1.721321105957
96.078834533691 -75.162200927734 -198.773895263672 2.184265375137
-158.084396362305 -73.965980529785 -210.787094116211 2.535611152649
-162.551696777344 -77.015930175781 -206.446365356445 6.031001567841
-73.966209411621 -70.076515197754 -206.731872558594 4.685485839844
91.911911010742 -73.143569946289 -207.971984863281 1.471065640450
-2.034034013748 -72.404922485352 -219.737670898438 1.331859707832
-154.640289306641 -70.843742370605 -212.914260864258 3.522518873215
-85.385337829590 -73.550819396973 -212.736694335938 2.131122827530
