108.909332275391 -64.991104125977 -99.305839538574 3.688231229782
-76.584091186523 -67.636405944824 -98.057472229004 2.282977342606
-72.173805236816 -68.644477844238 -102.329521179199 1.238363146782
101.485427856445 -65.771835327148 -97.159584045410 1.236153006554
54.457782745361 -70.576118469238 -99.914863586426 2.162039995193
71.467605590820 -71.723098754883 -96.257034301758 1.824015617371
-70.227470397949 -68.682617187500 -108.021240234375 1.743662118912
-84.497810363770 -66.757728576660 -107.314102172852 2.136780261993
88.241676330566 -74.031822204590 -102.061180114746 1.546826839447
40.190216064453 -71.693916320801 -101.800109863281 2.272506237030
107.190093994141 -65.483978271484 -106.100898742676 1.919908285141
49.225780487061 -72.790542602539 -112.558708190918 1.305011749268
112.043380737305 -70.669845581055 -100.973121643066 3.123406648636
-76.676460266113 -68.480773925781 -111.384368896484 2.036058902740
104.367340087891 -64.464973449707 -107.554885864258 3.326607227325
-82.082588195801 -65.280296325684 -120.961486816406 1.936669111252
-57.142265319824 -71.279365539551 -127.266738891602 0.677888393402
-55.722839355469 -67.979423522949 -123.194229125977 1.744979619980
-70.192131042480 -70.783332824707 -129.750457763672 3.195382595062
-49.319026947021 -70.115486145020 -130.390975952148 2.204269409180
-82.688056945801 -70.168945312500 -133.344375610352 3.032002687454
-76.334922790527 -63.922874450684 -131.157424926758 1.767875194550
-78.165779113770 -69.157096862793 -131.891479492188 0.937470674515
-59.981986999512 -74.074394226074 -141.492156982422 1.351321339607
-69.548011779785 -68.808639526367 -140.678268432617 1.979709506035
-59.330150604248 -74.216361999512 -132.467437744141 2.535946369171
-56.042320251465 -68.370590209961 -141.985870361328 2.695936679840
14.441677093506 -64.323913574219 -144.354675292969 2.767903566360
-90.087593078613 -69.313812255859 -140.148666381836 1.820477962494
-47.221527099609 -74.349136352539 -147.882476806641 2.888608932495
-93.660614013672 -66.514793395996 -149.264984130859 1.986734151840
-100.533309936523 -64.904930114746 -147.031158447266 2.229809522629
21.277421951294 -71.910522460938 -153.712295532227 0.696155726910
15.938353538513 -70.594833374023 -157.912933349609 0.935347616673
-94.069473266602 -71.169586181641 -159.928268432617 4.349433422089
-102.934265136719 -68.960769653320 -151.215911865234 3.755278348923
-98.545188903809 -66.726104736328 -167.048446655273 3.050994634628
22.756050109863 -68.591491699219 -169.405120849609 0.502275943756
-110.768592834473 -67.986061096191 -172.775619506836 1.719417452812
25.769546508789 -69.010238647461 -163.978347778320 1.401436448097
-146.787734985352 -68.343399047852 -176.313705444336 1.658282279968
19.248722076416 -68.563819885254 -175.106979370117 1.162469744682
26.058055877686 -70.406837463379 -185.030136108398 1.664439320564
-150.665115356445 -66.132141113281 -185.560791015625 2.386798143387
22.214487075806 -71.047447204590 -174.023818969727 3.018729925156
20.347412109375 -61.232437133789 -180.233764648438 5.374719619751
-144.050308227539 -72.454887390137 -182.414993286133 1.030775070190
-150.751419067383 -64.172309875488 -188.983108520508 2.378258705139
20.945016860962 -69.886901855469 -186.711273193359 2.535032987595
19.753335952759 -72.530479431152 -189.198425292969 3.322797298431
-140.529693603516 -70.711723327637 -193.752685546875 1.978493094444
-108.428733825684 -68.718788146973 -197.011962890625 2.094489336014
27.067420959473 -69.730720520020 -198.352233886719 5.202498435974
-124.312774658203 -68.787567138672 -194.156494140625 0.420372098684
10.723819732666 -72.453102111816 -199.986740112305 1.715787768364
-127.730796813965 -61.060733795166 -193.453063964844 4.446245193481
-160.872238159180 -65.143249511719 -188.155105590820 7.380679130554
-159.380325317383 -66.248992919922 -195.927734375000 2.495870590210
-155.828704833984 -70.140251159668 -192.739410400391 1.080782175064
-20.156991958618 -69.590652465820 -206.257339477539 0.924013495445
-167.750122070313 -70.591583251953 -198.635925292969 3.704546213150
-26.657815933228 -64.250419616699 -192.085784912109 4.556356906891
-14.671906471252 -70.587516784668 -192.904754638672 3.334582805634
8.059144973755 -62.673641204834 -195.070327758789 6.679488182068
-155.828216552734 -68.666213989258 -205.847579956055 2.690229654312
-105.653343200684 -66.461433410645 -202.128051757813 4.494626522064
-15.653251647949 -64.927009582520 -198.808135986328 4.361673831940
-160.174346923828 -61.209827423096 -200.641845703125 4.812654495239
18.447242736816 -70.039726257324 -201.333221435547 2.511067867279
-169.896987915039 -65.241523742676 -205.578109741211 3.972451925278
-118.767478942871 -70.766181945801 -201.809295654297 2.735648393631
-114.879570007324 -65.018730163574 -208.289688110352 4.527070999146
-121.714729309082 -67.773918151855 -203.166656494141 1.233891963959
-14.796582221985 -67.580627441406 -201.772842407227 2.169329643250
-18.011367797852 -69.814491271973 -202.711044311523 1.163158535957
-163.070022583008 -67.251106262207 -211.172927856445 0.959185361862
-158.739944458008 -65.070449829102 -211.160339355469 3.038780212402
-163.751007080078 -68.566619873047 -219.004562377930 2.388624906540
-138.542373657227 -70.888359069824 -213.177062988281 7.019979000092
-144.235260009766 -67.204376220703 -224.371490478516 1.557847023010
-0.171507000923 -66.973915100098 -218.124465942383 4.183117389679
-7.880768775940 -74.773727416992 -216.158523559570 2.897023200989
-99.844589233398 -65.580039978027 -219.854385375977 3.409121513367
-6.504888057709 -66.851058959961 -234.105926513672 0.809114873409
-167.762313842773 -64.177986145020 -230.144302368164 3.625131607056
-103.940750122070 -65.753776550293 -233.342010498047 5.796191692352
3.309545993805 -69.488929748535 -225.633972167969 0.972109138966
3.128798007965 -68.296714782715 -228.515716552734 1.030632019043
-110.858680725098 -68.150276184082 -233.229858398438 1.634798526764
-0.506469011307 -70.429977416992 -226.405502319336 1.172262668610
-117.522209167480 -64.197265625000 -233.458084106445 1.343484759331
-7.027740001678 -64.957839965820 -230.803512573242 2.919307470322
-0.656666994095 -67.625991821289 -234.051757812500 1.668969750404
-1.407714962959 -67.883407592773 -237.987899780273 1.431023120880
73.559722900391 -65.271522521973 -235.539886474609 2.793243169785
-8.524282455444 -72.355140686035 -236.765762329102 1.284521818161
11.035700798035 -69.856132507324 -235.054077148438 1.222627520561
12.387132644653 -68.075424194336 -236.878067016602 2.347845554352
6.217453002930 -70.506645202637 -237.769088745117 3.121345758438
5.229595184326 -71.144355773926 -240.716964721680 1.411905407906
64.317123413086 -63.497093200684 -238.457336425781 3.147931337357
69.975517272949 -64.544265747070 -239.537063598633 4.238686084747
7.775845050812 -68.153747558594 -247.624984741211 3.257607698441
52.963962554932 -71.276313781738 -241.483398437500 2.498211145401
56.318546295166 -74.383949279785 -239.241043090820 3.265737056732
48.062343597412 -64.519363403320 -249.947631835938 1.760239601135
43.459457397461 -65.399543762207 -250.571502685547 1.805806040764
41.901073455811 -67.718948364258 -257.584442138672 0.939452707767
-129.039398193359 -61.638885498047 -259.251342773438 3.722137451172
-7.838539123535 -67.732177734375 -246.878036499023 2.121294736862
31.529926300049 -66.671897888184 -256.511016845703 2.000079154968
44.831600189209 -67.517173767090 -244.643585205078 2.631024360657
30.411077499390 -72.379592895508 -251.733093261719 4.125563621521
-102.994178771973 -70.811889648438 -258.976959228516 1.991396307945
31.182516098022 -70.437034606934 -254.963973999023 0.901652157307
-144.177368164063 -70.015396118164 -261.383178710938 2.212150573730
-115.580543518066 -70.849594116211 -255.416427612305 1.535194635391
-109.751274108887 -68.042976379395 -257.902313232422 1.045496702194
-0.751999020576 -72.240707397461 -257.861267089844 7.727209091187
-150.948577880859 -69.101249694824 -256.637847900391 2.233947038651
38.074485778809 -69.447784423828 -261.904907226563 3.159852027893
-106.983818054199 -66.420982360840 -255.098312377930 1.336870551109
26.813276290894 -74.268417358398 -257.671569824219 4.390943527222
-133.654266357422 -71.230659484863 -264.095520019531 0.385023266077
-115.640838623047 -67.242820739746 -265.688476562500 1.811335802078
-109.971794128418 -67.461463928223 -261.890991210938 1.769333004951
-112.963668823242 -75.251251220703 -260.485931396484 1.890186786652
-140.610305786133 -69.965438842773 -254.706665039063 1.238826036453
30.781417846680 -69.703033447266 -257.929290771484 1.987323045731
-115.886047363281 -65.780387878418 -261.870147705078 0.588019251823
-143.707824707031 -69.357414245605 -263.030181884766 1.833580136299
-3.859915018082 -65.918899536133 -269.561157226563 1.374392628670
-148.847976684570 -70.407646179199 -279.637786865234 3.358364582062
-7.795002937317 -69.811111450195 -287.990600585938 1.908716320992
-4.429881095886 -66.092575073242 -280.357360839844 0.652177333832
-133.302612304688 -67.118347167969 -288.796905517578 1.348453879356
-128.221618652344 -68.289848327637 -291.596038818359 1.233722686768
-134.464904785156 -66.945999145508 -294.467102050781 3.374205350876
-125.672180175781 -64.937431335449 -289.443847656250 1.134206533432
-154.789901733398 -67.435180664063 -293.818817138672 1.803113222122
-156.760345458984 -68.291839599609 -299.383392333984 2.945791006088
-147.381118774414 -71.958702087402 -301.093872070313 2.082643747330
-148.219070434570 -69.738563537598 -304.203796386719 3.227254390717
-143.897598266602 -67.164520263672 -297.504180908203 3.340798854828
-149.623291015625 -67.075263977051 -305.469909667969 2.916163206100
-144.510192871094 -64.533554077148 -315.931762695313 5.148241996765
20.194694519043 -71.585792541504 -24.845550537109 2.053300380707
51.477504730225 -72.183967590332 -35.250576019287 1.636696577072
25.400764465332 -75.560531616211 -35.400550842285 4.342593669891
32.999771118164 -68.883087158203 -42.614608764648 1.955354571342
-40.739086151123 -60.570720672607 -47.679817199707 2.710817813873
-73.837417602539 -63.754543304443 -49.415000915527 3.441083669662
81.171363830566 -68.528968811035 -60.086677551270 3.026484966278
74.759925842285 -69.833862304688 -60.418640136719 3.620867252350
73.498680114746 -71.634956359863 -63.591640472412 4.540853023529
-99.756813049316 -67.340980529785 -70.966003417969 4.583867073059
99.547874450684 -73.917060852051 -74.145187377930 3.173426151276
-27.224037170410 -70.393455505371 -84.154869079590 6.125440597534
62.672954559326 -66.481231689453 -73.974800109863 3.073985576630
-41.215930938721 -63.783588409424 -82.850837707520 3.775338411331
-54.798870086670 -65.503883361816 -80.627197265625 3.552413463593
52.506076812744 -69.090103149414 -89.285934448242 1.487699985504
103.430992126465 -67.114196777344 -89.281486511230 1.578034758568
64.139434814453 -66.516525268555 -91.456764221191 1.641378045082
57.192256927490 -66.900672912598 -90.272964477539 3.136564493179
49.059940338135 -64.919853210449 -100.849288940430 1.609050750732
57.296112060547 -64.457969665527 -100.799858093262 2.051861763000
103.620300292969 -66.802627563477 -96.324592590332 1.914870500565
70.054290771484 -68.063232421875 -106.503860473633 3.272216081619
52.881488800049 -68.692070007324 -104.789154052734 2.201704740524
76.779800415039 -75.017593383789 -106.287078857422 5.458594322205
99.690025329590 -64.859451293945 -106.178138732910 2.686421871185
-73.110961914063 -64.518852233887 -98.316299438477 2.944000720978
-85.600257873535 -67.522392272949 -109.372795104980 2.199562072754
-80.973045349121 -68.004058837891 -111.364875793457 1.931128144264
-59.537876129150 -67.405311584473 -118.052566528320 2.388113975525
-56.320793151855 -71.770530700684 -125.545036315918 1.851307034492
-93.724922180176 -66.595649719238 -120.720054626465 1.411643624306
-73.036697387695 -70.143211364746 -118.153282165527 5.076916694641
-76.009887695313 -71.681549072266 -132.122024536133 1.740747451782
-59.484203338623 -64.001976013184 -126.896156311035 2.601496219635
-87.049896240234 -63.281219482422 -129.874313354492 1.209172248840
-88.805587768555 -66.038833618164 -130.057846069336 0.714535951614
-47.487651824951 -71.141998291016 -134.205688476563 2.024282693863
-49.781185150146 -69.455795288086 -136.566558837891 1.903568029404
-76.672096252441 -70.967529296875 -137.526794433594 2.400452613831
-53.649681091309 -70.247047424316 -140.506927490234 3.130203723907
-72.686256408691 -72.329025268555 -144.219070434570 1.948193073273
20.647703170776 -65.663024902344 -138.298583984375 2.194448947906
-56.926681518555 -72.738121032715 -143.386703491211 1.171595454216
-54.684570312500 -63.973682403564 -145.294799804688 3.201643466949
9.966167449951 -72.600341796875 -154.202056884766 1.355449914932
18.428148269653 -66.612777709961 -149.701919555664 1.834533929825
-140.482482910156 -68.179260253906 -172.764251708984 3.259278774261
-109.011657714844 -65.673583984375 -177.089019775391 1.006397724152
-109.982467651367 -63.212985992432 -189.582839965820 1.727581501007
-151.939468383789 -69.428771972656 -189.690521240234 2.059245347977
-112.146110534668 -66.689346313477 -185.482650756836 1.939267158508
-150.259689331055 -61.993022918701 -196.125549316406 0.596229374409
-113.067115783691 -66.319480895996 -198.360473632813 1.131298661232
-149.785873413086 -63.704021453857 -200.536972045898 1.175866007805
-148.590560913086 -66.691116333008 -206.096420288086 2.876858472824
-152.586471557617 -72.159576416016 -205.071105957031 0.935016393661
-147.837066650391 -67.104866027832 -224.011611938477 2.864688873291
-148.145004272461 -70.580451965332 -225.733428955078 3.371119737625
-104.073898315430 -64.237861633301 -227.493453979492 3.785859107971
-98.987167358398 -67.540359497070 -220.207946777344 1.807602167130
-121.748870849609 -61.804027557373 -231.515258789063 3.675961494446
-105.998344421387 -67.473739624023 -224.891540527344 1.672235369682
-155.981094360352 -67.648834228516 -230.166213989258 2.009673595428
-2.065975904465 -67.668640136719 -223.776214599609 0.706760108471
-131.995803833008 -70.844749450684 -229.437896728516 3.312640190125
-152.406417846680 -67.833106994629 -234.995498657227 0.977136492729
-137.532623291016 -70.977088928223 -231.920730590820 2.063758611679
-9.317559242249 -66.462432861328 -233.315048217773 1.411842942238
10.182040214539 -68.212394714355 -243.060501098633 1.386970162392
64.114997863770 -62.721050262451 -239.097198486328 4.013842105865
19.103895187378 -72.771102905273 -248.416839599609 1.377108693123
55.590248107910 -68.158897399902 -241.232925415039 1.443231821060
41.802993774414 -71.344047546387 -248.681793212891 0.967062950134
62.771442413330 -64.675407409668 -251.386001586914 5.633433341980
-152.058715820313 -67.249961853027 -248.414855957031 1.725744366646
-146.192001342773 -71.206199645996 -254.185531616211 2.506885290146
44.912765502930 -67.006843566895 -255.302581787109 1.372117042542
29.170711517334 -68.398498535156 -253.324783325195 3.364508390427
49.688964843750 -64.795722961426 -252.570617675781 1.261941194534
-143.997711181641 -70.423675537109 -262.014862060547 2.033309221268
-136.409942626953 -65.657279968262 -254.006881713867 2.965000391006
-122.890510559082 -64.654930114746 -258.560577392578 2.826999664307
-132.127441406250 -67.139221191406 -255.321090698242 2.757867336273
-138.824264526367 -68.478958129883 -257.536346435547 3.004444360733
-121.876258850098 -66.486076354980 -259.282989501953 3.522335290909
-141.895477294922 -65.071678161621 -259.593902587891 2.362357616425
-126.046485900879 -70.159507751465 -257.557006835938 2.716556310654
-119.118957519531 -68.436546325684 -264.436523437500 2.213510274887
-127.845726013184 -67.759567260742 -264.729278564453 2.119090318680
-120.884155273438 -63.319213867188 -263.597320556641 3.260641574860
-3.956481933594 -68.678825378418 -265.556427001953 2.528292417526
30.523897171021 -64.119445800781 -260.364074707031 1.383369445801
-144.506179809570 -61.238327026367 -266.858184814453 3.602231502533
27.464538574219 -69.860755920410 -269.941711425781 3.657835006714
-4.727961063385 -61.878242492676 -275.262237548828 5.462715148926
18.658529281616 -74.724555969238 -282.128662109375 1.853055000305
-139.910797119141 -67.881477355957 -288.919921875000 2.259509563446
-123.541236877441 -70.014854431152 -286.472778320313 0.777111649513
-129.632141113281 -62.262042999268 -290.092163085938 3.656766891479
-158.380905151367 -62.226943969727 -292.330596923828 4.048421382904
-125.453498840332 -61.426212310791 -288.853454589844 4.198091506958
-116.826461791992 -65.279853820801 -288.351043701172 2.126669645309
-123.474632263184 -70.481216430664 -296.860412597656 2.320216178894
-151.090454101563 -70.685073852539 -291.497406005859 2.689947128296
29.821788787842 -71.857185363770 -10.329122543335 2.654059171677
30.190704345703 -72.752388000488 -16.581680297852 1.394955992699
38.218589782715 -67.281578063965 -19.895668029785 3.088807344437
48.309017181396 -63.123226165771 -22.096017837524 1.425853490829
29.334356307983 -74.377441406250 -26.863842010498 4.001653194427
19.815490722656 -71.597671508789 -32.494152069092 1.105180025101
-32.978221893311 -69.392272949219 -44.675792694092 5.186353206635
-80.338508605957 -69.733711242676 -52.819625854492 3.362186908722
-16.301036834717 -67.724472045898 -58.405963897705 1.658732891083
74.839225769043 -66.038146972656 -63.393917083740 2.196240901947
104.506538391113 -67.510345458984 -67.441139221191 4.659929275513
65.421546936035 -65.303657531738 -82.574211120605 1.224517464638
61.958553314209 -62.245441436768 -82.950271606445 1.383857131004
98.904869079590 -69.144790649414 -83.281845092773 1.152977228165
-63.635833740234 -64.275131225586 -90.234771728516 1.689389109612
-65.305885314941 -67.498107910156 -88.967346191406 3.404094219208
51.802101135254 -64.815574645996 -90.871025085449 1.228116393089
-67.026153564453 -70.270668029785 -95.154357910156 2.749009132385
-72.127059936523 -66.682945251465 -101.011138916016 1.637304902077
-94.379516601563 -66.827377319336 -101.327354431152 3.398615360260
-75.308410644531 -62.418567657471 -98.675697326660 3.653542757034
47.818931579590 -63.355735778809 -101.063217163086 2.488841772079
-64.913787841797 -69.942581176758 -102.691314697266 4.129636287689
48.889366149902 -65.224166870117 -103.061355590820 1.886603713036
96.414443969727 -67.046569824219 -103.667343139648 1.658053278923
90.594985961914 -68.114852905273 -112.212005615234 5.021547317505
-70.886283874512 -66.419868469238 -114.815246582031 3.881857156754
-85.717079162598 -68.629302978516 -111.425666809082 1.425157546997
-61.113853454590 -66.655967712402 -118.158927917480 1.664552807808
-94.914619445801 -61.718532562256 -117.881561279297 2.965178966522
-75.436874389648 -69.519561767578 -126.513130187988 1.198298215866
-93.078948974609 -58.525405883789 -125.984596252441 2.908841609955
-63.273033142090 -65.458763122559 -116.192947387695 1.937183141708
-59.384067535400 -60.098152160645 -120.791007995605 2.208538770676
-89.066520690918 -68.458343505859 -129.733749389648 1.552115082741
-62.897777557373 -70.124404907227 -125.832977294922 4.219154357910
-83.041618347168 -65.691825866699 -132.735839843750 1.815563678741
-82.344802856445 -67.333885192871 -134.128341674805 1.593517065048
-60.355735778809 -72.291343688965 -135.797348022461 2.972878456116
-59.488277435303 -62.925083160400 -133.290206909180 1.868317723274
-54.226993560791 -59.875221252441 -133.123413085938 1.305924654007
-98.036712646484 -63.127807617188 -130.568389892578 6.746223926544
-96.493675231934 -62.022842407227 -144.096099853516 3.138855457306
-89.889274597168 -66.816139221191 -135.473861694336 1.949504613876
20.258518218994 -70.238319396973 -149.417663574219 3.085640907288
-49.395874023438 -67.690238952637 -139.716735839844 1.785808205605
20.512075424194 -67.795028686523 -150.451080322266 2.535287618637
-97.067146301270 -67.536827087402 -164.853210449219 4.154713630676
-102.310150146484 -72.546104431152 -170.241088867188 3.670887708664
-101.494934082031 -62.432991027832 -170.623809814453 2.627726316452
-107.383125305176 -59.271091461182 -173.366973876953 4.403838157654
-107.878646850586 -67.112052917480 -178.197067260742 2.161690473557
-109.565818786621 -66.109657287598 -178.383178710938 0.597999393940
-141.464508056641 -63.505241394043 -186.104278564453 2.791816949844
-110.562187194824 -65.081367492676 -185.287902832031 2.299971103668
-133.025405883789 -63.045673370361 -201.142562866211 1.194510459900
-149.622085571289 -68.996475219727 -198.015731811523 1.477053046227
-127.508666992188 -66.714035034180 -197.947036743164 2.947269678116
-157.166122436523 -68.423851013184 -195.075134277344 1.351262807846
-146.181747436523 -70.611137390137 -201.948669433594 1.975029945374
-125.508651733398 -60.114234924316 -196.812713623047 3.180362701416
-133.690994262695 -64.016273498535 -199.546615600586 1.455957293510
-138.704544067383 -73.034873962402 -206.202682495117 4.564502239227
-129.860443115234 -68.549949645996 -222.422149658203 2.937544584274
-107.886268615723 -69.150245666504 -230.040756225586 2.696314096451
-141.247375488281 -67.090576171875 -227.084030151367 1.600439548492
-118.923355102539 -64.713928222656 -231.720932006836 1.465732932091
-115.577964782715 -60.612014770508 -230.224990844727 3.651516675949
-120.492340087891 -67.981323242188 -231.966720581055 3.769137144089
-131.948654174805 -65.669326782227 -233.587524414063 1.135029196739
-113.937088012695 -62.613014221191 -237.862014770508 5.653006076813
6.488524913788 -66.038825988770 -235.666687011719 0.867518126965
-151.449508666992 -68.304756164551 -238.531692504883 2.812224864960
7.109223842621 -67.571220397949 -235.696716308594 1.576577663422
5.278813838959 -62.579360961914 -243.510742187500 2.139720916748
3.450265884399 -69.787094116211 -241.669067382813 1.424280285835
14.278724670410 -63.621524810791 -240.222503662109 1.456594228745
-142.311965942383 -63.229972839355 -234.450607299805 1.601215481758
-4.748571872711 -69.615272521973 -247.597076416016 3.649623394012
20.493198394775 -67.024566650391 -238.750946044922 4.472136497498
52.421955108643 -65.063743591309 -249.574859619141 1.881318807602
51.840194702148 -65.502342224121 -250.669540405273 2.042913913727
-145.669464111328 -68.370590209961 -252.064971923828 1.625449657440
-4.139452934265 -68.687759399414 -250.254394531250 4.245785236359
22.329898834229 -68.216896057129 -253.696044921875 1.617801070213
-130.126693725586 -59.525234222412 -257.590209960938 5.790689468384
-121.211669921875 -64.778266906738 -256.558959960938 4.717380523682
-122.704719543457 -68.483993530273 -257.755004882813 2.075143098831
28.219779968262 -66.591979980469 -257.048858642578 2.013432025909
-132.314193725586 -62.358463287354 -266.205505371094 4.500786304474
34.240997314453 -64.385147094727 -258.620330810547 2.598148107529
35.282417297363 -66.931358337402 -262.287017822266 2.109689950943
-152.880538940430 -68.402320861816 -267.747955322266 1.220259308815
-144.748565673828 -72.171592712402 -286.028869628906 2.056034088135
-147.367034912109 -61.291126251221 -287.085449218750 2.029861688614
-142.952041625977 -64.205322265625 -295.411315917969 2.878788709641
15.460876464844 -70.669845581055 -291.431030273438 2.098854780197
-153.319900512695 -63.767669677734 -303.240631103516 4.163037300110
47.329250335693 -71.973289489746 -25.183244705200 1.237954616547
36.507865905762 -73.943153381348 -38.941600799561 1.976704716682
-58.615123748779 -62.892078399658 -46.180152893066 2.986158132553
-70.811332702637 -63.750720977783 -46.794937133789 2.233781814575
-25.977830886841 -63.291572570801 -50.451862335205 1.666925311089
-22.206678390503 -70.695625305176 -54.089370727539 2.460286855698
-9.006037712097 -62.899398803711 -66.425720214844 2.384752750397
-27.095485687256 -61.907970428467 -69.735176086426 1.943380713463
65.180038452148 -67.206809997559 -73.783920288086 2.019493103027
-95.330970764160 -59.315494537354 -79.053573608398 4.081395626068
-45.197803497314 -67.058219909668 -87.308654785156 3.791168212891
55.217552185059 -68.676254272461 -85.126991271973 1.652199983597
61.236236572266 -67.498619079590 -84.846412658691 0.570141971111
61.206737518311 -67.853187561035 -87.608695983887 2.252999305725
107.945716857910 -66.212608337402 -89.669029235840 3.134018898010
53.082031250000 -64.571304321289 -88.385177612305 2.189830541611
98.949989318848 -59.826786041260 -99.013618469238 3.471717596054
-82.801376342773 -68.448310852051 -103.751060485840 0.999147176743
-91.330268859863 -65.453910827637 -100.722282409668 6.694823741913
75.140373229980 -62.769462585449 -112.832839965820 2.950397968292
-77.983459472656 -66.420791625977 -103.702705383301 1.928534507751
-77.060607910156 -71.203269958496 -112.454978942871 1.311169028282
-83.740829467773 -73.030960083008 -119.185279846191 2.282422304153
-54.623176574707 -67.527778625488 -125.978713989258 1.529200911522
-75.796646118164 -65.566429138184 -129.124511718750 1.369383931160
-62.669578552246 -61.322326660156 -127.984642028809 2.167263984680
-85.470909118652 -67.980781555176 -135.542388916016 2.527884721756
-75.691406250000 -64.584297180176 -132.734848022461 0.395362466574
-78.728706359863 -63.989299774170 -125.001098632813 1.117219209671
-89.146011352539 -64.362625122070 -129.436386108398 1.919625282288
-66.497993469238 -62.654018402100 -135.118591308594 4.103862762451
-89.875152587891 -66.437026977539 -131.440780639648 1.928833603859
-49.760421752930 -68.726837158203 -132.314559936523 1.858929276466
-54.458786010742 -72.251998901367 -138.710800170898 1.178866624832
28.687215805054 -66.513137817383 -140.992263793945 3.255882501602
-55.455188751221 -59.379394531250 -135.958786010742 1.722396850586
16.237575531006 -71.820892333984 -142.330841064453 5.345195770264
15.166602134705 -64.443183898926 -146.948196411133 0.848700642586
18.317487716675 -62.054927825928 -153.707427978516 1.728647589684
-98.019943237305 -64.214302062988 -145.218185424805 2.934800148010
-89.289276123047 -65.973564147949 -148.658599853516 2.643318176270
-95.898841857910 -62.190608978271 -150.143508911133 0.798489212990
-105.347404479980 -66.343399047852 -163.317031860352 1.088293671608
-97.654441833496 -64.115325927734 -159.766052246094 1.950002789497
-151.655105590820 -62.924911499023 -175.744216918945 1.263160347939
-153.295547485352 -65.438255310059 -175.385330200195 1.808204054832
-112.163970947266 -63.071178436279 -181.821609497070 3.021776199341
-140.425537109375 -63.599655151367 -176.926986694336 2.102005243301
-109.036849975586 -61.699775695801 -181.971252441406 0.870028674603
-147.515441894531 -56.864112854004 -187.121261596680 5.434847831726
-110.629928588867 -61.643276214600 -190.711975097656 3.308245182037
-110.096107482910 -66.947708129883 -181.384780883789 2.047996282578
-144.872772216797 -64.717880249023 -200.172927856445 1.359807133675
-127.401374816895 -67.294273376465 -196.625228881836 4.058518886566
-105.105796813965 -65.922172546387 -197.537246704102 3.479727506638
-115.350822448730 -58.791713714600 -198.215209960938 4.990993022919
-112.697044372559 -67.304763793945 -200.141952514648 2.618945360184
-115.871589660645 -59.915142059326 -202.456375122070 3.430889368057
-133.526046752930 -62.414806365967 -196.493560791016 1.465001583099
-140.233428955078 -65.331459045410 -203.284729003906 1.757672786713
-129.152130126953 -63.418777465820 -208.700469970703 4.078215122223
-127.993629455566 -59.516620635986 -200.119445800781 4.055348396301
-121.822959899902 -63.087322235107 -204.626129150391 0.344126075506
-111.126350402832 -64.657287597656 -204.918762207031 2.375200748444
-148.442626953125 -63.934841156006 -212.616622924805 1.867216110229
-152.120330810547 -64.375022888184 -218.211120605469 3.714602947235
-152.432708740234 -64.752723693848 -221.490371704102 3.164908885956
-138.454696655273 -70.568031311035 -224.780181884766 2.070319890976
-130.805511474609 -60.026309967041 -227.489486694336 4.756772518158
-120.023544311523 -67.522544860840 -217.658126831055 8.001896858215
-139.627944946289 -67.677009582520 -229.688018798828 3.294694423676
-151.088104248047 -66.875320434570 -224.490707397461 2.298296213150
-132.701751708984 -66.447639465332 -225.698364257813 1.221472501755
-132.648208618164 -61.742706298828 -227.940811157227 2.670827150345
-146.354980468750 -64.016998291016 -228.440826416016 2.631927728653
-134.868225097656 -57.310344696045 -228.141677856445 6.353061199188
-128.125244140625 -64.149131774902 -231.777282714844 2.052685022354
-11.591549873352 -67.911071777344 -236.543304443359 1.835348010063
6.223741054535 -64.325218200684 -241.174072265625 1.578923463821
15.142234802246 -59.798397064209 -242.913558959961 1.018459558487
10.213565826416 -68.948654174805 -242.954269409180 1.494799494743
-6.706762790680 -69.095695495605 -237.238372802734 1.092280149460
-12.454204559326 -66.414329528809 -245.998123168945 2.530576467514
36.731166839600 -64.177505493164 -248.582565307617 2.416056394577
47.839118957520 -65.242752075195 -253.119949340820 2.486108303070
-146.222763061523 -64.020004272461 -253.694534301758 1.011988401413
43.397956848145 -63.517330169678 -253.730758666992 1.598868370056
40.787044525146 -67.547859191895 -252.926010131836 0.774963557720
-158.985580444336 -70.227630615234 -256.051147460938 2.801324129105
-149.602081298828 -65.318969726563 -256.235809326172 0.867719411850
-151.611785888672 -67.682609558105 -258.455688476563 2.406106472015
3.842838048935 -67.712196350098 -262.491516113281 4.386281967163
-149.918869018555 -66.222908020020 -267.089447021484 2.089808702469
0.133325994015 -66.275993347168 -273.341217041016 1.086498975754
-145.071777343750 -68.600761413574 -274.953704833984 1.639382600784
-147.106033325195 -65.921600341797 -280.670349121094 1.430803179741
-150.059555053711 -65.099571228027 -286.349670410156 0.910629272461
-149.041778564453 -55.707378387451 -282.706207275391 6.597547054291
-144.939575195313 -62.924571990967 -291.834136962891 1.163102149963
-154.124328613281 -64.182121276855 -284.501281738281 0.742785274982
-150.433334350586 -65.832107543945 -285.893096923828 0.227383911610
-152.016723632813 -61.297874450684 -287.763854980469 1.880634546280
-147.281951904297 -64.465812683105 -288.128540039063 1.214553833008
-143.389785766602 -64.969024658203 -286.556396484375 1.859846472740
11.225982666016 -67.700462341309 -282.186492919922 5.387954235077
-145.606628417969 -64.257537841797 -295.125488281250 1.103695034981
-157.238601684570 -60.107883453369 -292.271362304688 4.750047683716
-156.052185058594 -58.521015167236 -287.771362304688 4.883284568787
-148.960266113281 -62.327148437500 -292.593078613281 1.912122845650
-146.958648681641 -57.028194427490 -287.544250488281 5.560948848724
-146.060363769531 -67.485237121582 -291.839904785156 2.222507953644
7.213645935059 -68.001174926758 -291.742523193359 2.160322189331
-142.934036254883 -61.515445709229 -294.428863525391 3.946051359177
-147.256851196289 -60.777511596680 -292.417266845703 2.892747402191
29.874567031860 -59.644161224365 -14.073704719543 4.188500404358
43.423870086670 -71.294082641602 -20.497993469238 0.439615279436
43.270790100098 -63.085163116455 -20.479072570801 0.210536375642
16.759073257446 -70.375480651855 -31.145240783691 3.196337938309
25.462789535522 -56.084888458252 -34.431232452393 2.550308942795
37.169258117676 -65.479927062988 -35.642524719238 1.754183292389
-54.982139587402 -63.819664001465 -44.745384216309 1.327914237976
-49.820411682129 -64.984992980957 -40.441089630127 4.893694877625
91.345634460449 -66.195846557617 -65.259605407715 2.726898670197
-94.582710266113 -62.883102416992 -64.938117980957 2.198718547821
97.889053344727 -76.439735412598 -60.357006072998 10.767828941345
69.139282226563 -68.399955749512 -70.677268981934 1.966286540031
99.794425964355 -68.594825744629 -77.852394104004 2.162848949432
63.530818939209 -71.804435729980 -75.771781921387 4.764087200165
-41.718986511230 -65.438125610352 -77.076454162598 0.693037569523
60.145690917969 -63.200389862061 -81.233741760254 2.558917522430
-50.060169219971 -61.828880310059 -76.572502136230 3.384611845016
56.658840179443 -65.533676147461 -82.518135070801 2.705978631973
63.717700958252 -61.981117248535 -85.635276794434 1.922379612923
-97.663742065430 -64.198501586914 -83.816085815430 1.785717725754
52.241306304932 -63.891151428223 -83.556571960449 4.259996414185
52.485683441162 -71.599967956543 -92.477920532227 1.077342987061
66.244552612305 -66.958419799805 -91.024932861328 2.466820478439
52.878395080566 -64.876823425293 -95.931625366211 1.117879748344
-79.758689880371 -62.886138916016 -106.337547302246 1.693020701408
83.393890380859 -70.609634399414 -105.430809020996 2.279918909073
-82.270149230957 -69.230033874512 -119.218582153320 1.966219425201
-76.603469848633 -62.593898773193 -104.506309509277 1.283013582230
-78.950134277344 -65.924575805664 -123.155380249023 1.122570037842
-84.339080810547 -63.346191406250 -115.813209533691 1.946547031403
-94.561706542969 -60.213539123535 -119.238426208496 3.482922554016
-80.807571411133 -65.898521423340 -120.570289611816 1.126812219620
-50.261714935303 -63.196628570557 -123.997192382813 4.385776042938
-77.528114318848 -61.889957427979 -134.764099121094 2.496277093887
-56.195510864258 -59.294116973877 -128.423721313477 2.474690914154
-87.759109497070 -61.407821655273 -136.740524291992 3.438271045685
30.452219009399 -64.632446289063 -137.326919555664 2.121172189713
20.205116271973 -65.354789733887 -140.390945434570 0.782309532166
-93.509475708008 -53.555644989014 -143.608306884766 9.516658782959
22.851041793823 -67.672142028809 -147.552764892578 2.789063930511
-88.991767883301 -67.761367797852 -146.678192138672 3.294188261032
-93.638900756836 -59.179718017578 -147.177169799805 3.691765785217
19.143234252930 -65.853775024414 -161.178970336914 4.862168788910
-95.468261718750 -63.326625823975 -147.590545654297 1.386803150177
-98.320701599121 -61.805648803711 -146.046310424805 3.106458663940
-103.438209533691 -63.211666107178 -154.932785034180 3.055793046951
-93.600524902344 -64.088043212891 -161.806152343750 4.650449752808
-102.341148376465 -67.385520935059 -179.633621215820 3.308736324310
-109.278678894043 -71.392868041992 -169.072479248047 3.854713916779
-96.634185791016 -65.427917480469 -164.881103515625 4.298210620880
-104.068763732910 -65.399185180664 -167.370315551758 2.549752950668
-139.439590454102 -65.015815734863 -178.466888427734 3.386996984482
-110.586555480957 -63.923488616943 -177.262969970703 1.754978537560
-139.335128784180 -64.015113830566 -187.412612915039 4.028326034546
-147.636444091797 -59.750453948975 -190.689895629883 3.403065919876
-153.786346435547 -58.222049713135 -187.504287719727 6.172483921051
-120.958984375000 -61.112777709961 -196.187728881836 1.777353644371
-127.648246765137 -68.133064270020 -193.436080932617 2.093701124191
-121.267570495605 -61.295948028564 -200.857360839844 2.929964542389
-143.460678100586 -66.373603820801 -201.037857055664 2.597048759460
-122.323165893555 -67.858833312988 -203.107559204102 1.085216879845
-146.128250122070 -64.299232482910 -202.940399169922 2.676439762115
-151.316040039063 -63.219120025635 -204.946578979492 2.207860708237
-153.561477661133 -61.746887207031 -226.421630859375 0.470401078463
-142.602615356445 -69.989746093750 -231.241317749023 2.144740581512
-127.412391662598 -60.931888580322 -230.921936035156 3.883366107941
-152.190551757813 -61.956573486328 -229.391433715820 0.947040796280
-1.802445054054 -70.184753417969 -239.057846069336 0.912994623184
12.825165748596 -61.568138122559 -237.372634887695 4.440591335297
-0.442535012960 -69.098815917969 -242.985916137695 2.214158296585
-150.070495605469 -62.211132049561 -244.537918090820 2.571220159531
-7.608139038086 -62.520969390869 -240.778717041016 2.963598489761
-152.458694458008 -69.391677856445 -253.284317016602 1.002915740013
-6.103593826294 -70.131851196289 -249.471252441406 4.298517704010
-147.560882568359 -65.904479980469 -254.197433471680 1.982405066490
21.695983886719 -66.179862976074 -251.000106811523 3.252440929413
-151.055770874023 -58.272663116455 -254.977951049805 3.553420066833
-148.785629272461 -63.236278533936 -255.122726440430 1.760851383209
-150.648529052734 -63.118019104004 -253.689788818359 0.843181908131
-148.377044677734 -62.024673461914 -258.066406250000 1.435768604279
33.611419677734 -65.533828735352 -258.747192382813 2.314200878143
32.720932006836 -64.857170104980 -263.889831542969 3.111757278442
-144.373855590820 -63.811683654785 -254.110488891602 1.304597973824
-151.280227661133 -57.987037658691 -259.277648925781 4.269119739532
-152.683212280273 -67.547309875488 -259.477935791016 2.729640483856
-145.833999633789 -60.687664031982 -258.355712890625 1.839898347855
28.560783386230 -63.472332000732 -262.079345703125 0.991195082664
30.489049911499 -64.072967529297 -266.466857910156 3.414360761642
-155.205810546875 -64.914848327637 -262.149658203125 1.232212305069
-142.560775756836 -62.811328887939 -263.281982421875 1.024926185608
-147.384460449219 -59.313278198242 -262.244567871094 2.277792215347
-142.558929443359 -62.669792175293 -264.809692382813 2.021981239319
-142.405731201172 -66.516647338867 -262.087768554688 1.061893343925
-144.039688110352 -69.143539428711 -265.402008056641 1.105897545815
-147.229721069336 -60.711433410645 -266.132080078125 1.414224863052
-149.126190185547 -58.840167999268 -286.355773925781 3.863562107086
-145.441360473633 -62.926353454590 -281.808166503906 2.259328126907
-146.730834960938 -63.527866363525 -278.423553466797 1.525038242340
17.575632095337 -64.133377075195 -280.841369628906 2.447066307068
-153.093307495117 -58.960376739502 -285.505523681641 3.248583078384
-145.726318359375 -62.018016815186 -290.005065917969 2.417281866074
-4.904110908508 -72.056205749512 -286.033966064453 1.388047099113
6.042606830597 -63.639526367188 -291.386535644531 2.806841135025
-151.986007690430 -63.526096343994 -293.937927246094 2.400563001633
27.714027404785 -71.850608825684 -20.758981704712 1.493256330490
47.027290344238 -66.422485351563 -27.139417648315 3.781494855881
50.620311737061 -71.231460571289 -32.187534332275 2.117756843567
40.803318023682 -60.973144531250 -36.114051818848 1.337830424309
26.650819778442 -72.934020996094 -36.379543304443 2.105220079422
46.124439239502 -68.384582519531 -40.231861114502 2.040569305420
79.448165893555 -61.717437744141 -62.575332641602 3.331812620163
78.111091613770 -65.471328735352 -62.416023254395 2.183943748474
-17.852741241455 -64.866943359375 -70.375129699707 3.117790937424
68.930290222168 -62.078247070313 -70.680412292480 3.252532243729
-26.836166381836 -66.559379577637 -71.543426513672 3.427346706390
-35.487628936768 -70.136482238770 -80.295593261719 2.719521284103
-56.997032165527 -63.042724609375 -74.679397583008 4.884716987610
-55.118923187256 -60.462173461914 -78.415809631348 1.324687719345
64.201858520508 -70.768539428711 -81.343803405762 3.378085851669
109.494674682617 -70.255455017090 -90.172721862793 6.109415531158
-58.712432861328 -60.557090759277 -84.951416015625 1.554229736328
59.052383422852 -65.143630981445 -95.518806457520 2.013938665390
66.332252502441 -63.191787719727 -94.472076416016 1.547451853752
104.486228942871 -63.878517150879 -93.044647216797 1.398475527763
-64.971107482910 -68.284431457520 -92.573219299316 1.345445394516
55.997306823730 -60.135612487793 -95.309226989746 2.913659811020
-62.122055053711 -68.239028930664 -104.407814025879 6.584004878998
69.309799194336 -64.972343444824 -95.034759521484 2.827234029770
67.769126892090 -64.754547119141 -102.775825500488 1.611398339272
-75.348922729492 -61.663509368896 -108.481460571289 1.633244872093
-96.113311767578 -61.519565582275 -112.964881896973 2.048036813736
-69.004508972168 -57.102127075195 -111.938446044922 1.610766530037
-82.806953430176 -65.028434753418 -110.914810180664 1.717211961746
-60.441696166992 -66.624465942383 -115.264579772949 2.635588407516
-82.956779479980 -61.047706604004 -107.189323425293 3.122855663300
-73.917495727539 -64.747192382813 -113.826858520508 2.383368730545
-76.006805419922 -66.897300720215 -113.945564270020 1.504713773727
-68.875839233398 -67.473022460938 -118.906463623047 4.318172931671
-84.753364562988 -66.611335754395 -126.667640686035 2.843641757965
35.959465026855 -64.516372680664 -128.401473999023 2.465531349182
-47.170101165771 -63.445983886719 -129.927276611328 5.099143505096
33.890697479248 -63.622745513916 -135.444519042969 3.027682542801
31.668769836426 -65.153129577637 -131.297637939453 2.181286573410
30.494134902954 -68.397354125977 -130.318588256836 3.088756561279
-53.386642456055 -61.224708557129 -129.131774902344 1.722945928574
22.895393371582 -64.916351318359 -145.457977294922 2.980390787125
23.274799346924 -65.178863525391 -143.819366455078 2.251179933548
-144.927932739258 -65.285446166992 -177.215332031250 2.719848871231
-150.026367187500 -58.394035339355 -174.390426635742 3.501386880875
-151.673171997070 -62.508483886719 -182.878219604492 0.552061378956
-145.545059204102 -59.970817565918 -184.006546020508 1.112801790237
-149.136566162109 -64.406066894531 -194.543136596680 0.293366760015
-149.817337036133 -65.680633544922 -192.866394042969 1.229204177856
-137.903411865234 -64.944625854492 -192.454696655273 4.636689662933
-142.270538330078 -60.516902923584 -200.894592285156 1.009599685669
-119.754951477051 -67.017669677734 -199.740356445313 3.722996234894
-133.994049072266 -64.832206726074 -204.809509277344 3.171173810959
-147.793716430664 -65.160682678223 -214.708877563477 2.782761335373
-145.174179077148 -55.105297088623 -220.916290283203 6.315983295441
-150.623107910156 -62.204738616943 -227.237213134766 2.433161735535
-144.871246337891 -64.092018127441 -228.412689208984 2.346963644028
-149.678405761719 -62.201557159424 -229.288162231445 1.050409674644
-149.170654296875 -58.462814331055 -226.165664672852 2.140789985657
-145.323791503906 -64.273818969727 -231.435256958008 1.805221438408
-144.052154541016 -64.330474853516 -232.338363647461 2.340668439865
-140.552551269531 -60.708290100098 -238.338195800781 5.096144676208
-145.360870361328 -65.087821960449 -227.404510498047 2.903953552246
-154.410354614258 -61.661285400391 -233.793273925781 1.569090723991
12.916475296021 -62.357837677002 -239.063339233398 3.330380916595
-6.872633934021 -68.841758728027 -240.703552246094 2.259395837784
-143.811920166016 -59.255580902100 -243.233581542969 5.427134990692
-151.782211303711 -63.512271881104 -237.060470581055 1.853814125061
-153.519836425781 -65.488090515137 -240.557861328125 3.818408966064
9.372152328491 -65.699386596680 -241.778564453125 1.783190608025
-148.337951660156 -60.961517333984 -236.820968627930 0.860948562622
-148.192291259766 -67.192779541016 -252.735336303711 0.805982649326
-3.476430892944 -65.254203796387 -247.942153930664 3.384748220444
-145.805999755859 -62.072349548340 -251.034454345703 1.749485611916
-141.087600708008 -61.746795654297 -254.403808593750 2.882673501968
-139.654556274414 -63.154308319092 -255.974166870117 2.819671869278
-141.892623901367 -62.557929992676 -254.446136474609 1.955947875977
30.429368972778 -68.272102355957 -263.062561035156 1.513556003571
-148.232406616211 -67.687149047852 -263.268707275391 2.501316785812
30.229410171509 -65.640724182129 -272.103515625000 5.242260932922
14.999849319458 -62.221107482910 -287.958831787109 2.419168233871
3.339732885361 -63.520004272461 -286.185424804688 3.280915260315
11.222139358521 -61.111644744873 -293.816711425781 3.796584367752
32.906902313232 -64.688697814941 -20.442438125610 2.950016021729
42.592121124268 -74.654258728027 -37.613937377930 3.785241603851
38.038570404053 -73.020080566406 -37.891929626465 2.064418554306
-43.294242858887 -63.029693603516 -46.963024139404 2.545207262039
-90.512718200684 -65.240226745605 -56.307102203369 1.217503547668
-93.771278381348 -63.977947235107 -60.315872192383 3.493229627609
-21.665740966797 -61.922401428223 -66.395103454590 1.649607419968
102.631072998047 -66.602882385254 -66.838859558105 3.192877769470
108.559768676758 -63.324172973633 -73.695198059082 4.150738716125
107.386787414551 -65.860137939453 -75.438400268555 3.851687669754
-48.406173706055 -65.107902526855 -82.437225341797 2.323191165924
-61.410930633545 -61.474086761475 -84.442276000977 1.701104044914
59.252143859863 -63.795131683350 -88.637565612793 3.265333175659
55.003448486328 -69.133163452148 -90.450515747070 1.330893158913
-58.584056854248 -68.618164062500 -96.609733581543 6.209067821503
-93.949234008789 -58.534282684326 -108.294303894043 4.349276542664
76.654037475586 -63.422882080078 -108.133117675781 1.762939929962
-79.836944580078 -61.888580322266 -106.013854980469 1.717157483101
-66.895690917969 -65.641654968262 -106.875518798828 2.401133775711
-78.448417663574 -68.158836364746 -114.085624694824 1.279611468315
-83.094802856445 -54.914489746094 -116.079429626465 1.746461987495
-82.147102355957 -64.154693603516 -115.879386901855 1.953520059586
-69.175109863281 -53.236686706543 -119.959861755371 2.932806968689
-66.069953918457 -61.658786773682 -115.291091918945 1.493231296539
-80.939353942871 -56.301963806152 -116.997085571289 0.979633271694
-74.512008666992 -62.634605407715 -116.115653991699 2.142620325089
-60.691421508789 -61.423656463623 -118.772544860840 1.264823079109
-83.458435058594 -61.914546966553 -116.772232055664 2.282339334488
-73.323341369629 -63.333251953125 -119.105064392090 2.933320522308
-72.270828247070 -60.613506317139 -129.473281860352 5.125353813171
-80.124267578125 -62.627883911133 -128.207260131836 1.593630671501
27.710613250732 -61.839138031006 -121.673179626465 5.938401222229
-57.610717773438 -60.179203033447 -132.691543579102 1.753249168396
29.098831176758 -64.729858398438 -133.560317993164 1.154945135117
22.996446609497 -69.017372131348 -139.914978027344 2.599830150604
-141.770034790039 -63.811462402344 -194.325790405273 2.541174888611
-134.190551757813 -63.400390625000 -197.791198730469 1.438369512558
-150.262374877930 -63.482555389404 -203.652404785156 2.685966968536
-149.977340698242 -59.036228179932 -198.839706420898 1.754768967628
-157.352691650391 -67.005516052246 -201.576492309570 2.672287225723
-146.075698852539 -57.556278228760 -201.898056030273 3.292912483215
-140.340988159180 -60.451148986816 -201.878555297852 1.526146769524
-148.438995361328 -58.880794525146 -206.916763305664 2.710483551025
-146.470245361328 -64.625579833984 -223.211822509766 1.033704996109
-147.128341674805 -61.370742797852 -218.624771118164 2.289946317673
-142.629119873047 -59.154994964600 -224.233932495117 2.746465921402
-142.785522460938 -61.779186248779 -220.750610351563 3.084128379822
-149.905532836914 -62.285530090332 -226.740478515625 2.309867143631
-145.922973632813 -59.260387420654 -223.690917968750 1.617294073105
-147.340225219727 -59.845817565918 -227.491760253906 2.262561082840
-139.425445556641 -59.730922698975 -226.683380126953 3.501569509506
-141.127319335938 -65.803939819336 -227.199279785156 1.341569423676
-141.999282836914 -60.571399688721 -233.560348510742 1.750317335129
-148.288726806641 -57.942680358887 -234.780334472656 2.447149515152
-145.717910766602 -58.713825225830 -233.065277099609 2.975671768188
4.260562896729 -65.855354309082 -237.771957397461 1.613317370415
19.793516159058 -62.784866333008 -243.183319091797 1.247233033180
26.070270538330 -57.512989044189 -254.931091308594 2.590547084808
24.763622283936 -62.942642211914 -256.079681396484 2.340364694595
11.155424118042 -65.864265441895 -262.430358886719 6.365561485291
22.671396255493 -66.187522888184 -279.045989990234 2.140565872192
8.235994338989 -65.512771606445 -279.297332763672 4.745035648346
9.236001014709 -62.982906341553 -292.776275634766 2.263223409653
11.891076087952 -65.435981750488 -286.855773925781 2.033944129944
51.107917785645 -70.549247741699 -20.786478042603 1.636627078056
33.006401062012 -61.685138702393 -37.711658477783 0.887012422085
-29.784133911133 -60.803737640381 -50.126091003418 2.848294734955
