11.552515983582 -76.925109863281 -220.543533325195 1.697838187218
-2.608661890030 -76.456344604492 -218.974761962891 1.176608085632
11.040792465210 -65.155090332031 -220.052001953125 3.305338859558
-6.709874153137 -72.871971130371 -227.842773437500 1.745326757431
-160.456253051758 -69.000053405762 -225.732711791992 2.115365982056
80.353431701660 -74.258689880371 -219.593734741211 3.052471399307
-135.832351684570 -65.230209350586 -223.080505371094 3.536887407303
-135.474624633789 -70.799201965332 -221.252090454102 3.702737569809
-8.247550010681 -70.584503173828 -224.732910156250 1.354495882988
6.648800849915 -69.113189697266 -234.812515258789 0.815027356148
-158.320053100586 -67.315040588379 -230.295562744141 0.830645978451
89.194892883301 -69.107215881348 -219.902664184570 2.511172771454
-1.807880043983 -68.052528381348 -225.950820922852 0.997010588646
0.534659981728 -70.501533508301 -221.154327392578 1.396969079971
73.712379455566 -74.314712524414 -230.706985473633 1.408426403999
0.099724002182 -66.237358093262 -235.701782226563 2.007998228073
-14.100671768188 -71.304534912109 -224.808853149414 1.856704473495
-127.602516174316 -64.403701782227 -233.090637207031 0.812801063061
-5.405100822449 -68.959877014160 -237.450027465820 1.538772583008
2.363517045975 -66.838386535645 -230.006576538086 1.224789381027
65.926948547363 -67.136283874512 -237.810943603516 2.011122941971
-158.363433837891 -69.985359191895 -236.716720581055 2.005416154861
-13.480892181396 -67.300598144531 -244.991653442383 2.641807317734
-170.444076538086 -70.582992553711 -238.382553100586 2.958299636841
10.274312019348 -64.524322509766 -241.044189453125 1.720478057861
-163.977554321289 -69.126960754395 -238.131103515625 2.087206125259
-160.457778930664 -69.463378906250 -246.335372924805 1.332876920700
57.662422180176 -70.622184753418 -244.718078613281 1.279169559479
60.857215881348 -72.574562072754 -242.046951293945 1.433054566383
55.293430328369 -71.088165283203 -245.423278808594 0.573047876358
51.138137817383 -69.876052856445 -249.091567993164 1.309675097466
-153.692642211914 -69.087020874023 -242.441467285156 2.332995891571
-156.545578002930 -63.299243927002 -246.152099609375 5.947694301605
-13.039710044861 -73.902183532715 -249.161972045898 2.249720573425
-151.126617431641 -66.612670898438 -246.660476684570 0.700095355511
17.953987121582 -69.978096008301 -250.772811889648 2.932272434235
-171.456970214844 -73.714202880859 -250.864273071289 5.171312332153
-169.076828002930 -65.058921813965 -249.349731445313 4.501138210297
-82.537582397461 -70.578880310059 -246.971862792969 2.377216339111
-170.897872924805 -65.843643188477 -257.552490234375 5.602469921112
-85.543983459473 -67.610572814941 -257.467437744141 2.975436687469
42.556903839111 -68.432228088379 -253.309112548828 1.779831290245
21.385334014893 -72.930923461914 -256.876098632813 1.470624327660
-158.486968994141 -68.332862854004 -262.488037109375 1.832163095474
-101.477600097656 -59.969478607178 -259.279510498047 4.475115299225
39.404914855957 -69.294013977051 -254.603775024414 1.721170902252
-107.277481079102 -76.693359375000 -258.075347900391 2.037669420242
-153.996902465820 -62.976451873779 -265.140258789063 1.540207624435
-104.488014221191 -66.737640380859 -256.446014404297 2.118619203568
-169.616561889648 -70.159278869629 -258.902099609375 2.371852397919
-113.622772216797 -68.435935974121 -263.392883300781 3.016859292984
-154.057174682617 -69.587242126465 -265.701568603516 1.828915953636
-159.720352172852 -63.859672546387 -262.199157714844 4.131651878357
-166.166473388672 -65.836730957031 -263.200073242188 2.242423295975
-165.606765747070 -64.888519287109 -261.637084960938 3.208121538162
-166.234451293945 -66.908493041992 -264.039764404297 1.825766682625
-168.743453979492 -67.844131469727 -259.697845458984 2.475274801254
26.116102218628 -70.606330871582 -265.354583740234 1.074957609177
-148.812210083008 -72.286102294922 -262.333099365234 2.437498807907
-151.839675903320 -66.367530822754 -284.539886474609 1.829247355461
27.099752426147 -68.990715026855 -275.464508056641 4.710667133331
-12.796699523926 -71.516693115234 -274.357147216797 1.441297650337
-125.814064025879 -64.196060180664 -284.192962646484 3.272375345230
-136.949737548828 -67.029922485352 -285.914398193359 1.975311160088
-134.234283447266 -65.900527954102 -288.838043212891 1.223739385605
-128.512222290039 -67.079200744629 -285.343231201172 2.687018394470
-113.655708312988 -65.343566894531 -291.184722900391 1.724783897400
-104.702453613281 -62.331119537354 -283.690338134766 6.726378440857
7.353050231934 -72.288749694824 -294.464508056641 3.898621320724
-84.967849731445 -68.488250732422 -290.265472412109 2.103321552277
-149.319793701172 -67.166732788086 -286.222991943359 1.469205617905
-102.901077270508 -67.893844604492 -290.601562500000 1.969855189323
-132.597152709961 -63.774181365967 -291.845489501953 3.445058345795
9.434074401855 -70.859764099121 -287.362518310547 2.846724510193
-111.551643371582 -59.453582763672 -286.778289794922 8.651714324951
3.648025989532 -68.600067138672 -293.566528320313 1.701721787453
-143.769653320313 -66.195678710938 -286.363861083984 1.885340929031
-153.031127929688 -66.442871093750 -294.707366943359 1.012529492378
-159.890426635742 -64.447036743164 -315.767608642578 7.856757640839
-156.461257934570 -63.734748840332 -310.587493896484 5.968544960022
47.125038146973 -78.148780822754 -24.769538879395 6.242507934570
25.129673004150 -73.889480590820 -36.656425476074 2.723392724991
29.631095886230 -75.416282653809 -36.271259307861 4.168714523315
-42.210769653320 -76.289985656738 -46.870063781738 5.541255950928
-10.717066764832 -70.446495056152 -62.521286010742 3.111739635468
95.162460327148 -75.218986511230 -67.933395385742 4.415026187897
68.760353088379 -68.036956787109 -68.649147033691 1.885226011276
-24.874788284302 -71.664810180664 -73.822700500488 1.620997309685
-99.857086181641 -76.080993652344 -87.600196838379 6.178859710693
-42.482105255127 -71.770904541016 -84.532958984375 1.866620779037
58.973266601563 -73.184806823730 -80.188812255859 5.469767093658
64.665382385254 -77.067794799805 -84.851768493652 6.111962795258
52.090389251709 -70.369567871094 -87.458786010742 1.426783204079
-59.141010284424 -70.700347900391 -90.228759765625 1.499371886253
67.686920166016 -68.241065979004 -88.960960388184 0.463853627443
43.093441009521 -77.313491821289 -98.402320861816 3.416010618210
69.325065612793 -76.095291137695 -94.965446472168 3.048515558243
-60.464733123779 -69.557884216309 -95.981086730957 4.624191761017
51.316864013672 -75.288795471191 -91.755538940430 1.689647674561
46.759246826172 -75.781845092773 -98.010658264160 1.412515878677
103.470672607422 -69.584838867188 -102.204284667969 2.206568956375
-65.091499328613 -71.334495544434 -97.828102111816 2.204611301422
111.680503845215 -73.073150634766 -99.808616638184 2.964259624481
-78.904220581055 -74.819587707520 -101.130554199219 1.785581588745
53.926383972168 -75.988395690918 -106.396316528320 3.111056327820
48.352153778076 -71.046768188477 -100.970512390137 2.499471426010
91.243766784668 -69.287040710449 -104.044235229492 1.505334258080
83.563301086426 -73.273384094238 -106.020156860352 3.409664869308
56.488315582275 -73.835517883301 -104.873611450195 2.328039646149
-76.827140808105 -71.781166076660 -111.636154174805 2.302485227585
-78.067832946777 -70.248252868652 -116.173370361328 2.704124927521
-80.974876403809 -71.867691040039 -117.313636779785 0.881275653839
-93.908973693848 -77.022537231445 -117.154685974121 3.786464929581
103.369682312012 -66.183311462402 -117.255638122559 3.933920621872
-90.203948974609 -74.056083679199 -117.916305541992 1.331020951271
-75.263710021973 -65.684776306152 -120.938690185547 2.175137281418
109.140777587891 -72.209136962891 -116.639137268066 2.178856611252
-59.857089996338 -61.571300506592 -116.541847229004 1.489400267601
113.357559204102 -78.141036987305 -131.711090087891 2.073779582977
109.974021911621 -75.254760742188 -129.759994506836 0.821298778057
105.571258544922 -75.128601074219 -127.635406494141 4.190082073212
-93.750030517578 -70.880096435547 -136.329574584961 4.008737087250
-45.713035583496 -70.641777038574 -141.385086059570 1.276275277138
-80.953208923340 -66.749702453613 -142.919174194336 4.430577754974
-69.354690551758 -69.961555480957 -147.843765258789 0.767313480377
-68.875381469727 -68.854583740234 -148.740737915039 1.559847474098
-55.019828796387 -69.753562927246 -143.221939086914 1.059214830399
-46.106090545654 -76.049522399902 -144.044860839844 1.763660192490
13.898322105408 -71.432228088379 -147.014785766602 0.922402620316
-93.754379272461 -65.252723693848 -140.545089721680 2.355052471161
-46.347206115723 -68.560646057129 -145.863128662109 1.673576712608
-51.100273132324 -61.483257293701 -146.004302978516 5.885137081146
-42.455619812012 -67.723587036133 -153.658630371094 1.386504888535
26.816183090210 -74.144821166992 -160.401824951172 2.480600357056
-50.945983886719 -71.705459594727 -151.093399047852 1.341297149658
-102.111526489258 -63.545238494873 -147.553131103516 3.237503767014
-47.292659759521 -66.159843444824 -154.473358154297 3.574255466461
25.222764968872 -74.919235229492 -145.826522827148 0.885151684284
-96.425209045410 -76.938003540039 -163.149154663086 8.902334213257
22.902116775513 -74.213462829590 -157.761352539063 2.499679088593
-108.212234497070 -64.917945861816 -167.958450317383 1.693804264069
-101.668060302734 -69.859344482422 -163.265090942383 1.037512063980
21.929409027100 -71.232429504395 -165.881866455078 1.422968506813
26.428224563599 -68.861618041992 -167.103546142578 1.263384699821
-110.700653076172 -72.228240966797 -172.460464477539 3.720423460007
-142.523941040039 -65.081565856934 -172.475402832031 2.905669927597
-18.550706863403 -70.412155151367 -190.113967895508 2.326258420944
-27.743156433105 -68.873298645020 -179.967544555664 2.421491384506
-117.078468322754 -70.568466186523 -186.025009155273 4.686249256134
-143.812164306641 -63.369438171387 -185.084854125977 2.786296367645
-101.811088562012 -65.052795410156 -180.393585205078 3.947544097900
-159.686416625977 -68.219734191895 -187.984176635742 6.277231216431
-131.340713500977 -73.906837463379 -194.760833740234 1.773797273636
-133.157943725586 -71.086959838867 -195.543670654297 1.482603669167
-19.503597259521 -67.826156616211 -186.997070312500 3.615420341492
-119.191696166992 -69.111549377441 -198.393035888672 2.100205183029
-118.615318298340 -63.601158142090 -199.315673828125 2.544704914093
-28.696550369263 -72.798500061035 -192.575790405273 0.564257800579
-154.463714599609 -64.722450256348 -194.705688476563 2.965910434723
-132.898956298828 -69.373703002930 -204.168685913086 1.297487378120
-125.093772888184 -64.967796325684 -202.892578125000 2.218021631241
18.327512741089 -73.620933532715 -201.499588012695 0.904474914074
-162.686965942383 -67.976577758789 -201.023162841797 1.952373504639
12.782716751099 -67.508750915527 -216.305511474609 1.619128108025
14.126836776733 -71.469062805176 -215.012863159180 1.744616746902
-15.684198379517 -64.442153930664 -209.697738647461 4.161841869354
-5.166628837585 -69.307655334473 -216.326263427734 1.759034156799
-172.354156494141 -63.664070129395 -209.798248291016 7.125708103180
-159.477462768555 -62.276523590088 -211.297149658203 5.367172241211
-95.101142883301 -67.339691162109 -218.236328125000 1.030050754547
-97.152770996094 -70.494659423828 -220.853240966797 2.168321609497
-161.206176757813 -68.462074279785 -225.789611816406 1.743593931198
-108.926177978516 -64.885398864746 -218.127609252930 4.631147861481
-11.908001899719 -67.227005004883 -211.406661987305 0.958853960037
-128.490524291992 -69.793548583984 -220.556686401367 3.511993646622
-143.302688598633 -67.681076049805 -222.208999633789 1.153445482254
-3.438574075699 -71.922470092773 -220.933105468750 1.855554223061
-134.448272705078 -65.079071044922 -223.264556884766 3.409399271011
-123.956687927246 -72.952911376953 -221.417266845703 3.095149993896
-114.601104736328 -71.251808166504 -223.111709594727 3.135393619537
-1.611984014511 -61.817554473877 -228.567520141602 5.470035076141
-107.847328186035 -64.871032714844 -230.977645874023 2.117006301880
-161.753311157227 -59.739891052246 -221.496658325195 6.637283802032
-146.058547973633 -66.382675170898 -225.359939575195 2.106578350067
-165.209869384766 -66.376319885254 -224.875946044922 2.707361221313
-8.503669738770 -67.050704956055 -225.065353393555 2.554066181183
-8.422851562500 -69.431533813477 -233.158386230469 2.548314332962
78.123336791992 -73.698532104492 -225.000625610352 1.068609237671
-1.616099953651 -72.129676818848 -228.623245239258 1.698794364929
-143.595428466797 -66.807601928711 -237.139099121094 2.335992813110
-14.827662467957 -66.206115722656 -228.950592041016 3.399230957031
73.655342102051 -70.641372680664 -227.457992553711 1.186049103737
73.815750122070 -70.563140869141 -233.059082031250 1.595311760902
-134.695129394531 -65.081726074219 -231.090057373047 0.871774494648
-156.688110351563 -71.452484130859 -227.679855346680 1.484090328217
-114.129348754883 -65.076942443848 -232.068481445313 1.523862481117
-125.583992004395 -61.412658691406 -235.618835449219 3.842116594315
-163.070114135742 -65.144279479980 -234.225921630859 2.753714799881
-161.193557739258 -67.613754272461 -234.581848144531 2.404602289200
-148.156005859375 -60.984321594238 -231.906509399414 1.015352368355
-15.090555191040 -66.100593566895 -233.992233276367 4.547182083130
-6.179408073425 -67.240280151367 -241.509033203125 1.910939216614
-160.693313598633 -65.070243835449 -241.526672363281 2.658199548721
5.302908897400 -69.591087341309 -236.770660400391 2.329114198685
0.608964979649 -70.373565673828 -237.668701171875 0.621143519878
-159.579711914063 -66.320510864258 -236.610549926758 2.749559164047
17.838880538940 -74.208786010742 -240.533386230469 1.462603211403
50.504428863525 -72.394058227539 -245.963973999023 2.559510231018
48.809921264648 -73.160232543945 -243.548583984375 2.478507757187
-17.506393432617 -69.475265502930 -246.757965087891 4.109318256378
47.044445037842 -68.058723449707 -249.486511230469 1.211279273033
-160.456558227539 -61.582393646240 -248.016479492188 6.243277549744
-157.502914428711 -67.107215881348 -245.881912231445 2.518420934677
-161.638931274414 -71.866950988770 -248.525604248047 1.962402939796
55.346645355225 -68.590354919434 -247.363998413086 1.827225565910
-94.143516540527 -65.551368713379 -252.038497924805 3.674017906189
-124.797836303711 -65.016059875488 -253.843658447266 1.737637996674
-106.835144042969 -72.685997009277 -252.139053344727 4.666081428528
24.416835784912 -73.975761413574 -257.439178466797 2.114139795303
39.423244476318 -66.170845031738 -251.197982788086 1.011406898499
-101.046859741211 -63.713073730469 -253.819641113281 4.447596073151
-93.620971679688 -61.690113067627 -248.656845092773 6.720887660980
45.040473937988 -74.734985351563 -255.344726562500 3.959229230881
40.559062957764 -66.650634765625 -256.805267333984 1.911534309387
-154.975296020508 -72.613128662109 -256.706451416016 1.577906608582
28.280067443848 -68.824562072754 -259.725219726563 1.657554745674
-144.208572387695 -69.274826049805 -264.144775390625 1.068006038666
-113.393562316895 -66.494544982910 -261.940521240234 0.763939201832
-138.692199707031 -63.560813903809 -261.130218505859 3.768942356110
32.142498016357 -67.695739746094 -262.591674804688 1.720158457756
-126.882965087891 -65.092964172363 -261.959533691406 0.856193304062
-12.083651542664 -66.445663452148 -256.177246093750 1.043554902077
19.596981048584 -72.151557922363 -270.916809082031 3.160884857178
-4.908286094666 -74.880508422852 -264.024200439453 7.239250659943
18.335079193115 -70.874481201172 -280.104614257813 2.104642152786
-155.242446899414 -68.832351684570 -281.563385009766 2.771771907806
-12.393055915833 -65.343597412109 -280.326843261719 3.550486803055
-153.449890136719 -69.725540161133 -280.810791015625 0.984161853790
-123.354400634766 -69.409965515137 -284.171325683594 2.473862648010
-164.191375732422 -73.025459289551 -285.294525146484 1.700913310051
-115.890708923340 -65.762977600098 -286.021362304688 3.876992464066
-104.499610900879 -66.996994018555 -289.389068603516 1.848504424095
-7.791190147400 -65.746597290039 -283.993743896484 2.453951835632
-108.621452331543 -68.508186340332 -287.581329345703 1.464459538460
-117.751785278320 -63.590339660645 -282.402465820313 7.206259250641
-123.414085388184 -61.932121276855 -290.890686035156 4.007742881775
-140.388778686523 -66.101783752441 -289.149993896484 1.491327643394
-127.939872741699 -61.655437469482 -289.962646484375 3.745449781418
-159.496307373047 -71.591331481934 -288.551116943359 1.453926444054
-148.066314697266 -62.033992767334 -290.400421142578 2.921817541122
-160.240646362305 -61.707180023193 -301.755737304688 8.723079681396
-155.479888916016 -63.055282592773 -309.725860595703 5.544743061066
-161.228713989258 -62.401885986328 -300.099517822266 9.081148147583
-140.692184448242 -66.506904602051 -309.200408935547 5.286633968353
-149.932083129883 -68.149429321289 -313.756622314453 2.671865940094
35.848556518555 -75.128028869629 -6.718053817749 6.433133602142
48.990913391113 -79.929649353027 -16.833885192871 8.079592704773
24.180015563965 -72.141426086426 -21.434982299805 1.983398318291
51.510894775391 -75.109649658203 -25.599170684814 4.111690998077
28.134420394897 -76.526893615723 -33.566040039063 3.841413736343
32.207839965820 -74.940849304199 -32.720062255859 4.919395923615
-56.988975524902 -67.429161071777 -47.639492034912 2.399512052536
77.838645935059 -68.816169738770 -59.123233795166 3.953477859497
82.975296020508 -75.241600036621 -67.280570983887 4.007012367249
-89.356376647949 -73.659561157227 -62.213760375977 4.032138347626
-12.508853912354 -69.609451293945 -59.133575439453 2.341979026794
-92.156562805176 -73.117431640625 -70.783065795898 1.858052015305
97.033966064453 -76.979782104492 -67.042419433594 6.645715236664
-11.740772247314 -69.260948181152 -66.564201354980 2.417418956757
67.927009582520 -76.823707580566 -80.768669128418 4.366347789764
-43.650146484375 -76.337371826172 -80.266540527344 1.765916943550
-25.968410491943 -75.270706176758 -73.623908996582 2.652168273926
56.161346435547 -67.512039184570 -85.990844726563 1.029793977737
-42.958374023438 -82.218009948730 -83.202735900879 0.886538147926
65.452835083008 -62.920009613037 -86.729736328125 1.693763971329
52.576301574707 -78.379127502441 -90.738082885742 4.079030036926
55.553730010986 -71.817054748535 -93.923156738281 2.060589551926
58.433025360107 -80.085685729980 -90.248367309570 6.363057136536
56.548255920410 -67.661422729492 -95.056114196777 1.741495728493
99.278923034668 -69.067733764648 -97.835639953613 1.048359632492
107.338584899902 -67.441009521484 -99.174171447754 2.169559717178
60.869720458984 -75.676025390625 -100.319000244141 5.267926216125
107.994674682617 -68.304588317871 -100.054931640625 1.450256109238
-77.500617980957 -70.082572937012 -97.887413024902 2.121099948883
-73.117652893066 -71.003112792969 -102.207077026367 1.821946024895
100.578231811523 -69.103645324707 -97.889732360840 1.701954007149
53.513587951660 -73.608604431152 -100.515869140625 2.064627408981
70.536262512207 -74.930503845215 -96.978866577148 0.777950465679
-71.201126098633 -70.906036376953 -107.908195495605 3.556733608246
-85.457847595215 -68.930664062500 -107.076530456543 1.105879187584
87.268264770508 -77.172195434570 -102.928894042969 4.781348228455
39.231037139893 -74.609039306641 -102.352966308594 3.020345926285
106.237731933594 -68.616310119629 -106.851074218750 2.125106334686
48.205020904541 -75.475677490234 -113.183837890625 1.912986874580
111.091728210449 -73.954231262207 -101.882469177246 2.321349859238
-77.666419982910 -70.587577819824 -111.230766296387 1.480827927589
103.412567138672 -67.547035217285 -108.263694763184 2.653063774109
-83.106231689453 -67.118644714355 -120.694664001465 1.264256954193
-58.229156494141 -73.076255798340 -127.282752990723 2.748553037643
-56.772190093994 -69.887771606445 -123.135391235352 1.580972194672
-71.289115905762 -72.454093933105 -129.683624267578 2.334732294083
-50.416557312012 -71.871253967285 -130.418014526367 2.604571104050
-83.800331115723 -71.688087463379 -133.194259643555 1.995928645134
-77.404930114746 -65.530433654785 -130.883285522461 2.073402643204
-79.265586853027 -70.735382080078 -131.740234375000 1.429526686668
-61.156608581543 -75.495132446289 -141.559219360352 2.633175849915
-70.691963195801 -70.205505371094 -140.561065673828 1.590388774872
-60.458614349365 -75.869522094727 -132.544616699219 4.407068252563
-57.191230773926 -69.799766540527 -141.928939819336 1.268419504166
13.298771858215 -66.035537719727 -144.569168090820 2.467937946320
-91.230773925781 -70.624511718750 -139.935195922852 2.966662645340
-48.431041717529 -75.669189453125 -148.022262573242 2.579631090164
-94.837127685547 -67.577484130859 -148.958404541016 2.339407444000
-101.690032958984 -65.991645812988 -146.647903442383 3.794409751892
20.047981262207 -73.414932250977 -154.152587890625 1.822217106819
14.693778038025 -71.967094421387 -158.290008544922 1.347723007202
-95.324531555176 -71.957794189453 -159.734069824219 4.147471904755
-104.132850646973 -69.928169250488 -150.921417236328 4.874771595001
-99.815010070801 -67.313209533691 -166.715255737305 1.643872261047
21.461565017700 -69.705421447754 -169.763748168945 1.473743200302
-112.074111938477 -68.368026733398 -172.407470703125 2.993351697922
24.501092910767 -70.276512145996 -164.365463256836 1.630617618561
-148.112487792969 -68.460945129395 -175.761825561523 1.293113827705
17.924846649170 -69.515892028809 -175.444320678711 0.981602191925
24.673286437988 -71.139114379883 -185.447158813477 2.169751167297
-152.026794433594 -65.996688842773 -184.929046630859 2.330263853073
20.883804321289 -72.040573120117 -174.440353393555 1.981517314911
19.033351898193 -62.062015533447 -180.389144897461 4.493569850922
-145.427291870117 -72.429275512695 -181.979995727539 1.814151406288
-152.121124267578 -63.950138092041 -188.300018310547 1.636669158936
19.554233551025 -70.551879882813 -187.087326049805 2.649968624115
18.336509704590 -73.125610351563 -189.634399414063 2.638690471649
-141.956970214844 -70.415664672852 -193.288345336914 0.834686636925
-109.863861083984 -68.496009826660 -196.666717529297 1.835398077965
25.616783142090 -70.129608154297 -198.752975463867 4.088624477386
-125.733001708984 -68.560409545898 -193.729461669922 1.657724380493
9.251569747925 -72.730407714844 -200.369110107422 1.629830360413
-129.108840942383 -60.837486267090 -192.811935424805 5.130235195160
-162.242218017578 -64.892784118652 -187.443099975586 8.653329849243
-160.796218872070 -65.807876586914 -195.249114990234 3.175796031952
-157.247482299805 -69.796051025391 -192.179534912109 1.614588022232
-21.646774291992 -69.560066223145 -206.400665283203 2.108526229858
-169.201477050781 -70.039680480957 -198.022094726563 5.190085887909
-28.047243118286 -64.550231933594 -192.063751220703 4.080777168274
-16.097425460815 -70.922431945801 -193.107040405273 2.277107954025
6.661159992218 -63.066242218018 -195.191940307617 6.637266159058
-157.307754516602 -67.989433288574 -205.245880126953 1.815665364265
-107.103889465332 -66.122840881348 -201.738540649414 3.246984243393
-17.081251144409 -65.109069824219 -198.859542846680 3.610275268555
-161.589630126953 -60.646778106689 -199.829513549805 5.133451938629
16.979804992676 -70.321022033691 -201.694946289063 2.344747304916
-171.357727050781 -64.504623413086 -204.814727783203 5.741725444794
-120.237449645996 -70.370750427246 -201.459411621094 1.832328081131
-116.354713439941 -64.479385375977 -207.812393188477 4.419196128845
-123.176788330078 -67.330726623535 -202.724670410156 1.230334997177
-16.253208160400 -67.690620422363 -201.895172119141 2.654674530029
-19.483896255493 -69.884323120117 -202.872665405273 0.760927498341
-164.569992065430 -66.404418945313 -210.494995117188 0.986728191376
-160.229110717773 -64.245780944824 -210.450088500977 3.585741519928
-165.298187255859 -67.517196655273 -218.353775024414 3.166394948959
-140.071487426758 -70.108291625977 -212.721267700195 5.449355125427
-145.804061889648 -66.113525390625 -223.788116455078 0.766347765923
-1.710433959961 -66.739433288574 -218.303680419922 3.353109359741
-9.448092460632 -74.549255371094 -216.495391845703 3.478878021240
-101.382987976074 -64.819450378418 -219.467437744141 3.670857191086
-8.126059532166 -66.179862976074 -234.242965698242 1.967261433601
-169.345428466797 -62.827552795410 -229.357025146484 4.504372119904
-105.549972534180 -64.630584716797 -232.933151245117 4.675878524780
1.719004988670 -69.079635620117 -225.893035888672 2.063730955124
1.529222965240 -67.813728332520 -228.742568969727 2.111727952957
-112.479064941406 -66.995628356934 -232.845062255859 1.867306351662
-2.105601072311 -69.982292175293 -226.667877197266 1.104819417000
-119.123939514160 -63.005886077881 -232.937438964844 1.586315989494
-8.622323989868 -64.368667602539 -230.890823364258 3.067380428314
-2.281563997269 -66.984230041504 -234.239593505859 1.651544094086
-3.054321050644 -67.137908935547 -238.176956176758 0.836216032505
71.936889648438 -64.952087402344 -236.062255859375 3.038825035095
-10.186603546143 -71.604736328125 -237.030883789063 1.319537281990
9.394197463989 -69.244773864746 -235.360382080078 1.506752610207
10.744979858398 -67.424858093262 -237.145751953125 1.692145824432
4.558733940125 -69.802742004395 -238.065368652344 2.351273536682
3.552416086197 -70.360557556152 -241.023193359375 0.744209706783
62.688198089600 -63.059368133545 -238.884506225586 3.696259737015
68.335624694824 -64.106147766113 -240.020553588867 4.693304538727
6.077593803406 -67.207748413086 -247.866516113281 2.940467596054
51.280910491943 -70.704124450684 -242.046630859375 1.461691141129
54.631591796875 -73.883934020996 -239.901763916016 3.388600826263
46.369064331055 -63.710628509521 -250.310424804688 1.436682939529
41.758682250977 -64.552375793457 -250.931945800781 1.092364549637
40.152366638184 -66.685264587402 -257.993133544922 1.812758088112
-130.762084960938 -59.737194061279 -258.595825195313 5.233842849731
-9.530407905579 -66.729698181152 -247.026046752930 1.050963640213
29.792272567749 -65.615615844727 -256.838317871094 2.505455970764
43.151042938232 -66.826560974121 -245.067077636719 4.196218013763
28.669874191284 -71.437385559082 -252.200927734375 4.451881885529
-104.761756896973 -69.040214538574 -258.692901611328 2.874635934830
29.434175491333 -69.417121887207 -255.385498046875 1.326283812523
-145.952423095703 -67.983436584473 -260.859039306641 2.733968257904
-117.329490661621 -69.107429504395 -255.067581176758 1.481916666031
-111.499320983887 -66.266815185547 -257.512390136719 0.973622977734
-2.523539066315 -70.991943359375 -258.157714843750 6.312977790833
-152.694259643555 -67.157386779785 -256.056060791016 2.929519176483
36.294830322266 -68.285209655762 -262.335662841797 3.309295177460
-108.709297180176 -64.730010986328 -254.682891845703 3.403157472610
25.031919479370 -73.157264709473 -258.166198730469 2.887351751328
-135.449722290039 -69.180320739746 -263.657287597656 0.603621244431
-117.425201416016 -65.240562438965 -265.244293212891 1.518535614014
-111.737663269043 -65.583068847656 -261.483795166016 1.275483131409
-114.760917663574 -73.391471862793 -260.261016845703 1.371700525284
-142.350524902344 -68.120414733887 -254.202468872070 1.228432536125
29.021333694458 -68.606079101563 -258.329040527344 1.041325211525
-117.643295288086 -63.874454498291 -261.388824462891 1.923686385155
-145.488174438477 -67.286094665527 -262.491302490234 1.729074597359
-5.660697937012 -64.359916687012 -269.676696777344 2.712299108505
-150.719680786133 -67.889091491699 -279.092620849609 2.137714385986
-9.710786819458 -67.763488769531 -288.177795410156 3.164213895798
-6.287598133087 -64.256454467773 -280.470642089844 2.679524183273
-135.205932617188 -64.443443298340 -288.247833251953 1.829028844833
-130.145446777344 -65.568023681641 -291.102783203125 2.648404836655
-136.396804809570 -64.121437072754 -293.905578613281 4.763476848602
-127.568214416504 -62.283760070801 -288.879791259766 3.082089662552
-156.720321655273 -64.528518676758 -293.161804199219 1.515596985817
-158.723892211914 -65.233955383301 -298.735778808594 5.897674560547
-149.372055053711 -68.901542663574 -300.588653564453 2.416478395462
-150.215072631836 -66.599067687988 -303.636718750000 2.235757112503
-145.846115112305 -64.217048645020 -296.897003173828 2.627674102783
-151.612594604492 -63.897689819336 -304.827331542969 3.092144966125
-146.541336059570 -61.115753173828 -315.248352050781 7.083101749420
19.636329650879 -76.359519958496 -25.315166473389 4.447378635406
50.861301422119 -76.844573974609 -35.898284912109 5.871766090393
24.767656326294 -80.089935302734 -35.995204925537 8.463552474976
32.362213134766 -73.268218994141 -43.077758789063 2.984360933304
-41.359687805176 -64.472892761230 -47.538013458252 2.533348321915
-74.482017517090 -67.451301574707 -49.177368164063 1.855847120285
80.443557739258 -72.703506469727 -60.791213989258 5.169131278992
74.024070739746 -73.968482971191 -61.122077941895 6.734580516815
72.737411499023 -75.682243347168 -64.333023071289 6.520964622498
-100.530532836914 -70.363433837891 -70.674285888672 6.042610645294
98.719757080078 -77.821540832520 -75.079521179199 4.857087612152
-28.083339691162 -73.430961608887 -84.322036743164 5.972727298737
61.883670806885 -70.213996887207 -74.524284362793 5.844331264496
-42.035209655762 -66.788696289063 -82.776229858398 2.804983139038
-55.614803314209 -68.499145507813 -80.524749755859 5.251386165619
51.624538421631 -72.383712768555 -89.842414855957 1.357341527939
102.557991027832 -70.655158996582 -90.058700561523 2.084924459457
63.259128570557 -69.812164306641 -92.009071350098 1.888417363167
56.316364288330 -70.192626953125 -90.798461914063 2.718456029892
48.139175415039 -67.904350280762 -101.277687072754 0.930119216442
56.377689361572 -67.483757019043 -101.260368347168 2.678526639938
102.712257385254 -70.165641784668 -97.092536926270 1.071352124214
69.087966918945 -71.004653930664 -107.121826171875 5.171901702881
51.921390533447 -71.593704223633 -105.332305908203 1.721334338188
75.779823303223 -77.994758605957 -107.117424011230 8.412787437439
98.740562438965 -67.953712463379 -106.872535705566 3.947967529297
-74.013412475586 -66.976310729980 -98.085494995117 1.822821855545
-86.574768066406 -69.637420654297 -109.148078918457 1.764537811279
-81.960418701172 -70.090721130371 -111.176322937012 2.945771455765
-60.557563781738 -69.426025390625 -117.960586547852 3.650930643082
-57.401206970215 -73.614982604980 -125.578468322754 3.263808727264
-94.753555297852 -68.383323669434 -120.424774169922 1.265480637550
-74.070182800293 -72.095085144043 -118.058959960938 4.880342960358
-77.123512268066 -73.263572692871 -132.046249389648 2.795900344849
-60.532901763916 -65.799377441406 -126.715103149414 2.044862508774
-88.109771728516 -64.869720458984 -129.527328491211 1.301201701164
-89.880088806152 -67.613243103027 -129.771453857422 0.530266940594
-48.610157012939 -72.809356689453 -134.267242431641 1.160302996635
-50.907501220703 -71.052627563477 -136.572311401367 0.901268005371
-77.810234069824 -72.409248352051 -137.427551269531 2.290764808655
-54.800304412842 -71.724761962891 -140.510864257813 1.616199016571
-73.866027832031 -73.619537353516 -144.173339843750 1.849357128143
19.529434204102 -67.558135986328 -138.582122802734 2.508860349655
-58.104576110840 -74.125953674316 -143.435470581055 1.994635820389
-55.828826904297 -65.326828002930 -145.132385253906 2.304426431656
8.731044769287 -74.037300109863 -154.599533081055 0.739341437817
17.245975494385 -68.207061767578 -149.993927001953 0.920633018017
-141.788146972656 -68.417579650879 -172.242950439453 2.986767053604
-110.328125000000 -65.955238342285 -176.670074462891 0.511271417141
-111.351570129395 -63.173294067383 -189.092056274414 2.162537097931
-153.338973999023 -69.181106567383 -189.134292602539 2.273912906647
-113.511154174805 -66.742195129395 -185.069992065430 2.037513971329
-151.655670166016 -61.592475891113 -195.387344360352 1.369502663612
-114.497200012207 -66.040771484375 -197.929183959961 1.579929947853
-151.213302612305 -63.193099975586 -199.843246459961 2.038663864136
-150.061752319336 -66.043724060059 -205.483001708984 2.002804279327
-154.079452514648 -71.517051696777 -204.575592041016 2.410408258438
-149.403411865234 -66.005760192871 -223.406677246094 2.624352931976
-149.737579345703 -69.434936523438 -225.214508056641 2.637797117233
-105.645195007324 -63.263137817383 -227.047378540039 2.940027236938
-100.537185668945 -66.774284362793 -219.875198364258 2.142821788788
-123.328491210938 -60.642345428467 -230.912033081055 4.028709888458
-107.572174072266 -66.554733276367 -224.518234252930 1.872584819794
-157.581893920898 -66.353721618652 -229.529693603516 1.642603158951
-3.637670040131 -67.281135559082 -223.961090087891 1.413315892220
-133.609344482422 -69.683212280273 -229.010330200195 3.335231542587
-154.033325195313 -66.432533264160 -234.381057739258 1.379059076309
-139.159576416016 -69.725608825684 -231.466247558594 2.993254899979
-10.932616233826 -65.797851562500 -233.427520751953 1.895206332207
8.507146835327 -67.394012451172 -243.317855834961 1.121237158775
62.486618041992 -62.266349792480 -239.503387451172 4.671132564545
17.378263473511 -71.858283996582 -248.835571289063 2.181379079819
53.923942565918 -67.606826782227 -241.731079101563 3.227554798126
40.082496643066 -70.534881591797 -249.184967041016 2.231348752975
61.069534301758 -63.901290893555 -251.830520629883 6.261414051056
-153.752441406250 -65.510284423828 -247.782943725586 3.526202440262
-147.935546875000 -69.346969604492 -253.683303833008 2.245599746704
43.179374694824 -66.045959472656 -255.709960937500 1.186294317245
27.441080093384 -67.411178588867 -253.684417724609 3.518433809280
47.980648040771 -63.928119659424 -252.948196411133 2.271802425385
-145.778076171875 -68.376396179199 -261.501800537109 2.628444194794
-138.125198364258 -63.851814270020 -253.415893554688 4.141606330872
-124.624778747559 -62.799552917480 -258.014556884766 2.784845113754
-133.856994628906 -65.320602416992 -254.790069580078 1.294899940491
-140.571823120117 -66.571174621582 -257.002960205078 2.787619590759
-123.623413085938 -64.616645812988 -258.788574218750 2.072027444839
-143.636703491211 -63.097888946533 -258.957000732422 1.740643024445
-127.802848815918 -68.312507629395 -257.134246826172 3.209743499756
-120.902656555176 -66.448860168457 -264.004577636719 2.273655176163
-129.627349853516 -65.722412109375 -264.233612060547 1.648368597031
-122.637992858887 -61.346019744873 -263.026367187500 4.156400680542
-5.750191211700 -67.220207214355 -265.742828369141 1.462248682976
28.778953552246 -62.961242675781 -260.619934082031 2.214718341827
-146.265991210938 -59.068595886230 -266.107666015625 3.155880212784
25.641355514526 -68.442451477051 -270.323791503906 2.137446880341
-6.538232803345 -60.171550750732 -275.268676757813 3.563691854477
16.748065948486 -72.952323913574 -282.583282470703 0.950770497322
-141.818374633789 -65.171188354492 -288.355041503906 1.136142611504
-125.447158813477 -67.445297241211 -286.049957275391 1.134696483612
-131.518127441406 -59.573619842529 -289.438934326172 5.880829334259
-160.277603149414 -59.342453002930 -291.522766113281 6.868425846100
-127.329002380371 -58.789779663086 -288.201629638672 6.350965976715
-118.718750000000 -62.696666717529 -287.843109130859 3.664223909378
-125.436828613281 -67.647872924805 -296.446289062500 3.784852266312
-153.025085449219 -67.854217529297 -290.943359375000 2.649260520935
29.337232589722 -77.046295166016 -10.861718177795 5.611316680908
29.669204711914 -77.784111022949 -17.136861801147 4.524641990662
37.706886291504 -72.269798278809 -20.353567123413 2.778130292892
47.806312561035 -68.105789184570 -22.501296997070 1.797523140907
28.751380920410 -79.143203735352 -27.452259063721 7.476183891296
19.217342376709 -76.175216674805 -32.959480285645 4.178975582123
-33.627307891846 -73.405395507813 -44.800209045410 6.096606254578
-81.030372619629 -73.310478210449 -52.698040008545 4.166440486908
-17.013584136963 -71.470031738281 -58.572143554688 2.729183197021
74.106803894043 -70.098823547363 -64.000427246094 3.039119243622
103.744995117188 -71.611335754395 -68.241477966309 6.196072101593
64.593383789063 -68.831619262695 -83.105529785156 1.408405303955
61.143741607666 -65.748100280762 -83.385414123535 0.616614282131
98.053054809570 -72.815597534180 -84.088546752930 1.304204940796
-64.495338439941 -66.983894348145 -90.050895690918 2.364930868149
-66.174797058105 -70.229911804199 -88.856819152832 4.739456176758
50.933616638184 -68.066932678223 -91.314720153809 2.195476055145
-67.940948486328 -72.836006164551 -95.102981567383 2.226500749588
-73.054298400879 -69.075965881348 -100.839591979980 1.651752948761
-95.308547973633 -69.104568481445 -101.040992736816 2.982611894608
-76.202224731445 -64.856948852539 -98.379768371582 2.680967092514
46.904869079590 -66.329315185547 -101.445243835449 1.237057805061
-65.866165161133 -72.326736450195 -102.640312194824 4.119429588318
47.955596923828 -68.151535034180 -103.495834350586 1.577980637550
95.467231750488 -70.188034057617 -104.400680541992 1.751846790314
89.598220825195 -71.010665893555 -112.938629150391 7.792122840881
-71.883956909180 -68.468223571777 -114.638977050781 3.334061861038
-86.707748413086 -70.691238403320 -111.227729797363 1.349263310432
-62.130325317383 -68.666595458984 -118.039512634277 2.274811267853
-95.904212951660 -63.574203491211 -117.457107543945 2.840950250626
-76.510627746582 -71.247604370117 -126.387405395508 1.517088890076
-94.094795227051 -60.185138702393 -125.486129760742 1.816674590111
-64.273277282715 -67.509292602539 -116.032318115234 2.523711442947
-60.381629943848 -62.052478790283 -120.513442993164 2.207055807114
-90.151359558105 -70.038917541504 -129.507507324219 2.305321931839
-63.971324920654 -71.930236816406 -125.789535522461 5.649790763855
-84.128448486328 -67.226211547852 -132.470413208008 1.228462100029
-83.447052001953 -68.835708618164 -133.907821655273 2.600915908813
-61.491893768311 -73.855567932129 -135.819076538086 4.423354148865
-60.564834594727 -64.560356140137 -133.079650878906 2.294990301132
-55.287643432617 -61.541225433350 -132.863479614258 1.406256914139
-99.099136352539 -64.645523071289 -130.158843994141 7.349240303040
-97.620918273926 -63.204666137695 -143.662155151367 3.325891494751
-90.995742797852 -68.247421264648 -135.199615478516 0.807272017002
19.059736251831 -71.847473144531 -149.811523437500 2.481139421463
-50.529781341553 -69.209487915039 -139.678649902344 2.178583145142
19.320072174072 -69.379966735840 -150.783920288086 1.725615382195
-98.329635620117 -68.186592102051 -164.549194335938 3.045320987701
-103.625419616699 -73.031906127930 -170.034530639648 3.823031425476
-102.761894226074 -62.916397094727 -170.164749145508 1.741388559341
-108.648452758789 -59.657348632813 -172.795410156250 3.919096231461
-109.208061218262 -67.370552062988 -177.820281982422 1.499568581581
-110.891174316406 -66.355590820313 -177.971908569336 1.314629435539
-142.816192626953 -63.401409149170 -185.454620361328 2.542494058609
-111.918266296387 -65.147377014160 -184.842910766602 2.662639141083
-134.453140258789 -62.600738525391 -200.521072387695 1.542996287346
-151.062744140625 -68.548637390137 -197.458053588867 2.671210527420
-128.938186645508 -66.375785827637 -197.449081420898 3.280657291412
-158.588455200195 -68.014396667480 -194.463775634766 0.934487819672
-147.650955200195 -70.079483032227 -201.448959350586 1.161307334900
-126.899497985840 -59.816696166992 -196.158248901367 3.790487527847
-135.115249633789 -63.608341217041 -198.946762084961 2.657670974731
-140.208114624023 -72.430519104004 -205.802841186523 3.791798830032
-131.426177978516 -67.577789306641 -221.950057983398 3.358197450638
-109.495132446289 -68.090698242188 -229.698226928711 1.865193128586
-142.829772949219 -65.945312500000 -226.512756347656 1.200379014015
-120.518592834473 -63.559726715088 -231.206512451172 1.894289255142
-117.145103454590 -59.513397216797 -229.624755859375 5.187587261200
-122.105072021484 -66.812187194824 -231.526824951172 2.976746797562
-133.557998657227 -64.404312133789 -233.027450561523 1.577277541161
-115.553901672363 -61.327617645264 -237.318740844727 5.614235401154
4.862950801849 -65.391159057617 -235.851699829102 0.984403491020
-153.097152709961 -66.818809509277 -237.933120727539 3.252870798111
5.475852012634 -66.925277709961 -235.923919677734 1.147864699364
3.629734992981 -61.727680206299 -243.598861694336 1.131836175919
1.774938941002 -68.970947265625 -241.931060791016 0.386018097401
12.641308784485 -62.896621704102 -240.386077880859 2.958045721054
-143.913391113281 -61.893665313721 -233.773208618164 1.127464890480
-6.453626155853 -68.608848571777 -247.809082031250 3.450404405594
18.846334457397 -66.366004943848 -239.034454345703 3.320013284683
50.727794647217 -64.285408020020 -249.974777221680 1.035388112068
50.138179779053 -64.693229675293 -251.077148437500 1.837298274040
-147.387893676758 -66.568725585938 -251.494262695313 1.545252799988
-5.853712081909 -67.617080688477 -250.445205688477 2.782650947571
20.599418640137 -67.187080383301 -254.014556884766 2.653491497040
-131.830200195313 -57.661197662354 -256.875793457031 7.057039737701
-122.936203002930 -62.981842041016 -256.025665283203 3.989992618561
-124.453857421875 -66.648704528809 -257.307403564453 1.225267529488
26.479816436768 -65.506034851074 -257.356323242188 0.710428535938
-134.076507568359 -60.263973236084 -265.548492431641 5.399479389191
32.503692626953 -63.289161682129 -258.903289794922 2.108445882797
33.513370513916 -65.746398925781 -262.638916015625 1.502869963646
-154.680389404297 -66.167037963867 -267.134399414063 2.923775911331
-146.662353515625 -69.509902954102 -285.548126220703 2.287669658661
-149.232101440430 -58.593559265137 -286.314239501953 4.107259750366
-144.874984741211 -61.316593170166 -294.734741210938 2.793161869049
13.522345542908 -68.647117614746 -291.762573242188 2.494583129883
-155.281066894531 -60.629951477051 -302.495208740234 7.146797180176
46.766498565674 -76.869697570801 -25.806924819946 4.809535026550
35.864124298096 -78.436904907227 -39.553092956543 5.983874797821
-59.239021301270 -66.745025634766 -46.002689361572 2.503309488297
-71.442382812500 -67.528709411621 -46.574188232422 1.790384411812
-26.626750946045 -67.193870544434 -50.456718444824 2.488450765610
-22.911432266235 -74.521278381348 -54.301002502441 4.629215240479
-9.736427307129 -66.478111267090 -66.505531311035 2.766185998917
-27.837665557861 -65.315338134766 -69.692481994629 2.812355995178
64.388076782227 -70.956321716309 -74.365219116211 4.649295806885
-96.106887817383 -62.156562805176 -78.578956604004 3.783745288849
-46.056430816650 -69.929679870605 -87.294486999512 3.097162008286
54.359607696533 -72.088813781738 -85.688789367676 2.423870325089
60.385456085205 -70.947837829590 -85.410423278809 1.164908766747
60.339843750000 -71.231956481934 -88.180618286133 1.429599523544
107.075073242188 -69.765876770020 -90.447242736816 4.074971675873
52.227642059326 -67.892105102539 -88.830322265625 0.705621540546
98.062805175781 -63.101200103760 -99.578735351563 2.826065778732
-83.751358032227 -70.719429016113 -103.566627502441 3.431346416473
-92.249397277832 -67.761695861816 -100.417480468750 5.624158859253
74.167373657227 -65.576461791992 -113.341354370117 5.064755916595
-78.923225402832 -68.717147827148 -103.492446899414 2.157712697983
-78.069664001465 -73.280105590820 -112.368080139160 3.221415281296
-84.793762207031 -74.903816223145 -119.106979370117 4.380760669708
-55.684776306152 -69.370849609375 -125.913330078125 2.098774194717
-76.864280700684 -67.227706909180 -128.895660400391 0.852969944477
-63.710514068604 -63.077541351318 -127.718261718750 1.077580094337
-86.583641052246 -69.431327819824 -135.321197509766 1.449348092079
-76.772911071777 -66.154670715332 -132.480407714844 1.645546197891
-79.766998291016 -65.741676330566 -124.717987060547 1.587479352951
-90.208930969238 -65.951736450195 -129.105850219727 1.916327834129
-67.582519531250 -64.208984375000 -134.863250732422 4.887612819672
-90.958793640137 -67.970985412598 -131.158340454102 1.342035174370
-50.861026763916 -70.432052612305 -132.303344726563 1.614210605621
-55.610034942627 -73.770759582520 -138.761917114258 1.024048447609
27.550518035889 -68.378440856934 -141.339233398438 1.579036474228
-56.528068542480 -60.967575073242 -135.678787231445 1.484411954880
15.067835807800 -73.590118408203 -142.745864868164 5.438776969910
14.009612083435 -66.092376708984 -147.168716430664 1.446121931076
17.137186050415 -63.548423767090 -153.881805419922 2.087654352188
-99.163879394531 -65.359489440918 -144.831375122070 3.266639471054
-90.460060119629 -67.073013305664 -148.361724853516 2.780762910843
-97.058341979980 -63.221591949463 -149.714965820313 1.618259787560
-106.595756530762 -66.992507934570 -162.939208984375 1.125885725021
-98.873466491699 -64.892662048340 -159.373779296875 1.443261742592
-152.949813842773 -63.035175323486 -175.029098510742 1.283239722252
-154.600860595703 -65.548858642578 -174.725402832031 2.925358772278
-113.491996765137 -63.218181610107 -181.318222045898 3.652202367783
-141.730041503906 -63.734012603760 -176.288330078125 0.789492428303
-110.358909606934 -61.858577728271 -181.449661254883 0.932441830635
-148.839202880859 -56.707366943359 -186.270492553711 5.937602996826
-111.997077941895 -61.572284698486 -190.177520751953 3.384589433670
-111.441207885742 -67.114524841309 -180.990951538086 1.976919293404
-146.303466796875 -64.239654541016 -199.531188964844 0.896388471127
-128.826919555664 -66.989929199219 -196.143020629883 3.214266061783
-106.529830932617 -65.703071594238 -197.138488769531 1.988410472870
-116.742637634277 -58.508167266846 -197.580734252930 5.667637348175
-114.141288757324 -66.982261657715 -199.737045288086 2.789298534393
-117.291007995605 -59.520931243896 -201.846221923828 3.601343631744
-134.926467895508 -62.085788726807 -195.854965209961 2.781633377075
-141.683456420898 -64.796424865723 -202.682189941406 0.446099698544
-130.621078491211 -62.800426483154 -208.106506347656 3.156802177429
-129.398605346680 -59.123226165771 -199.435470581055 3.557806968689
-123.269279479980 -62.608097076416 -204.064117431641 1.293249964714
-112.582283020020 -64.221893310547 -204.453414916992 2.611034154892
-149.933990478516 -63.123405456543 -211.931838989258 1.331221103668
-153.642837524414 -63.403476715088 -217.516052246094 4.748855590820
-153.974136352539 -63.696216583252 -220.802139282227 3.854302406311
-140.042495727539 -69.493659973145 -224.312820434570 0.705136537552
-132.355133056641 -58.923667907715 -226.794296264648 5.302378177643
-121.559677124023 -66.719406127930 -217.213882446289 8.371368408203
-141.226821899414 -66.473228454590 -229.139373779297 1.506182551384
-152.655715942383 -65.748374938965 -223.862503051758 2.512593507767
-134.273971557617 -65.379173278809 -225.156692504883 2.291978597641
-134.208679199219 -60.619098663330 -227.279235839844 3.757184267044
-147.929000854492 -62.813560485840 -227.763900756836 1.383043766022
-136.407623291016 -56.172367095947 -227.355728149414 7.698549270630
-129.717727661133 -62.949134826660 -231.199569702148 3.176356315613
-13.230525016785 -67.152961730957 -236.679382324219 2.526087999344
4.578090190887 -63.536903381348 -241.312316894531 1.958972096443
13.509840011597 -59.010578155518 -242.983764648438 0.975469887257
8.535560607910 -68.132865905762 -243.230514526367 0.458648294210
-8.355371475220 -68.343170166016 -237.430267333984 1.746546626091
-14.134826660156 -65.412300109863 -246.088424682617 3.255498409271
35.046977996826 -63.348709106445 -248.876861572266 4.001207351685
46.125770568848 -64.352088928223 -253.498855590820 1.062521219254
-147.927993774414 -62.175510406494 -253.009902954102 0.714030742645
