2.726308107376 -69.611701965332 -234.750518798828 1.009657263756
1.673032045364 -70.238334655762 -237.678054809570 1.437464594841
60.722263336182 -62.032363891602 -236.799942016602 5.388387680054
66.362411499023 -63.016819000244 -238.024429321289 4.460286140442
4.021441936493 -67.174758911133 -244.624084472656 3.747300863266
49.373607635498 -69.900321960449 -239.605407714844 3.609793186188
52.811405181885 -72.990791320801 -237.467819213867 6.049151420593
44.202766418457 -63.132263183594 -247.898849487305 2.852818727493
39.594669342041 -64.052810668945 -248.417022705078 1.995717883110
37.888053894043 -66.338081359863 -255.406646728516 1.108989119530
-133.092544555664 -61.910511016846 -252.874160766602 4.109567165375
-11.573409080505 -66.910423278809 -243.494796752930 2.356984615326
27.536619186401 -65.399566650391 -254.073898315430 3.573172569275
41.131072998047 -66.198463439941 -242.539703369141 7.072260856628
26.589174270630 -71.151214599609 -249.311645507813 3.850402832031
-106.961875915527 -70.831283569336 -253.299316406250 2.729527235031
27.263029098511 -69.178649902344 -252.546157836914 3.755595207214
-148.197204589844 -70.418823242188 -254.698013305664 3.498051643372
-119.456771850586 -71.016433715820 -249.434295654297 6.863847732544
-113.716926574707 -68.135864257813 -252.040740966797 4.111076831818
-4.713911056519 -71.272705078125 -254.679382324219 6.254340171814
-154.859161376953 -69.603889465332 -249.783020019531 2.006011486053
33.973995208740 -68.073768615723 -259.645202636719 1.265758752823
-110.897583007813 -66.506698608398 -249.293167114258 7.058759689331
22.865917205811 -73.033309936523 -255.174423217773 1.239278078079
-137.732208251953 -71.512573242188 -257.674072265625 2.311791896820
-119.801902770996 -67.338539123535 -259.675445556641 2.935178756714
-114.040153503418 -67.528594970703 -256.018585205078 1.142899751663
-116.922286987305 -75.356781005859 -254.597625732422 1.560683012009
-144.469116210938 -70.380920410156 -248.110000610352 1.871036648750
26.782773971558 -68.427833557129 -255.495452880859 2.395240068436
-119.967941284180 -65.905349731445 -255.841812133789 4.298582553864
-147.774246215820 -69.744773864746 -256.351165771484 2.134867668152
-8.166370391846 -64.899635314941 -266.254211425781 3.012901306152
-153.307403564453 -70.728607177734 -272.836090087891 1.764585018158
-12.512106895447 -68.700752258301 -284.610260009766 4.393453121185
-8.997631072998 -65.003211975098 -277.034362792969 2.630058526993
-138.022064208984 -67.224075317383 -282.346252441406 3.579231739044
-132.999847412109 -68.326423645020 -285.276489257813 0.919502317905
-139.323806762695 -67.023323059082 -287.985137939453 2.368255615234
-130.430862426758 -64.964515686035 -283.162658691406 3.875523567200
-159.621353149414 -67.714828491211 -286.846588134766 1.717383027077
-161.718566894531 -68.551628112793 -292.367675781250 2.434722185135
-152.349197387695 -72.114952087402 -294.332153320313 2.204819440842
-153.283889770508 -69.881340026855 -297.404632568359 1.809661149979
-148.825210571289 -67.312362670898 -290.793548583984 0.594866454601
-154.743957519531 -67.223030090332 -298.616912841797 2.240996599197
-149.911911010742 -64.558441162109 -309.181274414063 2.392912626266
21.898941040039 -72.046470642090 -22.242992401123 0.654154241085
52.923122406006 -72.267234802246 -33.409351348877 3.392305850983
26.883949279785 -75.896308898926 -32.949916839600 3.340613365173
34.240680694580 -69.094848632813 -40.298000335693 0.917124211788
-39.675807952881 -61.465278625488 -43.509124755859 3.514687061310
-72.774650573730 -64.958854675293 -44.462329864502 1.071948766708
81.966491699219 -68.149497985840 -58.932727813721 3.679833650589
75.561637878418 -69.514373779297 -59.118198394775 4.415439605713
74.240699768066 -71.305381774902 -62.272563934326 3.968957185745
-99.176155090332 -68.646324157715 -65.402381896973 4.979401588440
100.045547485352 -73.259849548340 -73.472381591797 3.507785558701
-26.960548400879 -70.900222778320 -80.372070312500 3.028065681458
63.116340637207 -66.184654235840 -72.351943969727 3.004014492035
-40.979045867920 -64.436149597168 -78.680511474609 1.566790342331
-54.486679077148 -66.304100036621 -76.139900207520 4.261974334717
52.604690551758 -68.785018920898 -87.429931640625 0.469670444727
103.493354797363 -66.313644409180 -88.648933410645 2.338961124420
64.156547546387 -66.083190917969 -89.864181518555 2.203555345535
57.244277954102 -66.543220520020 -88.514694213867 2.579936027527
48.838024139404 -64.567596435547 -98.875610351563 1.380312800407
57.068161010742 -64.025932312012 -99.023040771484 1.509363532066
103.507957458496 -65.950912475586 -95.692123413086 1.760959386826
69.717399597168 -67.466804504395 -105.061401367188 2.396571397781
52.598289489746 -68.274742126465 -102.934402465820 1.857535958290
76.512359619141 -74.356719970703 -105.058517456055 4.324656009674
99.320274353027 -63.977088928223 -105.432907104492 1.479085564613
-73.233070373535 -65.373443603516 -93.371093750000 5.926283836365
-85.958862304688 -68.420852661133 -104.142227172852 1.665999650955
-81.377189636230 -68.843498229980 -106.249618530273 2.456510066986
-60.118103027344 -67.989318847656 -113.451812744141 4.850902557373
-57.043022155762 -72.270416259766 -121.051681518555 4.269531726837
-94.366188049316 -67.493759155273 -115.281646728516 3.610270977020
-73.588577270508 -70.857688903809 -113.244224548340 3.548388004303
-76.886520385742 -72.326988220215 -127.147354125977 2.093682050705
-60.312541961670 -64.523742675781 -122.269226074219 2.212783336639
-87.948265075684 -64.050468444824 -124.571205139160 1.430113792419
-89.681457519531 -66.823684692383 -124.731964111328 2.791176080704
-48.430011749268 -71.495277404785 -129.919692993164 2.896756410599
-50.796421051025 -69.814979553223 -132.211853027344 2.198631525040
-77.687072753906 -71.581596374512 -132.529129028320 1.357146024704
-54.752071380615 -70.616218566895 -136.062652587891 3.291476011276
-73.852699279785 -72.857315063477 -139.325988769531 0.477160811424
19.529834747314 -65.324874877930 -135.627670288086 3.839025259018
-58.074329376221 -73.118827819824 -138.879882812500 1.658656477928
-55.963279724121 -64.319831848145 -140.778411865234 0.488491535187
8.530641555786 -72.254234313965 -151.316635131836 2.026533126831
17.042171478271 -66.216270446777 -146.980270385742 2.161326646805
-142.361114501953 -69.167716979980 -166.184097290039 8.791138648987
-111.030441284180 -66.325622558594 -171.254257202148 3.588642120361
-112.328971862793 -63.787117004395 -183.702636718750 2.907006502151
-154.214797973633 -70.410064697266 -182.835494995117 2.049596309662
-114.358703613281 -67.313011169434 -179.576354980469 3.680438518524
-152.763519287109 -62.913417816162 -189.255447387695 3.038336038589
-115.596817016602 -66.861915588379 -192.424972534180 1.381001710892
-152.381042480469 -64.588775634766 -193.689361572266 2.188834428787
-151.293075561523 -67.525070190430 -199.297714233398 2.553366661072
-155.210357666016 -73.039207458496 -198.215194702148 1.625681638718
-150.972564697266 -67.805938720703 -217.228439331055 2.919459819794
-151.289138793945 -71.272209167480 -218.967391967773 2.567085742950
-107.336677551270 -64.488807678223 -221.752105712891 1.476884007454
-102.042549133301 -67.792602539063 -214.616485595703 5.491256237030
-125.126884460449 -62.199001312256 -225.325393676758 3.365087509155
-109.166107177734 -67.761421203613 -219.127685546875 4.269294261932
-159.258605957031 -68.386016845703 -223.187057495117 1.077549219131
-5.240342140198 -66.952560424805 -220.540252685547 1.692925095558
-135.233245849609 -71.353355407715 -223.065093994141 2.051153898239
-155.801101684570 -68.501647949219 -228.103012084961 2.575710535049
-140.827423095703 -71.522178649902 -225.413513183594 1.347606062889
-12.733471870422 -65.750190734863 -229.891036987305 2.891291856766
6.538630008698 -67.241966247559 -240.119979858398 1.157559752464
60.497196197510 -61.253860473633 -237.429061889648 6.084115982056
15.370444297791 -71.675979614258 -245.724456787109 1.514863729477
51.975299835205 -66.759315490723 -239.396270751953 4.783719539642
38.041656494141 -70.026245117188 -246.530715942383 5.238640785217
58.873252868652 -63.135055541992 -249.695404052734 5.000655174255
-155.786193847656 -67.821144104004 -241.522293090820 2.466568946838
-150.024337768555 -71.679565429688 -247.462341308594 2.126795530319
40.947525024414 -65.612701416016 -253.193542480469 1.480506300926
25.272380828857 -67.171325683594 -250.843826293945 3.334203958511
45.767539978027 -63.374389648438 -250.562530517578 1.974430322647
-148.029098510742 -70.820892333984 -255.336807250977 2.734350442886
-140.294311523438 -66.037094116211 -247.481323242188 5.584246635437
-126.900093078613 -64.871330261230 -252.354919433594 2.497470140457
-136.031143188477 -67.468040466309 -248.909942626953 6.149883747101
-142.766860961914 -68.857337951660 -250.971405029297 1.821475386620
-125.886283874512 -66.687416076660 -253.114990234375 1.316577076912
-145.919738769531 -65.465782165527 -252.928970336914 2.279173612595
-129.977905273438 -70.413261413574 -251.314788818359 2.892657995224
-123.236900329590 -68.574806213379 -258.348022460938 1.781527519226
-131.974288940430 -67.980758666992 -258.423645019531 3.028607130051
-125.029953002930 -63.480899810791 -257.429138183594 2.305836439133
-8.138908386230 -67.688362121582 -262.268402099609 1.095321416855
26.412620544434 -62.830093383789 -257.882781982422 2.022211074829
-148.743255615234 -61.607223510742 -260.099731445313 2.090582132339
23.175746917725 -68.533660888672 -267.424530029297 3.035614490509
-9.211704254150 -60.827777862549 -271.903106689453 4.126562595367
14.122203826904 -73.397445678711 -279.428771972656 3.922136306763
-144.623672485352 -68.050605773926 -282.314178466797 1.604622244835
-128.179702758789 -70.041648864746 -280.281127929688 5.203029632568
-134.430847167969 -62.323322296143 -283.695159912109 5.535648822784
-163.224639892578 -62.552349090576 -285.233856201172 6.463880538940
-130.231430053711 -61.455562591553 -282.552368164063 6.592455387115
-121.558265686035 -65.228477478027 -282.287719726563 5.954596996307
-128.361846923828 -70.434555053711 -290.670410156250 3.124539613724
-155.835525512695 -70.944747924805 -284.639404296875 2.318198442459
31.879156112671 -72.325851440430 -7.967189788818 5.309373378754
32.104099273682 -73.173599243164 -14.233186721802 1.934327125549
39.996158599854 -67.601829528809 -17.701618194580 2.437001228333
49.989742279053 -63.330150604248 -20.116403579712 1.890646934509
31.012960433960 -74.734825134277 -24.502994537354 4.785976409912
21.333551406860 -72.008460998535 -29.880002975464 1.926946997643
-31.760053634644 -70.231704711914 -40.758575439453 8.370655059814
-79.299331665039 -70.977012634277 -47.751140594482 2.991324186325
-15.439197540283 -68.305519104004 -54.877605438232 2.567998647690
75.532112121582 -65.697319030762 -62.066963195801 1.172442674637
105.104667663574 -66.852310180664 -66.844627380371 5.271564960480
65.643135070801 -64.920166015625 -81.006866455078 1.099580764771
62.142921447754 -61.893238067627 -81.276489257813 1.079023122787
99.134437561035 -68.430168151855 -82.555915832520 1.286796092987
-63.566539764404 -65.094139099121 -85.520706176758 3.304265975952
-65.174316406250 -68.342018127441 -84.236427307129 6.456709384918
51.821460723877 -64.506538391113 -88.966445922852 2.456278562546
-67.018287658691 -71.087776184082 -90.399711608887 3.939236402512
-72.294502258301 -67.508918762207 -96.104652404785 3.381283283234
-94.545654296875 -67.867706298828 -95.880950927734 2.337118387222
-75.458602905273 -63.292175292969 -93.661758422852 6.525140762329
47.577274322510 -63.014171600342 -99.047981262207 1.027599453926
-65.093498229980 -70.686340332031 -97.983207702637 2.249715089798
48.616497039795 -64.858055114746 -101.085021972656 1.756143927574
96.127929687500 -66.213523864746 -102.859138488770 1.647599339485
90.112403869629 -67.278503417969 -111.267341613770 3.769882678986
-71.393127441406 -67.137077331543 -109.932571411133 2.670676708221
-86.115097045898 -69.514442443848 -106.199607849121 2.119343757629
-61.703296661377 -67.254615783691 -113.514411926270 4.362526416779
-95.532905578613 -62.648456573486 -112.379837036133 3.000810146332
-76.197662353516 -70.198883056641 -121.538528442383 2.851382732391
-93.925895690918 -59.380924224854 -120.501762390137 2.466837644577
-63.825260162354 -66.092285156250 -111.487915039063 3.025357007980
-60.100948333740 -60.661998748779 -116.140205383301 1.563111424446
-89.911270141602 -69.247833251953 -124.419158935547 3.688017368317
-63.640502929688 -70.686401367188 -121.167747497559 4.256100177765
-83.988059997559 -66.401832580566 -127.546691894531 2.103442907333
-83.309722900391 -68.027236938477 -128.967559814453 1.658762574196
-61.321491241455 -72.758628845215 -131.206390380859 2.286415815353
-60.482757568359 -63.402168273926 -128.653320312500 2.048066139221
-55.248367309570 -60.302486419678 -128.592376708984 2.626597642899
-98.949691772461 -63.999134063721 -124.996910095215 3.149811983109
-97.747474670410 -62.784454345703 -138.549758911133 3.489053726196
-90.889350891113 -67.573532104492 -130.125534057617 0.551549851894
18.913499832153 -69.825729370117 -146.766830444336 0.612735509872
-50.504905700684 -68.023727416992 -135.357589721680 0.959749996662
19.118423461914 -67.372901916504 -147.788391113281 1.620015263557
-98.773979187012 -68.158203125000 -159.326187133789 1.297564148903
-104.098625183105 -73.180397033691 -164.621170043945 4.302013397217
-103.389694213867 -63.057395935059 -164.950347900391 2.536840677261
-109.372955322266 -59.933815002441 -167.526626586914 4.418626308441
-109.911079406738 -67.745193481445 -172.399902343750 1.508158087730
-111.611793518066 -66.757987976074 -172.537689208984 3.024858713150
-143.712631225586 -64.410133361816 -179.462127685547 3.063083171844
-112.785942077637 -65.691093444824 -179.408523559570 3.292280435562
-135.647369384766 -63.763103485107 -194.697357177734 3.585137128830
-152.105255126953 -69.896919250488 -191.211227416992 2.377882242203
-130.019561767578 -67.399894714355 -191.663513183594 3.391893386841
-159.580490112305 -69.418357849121 -188.084075927734 6.199464797974
-148.746520996094 -71.450416564941 -195.238220214844 1.773283362389
-128.055679321289 -60.789051055908 -190.530380249023 7.010733127594
-136.264541625977 -64.751289367676 -193.092788696289 3.298946857452
-141.352401733398 -73.771408081055 -199.690155029297 1.535627365112
-132.949539184570 -69.087097167969 -216.086898803711 7.850734233856
-111.162864685059 -69.420104980469 -224.241485595703 1.705197691917
-144.460159301758 -67.705993652344 -220.459930419922 0.613466560841
-122.279525756836 -65.079750061035 -225.620742797852 1.384527206421
-118.938034057617 -60.956054687500 -224.176895141602 6.799213886261
-123.822731018066 -68.360466003418 -225.851974487305 1.901513576508
-135.336715698242 -66.148773193359 -227.177062988281 1.699636936188
-117.464744567871 -62.887435913086 -231.865829467773 2.378421068192
3.005821943283 -65.156295776367 -232.623031616211 1.460511445999
-154.926208496094 -68.939178466797 -231.664749145508 0.823472380638
3.640224933624 -66.682327270508 -232.679229736328 1.739199876785
1.572260975838 -61.653900146484 -240.410110473633 2.094193935394
-0.141867995262 -68.891815185547 -238.576782226563 0.813125729561
10.659195899963 -62.631431579590 -237.349227905273 2.678190469742
-145.740829467773 -63.804416656494 -227.770324707031 1.936046838760
-8.484027862549 -68.758270263672 -244.302352905273 2.418288707733
16.939937591553 -65.984054565430 -236.053833007813 3.863453626633
48.575172424316 -63.636783599854 -247.636108398438 2.314203262329
47.971122741699 -64.073348999023 -248.719482421875 1.287259459496
-149.477386474609 -68.853935241699 -245.334625244141 2.955246686935
-7.948753833771 -67.806282043457 -246.966903686523 2.059899806976
18.423130035400 -67.053718566895 -251.047393798828 3.773740053177
-134.159164428711 -59.819232940674 -251.171813964844 6.805097103119
-125.171859741211 -64.992340087891 -250.395645141602 4.234409332275
-126.658126831055 -68.703956604004 -251.581817626953 2.337439775467
24.213735580444 -65.348106384277 -254.530532836914 1.848769664764
-136.528839111328 -62.613189697266 -259.751708984375 3.412384986877
30.173486709595 -63.071815490723 -256.231872558594 1.410413503647
31.149515151978 -65.582023620605 -259.941131591797 0.399810045958
-157.067932128906 -68.845977783203 -260.837524414063 1.842302560806
-149.348312377930 -72.407745361328 -279.337524414063 3.815362215042
-152.095642089844 -61.546154022217 -280.251312255859 2.908607244492
-147.857254028320 -64.358833312988 -288.702911376953 0.707716941833
10.660147666931 -69.308975219727 -288.621032714844 2.421546697617
-158.416564941406 -63.967269897461 -296.274566650391 4.378556728363
49.019664764404 -72.167480468750 -23.242906570435 1.376418948174
37.885467529297 -74.146133422852 -36.748081207275 2.449810266495
-57.486968994141 -63.970958709717 -41.592262268066 2.398345470428
-69.685775756836 -64.943939208984 -41.916633605957 3.506609201431
-24.961172103882 -64.022850036621 -46.658763885498 3.766876935959
-21.209197998047 -71.364173889160 -50.440372467041 5.675292491913
-8.388301849365 -63.353603363037 -63.037155151367 2.100357055664
-26.561687469482 -62.515125274658 -65.898689270020 3.512608289719
65.634155273438 -66.887115478516 -72.227310180664 2.399884223938
-95.025680541992 -60.521671295166 -73.536811828613 3.692403078079
-45.036907196045 -67.718070983887 -83.063819885254 2.102479934692
55.412651062012 -68.373947143555 -83.335235595703 2.446082353592
61.424854278564 -67.139778137207 -83.192497253418 1.349401116371
61.331424713135 -67.475265502930 -85.955749511719 1.560495734215
107.988471984863 -65.365455627441 -89.139556884766 3.528477907181
53.159206390381 -64.267250061035 -86.510742187500 2.104951620102
98.707015991211 -59.002185821533 -98.216255187988 3.465289831161
-83.015060424805 -69.358848571777 -98.597030639648 4.322430133820
-91.495826721191 -66.468894958496 -95.340240478516 5.627149581909
74.596862792969 -62.079566955566 -111.473632812500 1.940801620483
-78.217002868652 -67.284927368164 -98.651107788086 1.703686833382
-77.462081909180 -71.996765136719 -107.457626342773 3.124786615372
-84.286582946777 -73.842185974121 -114.036636352539 3.169946432114
-55.397113800049 -68.008407592773 -121.495758056641 2.480226993561
-76.658744812012 -66.231239318848 -124.111709594727 1.301464796066
-63.548969268799 -61.867660522461 -123.260536193848 2.414111375809
-86.463043212891 -68.694610595703 -130.309860229492 1.395511150360
-76.650932312012 -65.222854614258 -127.716331481934 1.355700850487
-79.504379272461 -64.711647033691 -119.906929016113 1.502502441406
-90.022644042969 -65.155258178711 -124.090293884277 2.800885438919
-67.537223815918 -63.186542510986 -130.308776855469 3.788826942444
-90.780563354492 -67.222572326660 -126.091346740723 3.471357345581
-50.678997039795 -69.115661621094 -127.956428527832 2.866706609726
-55.497955322266 -72.641487121582 -134.261947631836 1.571274280548
27.509059906006 -66.077812194824 -138.522033691406 1.290711879730
-56.549991607666 -59.798789978027 -131.393402099609 1.412352085114
15.081800460815 -71.496971130371 -139.596023559570 6.530042171478
13.828123092651 -64.097869873047 -144.132446289063 3.246721506119
16.790346145630 -61.631763458252 -150.948791503906 1.068499684334
-99.279624938965 -64.982749938965 -139.650268554688 3.265643596649
-90.618988037109 -66.632812500000 -143.314514160156 1.926912188530
-97.298637390137 -62.904052734375 -144.610916137695 3.416005134583
-107.025360107422 -67.056213378906 -157.580612182617 4.241746902466
-99.269783020020 -64.778305053711 -154.201614379883 1.205641269684
-153.652770996094 -64.001609802246 -168.853515625000 7.080430507660
-155.259872436523 -66.533256530762 -168.473068237305 8.303191184998
-114.321907043457 -63.720924377441 -175.889862060547 4.489159107208
-142.449432373047 -64.558723449707 -170.313720703125 4.641166687012
-111.212615966797 -62.318141937256 -176.105545043945 2.485461950302
-149.849761962891 -57.821250915527 -180.283615112305 4.292672634125
-113.018737792969 -62.215908050537 -184.804306030273 4.643644332886
-112.207046508789 -67.580116271973 -175.531509399414 2.323527812958
-147.451049804688 -65.557289123535 -193.452194213867 2.033303737640
-129.874542236328 -67.988304138184 -190.348953247070 4.767173290253
-107.621955871582 -66.392913818359 -191.792633056641 2.490118265152
-117.948158264160 -59.357936859131 -192.169738769531 6.460567951202
-115.260871887207 -67.831047058105 -194.222015380859 2.321546792984
-118.561386108398 -60.456638336182 -196.405014038086 4.074812889099
-136.040557861328 -63.169723510742 -190.033126831055 5.705304145813
-142.883270263672 -66.103866577148 -196.680191040039 2.031757354736
-131.956069946289 -64.045532226563 -202.349685668945 1.794983983040
-130.626113891602 -60.192497253418 -193.771316528320 4.516208648682
-124.533271789551 -63.671310424805 -198.452392578125 2.083672761917
-113.832458496094 -65.135002136230 -199.016296386719 1.728550314903
-151.330474853516 -64.721870422363 -205.799453735352 1.425044775009
-155.139068603516 -65.158615112305 -211.305938720703 3.707880496979
-155.527664184570 -65.516357421875 -214.579284667969 2.856078147888
-141.579025268555 -71.172157287598 -218.249893188477 3.553735971451
-134.099288940430 -60.537765502930 -221.067901611328 6.972424030304
-123.009719848633 -67.997398376465 -211.556045532227 6.181157588959
-142.899139404297 -68.258377075195 -223.106704711914 0.944104671478
-154.236358642578 -67.604698181152 -217.626708984375 2.267444372177
-135.889831542969 -66.989639282227 -219.277770996094 5.223258972168
-135.935943603516 -62.268810272217 -221.486724853516 6.440544605255
-149.628463745117 -64.672843933105 -221.669891357422 1.714337468147
-138.202468872070 -57.856967926025 -221.601486206055 7.581390380859
-131.485046386719 -64.604164123535 -225.449325561523 2.067358255386
-15.071520805359 -67.198242187500 -233.073486328125 3.145065546036
2.590508937836 -63.406810760498 -238.109786987305 1.940024137497
11.420270919800 -58.781322479248 -240.032714843750 2.569381713867
6.579771995544 -67.978599548340 -240.019866943359 1.389308571815
-10.194027900696 -68.330360412598 -233.895629882813 0.937153875828
-16.178642272949 -65.643760681152 -242.493453979492 4.428602695465
32.905483245850 -62.910282135010 -246.256347656250 7.063277244568
43.909210205078 -63.835552215576 -251.069976806641 1.767797112465
-150.111801147461 -64.497627258301 -246.918731689453 2.164810419083
39.438190460205 -62.149192810059 -251.560134887695 2.639553546906
36.886318206787 -66.210479736328 -250.721389770508 2.093761682510
-162.868347167969 -70.812515258789 -249.009323120117 2.311544895172
-153.539489746094 -65.811592102051 -249.386459350586 3.720480680466
-155.580017089844 -68.179069519043 -251.573867797852 1.122889280319
-0.276798993349 -66.667358398438 -259.387054443359 2.867139339447
-154.112075805664 -66.642509460449 -260.235443115234 2.791508674622
-4.263222217560 -65.191360473633 -270.132690429688 1.706988692284
-149.435607910156 -68.917915344238 -268.232208251953 2.813372135162
-151.634109497070 -66.218696594238 -273.878143310547 1.540484428406
-154.732894897461 -65.385681152344 -279.477905273438 4.155845165253
-153.716445922852 -56.009784698486 -275.792358398438 9.326616287231
-149.769165039063 -63.122581481934 -285.069305419922 1.956354975700
-158.759994506836 -64.520812988281 -277.524688720703 6.655433177948
-155.088424682617 -66.125007629395 -279.017700195313 4.765372753143
-156.760223388672 -61.593399047852 -280.816558837891 5.507022380829
-152.005676269531 -64.712471008301 -281.319122314453 1.282382488251
-148.071716308594 -65.188781738281 -279.845764160156 1.179789185524
6.623649120331 -66.445785522461 -279.255065917969 5.232564449310
-150.503463745117 -64.438888549805 -288.353057861328 2.627516508102
-162.101547241211 -60.422740936279 -285.187072753906 6.522026538849
-160.821029663086 -58.855964660645 -280.705841064453 8.564443588257
-153.812683105469 -62.559020996094 -285.725952148438 0.777799546719
-151.739334106445 -57.276340484619 -280.689025878906 5.419464111328
-150.846099853516 -67.693786621094 -285.080871582031 1.881878495216
2.382642030716 -66.718582153320 -288.712677001953 3.777999639511
-147.841018676758 -61.675861358643 -287.701751708984 2.420364379883
-152.120361328125 -60.994148254395 -285.580383300781 1.686167120934
31.723896026611 -60.086959838867 -11.623418807983 3.770606040955
45.223327636719 -71.559158325195 -18.459320068359 1.473409533501
44.992290496826 -63.352455139160 -18.377244949341 2.049058437347
18.299377441406 -70.825553894043 -28.448389053345 1.795849680901
26.783405303955 -56.428260803223 -31.841396331787 0.863661587238
38.546146392822 -65.700202941895 -33.404861450195 1.283809185028
-53.811393737793 -64.873176574707 -40.252975463867 4.855789661407
-48.535381317139 -66.018333435059 -36.083961486816 9.077798843384
91.988883972168 -65.681282043457 -64.334396362305 2.681123256683
-93.899513244629 -64.180633544922 -59.469917297363 3.563941001892
98.747489929199 -75.895088195801 -59.666584014893 10.969927787781
69.679168701172 -68.063400268555 -69.226531982422 1.738715410233
100.150772094727 -67.909629821777 -77.145858764648 2.463222742081
63.980998992920 -71.486534118652 -74.207740783691 5.224926948547
-41.325366973877 -66.135917663574 -72.907737731934 4.352777004242
60.381649017334 -62.877788543701 -79.523368835449 1.751501679420
-49.685905456543 -62.611648559570 -72.175071716309 6.753150463104
56.886993408203 -65.235839843750 -80.739486694336 3.072654247284
63.833492279053 -61.592998504639 -84.001480102539 0.561904430389
-97.427055358887 -65.393669128418 -78.276458740234 2.216445446014
52.429962158203 -63.629154205322 -81.658325195313 5.779124259949
52.530494689941 -71.272537231445 -90.638565063477 1.104392170906
66.275695800781 -66.507591247559 -89.486854553223 1.544545292854
52.774623870850 -64.521858215332 -94.052024841309 1.497929334641
-80.089637756348 -63.749347686768 -101.216361999512 2.264189720154
83.102912902832 -69.890701293945 -104.331367492676 1.305865764618
-82.853561401367 -70.026977539063 -114.078147888184 2.704722642899
-76.893653869629 -63.439247131348 -99.460289001465 2.857328414917
-79.662239074707 -66.661865234375 -118.070442199707 2.216263294220
-84.895019531250 -64.187561035156 -110.580978393555 2.386068105698
-95.227569580078 -61.130630493164 -113.733940124512 2.456584930420
-81.456275939941 -66.672004699707 -115.440841674805 2.387277364731
-51.030254364014 -63.649002075195 -119.589515686035 4.746921062469
-78.562225341797 -62.532371520996 -129.680770874023 1.318453311920
-57.107215881348 -59.773509979248 -123.842140197754 0.737373590469
-88.842498779297 -62.135997772217 -131.404403686523 2.564290285110
29.344818115234 -64.205757141113 -134.887161254883 1.502716541290
19.033451080322 -65.006309509277 -137.706375122070 3.246349334717
-94.833343505859 -54.292240142822 -138.073364257813 7.852669239044
21.526058197021 -67.247566223145 -144.946975708008 0.954944312572
-90.256217956543 -68.431457519531 -141.354934692383 1.962535619736
-94.995956420898 -59.892166137695 -141.678649902344 3.698921203613
17.470010757446 -65.369956970215 -158.465515136719 4.695322990417
-96.795120239258 -64.053680419922 -142.077453613281 2.323191404343
-99.623489379883 -62.571395874023 -140.453369140625 4.485161781311
-104.942398071289 -63.964862823486 -149.222778320313 5.346996784210
-95.267242431641 -64.697273254395 -156.339401245117 1.314006090164
-104.407882690430 -67.954689025879 -173.972564697266 2.642448425293
-111.047309875488 -72.103256225586 -163.275222778320 7.428072929382
-98.362007141113 -66.045036315918 -159.349319458008 1.952232837677
-105.854988098145 -66.071220397949 -161.656829833984 1.512872695923
-141.487808227539 -65.954399108887 -171.887344360352 3.395850181580
-112.625778198242 -64.589759826660 -171.377197265625 3.709751844406
-141.611007690430 -64.890075683594 -180.825500488281 3.185615301132
-150.030120849609 -60.683555603027 -183.869064331055 2.341898679733
-156.114883422852 -59.237438201904 -180.523941040039 5.689273357391
-123.482788085938 -61.747619628906 -190.023406982422 5.829846382141
-130.035583496094 -68.851783752441 -187.160903930664 7.274770259857
-123.903343200684 -61.901065826416 -194.685379028320 2.382146358490
-146.044692993164 -67.193092346191 -194.363159179688 2.628816366196
-124.950683593750 -68.457984924316 -196.956710815430 2.603294849396
-148.777557373047 -65.131500244141 -196.185226440430 1.946411371231
-154.022796630859 -64.087905883789 -198.056854248047 1.654327392578
-156.804977416992 -62.487178802490 -219.459762573242 5.230899333954
-145.888534545898 -70.589019775391 -224.603942871094 2.687374114990
-130.782333374023 -61.386203765869 -224.588287353516 4.291716098785
-155.504898071289 -62.662700653076 -222.463439941406 3.661045789719
-5.325328826904 -69.358863830566 -235.841598510742 1.589364409447
9.255970954895 -60.612308502197 -234.450088500977 5.178726673126
-4.072010040283 -68.232254028320 -239.793609619141 1.886518716812
-153.752319335938 -62.790489196777 -237.658432006836 3.224043130875
-11.244237899780 -61.740081787109 -237.365310668945 5.196035385132
-156.284240722656 -69.932487487793 -246.395965576172 1.508804559708
-9.879327774048 -69.274871826172 -246.146728515625 1.971843004227
-151.443710327148 -66.391479492188 -247.402572631836 1.055381298065
17.835672378540 -65.041885375977 -248.322174072266 3.126690864563
-155.029373168945 -58.788753509521 -248.042633056641 6.583292961121
-152.716094970703 -63.728900909424 -248.278488159180 3.868205785751
-154.544555664063 -63.638820648193 -246.799880981445 5.027372360229
-152.390975952148 -62.492782592773 -251.222381591797 2.775379657745
29.552013397217 -64.225654602051 -256.351684570313 1.980448484421
28.530014038086 -63.521686553955 -261.466125488281 1.540122270584
-148.275650024414 -64.268417358398 -247.377975463867 1.726971864700
-155.361282348633 -58.475204467773 -252.333450317383 4.201318740845
-156.677291870117 -68.047042846680 -252.568786621094 1.880505681038
-149.868652343750 -61.129093170166 -251.563705444336 1.202739000320
24.402185440063 -62.190116882324 -259.545074462891 1.907970428467
26.228590011597 -62.741203308105 -263.982421875000 1.648066043854
-159.289291381836 -65.420608520508 -255.159255981445 4.279546737671
-146.696319580078 -63.186233520508 -256.583343505859 1.802547812462
-151.526489257813 -59.742649078369 -255.403701782227 2.181264400482
-146.733062744141 -63.033985137939 -258.109558105469 0.626908898354
-146.476791381836 -66.898139953613 -255.420120239258 2.759725809097
-148.165863037109 -69.517532348633 -258.712615966797 0.904650211334
-151.453201293945 -61.111961364746 -259.303833007813 1.875277161598
-153.859848022461 -59.117603302002 -279.461395263672 5.661598682404
-150.026382446289 -63.199489593506 -275.034393310547 2.762342929840
-151.227172851563 -63.837223052979 -271.623870849609 3.971187591553
12.969808578491 -62.826583862305 -278.038879394531 5.557856082916
-157.803726196289 -59.282371520996 -278.515838623047 8.403106689453
-150.519699096680 -62.236564636230 -283.215148925781 1.433477640152
-9.553051948547 -70.931251525879 -282.740753173828 1.137920737267
1.178987026215 -62.371139526367 -288.296752929688 1.501352310181
-156.858688354492 -63.777904510498 -287.005523681641 0.795687019825
29.517833709717 -72.266716003418 -18.342416763306 0.843156635761
48.617065429688 -66.606315612793 -25.150917053223 3.712462902069
52.131782531738 -71.344604492188 -30.319562911987 2.698530912399
42.124382019043 -61.155067443848 -33.931930541992 2.759157896042
28.084606170654 -73.250961303711 -33.939960479736 0.924942910671
47.414161682129 -68.485336303711 -38.231414794922 1.585550069809
80.118118286133 -61.337791442871 -61.329380035400 2.548582792282
78.821273803711 -65.105545043945 -61.164802551270 2.737786293030
-17.309427261353 -65.379447937012 -66.784515380859 3.948591470718
69.409744262695 -61.744163513184 -69.178817749023 3.472646474838
-26.302068710327 -67.151000976563 -67.746337890625 3.188105821609
-35.129695892334 -70.750732421875 -76.311317443848 1.127783298492
-56.562641143799 -63.906181335449 -70.122764587402 8.580237388611
-54.800918579102 -61.281360626221 -73.884933471680 3.886171817780
64.506088256836 -70.405143737793 -79.786781311035 3.255237340927
109.563270568848 -69.389411926270 -89.710014343262 5.704162597656
-58.551589965820 -61.365459442139 -80.331779479980 2.014297246933
58.959106445313 -64.731445312500 -93.791336059570 2.990960836411
66.243331909180 -62.716224670410 -92.907745361328 1.447323441505
104.425575256348 -63.041561126709 -92.413108825684 2.204218864441
-64.920021057129 -69.099754333496 -87.854972839355 4.608933448792
55.862312316895 -59.754993438721 -93.471305847168 1.919824481010
-62.360847473145 -68.943717956543 -99.754676818848 3.730238199234
69.223167419434 -64.463729858398 -93.555511474609 2.762393712997
67.492248535156 -64.206710815430 -101.255065917969 1.355847120285
-75.745323181152 -62.468864440918 -103.457916259766 0.823530316353
-96.613250732422 -62.495616912842 -107.434158325195 1.182742714882
-69.530952453613 -57.821842193604 -107.034965515137 1.062007188797
-83.227943420410 -65.889083862305 -105.733573913574 2.076237916946
-60.961120605469 -67.236854553223 -110.637100219727 5.300247669220
-83.324966430664 -61.936206817627 -101.976821899414 4.618100166321
-74.415206909180 -65.500946044922 -108.858711242676 2.337206125259
-76.486129760742 -67.670402526855 -108.942169189453 1.881704211235
-69.473030090332 -68.141921997070 -114.078964233398 5.496613025665
-85.542526245117 -67.380455017090 -121.445495605469 0.912608027458
35.066616058350 -64.098617553711 -126.097602844238 2.135367870331
-48.081859588623 -63.826702117920 -125.594642639160 5.867121219635
32.818347930908 -63.175846099854 -133.081619262695 0.738817870617
30.712888717651 -64.756805419922 -128.893157958984 3.257791042328
29.593534469604 -68.019088745117 -127.909355163574 4.214263916016
-54.298110961914 -61.671665191650 -124.632209777832 1.088930726051
21.595109939575 -64.506217956543 -142.833984375000 2.385154962540
22.016834259033 -64.776496887207 -141.207031250000 2.025743246078
-146.941192626953 -66.286186218262 -170.504745483398 4.186792373657
-152.034896850586 -59.464694976807 -167.506927490234 9.159337043762
-153.848693847656 -63.535404205322 -175.981765747070 1.455196976662
-147.774444580078 -60.930374145508 -177.240295410156 2.343747615814
-151.579132080078 -65.326438903809 -187.718322753906 1.252422809601
-152.206634521484 -66.619285583496 -186.034790039063 2.070252418518
-140.293777465820 -65.770256042480 -185.907485961914 2.228572845459
-144.907470703125 -61.326232910156 -194.206451416016 1.580113410950
-122.309310913086 -67.615470886230 -193.646911621094 2.598307609558
-136.687973022461 -65.533241271973 -198.352523803711 3.749944925308
-150.721069335938 -65.926651000977 -207.915679931641 1.304894328117
-148.349853515625 -55.803005218506 -214.111953735352 5.284032821655
-153.883102416992 -62.910686492920 -220.349807739258 3.660665750504
-148.143829345703 -64.733604431152 -221.678375244141 1.538905978203
-152.988754272461 -62.883937835693 -222.423034667969 2.004281997681
-152.440811157227 -59.162399291992 -219.286804199219 4.061420917511
-148.668151855469 -64.898628234863 -224.690292358398 2.299913167953
-147.418426513672 -64.936576843262 -225.624420166016 3.056663513184
-144.100891113281 -61.238555908203 -231.681152343750 1.290353059769
-148.599197387695 -65.741172790527 -220.665832519531 0.294105350971
-157.834060668945 -62.358200073242 -226.807769775391 3.562199115753
9.313588142395 -61.389217376709 -236.148178100586 4.252163410187
-10.446729660034 -68.053787231445 -237.353820800781 2.323610067368
-147.492355346680 -59.783378601074 -236.485229492188 2.153785228729
-155.268753051758 -64.160583496094 -230.151199340820 2.339642047882
-157.072143554688 -66.128669738770 -233.619537353516 2.003734827042
5.736241817474 -64.745994567871 -238.800567626953 1.590013504028
-151.844207763672 -61.578166961670 -229.977020263672 0.681682407856
-152.026947021484 -67.696067810059 -245.934936523438 1.864323139191
-7.262423992157 -64.382720947266 -244.646667480469 1.801386594772
-149.648956298828 -62.564697265625 -244.255523681641 2.522683382034
-145.017425537109 -62.169639587402 -247.736129760742 3.424686193466
-143.609695434570 -63.552101135254 -249.350997924805 4.297022342682
-145.815444946289 -62.988254547119 -247.764739990234 2.655072927475
26.292045593262 -66.964469909668 -260.608154296875 0.618193745613
-152.319061279297 -68.116996765137 -256.467529296875 3.022266864777
25.846635818481 -64.271888732910 -269.622283935547 2.935097455978
10.203145027161 -60.889659881592 -285.077575683594 4.037115573883
-1.397328019142 -62.314369201660 -283.030731201172 2.910802602768
6.273344039917 -59.776004791260 -290.833709716797 1.941482543945
34.648178100586 -65.056999206543 -18.100334167480 1.429082036018
44.006797790527 -74.807273864746 -35.573871612549 2.622288703918
39.432411193848 -73.215591430664 -35.729270935059 2.235556125641
-42.189109802246 -63.953964233398 -42.748264312744 2.923433065414
-89.598014831543 -66.558441162109 -50.957668304443 4.773401260376
-92.965232849121 -65.299888610840 -54.876811981201 2.972618818283
-21.052255630493 -62.500106811523 -62.691768646240 2.889528036118
103.235855102539 -65.967376708984 -66.190383911133 4.032876491547
108.964050292969 -62.583171844482 -73.164878845215 4.756968021393
107.773231506348 -65.118156433105 -74.897377014160 3.681967020035
-48.144081115723 -65.833244323730 -78.101860046387 4.831305027008
-61.227985382080 -62.312217712402 -79.763862609863 3.348705053329
59.313632965088 -63.429313659668 -86.907394409180 2.188831806183
55.073234558105 -68.795608520508 -88.655143737793 1.050330042839
-58.630363464355 -69.343017578125 -92.047843933105 2.110902070999
-94.364608764648 -59.522209167480 -102.796073913574 4.647706031799
76.230804443359 -62.751132965088 -106.816947937012 2.565270662308
-80.169509887695 -62.754886627197 -100.883651733398 3.262086629868
-67.217819213867 -66.375701904297 -102.086761474609 2.721466541290
-78.918266296387 -68.954627990723 -109.031974792480 1.522346735001
-83.738265991211 -55.742488861084 -110.816299438477 4.277354717255
-82.697677612305 -64.974205017090 -110.706268310547 1.651324510574
-69.933967590332 -53.902141571045 -115.021667480469 1.273610234261
-66.635566711426 -62.326122283936 -110.490859985352 1.959913849831
-81.592658996582 -57.102455139160 -111.796104431152 2.172448158264
-75.085494995117 -63.378261566162 -111.117027282715 1.497617483139
-61.345985412598 -62.014274597168 -114.100212097168 0.728130161762
-84.051742553711 -62.740726470947 -111.550735473633 1.382780075073
-73.963424682617 -64.044349670410 -114.139427185059 2.908153057098
-73.189987182617 -61.241909027100 -124.510200500488 3.016304969788
-80.990623474121 -63.341449737549 -123.068290710449 2.147168159485
26.959001541138 -61.548999786377 -119.151588439941 8.027650833130
-58.617500305176 -60.642406463623 -128.080596923828 3.370705127716
28.084634780884 -64.342720031738 -131.089569091797 2.784280300140
21.870439529419 -68.644798278809 -137.324905395508 3.914513826370
-144.215515136719 -64.661705017090 -187.675796508789 1.451593518257
-136.727035522461 -64.152610778809 -191.321319580078 4.642385005951
-152.935424804688 -64.350128173828 -196.790618896484 1.948680520058
-152.575683593750 -59.935070037842 -191.954193115234 2.979650020599
-159.939025878906 -67.956390380859 -194.568542480469 1.370663523674
-148.764068603516 -58.395824432373 -195.095672607422 2.071248769760
-143.003173828125 -61.234809875488 -195.236526489258 1.886480212212
-151.236221313477 -59.708087921143 -200.064926147461 0.673499286175
-149.610412597656 -65.319129943848 -216.444183349609 2.629697322845
-150.187606811523 -62.103073120117 -211.819046020508 1.443073749542
-145.847824096680 -59.804397583008 -217.519714355469 2.115738391876
-145.894165039063 -62.454326629639 -214.052703857422 1.165590047836
-153.152893066406 -62.987964630127 -219.871261596680 3.056625127792
-149.126296997070 -59.945644378662 -216.897583007813 1.883178114891
-150.630111694336 -60.518199920654 -220.666992187500 1.820605754852
-142.699447631836 -60.331943511963 -220.050415039063 3.505333900452
-144.355255126953 -66.417472839355 -220.568756103516 1.044794678688
-145.431991577148 -61.149227142334 -226.868682861328 1.319095015526
-151.774139404297 -58.573368072510 -227.916397094727 3.498462915421
-149.155014038086 -59.331451416016 -226.269943237305 1.360476613045
0.725556015968 -64.979782104492 -234.672134399414 0.807616829872
16.091932296753 -61.720417022705 -240.437072753906 1.243413329124
22.029790878296 -56.305522918701 -252.295455932617 1.960610151291
20.747501373291 -61.739459991455 -253.451217651367 3.209650754929
7.017105102539 -64.748825073242 -259.490264892578 3.609925031662
18.127222061157 -64.843566894531 -276.382781982422 3.282286405563
3.684195995331 -64.307594299316 -276.278320312500 3.164443016052
4.331134796143 -61.673748016357 -289.758911132813 1.541568279266
7.153058052063 -64.142288208008 -283.922607421875 4.444126605988
52.890590667725 -70.737571716309 -18.929084777832 3.570079088211
34.298007965088 -61.931701660156 -35.344669342041 1.945612311363
-28.782011032104 -61.574516296387 -46.222564697266 2.913321971893
-13.566234588623 -62.980873107910 -48.300849914551 5.321035861969
-11.168355941772 -57.265724182129 -55.893138885498 2.512670516968
97.320541381836 -63.959300994873 -58.599243164063 4.905741214752
-94.175598144531 -58.870151519775 -67.270477294922 3.825042486191
100.903198242188 -66.629890441895 -71.618606567383 2.606642723083
56.339908599854 -63.915912628174 -84.837867736816 2.849945306778
69.889503479004 -60.936126708984 -86.071678161621 5.541620731354
-63.788570404053 -60.912876129150 -87.506507873535 1.456943750381
54.024414062500 -63.812950134277 -90.871887207031 1.445067286491
61.451850891113 -57.189193725586 -85.812713623047 1.842906236649
105.352127075195 -61.836841583252 -96.139472961426 2.844635963440
-68.873939514160 -61.924137115479 -88.507537841797 4.690728187561
-70.712394714355 -59.379070281982 -89.683052062988 4.874876022339
82.200920104980 -64.902595520020 -105.729690551758 1.579479455948
-73.782783508301 -64.543281555176 -102.427848815918 1.975520014763
-63.020023345947 -62.175392150879 -100.849601745605 4.367163181305
38.342926025391 -59.389263153076 -119.194297790527 0.896425426006
-83.544494628906 -63.968486785889 -119.700973510742 1.702794075012
40.958099365234 -62.635414123535 -118.544242858887 2.447276592255
-89.329193115234 -64.549842834473 -112.484085083008 2.729528188705
-97.951332092285 -59.032230377197 -122.865051269531 2.265177965164
-68.266166687012 -59.499927520752 -117.292839050293 1.160350799561
34.195880889893 -61.445442199707 -122.175903320313 1.169563293457
-63.312061309814 -65.445320129395 -123.101661682129 2.226742267609
-55.890411376953 -62.042976379395 -128.620697021484 1.232285380363
-58.085922241211 -64.688262939453 -132.845611572266 2.749656200409
-145.810775756836 -60.116455078125 -191.180938720703 2.587331056595
-151.235382080078 -58.100414276123 -182.749908447266 4.215365409851
-148.363464355469 -61.257873535156 -187.626937866211 1.867651462555
-154.915512084961 -62.254745483398 -189.556182861328 4.508615493774
-148.109725952148 -64.513061523438 -186.634124755859 1.481555342674
-147.549804687500 -58.335205078125 -189.791305541992 4.579147815704
-140.291748046875 -58.844928741455 -192.239151000977 4.367094039917
-148.666320800781 -62.035881042480 -195.356948852539 1.410229444504
-146.447509765625 -64.620643615723 -190.090270996094 1.100798726082
-155.250427246094 -58.330780029297 -198.812759399414 2.975176572800
-142.907104492188 -63.543930053711 -195.570281982422 2.856617450714
-148.343856811523 -64.783264160156 -198.090866088867 1.941501975060
-147.902282714844 -57.983078002930 -198.320388793945 3.004949569702
-152.532760620117 -58.982105255127 -198.606491088867 1.187517762184
-147.014892578125 -61.274574279785 -216.561416625977 0.898190736771
-7.521690845490 -65.134071350098 -229.094711303711 3.561088562012
4.228477001190 -60.535434722900 -239.502670288086 1.703133225441
6.119365215302 -58.873683929443 -234.699234008789 3.960044622421
2.853568077087 -61.452907562256 -240.363891601563 1.039774894714
17.806085586548 -59.675659179688 -244.981445312500 2.002438783646
-2.095052957535 -64.839134216309 -253.963943481445 2.101596593857
9.093420028687 -63.119285583496 -266.622406005859 4.180453300476
23.568315505981 -68.610847473145 -264.383483886719 2.307705163956
15.037133216858 -59.971534729004 -278.787628173828 4.213994026184
29.268402099609 -61.447433471680 -8.638501167297 6.442132472992
-66.341659545898 -64.801185607910 -33.311019897461 10.834462165833
-32.267463684082 -61.133674621582 -42.229709625244 5.828292369843
71.140296936035 -59.741443634033 -61.450428009033 1.919598102570
-26.185428619385 -64.555282592773 -64.155303955078 3.782883882523
-32.788364410400 -66.749809265137 -75.424339294434 2.662938117981
-41.561290740967 -59.836589813232 -74.643539428711 4.622064590454
71.725532531738 -56.494552612305 -92.338623046875 0.681710958481
108.250000000000 -61.693714141846 -84.053176879883 2.213427066803
67.821426391602 -69.223205566406 -82.681251525879 0.924746692181
-70.632110595703 -56.589477539063 -91.847244262695 3.884264945984
102.978981018066 -60.143363952637 -95.681404113770 0.999614059925
100.912178039551 -61.647953033447 -105.016746520996 2.266047477722
-64.083778381348 -62.998207092285 -103.350921630859 3.431145191193
82.001960754395 -61.389575958252 -105.604789733887 2.683894157410
92.451560974121 -60.120819091797 -106.436973571777 3.261881828308
-55.464294433594 -65.781982421875 -105.462982177734 8.937087059021
49.578395843506 -63.643573760986 -113.108215332031 3.797628641129
-60.805507659912 -72.466911315918 -115.744491577148 6.583406448364
-85.182563781738 -62.038463592529 -104.205596923828 3.508467435837
-54.811569213867 -62.232429504395 -118.630683898926 2.110141277313
-76.193984985352 -60.989368438721 -109.821449279785 1.350800514221
36.742805480957 -64.455459594727 -120.265151977539 4.221769809723
-98.941192626953 -64.607254028320 -123.608283996582 2.700130462646
-54.161670684814 -58.734169006348 -123.104721069336 1.054390430450
23.322366714478 -58.493934631348 -137.076049804688 3.129764080048
7.838869094849 -56.959182739258 -236.513412475586 2.772806167603
0.129470005631 -62.989368438721 -238.251022338867 1.872004032135
0.384718000889 -59.723651885986 -281.819122314453 4.845259189606
23.454463958740 -63.653438568115 -15.783262252808 2.621212959290
40.691234588623 -61.697181701660 -18.023639678955 0.856709837914
18.964906692505 -65.241569519043 -21.109992980957 2.356998205185
47.293437957764 -63.129791259766 -17.926931381226 0.642139077187
-48.701911926270 -52.141315460205 -38.385425567627 7.189383506775
-6.600028038025 -62.834049224854 -64.167861938477 4.065130233765
-101.321563720703 -61.610729217529 -79.914398193359 2.587941408157
67.304153442383 -54.032695770264 -96.104537963867 1.570891380310
86.158409118652 -63.217891693115 -103.636901855469 3.650237321854
-67.903343200684 -63.180923461914 -111.620300292969 2.218327999115
46.392284393311 -60.930046081543 -115.881286621094 2.281388521194
-77.853706359863 -58.869781494141 -112.977165222168 1.300446271896
-61.907543182373 -65.505798339844 -115.936058044434 2.203846931458
-67.117301940918 -64.566673278809 -122.713623046875 2.921963214874
29.047222137451 -60.365489959717 -137.812301635742 2.037247180939
-5.868181228638 -58.668064117432 -238.909835815430 3.096467018127
17.230331420898 -65.336418151855 -244.542892456055 1.915634632111
17.165357589722 -58.830589294434 -268.956573486328 4.967503547668
20.507055282593 -58.572769165039 -276.373443603516 1.498422741890
6.630001068115 -64.895256042480 -278.863403320313 3.680248975754
