# This PCD file was generated using the MATLAB® pcwrite function
# from Computer Vision Toolbox®.
# .PCD v.7 - Point Cloud Data file format
VERSION .7
FIELDS x y z
SIZE 4 4 4
TYPE F F F
COUNT 1 1 1
WIDTH 1456
HEIGHT 1
VIEWPOINT 0 0 0 1 0 0 0
POINTS 1456
DATA ascii
105.668716 188.916382 -72.310928
-59.268501 198.117645 -78.347061
-52.585205 199.857910 -73.867996
32.044891 192.265656 -76.050636
-50.861729 194.187424 -63.659660
-17.578527 190.118103 -69.684982
-45.056797 207.204132 -67.967651
-149.569138 204.504623 -65.240868
101.055649 202.422638 -66.210434
-46.175434 203.927734 -67.860718
-17.759987 200.825729 -70.772743
-132.010742 202.149307 -73.959854
-48.343979 199.471832 -66.828987
96.114235 211.615387 -70.482346
106.213852 198.387497 -72.269531
-42.543129 205.160248 -75.495132
-25.727219 203.416229 -66.489357
-152.509293 202.303497 -72.795631
-22.510040 211.686523 -69.488319
-151.686050 211.678528 -71.696297
-159.559250 208.140839 -73.033424
-139.164658 213.080521 -68.136063
-40.776035 202.884109 -67.941490
107.140587 210.286377 -73.126419
-36.614155 211.584274 -66.596100
-144.157318 209.174255 -65.313347
-40.878632 215.999741 -66.925453
-19.011427 210.437668 -72.082176
90.679520 208.426712 -71.547256
91.324890 223.306839 -65.570023
-29.884001 226.598206 -63.005672
-81.125656 221.929596 -72.238304
-77.507011 219.315674 -66.349861
-14.154849 222.765686 -71.573380
-152.102615 222.570648 -71.120491
91.342621 217.792297 -69.234749
94.404282 220.841248 -73.988892
89.256142 226.392838 -68.593712
-100.327560 237.923782 -67.278137
-152.031479 237.148315 -81.828728
-21.280243 224.949692 -71.668655
80.186630 232.165894 -66.471657
-138.487396 238.789474 -71.919983
-23.615417 230.965836 -69.450127
-130.149170 232.078537 -63.135834
-11.694386 236.273605 -69.166389
16.496052 234.696930 -65.273422
13.537992 240.976929 -67.530617
-153.087204 244.451920 -72.617149
-119.876740 242.205246 -72.390350
-10.452809 246.000534 -73.050018
1.124514 250.532257 -64.098976
69.264610 250.278046 -70.736938
77.965736 245.481110 -70.271675
-1.916399 249.536072 -68.266220
21.979723 241.078781 -67.815826
-28.038326 254.306274 -69.929344
-31.967428 249.808472 -63.407875
-47.142254 253.544403 -75.092422
-39.295387 250.044083 -70.496056
-23.038288 256.039093 -73.959328
-55.639408 254.710342 -67.110054
2.843940 255.159958 -61.965519
-68.249947 257.186859 -60.805714
16.633694 251.659424 -70.227951
-141.775833 258.529327 -72.704048
-73.244423 258.262390 -66.354507
14.233060 259.876434 -77.409958
-166.182907 257.413666 -69.725731
17.623619 260.962708 -71.147842
-77.254890 263.138123 -70.603325
-77.394524 262.282898 -75.654388
22.322765 261.332520 -73.141617
-89.034454 267.559570 -65.470901
-128.661041 270.379730 -70.947960
-131.898056 269.808228 -70.866730
-132.445297 266.700317 -73.185135
-150.532745 262.958405 -71.448570
-142.927231 260.265839 -68.355186
-134.556732 276.401031 -69.191895
-168.236404 274.433777 -68.813988
-128.083069 277.876831 -64.576164
-132.823059 264.264862 -61.555603
-164.898392 272.950043 -74.745445
-157.189713 274.359589 -72.040291
-152.724777 276.205353 -58.436279
-145.014709 272.954041 -60.098911
14.310109 288.747345 -74.140472
-163.575043 277.863190 -66.902176
-157.239929 284.692139 -71.922096
0.077441 280.321808 -68.827339
-162.779541 282.943085 -67.052956
10.755248 289.187897 -70.466690
-154.107468 290.471832 -68.359749
-165.979126 289.416382 -67.036697
-149.880432 294.976013 -67.851379
-169.399963 295.069122 -68.532013
1.758289 290.914093 -63.525078
8.004951 295.117218 -77.582619
-94.469528 292.221252 -72.345467
-143.056961 291.792572 -62.865871
-148.393661 297.511108 -69.189972
-113.983543 299.051361 -68.032928
-141.045258 295.412689 -72.575653
-150.472305 301.926086 -59.638592
-69.861580 298.380524 -64.434532
-166.487518 303.078094 -69.310318
-131.243469 297.105377 -68.076836
-43.159039 301.108063 -77.116089
-156.674042 294.376373 -65.831207
-129.877502 303.000214 -65.802933
-18.709579 301.952118 -70.324142
-124.642311 304.176880 -67.672455
11.341484 306.888519 -66.418953
17.482996 308.029327 -76.823624
-133.140045 303.883972 -69.403786
-145.126984 308.687134 -68.069687
-156.189117 322.769928 -64.573151
-70.263939 56.614891 -65.512268
-23.295750 67.215370 -70.344139
-23.816191 78.406921 -70.030174
75.459740 83.406830 -66.808899
92.222862 83.745537 -70.750160
-33.302982 91.657539 -65.862381
67.660912 87.630394 -65.020172
85.762154 93.092529 -63.599049
66.840782 90.356392 -63.839138
73.699432 98.240883 -67.971985
-50.820007 98.380562 -76.072922
-90.638771 100.097496 -61.488564
63.978142 104.485107 -66.828392
52.455482 106.237991 -58.744843
95.086349 103.626503 -57.219109
-97.805267 111.682777 -72.129883
92.413155 102.864006 -64.208282
74.044617 104.575645 -63.277935
89.617897 101.915886 -71.213081
88.500450 111.465332 -67.115479
83.375854 108.099297 -68.939621
-82.989639 108.591530 -73.378914
38.406433 119.307068 -67.075020
107.269882 120.117378 -72.358383
112.523628 118.859894 -71.438232
43.245148 123.800163 -68.256454
109.623405 132.514038 -64.403008
112.879128 148.779785 -67.647690
-59.702236 143.943604 -73.995049
27.770533 139.241913 -70.614037
41.179512 142.775421 -66.285538
32.297092 155.474915 -65.335159
112.790848 149.577530 -73.259262
117.154587 142.327057 -62.202511
-67.498436 153.066223 -72.534470
-46.950188 158.402893 -70.505913
-67.956543 159.026093 -67.725670
24.256327 164.258698 -56.890091
111.465012 161.544647 -67.976730
-51.494534 161.337631 -67.425423
-73.522186 159.184158 -69.051163
-37.513714 161.806229 -68.389313
33.848839 161.485031 -68.029579
116.566360 160.136398 -65.006531
113.804512 162.526001 -68.416992
-62.730801 162.283875 -70.123161
-72.166779 170.131699 -71.906502
10.273000 167.244034 -64.448868
-53.318382 177.691452 -68.191719
-29.583092 172.547821 -64.282486
11.146151 174.000168 -61.872269
108.832863 171.884872 -68.167908
0.481402 173.837097 -68.743034
-35.851170 175.089828 -66.809998
0.196908 175.582230 -69.034920
110.044235 181.253784 -70.042191
-41.900192 183.359909 -64.860558
31.649429 182.645874 -74.651421
109.703972 184.361465 -72.848328
-56.425022 190.231384 -64.654411
-35.937767 183.993484 -67.529663
106.894676 191.206406 -60.908638
30.257172 183.752899 -66.158440
111.193581 183.092896 -69.330978
-38.997074 182.263367 -62.855625
105.396255 193.918747 -69.568794
-64.308586 186.029678 -67.263947
-23.950901 188.548508 -67.993362
-154.915878 192.833267 -72.018074
-51.314823 193.036209 -63.341629
-144.583939 197.300842 -68.852699
-32.697403 196.758987 -69.146263
25.329281 197.951584 -68.669846
105.791321 194.256516 -63.844955
-31.093672 200.257782 -66.969429
16.018515 205.239807 -67.158440
17.491369 209.849182 -68.169350
-144.203094 197.917664 -73.445786
100.987457 208.461563 -66.296089
-20.666142 200.484406 -69.819008
105.177017 206.778641 -62.613991
19.032326 205.124741 -67.204605
-127.668785 210.206665 -65.796196
-143.241257 204.914978 -66.654137
105.211876 212.667892 -69.983154
-9.814562 213.754700 -67.671021
-11.890952 212.841660 -69.656334
11.009814 217.607224 -72.555061
-151.438385 218.451630 -69.700302
-149.462265 214.664337 -69.724892
102.942665 212.974670 -73.956230
-76.537949 220.733994 -68.351471
-38.447868 211.882401 -67.997856
17.108372 221.215134 -66.126854
-31.687136 216.454712 -69.196571
-79.818962 216.471939 -68.408653
90.252594 221.920425 -68.789978
-84.228142 220.769257 -64.477402
-144.453308 223.270386 -63.970341
-81.803093 221.406158 -65.969406
-12.660658 223.341095 -63.461075
-18.360163 229.447891 -64.377640
17.311432 219.188019 -69.173248
-8.225588 221.700531 -67.276833
-88.799438 225.373550 -63.753731
96.308350 222.195175 -65.013718
-92.747520 224.710678 -64.475464
-146.315674 231.220108 -66.757813
-21.300062 234.175354 -63.762310
15.646906 224.719681 -69.212967
-114.110672 231.779526 -70.537048
10.761296 228.966248 -66.119164
-17.322601 221.371323 -68.879829
81.882515 234.374802 -65.657722
-149.729660 225.054504 -65.676018
6.712946 237.429901 -65.659164
-13.450929 236.381134 -68.444023
17.363718 226.570175 -70.850510
86.218452 229.630005 -64.192993
-17.237652 245.690094 -71.022606
-125.910858 238.874664 -69.330772
-12.486031 233.690536 -63.752800
16.999807 244.176544 -68.564194
-121.693100 233.426193 -74.457550
-152.459152 234.648956 -61.060665
-142.546494 237.713104 -67.363029
-131.544159 245.777893 -68.369728
-13.156874 230.614105 -65.868629
74.737411 234.037811 -67.891724
-140.229431 239.696716 -62.796078
74.968697 242.569016 -68.200180
-23.585714 245.275360 -67.388023
-135.673752 237.871902 -77.072914
76.629036 242.387314 -67.269409
6.979031 248.607407 -73.188683
-136.615906 251.860748 -74.285149
-145.369583 240.101257 -68.141960
10.328473 237.480606 -72.114029
4.999635 245.272461 -70.154533
-19.209475 248.626312 -63.144379
-6.139276 246.360352 -63.752850
-161.324097 246.530945 -64.401176
9.370175 258.314514 -67.400467
-161.670288 240.079132 -69.368576
-16.856796 246.780792 -67.634605
68.731079 248.841812 -61.588924
-10.329447 251.959503 -75.594711
-27.485176 249.117355 -67.897072
-25.160807 252.962158 -71.616745
-18.779530 244.728531 -66.541351
-150.686264 243.956512 -68.890388
4.434208 251.874359 -63.165417
70.194519 252.267731 -69.421616
10.290078 257.655426 -65.529823
-158.496414 241.931412 -67.852692
-51.878551 249.752151 -69.053116
1.341860 259.549561 -71.803856
14.041227 261.719086 -69.490204
-53.772709 259.846130 -64.067009
-4.094395 262.283386 -65.497589
21.839134 258.453308 -67.986473
-156.451324 263.465424 -66.361649
-78.690773 252.167114 -64.143745
-51.294815 259.020050 -70.919205
-79.318977 258.255829 -73.870628
-163.365204 251.184525 -69.400948
-154.484207 259.832123 -71.450424
-59.452179 259.850159 -67.613892
-69.639832 259.890717 -59.834560
-150.870300 260.304291 -70.968910
-148.009354 266.546661 -66.737961
-76.219398 270.200653 -69.376045
-96.359352 264.494965 -68.299232
-164.060013 258.073669 -64.250404
-161.212631 263.326782 -63.937565
-135.757767 259.149048 -63.708347
-79.225906 262.402588 -70.439301
-162.275665 255.666763 -64.416946
-149.246826 260.808899 -72.894661
-87.389580 268.063477 -72.552307
-95.377602 268.048309 -61.607643
-146.820175 272.583374 -66.748459
-94.645531 262.843689 -65.182327
-146.187103 266.515289 -66.969482
-99.359650 265.856262 -70.599457
-162.761154 268.262726 -71.428734
-151.386017 270.018250 -70.230293
-119.751472 266.759338 -61.930775
-151.918640 270.768188 -63.139355
-115.863434 273.862061 -68.213188
-16.411957 274.579041 -63.556610
-142.098450 271.563141 -70.282478
-120.542015 270.154327 -72.754532
-150.206284 271.783783 -71.359978
19.169113 277.654724 -66.054893
-148.865173 297.144714 -71.398888
-169.793259 289.435944 -68.085487
-1.268896 293.551788 -69.038834
-141.838455 294.008911 -69.075737
-6.509669 287.882233 -62.446278
12.115185 292.087738 -67.423927
-139.150925 293.223175 -63.240437
-78.919312 295.463531 -63.721703
-31.812366 298.084961 -66.399429
-110.331680 302.202881 -61.452156
-88.965736 300.406067 -61.008137
-90.643135 303.436188 -73.118927
-46.585064 304.372131 -66.718781
-111.269012 306.224213 -71.769997
-112.490112 301.841339 -74.169029
-28.191486 296.752075 -60.474518
-111.132889 300.779694 -66.083229
-127.172813 305.992645 -66.029648
-146.904907 300.735504 -61.439804
2.221645 308.663269 -64.594604
14.988365 309.300415 -66.896301
-157.481354 301.151520 -69.108269
-157.242905 319.237213 -65.278160
-140.030121 318.797913 -68.489426
-149.618118 327.366699 -67.536736
-149.776550 328.442017 -74.727425
28.907946 21.192478 -65.058479
30.225491 25.084438 -61.192146
31.299881 33.306702 -70.765038
26.849632 49.116833 -64.359535
-56.799103 55.190277 -65.620056
-62.508224 61.373852 -69.668587
-35.571308 59.597984 -62.304821
-89.308678 70.687424 -67.332069
80.111115 87.240295 -68.357986
-18.334469 83.077301 -66.286919
89.639816 76.970657 -68.763412
93.604942 89.779839 -71.051796
-93.963593 96.999954 -69.864029
71.719582 86.877892 -63.351437
-49.518379 98.206161 -70.033066
100.286613 91.281502 -61.771694
-58.856964 99.570290 -67.220688
45.189404 103.786346 -59.787670
67.644417 101.897812 -73.374611
59.401409 106.338005 -66.217720
55.105309 108.098846 -73.921356
74.253357 105.124664 -63.207062
34.761375 114.519295 -66.496971
105.379990 107.377693 -70.852127
108.286270 116.102135 -65.683594
84.631645 113.576607 -64.058853
93.334526 108.895668 -72.768349
104.236076 105.029404 -64.819618
116.689659 108.379852 -66.049324
42.123013 115.615982 -73.782883
108.538620 132.584991 -72.797714
116.996727 127.441711 -71.161530
38.673550 125.863998 -64.526360
43.864079 124.724907 -71.406189
120.419273 131.016052 -62.992077
45.549706 133.658356 -69.698029
110.653236 139.812302 -63.363514
116.059235 130.798798 -68.080109
26.065231 141.775436 -60.228851
-49.820541 143.503098 -62.575676
-56.587559 146.263733 -74.268913
109.033409 148.882660 -65.395699
-77.410362 156.635239 -66.236206
-75.057709 144.940247 -71.726448
-49.823650 152.659744 -68.179207
34.878189 148.748932 -61.719437
110.348648 157.130722 -68.421394
-66.192268 160.613953 -60.030495
-43.685642 154.291260 -66.745697
35.664978 156.337143 -65.159386
-66.944191 156.749207 -76.189316
110.305267 153.533783 -66.925514
111.199188 168.934998 -65.225784
121.502655 161.879013 -71.575111
-37.414387 159.014618 -68.193977
-63.941097 167.660233 -64.061462
-71.713951 167.332306 -68.683212
31.125570 158.699234 -68.308601
0.043028 166.687881 -65.200203
105.612068 172.985138 -70.990715
107.358269 162.769150 -66.710312
114.861900 170.693802 -65.403503
-65.410484 171.358032 -63.747822
-47.227562 172.789688 -68.173248
4.393792 176.217636 -65.399292
-21.456322 185.555084 -68.489754
105.221657 180.951385 -68.065468
-36.428421 171.221680 -69.900063
107.214539 178.204636 -60.490837
-45.605743 182.895416 -65.379852
109.082329 180.130173 -67.662636
-152.322342 191.112045 -70.390717
-24.093643 185.101974 -66.225487
-31.742495 192.578674 -58.787041
29.376665 183.274933 -69.034630
17.415693 187.626343 -66.702415
29.862295 190.441116 -68.891953
111.639679 196.328812 -65.775078
-142.387924 200.481033 -68.675781
-19.164614 194.947113 -72.977554
99.118912 185.856903 -66.122292
104.389603 196.409714 -68.017464
107.606682 186.329361 -64.820389
98.259880 206.092285 -62.995754
-152.150787 207.120392 -70.697571
102.668854 217.954300 -73.432907
-30.743250 207.498367 -72.862122
100.175865 209.448257 -65.683929
-125.369789 209.172562 -66.124733
-28.492092 206.183365 -67.864029
-144.716202 201.500687 -64.729874
94.139885 216.159103 -71.159363
6.853826 207.642334 -69.907455
18.908396 207.453552 -70.123779
-152.370087 214.909637 -66.151794
-141.609116 220.976273 -73.530205
-14.874660 209.154816 -62.237633
-120.039459 206.112778 -70.882423
-148.031906 207.231110 -74.688980
12.275336 212.723221 -72.162766
-19.862589 217.174683 -69.825462
20.302368 218.808899 -68.836548
8.158349 216.288376 -64.609795
100.526062 221.924652 -74.447998
-20.474607 223.006760 -61.804668
92.764526 215.811218 -70.633713
100.206245 217.528442 -66.862022
-153.784836 224.654953 -70.933640
96.232246 222.567795 -70.512260
4.645192 220.736298 -64.995277
11.232394 221.773987 -75.115128
-38.631317 217.942566 -71.585426
-88.426628 221.462891 -58.728264
-27.458395 223.693878 -66.852844
85.970482 218.846649 -75.548744
87.789787 231.298630 -62.784660
-31.195023 228.859787 -69.028740
-88.636337 229.686615 -69.211411
-2.969087 224.239914 -71.238625
81.616928 225.795990 -69.562096
-151.657547 234.035583 -62.394562
-162.407745 225.173950 -63.569458
-158.660034 231.572952 -67.297516
-23.820768 232.661438 -62.966633
-149.024612 231.575104 -66.455559
-11.044661 236.642166 -73.027771
2.097373 228.613708 -62.966877
-159.790283 232.146362 -70.002213
-165.354645 242.087555 -69.587807
78.501511 239.559708 -69.190056
6.028658 233.512253 -62.540268
-160.194901 231.202469 -70.934135
-143.176468 234.613907 -74.373878
-21.472322 232.474945 -67.231598
1.163316 240.153961 -72.134880
80.313477 235.279510 -64.423798
-176.300598 245.056213 -63.007549
-149.555984 243.824158 -71.055496
-121.604507 238.768845 -67.712608
84.119820 237.391220 -62.996925
-107.842285 232.585678 -71.312515
-154.667480 244.397598 -71.573509
-153.929581 238.903809 -63.982937
-151.624268 240.295990 -62.757187
-157.275589 239.405441 -65.985672
-160.223633 241.223129 -64.521019
-133.385620 241.105713 -65.301285
-131.158661 246.129623 -66.674606
-154.286514 244.018341 -66.368881
-144.411331 251.540070 -74.040909
-155.085587 244.635162 -63.686131
75.801605 240.776382 -64.427536
63.554913 251.295181 -62.600636
-155.543091 244.807510 -63.978901
66.829948 242.587646 -64.825943
-22.537828 246.249969 -72.708832
5.261932 248.821548 -74.643188
2.149472 246.160858 -72.318459
-153.815582 257.076721 -63.548687
12.134781 247.320633 -65.812042
60.975758 248.612762 -69.439026
7.849371 246.171814 -64.163651
2.550824 256.425659 -74.893829
-10.949516 252.412781 -68.715973
-16.370459 253.084137 -68.229866
-3.780506 256.319977 -68.120323
7.579823 261.006622 -75.305061
57.540695 257.912964 -67.425468
-56.789600 256.200134 -67.427063
21.397291 256.609680 -65.971550
-63.011608 256.566559 -69.608971
-8.964817 259.045471 -64.586761
-59.620937 258.369629 -65.907188
-88.673080 261.622223 -71.188759
-78.481895 258.496918 -67.174759
-7.425348 254.669037 -60.995522
-128.526474 269.081818 -63.987217
-7.081836 259.864014 -63.958652
-112.218216 263.735687 -62.202919
-111.072418 272.237366 -64.763702
-103.294510 272.664581 -62.286919
-144.509964 272.605133 -65.443352
-143.331253 269.731262 -74.617401
-165.598846 269.156189 -71.198730
25.551285 285.269775 -67.125961
-56.569180 294.122894 -68.721268
-66.105484 285.376648 -64.253265
-38.613731 298.614441 -65.510033
-27.415876 293.575806 -69.139816
-100.408844 296.229279 -72.366966
-30.945303 295.709747 -59.647652
-3.849239 297.672607 -64.264320
-162.622726 298.355377 -67.626236
-10.136682 298.537842 -62.857285
16.522011 305.234344 -69.493874
13.866965 291.530487 -69.265091
-55.789482 302.715729 -73.731659
-30.886198 295.596375 -69.583420
12.858207 308.651764 -69.753304
-66.415527 301.121490 -69.425491
-36.103432 296.370392 -70.459923
-20.772211 298.002930 -68.931633
20.255455 298.146454 -74.163277
-11.291774 296.703064 -70.401627
-0.532723 307.229431 -69.110069
17.040968 297.385101 -74.947464
-139.577164 303.591187 -63.827400
-148.285568 304.695526 -71.569145
-146.936203 324.510376 -68.901955
39.120068 21.295620 -64.390976
33.701550 26.408756 -70.731949
30.260000 22.687441 -66.981949
22.171272 30.230930 -64.730690
42.250870 28.763039 -61.266956
34.400471 28.910452 -71.372635
27.495115 42.351036 -65.741585
20.055620 50.483627 -65.737045
42.560772 44.148361 -61.273499
27.246696 51.112103 -64.920868
48.989277 45.977940 -66.432999
30.278250 48.696682 -63.838474
39.430809 48.181690 -67.226349
32.475845 47.859791 -65.051826
42.658245 53.026718 -70.974976
33.347435 49.510372 -67.825813
-37.757938 60.680195 -61.150311
-30.095179 65.883545 -58.436607
-83.985657 66.932289 -60.992825
-81.042839 70.604889 -68.499878
84.716484 77.975342 -67.348259
86.589699 77.155602 -66.056320
-15.067601 83.270531 -65.448586
-88.463219 77.156570 -67.695541
-25.087475 81.814293 -69.384285
-49.266880 99.404526 -67.262794
66.145241 89.553818 -64.375618
55.801052 104.972549 -62.045952
102.959740 101.500000 -62.284416
72.806938 105.659180 -67.217041
-60.388004 99.871124 -74.104980
-63.586388 103.612144 -65.782959
41.902187 106.732391 -70.010536
78.177269 117.061333 -67.270981
52.768429 110.245667 -66.356171
105.581146 109.901413 -65.704559
-92.098076 113.559082 -65.475426
31.732906 124.903770 -66.238159
103.801735 116.202782 -62.195408
44.145966 120.545898 -62.634174
104.414932 124.515831 -66.116196
-85.031853 120.647316 -61.542053
39.760357 125.377190 -71.714821
110.487907 125.148155 -68.401451
105.795959 123.279297 -63.183273
109.939957 125.870377 -65.120422
104.659706 119.682777 -69.177109
36.827595 122.231522 -67.709221
31.808531 128.894150 -67.235992
46.904060 129.745773 -65.362823
112.769676 134.553467 -71.779587
37.222816 126.644508 -69.554771
102.355385 142.860855 -62.927177
111.851555 140.524567 -68.923172
33.892216 134.749741 -62.990730
-78.938240 136.537552 -63.094707
118.334953 150.404510 -63.683914
-56.938660 146.777863 -66.829712
34.113529 148.756348 -62.143250
-69.953186 140.662521 -71.525635
28.518902 141.363861 -66.510628
-68.357330 153.153641 -65.023346
-38.642967 151.276321 -65.508560
-73.995155 147.190033 -62.840576
114.777184 145.316818 -71.000290
114.616791 150.450317 -66.270927
112.828201 148.579620 -69.532242
-71.083771 157.926666 -70.642044
10.099100 159.997223 -67.756554
-53.727753 167.108490 -64.413597
-50.173607 169.253357 -70.330833
111.472145 169.341431 -65.537086
-41.325726 162.600281 -57.207264
12.564649 166.837814 -68.894417
20.774391 163.260132 -72.789734
119.435333 169.897018 -65.627838
30.630785 172.596222 -74.756134
-2.151715 172.370407 -65.057358
42.659748 171.617920 -63.796619
-58.785488 175.659302 -69.279167
-61.137253 168.982544 -70.019531
-67.345612 175.848221 -65.188942
108.492271 169.107025 -65.653526
-37.747265 173.348907 -63.120007
20.418434 178.213211 -67.443405
-62.464218 177.599487 -73.289696
-64.327988 178.652893 -71.907417
-35.238712 163.870773 -66.670677
-28.921329 176.832535 -66.820442
114.126938 178.290894 -69.495735
-33.172367 184.873627 -62.153744
14.722207 180.155914 -61.735302
111.769867 194.631470 -68.809937
-147.800369 186.139404 -71.895424
-138.124268 189.426773 -71.085991
-149.450867 186.906998 -66.603210
-139.231171 187.794495 -60.637737
-24.907406 195.813049 -64.638145
-26.823586 201.640579 -61.785381
27.121773 193.989288 -71.331528
-140.593140 194.642136 -65.767799
-143.098633 192.368149 -66.981850
-21.790474 199.567123 -61.121517
17.305105 197.724121 -65.312492
-143.077866 201.007660 -62.799217
-29.979239 199.889725 -70.445061
104.442528 197.645554 -59.417084
105.035805 201.751801 -66.445038
25.472549 203.104965 -65.928589
-15.686521 194.559769 -61.948872
-33.890396 207.908981 -70.547066
-145.172699 200.193985 -61.280346
-128.056656 211.317871 -70.593254
-124.149681 206.716171 -63.351540
-120.897835 202.551453 -64.161064
-25.062298 205.365433 -67.494293
13.656831 204.290985 -73.120430
92.196922 210.070862 -64.751411
-149.548965 203.355499 -59.818321
-146.956055 207.696442 -63.267883
-155.961426 206.167206 -61.635681
-153.683304 207.624161 -63.183704
-28.677017 209.640945 -65.476990
-17.391424 203.747116 -68.371498
-146.321014 214.740448 -70.545364
-11.859943 202.500122 -66.109940
-157.875183 207.283630 -74.700035
-135.448029 206.973587 -66.716316
22.615221 216.802597 -64.316025
-164.185913 211.831009 -58.603630
-144.275223 219.374695 -72.086334
6.367005 210.300354 -64.992393
-144.446640 210.614975 -70.214691
-13.836467 212.164551 -71.875023
100.602058 209.624207 -61.434425
-152.624786 231.678802 -63.921032
-172.933533 221.848816 -64.924301
-77.302917 223.105453 -68.680931
91.990051 221.844177 -66.252777
-2.882610 225.632111 -66.163094
-150.885376 224.038345 -62.067127
-91.177467 223.222229 -63.460804
-9.597796 219.278015 -68.477997
13.480021 236.058914 -66.092110
-145.011749 232.775513 -68.814301
8.008959 232.407990 -66.050880
-25.943438 229.585297 -68.182877
-21.082396 235.133957 -62.456444
91.597954 224.743408 -68.451347
-21.902809 227.346954 -64.669426
-22.503153 228.548538 -67.283615
-104.355858 236.476639 -71.566330
-18.426390 236.521011 -67.849594
85.549919 229.044815 -56.040806
84.435371 231.992554 -68.798584
9.251697 227.396194 -64.515549
-12.455596 239.180634 -72.531204
80.269279 232.001160 -70.042221
-120.156334 229.068237 -67.962219
-26.075979 234.513336 -72.257439
-100.458054 238.854431 -68.608070
-102.065727 239.417343 -66.528259
-132.801971 240.115723 -71.811607
79.059868 232.901138 -62.939194
-121.192535 231.009735 -66.750351
9.552436 240.912231 -65.921204
83.531929 232.528900 -67.877457
-18.716076 237.852005 -60.607937
-13.090386 239.874359 -62.471222
-4.608566 235.285034 -70.968491
11.284068 239.741745 -70.171486
88.786148 234.249481 -71.476196
11.367158 238.985931 -60.909580
3.994850 243.673233 -66.952087
-7.704577 237.309128 -69.312706
-4.503670 247.623779 -67.503014
19.466524 238.806931 -64.250664
-17.208553 238.637726 -65.990585
67.149986 250.120178 -72.154175
-5.935854 256.808838 -66.144432
19.101677 247.603439 -65.344231
-160.268463 252.797668 -65.135727
-3.895616 248.509644 -69.632149
-12.495454 253.808182 -69.264664
-167.147949 261.646790 -68.749512
-12.114806 252.973755 -67.561768
14.024677 255.476456 -66.582329
-153.327057 258.605225 -69.390488
-66.928772 259.384308 -67.258163
-59.743011 255.128799 -75.833824
55.108742 258.441772 -70.097900
-80.002571 256.080170 -65.720383
18.398912 261.813629 -69.333504
-76.455070 266.278412 -66.923927
-14.440557 265.049988 -69.243996
-141.893906 271.843689 -64.255585
45.245392 265.300385 -70.103195
-77.036743 263.131561 -68.602371
-99.369804 259.920959 -68.759567
-89.938965 264.553253 -65.102608
-123.536583 265.243195 -63.811451
-100.024765 266.479889 -68.769417
-101.543671 266.305908 -68.909973
20.342239 267.976837 -62.169376
-121.241936 273.422028 -66.441292
-10.846745 285.364380 -61.022083
-148.836929 289.184143 -62.665489
-170.968109 296.522949 -65.211861
-124.990051 290.182312 -64.065323
-105.558693 304.026947 -63.726681
-80.435249 294.373108 -59.097305
-59.790440 296.618195 -62.678055
-45.522747 294.180176 -66.064720
-10.128970 298.534454 -66.502968
-15.210965 300.685883 -67.717094
-40.183571 296.218292 -65.874458
-35.394440 293.530518 -66.124947
-25.617203 299.142944 -64.499084
-68.167191 301.248413 -69.728760
-57.397419 302.214905 -74.271614
-15.765075 306.084869 -55.461937
-13.284571 297.026520 -68.331337
-11.541050 296.784760 -60.379620
2.919832 299.213196 -64.314476
-90.258759 309.830872 -66.501801
-141.594543 300.365723 -61.199818
-116.860321 302.887268 -66.006287
-157.263885 303.081848 -68.773842
-150.822250 311.610626 -73.383316
-149.520630 313.566071 -68.738640
45.428226 32.872959 -71.817162
23.466379 35.231838 -64.410583
50.412811 35.224998 -60.393570
44.686871 45.944588 -62.091114
85.734344 75.681000 -62.335915
101.049774 75.492622 -68.342308
101.819023 93.072472 -64.939568
93.739731 93.595390 -71.797531
61.438522 96.320694 -67.177284
44.846474 100.685585 -65.456825
64.308655 94.851601 -72.336906
-65.705338 96.892647 -66.775124
68.183456 103.122253 -70.050179
103.034164 106.717766 -69.404312
74.742920 108.534348 -64.708458
102.270638 111.506584 -63.725281
-88.566391 113.830574 -72.139023
42.925060 111.422623 -59.939255
-86.825935 114.693901 -74.304985
44.776680 118.082489 -75.976212
37.108643 117.017517 -66.793907
104.031326 110.340454 -64.454651
37.038063 121.127167 -65.766945
41.115108 124.176865 -65.439484
39.353817 123.960396 -63.262211
107.359001 126.186462 -66.864159
-84.569939 132.561508 -62.965313
113.596596 137.367065 -60.601093
43.673351 140.571228 -60.580917
37.318771 136.433685 -57.342308
35.704124 134.021622 -67.890083
-53.233219 141.481155 -63.222939
25.649920 132.016205 -60.817806
-69.315048 143.721085 -66.749054
-54.749203 141.854202 -65.843254
-77.535767 145.621262 -61.040691
32.261456 140.478561 -67.669807
-57.847729 148.055969 -61.167618
35.608109 142.614929 -52.659004
-74.777641 148.176285 -70.033646
-58.646473 143.742447 -64.093391
36.080833 150.138885 -67.423836
113.521370 156.548004 -67.197289
120.205574 148.598633 -56.133602
29.984737 142.677536 -71.054977
-48.964146 147.290787 -61.847141
113.354050 157.003616 -60.506897
-74.447731 155.842484 -72.015327
-59.805115 152.727814 -65.886833
32.447704 165.215500 -69.026512
-73.737221 150.333832 -63.118454
-72.334045 159.383469 -62.546978
116.390213 163.820145 -63.044415
-68.805298 164.164810 -69.416733
-35.380871 163.223663 -71.039452
34.286907 158.127060 -66.568649
-75.310158 167.582642 -61.587608
8.604238 160.363327 -64.463348
31.295546 166.534103 -59.199284
31.611208 156.086029 -65.492203
14.625044 170.506149 -70.544746
-53.896011 162.402100 -66.840736
27.290386 159.077271 -66.983299
-52.057400 163.244354 -64.719513
5.935473 162.340012 -65.592453
27.271666 159.843765 -62.689129
-75.913086 162.660721 -67.661148
-45.854279 162.666245 -61.507397
-68.508148 162.445740 -63.782055
14.036565 166.247147 -65.111992
25.131773 158.403168 -67.663345
6.107134 173.343262 -63.060101
15.029222 165.727112 -59.449261
27.356894 175.752411 -68.318504
-44.551666 175.194519 -66.988304
-37.204861 166.593704 -68.299469
-41.774464 170.237289 -65.546776
25.959686 174.738968 -65.483276
-44.648186 172.693817 -68.739006
-33.823265 174.200851 -67.809128
15.684406 183.883621 -62.330967
-47.585953 186.804535 -64.089012
35.812912 179.815018 -59.396915
116.544342 175.530365 -66.509399
-35.704079 182.493530 -65.331200
109.331917 183.936234 -57.311066
-46.720505 183.792725 -67.138359
-33.047512 196.369507 -66.765228
25.271149 187.791428 -67.591331
107.766769 191.576385 -57.352242
-23.675737 194.707962 -62.390404
-27.380136 177.151108 -61.227463
-26.954065 201.805389 -64.339325
-154.194412 194.170044 -63.700642
16.299450 199.306427 -69.223473
113.444435 193.282883 -60.703453
-154.647400 206.594711 -70.800957
-28.234516 201.733139 -57.079502
-115.309547 208.789200 -63.785896
-133.054977 206.733231 -67.011711
-112.983879 206.352036 -60.763237
-112.119316 212.325668 -73.602074
-11.167477 210.779953 -71.823059
18.685682 212.093613 -69.355858
-17.216316 208.893906 -64.495262
-128.653198 208.065384 -68.181320
-17.196070 215.718887 -56.073898
-129.383667 219.381836 -66.099281
-20.816893 214.953278 -69.609695
-139.777847 215.042770 -62.714798
87.546318 218.026062 -68.000946
-161.262070 209.427704 -67.095749
-2.786746 220.856140 -68.067696
14.382865 221.483978 -66.782837
6.590205 226.675354 -65.865799
83.467514 236.747696 -63.703640
5.401274 224.852539 -68.311295
14.298883 230.070374 -62.952217
-20.144047 231.535233 -69.520584
-90.580490 224.901733 -60.278812
-93.269783 227.576767 -64.086533
-4.478219 229.477615 -70.312675
-163.368027 239.571854 -66.752441
12.732801 228.767715 -67.455185
-145.240921 233.863480 -66.541191
11.859346 231.033432 -68.117584
-133.830368 229.971024 -67.614792
-114.610214 234.607544 -71.662186
15.740930 234.393890 -57.157120
76.580528 233.542221 -62.240891
8.406533 231.399109 -62.479820
-111.001915 246.371552 -65.692673
76.865768 241.492645 -63.147469
85.566841 235.693695 -65.171089
-122.840012 243.993408 -70.067513
-108.002655 240.123657 -66.264870
-9.994915 240.308563 -67.013306
72.277969 244.199265 -71.662346
69.355026 236.151642 -65.262161
74.143318 242.699036 -70.970047
-140.356476 251.727402 -63.414665
79.971199 242.553314 -64.202362
74.124878 248.735626 -63.833179
-158.755249 236.641083 -67.863670
1.694333 252.024857 -72.898193
12.085279 244.555664 -65.589249
-9.214445 244.180817 -65.054047
7.227332 246.283707 -63.148777
57.091217 252.896759 -62.260517
14.632939 255.252014 -62.390755
-13.162105 249.541977 -58.264622
5.563834 245.761536 -63.690956
63.107285 255.719025 -62.812000
7.930366 258.134827 -62.038353
-4.714329 249.060944 -69.961617
14.685223 254.147491 -60.825573
-163.777252 253.446304 -64.554512
60.852131 256.744781 -62.176476
46.935524 256.452271 -63.661469
59.370090 256.388184 -64.034958
-10.033453 259.949341 -69.993317
56.744213 250.902618 -65.637413
-73.416527 256.123169 -69.737755
55.644440 267.622345 -69.673271
-91.997948 259.498840 -62.914993
-129.896835 267.811127 -72.023247
-128.305527 265.305725 -68.096832
39.808746 263.577301 -77.310379
-131.705811 262.510620 -64.588921
-110.104187 270.281677 -66.244270
-111.129272 264.501495 -63.916115
-77.042641 274.056305 -65.501106
-104.461922 267.995575 -65.921310
-125.563713 272.381897 -67.880722
-144.801117 274.033234 -59.204830
-14.309107 272.696686 -72.846710
-170.494308 275.445465 -62.442520
-15.572977 276.836914 -65.237747
-162.464432 277.494690 -60.859318
-153.230865 286.133972 -67.900642
-170.837555 283.850067 -64.881607
-5.195311 288.809906 -70.851730
-139.258652 295.920837 -70.285698
-160.297516 299.612396 -69.703979
-147.138779 293.855469 -68.353333
-135.309448 294.244141 -65.466042
-10.438220 289.614777 -61.168808
-121.133865 293.665161 -68.543945
-138.478333 290.719116 -74.145943
-115.519341 296.765594 -62.612232
-76.058693 294.551727 -67.946228
-54.033798 297.259552 -68.545822
-8.368098 298.378204 -66.612267
-52.307915 307.370728 -69.469757
-58.803879 296.405304 -67.432541
-70.586983 304.400146 -64.511322
-87.825272 300.027161 -61.340317
-100.728775 296.365845 -66.226456
-161.486481 305.346191 -69.978058
-163.429535 295.831879 -74.513016
-128.098312 306.525452 -75.797401
-141.088623 302.295410 -66.153938
-152.459763 311.758301 -73.176872
-140.013290 331.442963 -62.475883
48.248993 35.248508 -67.184792
18.961924 39.170773 -64.933510
34.575150 46.028698 -75.365112
-20.288866 75.872284 -65.816528
82.971512 74.173477 -60.720760
82.244171 79.276642 -66.246803
84.480026 72.932808 -70.454437
73.035446 77.753578 -62.034161
98.437973 91.414520 -70.020042
-96.974487 80.493111 -67.110939
77.838120 84.418938 -67.413940
-32.426662 79.282364 -66.685966
98.702675 96.012291 -62.715813
60.250271 98.914444 -68.540291
103.963387 104.667938 -66.317886
101.497360 106.155869 -67.709915
65.862946 109.476044 -64.691116
-73.393044 113.759819 -64.735939
59.344563 107.707779 -64.752876
103.173042 115.466873 -68.628685
45.776901 119.785828 -66.347244
86.683846 109.903900 -59.132195
42.367451 122.337593 -67.434464
105.312904 118.974876 -61.778706
50.361122 120.400055 -70.552071
107.856514 120.252533 -57.889214
113.679031 119.839737 -61.895168
-77.679062 125.777390 -60.640762
-82.758682 129.575226 -58.699642
42.935066 130.966461 -67.568108
110.588692 123.606880 -67.736237
118.332474 140.033829 -61.690231
-77.184052 132.081390 -64.883598
107.571732 134.970871 -61.657959
-58.767056 140.352219 -69.880783
-91.094582 125.832809 -70.349434
-83.992119 138.161438 -72.555092
-60.677849 133.168686 -60.220173
30.678120 142.476288 -61.911755
45.993095 145.101303 -58.631512
-74.278854 141.024551 -60.006184
22.463728 141.114899 -67.418587
109.057693 150.449020 -64.734833
-41.945118 156.791306 -66.356743
23.031597 162.846024 -65.876846
119.611176 152.085052 -66.158165
33.604275 153.476730 -67.739861
114.365524 153.365402 -63.043602
-46.577015 155.517700 -77.208923
-66.099869 163.867661 -63.844788
-49.451511 159.891693 -72.278519
-42.747936 176.764496 -64.466469
3.157955 162.866745 -60.743889
108.810493 166.192490 -62.796829
112.056526 164.303802 -60.978134
7.950605 169.493668 -64.813942
1.433515 164.881912 -66.645874
17.168007 161.610199 -61.059322
24.573580 163.258911 -65.087517
114.239357 176.757462 -64.493668
110.142487 178.589111 -68.984665
28.005272 181.381622 -63.322369
30.404547 168.481415 -66.739403
111.901497 170.072968 -58.294128
-31.679413 178.822632 -63.489273
106.569595 173.871536 -64.010612
21.389889 172.175507 -70.692551
24.178860 175.973862 -61.798393
106.306374 183.974854 -59.955166
30.167524 181.751358 -63.814022
115.923630 187.271240 -63.464363
-42.039089 185.772232 -68.509476
30.053467 185.077499 -60.756069
112.970886 193.193237 -67.191681
22.665890 199.846710 -59.127563
-150.559586 193.592361 -58.518242
-34.234726 197.395721 -62.974213
24.384460 189.416870 -67.096603
-115.974380 205.353912 -64.779442
-114.507156 204.817535 -60.766922
31.150475 193.984070 -67.027367
12.103543 195.031754 -67.915764
-25.470270 206.660431 -63.468323
-29.456221 199.533463 -63.295956
-27.568190 195.511459 -64.027931
23.468847 191.889145 -71.211746
-143.958435 205.796265 -72.297699
-146.437668 199.536469 -66.794113
-141.180191 207.215485 -66.848412
-19.110306 199.185669 -66.082405
7.365464 203.839615 -67.288277
94.627869 200.405029 -68.893631
-116.594719 208.105927 -65.514503
23.460360 208.115295 -60.797131
-16.642214 202.535492 -63.671204
-21.706047 210.894669 -63.354313
94.831955 205.607391 -67.821831
9.947944 215.091232 -67.554733
-20.889025 209.085831 -72.186546
-115.122910 209.578217 -63.971317
-134.704773 216.460709 -66.557129
-116.110313 213.772308 -64.386375
-144.890335 212.871613 -62.408817
24.387243 208.996597 -66.143097
90.339836 214.098557 -68.382462
-165.565964 208.534317 -60.970581
99.355980 216.508713 -65.524666
-22.855570 218.471466 -64.563873
91.735832 220.405914 -64.749840
95.635559 225.865356 -64.866737
11.144080 220.436890 -69.485016
16.522123 214.930557 -64.508881
11.548763 209.338974 -70.737167
-3.270468 229.626694 -59.332050
-99.257484 217.718277 -60.153614
-8.615845 224.685028 -69.051239
96.851051 219.403336 -66.838715
-93.420517 230.493073 -63.074558
-100.927437 225.202469 -62.860714
-91.694328 225.703018 -66.808708
86.901596 235.915619 -68.179970
-138.433060 234.770844 -63.433815
-142.584259 230.859772 -63.034702
-114.749313 235.468842 -62.983154
-107.878098 234.364990 -61.223309
-132.527130 234.239868 -65.307793
-108.865417 235.002106 -73.196304
-113.748672 229.273407 -65.471024
-11.343714 229.918182 -67.241325
-14.365458 228.329910 -59.242569
0.962917 243.317581 -73.262711
-14.631785 236.939651 -64.959351
15.157242 243.882004 -63.417324
-15.959079 235.691742 -73.428497
-170.822388 228.510727 -65.483727
4.412456 244.346237 -62.175438
74.610809 243.820480 -66.631859
0.544555 243.828629 -63.919140
-13.588508 248.016876 -64.072357
-153.557785 247.982971 -55.978565
-139.610641 247.680450 -69.479698
67.185043 242.378204 -61.244198
-12.293529 243.439896 -69.999596
7.110963 244.975449 -60.935127
69.355812 249.585052 -68.194283
81.206581 244.576523 -64.018158
70.195122 253.887390 -68.405098
0.194316 247.107101 -61.178192
61.144577 243.864868 -65.386345
-15.705157 244.481735 -60.427670
-19.446812 253.886368 -66.803131
9.831758 253.616669 -69.231377
69.925819 250.045288 -65.717133
63.887836 248.564468 -62.618076
52.280598 258.759247 -68.342445
64.123024 250.480469 -77.387085
-14.959249 260.748932 -64.360054
-83.294411 255.490128 -61.588306
-77.784798 263.063873 -61.581352
51.948662 253.788956 -63.617825
-145.755569 263.079254 -64.612152
35.757633 270.165070 -62.001167
-95.154572 264.411285 -72.825165
-156.912735 263.312286 -70.202240
-135.529373 262.341309 -69.239960
46.748466 261.614105 -70.992233
-120.290382 275.981842 -61.892155
-119.099716 273.095734 -60.731709
-94.428986 268.878357 -69.685257
-18.363035 265.219757 -62.084152
31.264999 270.247406 -55.795712
21.687477 277.770355 -62.040985
-157.862259 270.360931 -67.137428
-116.668617 271.367981 -63.513954
-12.717854 266.255859 -61.459381
-135.370865 280.444336 -62.515476
-19.128405 280.309631 -53.773376
-168.626297 285.710663 -57.256657
-10.940715 294.162262 -71.103790
-163.697464 292.332520 -61.059082
-166.751587 290.585754 -57.310867
-140.524658 296.780365 -67.740654
-170.823288 301.478821 -66.586998
12.176534 294.794922 -60.977715
-105.060867 294.211975 -62.820869
-82.636238 306.100311 -59.395618
-165.765015 296.441528 -57.196388
-93.948860 299.483154 -65.017204
-148.056519 300.192261 -63.082317
-70.827721 294.471649 -65.284065
-72.869728 301.814819 -62.814182
-83.422501 304.401520 -56.657654
-3.894263 296.757813 -56.362831
-80.103790 304.193909 -61.686920
-95.124809 295.991974 -67.229233
-115.747620 303.500061 -66.853073
-113.090149 304.377197 -65.877205
-135.659592 296.962433 -58.072449
-148.338074 310.043274 -65.873573
-142.233231 316.896790 -63.329651
25.977476 28.486540 -66.888664
30.674238 28.509123 -67.142189
32.400635 29.119560 -60.027477
40.022713 31.200497 -68.621384
26.066980 39.273418 -63.257954
-71.205292 54.685516 -61.472652
90.712929 73.665703 -57.775448
-11.928986 76.157433 -66.302094
103.422745 74.229584 -56.580242
90.787598 81.308640 -73.013100
72.839417 86.081635 -68.730858
70.642899 88.952911 -66.524803
-47.669746 95.262749 -69.268829
59.104801 92.361977 -67.320465
-97.549011 99.509254 -63.948296
-49.398090 93.997025 -59.958744
-58.779873 100.663948 -65.805862
96.174774 105.383369 -72.749489
61.689083 106.768723 -64.016800
59.834801 100.596565 -59.057156
-107.264938 110.059700 -57.029686
100.564522 97.254707 -64.109940
45.870983 110.488525 -63.329216
102.630577 114.958359 -59.969761
105.427452 116.642479 -58.104530
101.652519 116.333275 -71.887123
73.465256 112.967590 -59.100792
79.769173 116.927109 -61.301350
48.070736 122.207611 -64.195389
108.405144 119.046120 -67.619965
50.176056 121.533554 -53.249527
45.540192 106.210419 -62.976254
113.102043 122.494560 -57.761875
-75.928543 117.566475 -55.510174
47.200577 123.185181 -64.826538
38.116566 122.374374 -56.354027
107.417358 120.745888 -55.493034
38.299522 128.774673 -62.310745
-87.702423 126.678566 -58.794460
-94.361290 121.717995 -68.987122
103.824623 127.659431 -59.420200
-91.990150 123.098854 -66.394547
36.396709 130.506332 -66.050598
39.898064 125.762527 -64.366135
-82.135841 142.030304 -58.775681
24.122942 144.530731 -64.291550
110.684776 142.672989 -67.575348
-49.592796 146.222961 -64.755379
-88.224403 136.618347 -60.865185
38.533440 142.470718 -68.602699
-95.282303 138.378403 -60.326427
-89.804779 144.073471 -63.755451
-46.667282 149.551804 -67.340317
-69.889328 153.086746 -70.721252
-50.133869 143.794815 -62.845528
106.562721 146.404404 -65.023956
-78.942848 150.893967 -69.682358
42.093472 143.190781 -62.555851
-84.052086 148.174088 -73.717705
-79.082504 149.487869 -59.563492
-88.964882 144.220703 -62.287758
-49.170246 158.623077 -68.478424
27.947948 156.069931 -59.578934
26.756800 169.197159 -64.578888
14.452650 158.757004 -64.234482
113.331390 156.789246 -62.474895
-97.730812 162.385757 -66.975777
11.872564 158.592422 -69.062698
-75.842697 162.207184 -67.567726
28.552643 157.750412 -59.543354
-48.464649 164.896851 -65.922791
7.308989 152.054062 -59.725945
11.449014 170.219772 -62.825352
17.124458 173.817078 -68.641785
-45.577744 171.844421 -61.378304
-40.494057 163.167557 -65.214882
-43.933815 174.272064 -60.667156
-108.676834 179.908783 -60.876518
23.304157 184.904831 -63.113159
-39.247139 183.519653 -65.178413
16.829439 189.226349 -58.173393
-140.269470 186.169861 -65.061707
-31.268904 181.030380 -63.475006
-152.451981 191.022095 -65.973640
19.749533 184.237381 -64.593071
-32.945229 184.290161 -62.538689
-107.277122 189.193802 -70.159340
-99.978668 193.591217 -69.549515
-29.917917 194.920349 -62.901569
-24.647913 190.795059 -66.796494
13.012495 193.112595 -61.899403
9.318958 203.638428 -71.980957
17.819506 195.832352 -62.448620
-147.035263 193.218842 -66.776199
20.640184 199.218552 -62.815258
11.122413 207.130020 -63.805107
-142.421677 209.016342 -64.026871
-114.334892 205.064194 -62.346394
18.130053 207.254486 -64.383499
-114.633026 204.822189 -61.618263
-110.054230 208.349548 -61.194492
-165.557297 202.976212 -61.231743
-28.471460 213.744431 -56.567616
18.573408 209.367126 -64.174957
-137.432587 214.515121 -56.584988
-128.734680 215.249542 -62.469048
-19.680744 217.030334 -62.805256
-13.304650 210.818222 -61.206104
-25.252920 219.558685 -66.094322
-146.493454 213.463394 -69.270996
-15.814272 219.804153 -65.064087
-17.510868 225.131912 -66.992538
21.816099 216.260742 -64.420166
-8.845045 223.959946 -69.487839
13.983197 217.230103 -66.138580
-11.329389 225.338715 -61.915710
-17.945641 219.167358 -67.923500
14.000328 231.666687 -61.794685
-1.739257 226.506302 -68.370232
6.455672 231.637680 -60.994480
-4.177945 243.496582 -65.332191
-155.768951 230.815094 -65.154152
82.349815 229.046814 -66.368423
-130.436996 246.486694 -62.771473
-134.082962 237.215836 -63.440495
-10.567583 231.320251 -65.950958
10.668627 232.751022 -67.278496
-144.151505 235.248795 -64.086151
87.148354 234.312836 -59.914082
-6.000257 234.940842 -62.926277
4.437697 235.556290 -61.852325
75.866310 239.786652 -64.412796
7.526385 241.082108 -60.570271
-14.865852 243.335724 -66.417183
-126.111847 245.608810 -63.226124
-2.537169 248.040558 -65.013977
6.295397 246.352737 -56.849716
62.747925 245.650192 -64.790588
-157.536499 249.037628 -62.218086
-7.633271 251.795853 -68.234886
-169.898102 241.080948 -61.857601
7.444057 260.186646 -62.459820
-169.697784 251.229935 -59.264771
-161.550171 254.030228 -65.590729
61.261322 254.083206 -61.240005
60.999840 251.755951 -63.314854
68.081131 253.714996 -64.793770
50.605232 256.086365 -66.143929
-158.053589 253.163986 -58.822601
-162.452927 263.784058 -69.617020
-17.966373 258.265259 -66.681549
-156.018707 249.789185 -61.834652
20.362576 261.522491 -64.519905
-175.046799 258.226776 -59.982464
-160.945435 257.360291 -54.711143
-77.018600 262.902893 -62.126392
-166.663864 267.661682 -63.370342
-83.284790 269.731079 -63.791107
35.261524 264.974365 -63.742355
19.803135 260.388885 -68.650818
-158.361633 270.601929 -61.489212
-98.579208 267.373627 -63.924206
43.319103 271.177307 -66.315598
-98.128296 267.648743 -63.019855
-156.210526 267.335083 -60.741123
-104.783470 275.253448 -59.103809
-169.262848 265.734161 -70.343903
-112.102989 271.669983 -70.350624
-154.880447 273.008362 -67.475990
-154.836884 274.473877 -62.829983
-167.918961 263.956085 -65.514854
-161.417053 265.710724 -67.724297
-164.049194 279.235992 -70.496429
-162.602539 277.131470 -63.475185
18.082390 275.207550 -69.529846
-149.260864 269.287567 -61.204231
-151.121140 294.752167 -58.493332
23.793461 280.811829 -67.164825
-9.855166 281.904114 -58.483822
-129.444687 293.823547 -58.766727
-137.238419 295.899475 -68.608612
-139.324921 296.335663 -62.417149
-129.167892 296.213928 -68.541397
-114.566566 300.481384 -63.636360
-108.321960 292.896637 -62.938641
6.766252 295.618530 -70.371170
-87.219559 302.048767 -68.881844
-148.874283 301.340912 -56.012459
-100.156517 296.529785 -60.323238
-125.102165 301.052490 -66.935013
8.081249 293.898651 -64.081490
-117.180313 304.639130 -61.726551
5.777183 304.332489 -66.781425
-141.302216 299.219177 -65.876541
-150.706406 308.021545 -62.404770
-158.705780 325.851532 -68.553818
-158.591324 322.145966 -61.676949
47.606293 35.777641 -57.483372
20.720411 45.671303 -66.204521
30.136576 50.252487 -62.187542
-44.091591 63.735905 -63.423885
-12.880675 75.083496 -65.416550
87.802170 85.767097 -60.361912
64.113304 83.654465 -62.608536
-32.852772 86.296036 -61.627415
-94.945824 91.761940 -66.300446
-45.412872 90.887138 -64.723640
67.528114 86.500549 -63.768684
60.302925 101.085670 -65.508911
62.717285 90.853683 -66.634293
-57.953022 96.508812 -69.651154
67.790199 99.415649 -63.896507
45.111584 103.443314 -64.960800
66.254761 97.678352 -66.073814
-67.349518 107.789986 -60.204056
44.056206 110.062111 -61.773365
49.705902 104.044022 -68.483330
102.492371 110.745461 -64.588882
-68.357712 118.090744 -56.636681
113.271729 116.456047 -65.481071
-83.244102 106.357933 -64.146492
53.200035 115.835342 -64.399048
54.340443 114.908554 -66.449348
92.354141 114.829994 -68.621735
86.832634 116.937729 -59.085995
50.600807 106.787689 -63.086800
-74.514435 115.491005 -62.429821
-74.804619 121.513138 -63.674141
-75.903923 122.407555 -64.761826
-89.106575 132.369888 -71.672401
108.597679 127.276077 -58.178761
-82.555313 129.549744 -70.519753
-84.997513 131.184570 -61.138752
107.290497 126.821053 -64.174072
-57.747417 124.740944 -60.355579
118.070374 144.367661 -58.666901
113.615044 144.374496 -61.299187
114.302994 129.657364 -62.661865
-89.847755 151.546967 -69.545303
-45.194607 150.347183 -67.868042
-73.286163 154.542480 -66.722046
-70.733009 158.219040 -60.518501
-66.441986 153.046402 -66.534798
-51.116856 152.697250 -63.665146
-43.438175 153.560150 -57.423782
26.396376 152.747040 -60.464481
-95.104210 155.271454 -62.628338
-44.460407 164.101883 -61.489727
-54.027203 157.301666 -66.559174
-48.649517 162.129425 -59.487434
35.269199 171.556717 -64.696503
-45.733032 153.388794 -63.202213
-90.640778 158.148773 -66.266502
-41.635426 166.690201 -65.439438
32.635887 162.987549 -58.997314
-100.064148 173.980835 -61.373871
19.142485 165.908752 -60.047112
-105.578766 186.942749 -65.391197
-96.185516 162.637527 -62.765072
26.690729 166.625183 -65.143723
24.820026 179.480331 -60.984409
-96.520279 187.368118 -67.304008
-140.281204 188.995239 -62.816307
-25.231682 202.709198 -64.888374
-22.354315 196.525360 -66.451035
-113.079201 193.853531 -70.418777
-147.017242 192.166122 -52.237934
-107.256294 191.912491 -64.266922
-150.403107 204.316940 -63.081966
-134.543686 204.050797 -59.686089
-133.786758 198.384521 -59.513092
-19.778442 202.992584 -57.981182
-118.408066 210.917343 -62.648861
-111.263435 198.673477 -59.788914
