-149.182296752930 -85.058448791504 -224.433578491211 1.652832508087
-140.675170898438 -82.977096557617 -225.254119873047 2.204139471054
-152.035324096680 -85.389060974121 -227.582031250000 1.960775613785
-142.356002807617 -83.126815795898 -231.781234741211 1.054345726967
-136.657867431641 -83.922332763672 -232.050888061523 2.188680410385
-147.696609497070 -81.975761413574 -232.795684814453 2.231657981873
-150.503906250000 -86.906471252441 -245.907791137695 3.419973373413
13.588787078857 -84.730216979980 -244.572357177734 2.568521976471
-3.130759954453 -88.089767456055 -251.488525390625 5.254133224487
-137.266372680664 -85.394905090332 -262.716217041016 2.846586465836
-2.264656066895 -83.401260375977 -270.044921875000 1.772892594337
14.523513793945 -89.130355834961 -261.545410156250 5.898065567017
-4.925726890564 -87.269676208496 -262.679473876953 2.841128826141
-145.361022949219 -83.488273620605 -269.023529052734 1.396893858910
-142.954528808594 -83.486183166504 -286.038299560547 1.446061730385
-140.394561767578 -87.610916137695 -293.847991943359 4.192700386047
-145.563888549805 -84.592468261719 -292.341979980469 1.160912632942
-149.242294311523 -87.061286926270 -297.927032470703 0.196831136942
-70.646667480469 -80.191909790039 -73.205520629883 2.999839544296
-62.470134735107 -79.525131225586 -73.203804016113 2.868126869202
-46.201709747314 -82.404052734375 -74.541419982910 1.642111659050
-39.533393859863 -80.669204711914 -78.515319824219 2.363801002502
-72.942535400391 -79.796501159668 -76.885505676270 2.227280855179
-48.762958526611 -79.465476989746 -86.131210327148 1.310636043549
-55.393009185791 -81.528663635254 -91.240791320801 2.580991744995
-70.080589294434 -78.671936035156 -100.447158813477 2.869149208069
-10.958478927612 -82.044746398926 -174.557754516602 0.912210464478
-18.526502609253 -83.234931945801 -182.034988403320 0.740745306015
-50.437442779541 -81.952392578125 -185.805923461914 0.574879169464
-145.940902709961 -84.224929809570 -190.849472045898 1.236653447151
-44.127265930176 -81.847389221191 -192.420639038086 1.258709311485
-148.629043579102 -82.792739868164 -194.519760131836 0.721139967442
-137.163665771484 -85.516983032227 -197.593521118164 3.162307977676
-38.188144683838 -82.863739013672 -197.462326049805 1.099757909775
-145.154190063477 -82.130554199219 -199.981414794922 0.543896317482
-143.736068725586 -81.093292236328 -200.647842407227 1.551215410233
-53.826438903809 -83.228721618652 -200.144027709961 1.097704291344
-152.739852905273 -81.115104675293 -198.299438476563 1.187928080559
-57.717151641846 -84.919937133789 -203.644226074219 2.161048173904
-146.883483886719 -81.978614807129 -205.264938354492 1.505586504936
-62.474224090576 -81.895446777344 -211.378082275391 2.257866859436
16.602798461914 -84.519264221191 -235.896987915039 3.444988965988
12.368342399597 -86.095001220703 -234.533370971680 4.099982261658
-147.267456054688 -83.319946289063 -236.610763549805 1.532600998878
19.729051589966 -82.917816162109 -245.526184082031 1.084605813026
15.846717834473 -89.029747009277 -246.410125732422 5.708663463593
13.159731864929 -86.047645568848 -253.330841064453 3.708432197571
13.362051010132 -84.367492675781 -254.154281616211 2.151112079620
-152.287094116211 -84.980155944824 -257.156524658203 1.514489054680
-135.624710083008 -85.761245727539 -261.712493896484 2.201626539230
14.423649787903 -84.709495544434 -264.188018798828 2.843483686447
-148.752960205078 -87.377113342285 -276.296600341797 1.553580880165
-141.717102050781 -87.063087463379 -277.905639648438 5.168949127197
9.233252525330 -83.047645568848 -274.066101074219 1.083968877792
-144.147277832031 -85.921302795410 -275.898284912109 2.972792148590
-138.087860107422 -88.483299255371 -284.351104736328 4.367455482483
-147.471954345703 -86.360610961914 -290.892730712891 1.586225986481
-149.496948242188 -85.802795410156 -288.543731689453 1.644776225090
-152.861892700195 -83.059959411621 -291.927032470703 0.559682548046
-137.258804321289 -84.177970886230 -292.021728515625 1.872337579727
-153.794372558594 -87.824714660645 -291.056274414063 2.189543247223
-60.873100280762 -78.261123657227 -71.356842041016 3.400543928146
-56.117050170898 -75.911727905273 -72.382774353027 6.210515022278
-41.599269866943 -77.844787597656 -74.799125671387 3.949653863907
-79.512115478516 -77.916213989258 -83.084152221680 3.873542070389
-39.357570648193 -77.736671447754 -81.783134460449 2.628810405731
-42.643600463867 -80.453132629395 -82.390510559082 2.815976381302
-83.886268615723 -82.859504699707 -100.821296691895 2.946881294250
-72.242317199707 -75.109489440918 -101.886268615723 2.621726512909
32.656646728516 -81.410667419434 -122.546127319336 2.609555244446
30.754251480103 -80.007362365723 -142.688400268555 1.396369934082
-12.542640686035 -83.227157592773 -177.173416137695 1.733105540276
-17.875995635986 -81.268981933594 -180.742691040039 1.903205752373
-27.076076507568 -78.333770751953 -183.680480957031 1.234305500984
-36.141456604004 -82.463508605957 -187.728302001953 1.594008564949
-53.571937561035 -81.725448608398 -185.321899414063 2.132148504257
-28.608518600464 -79.411270141602 -191.963302612305 2.440516948700
-142.629806518555 -81.765899658203 -186.848373413086 1.775320768356
-148.911331176758 -81.472480773926 -195.718170166016 1.285215735435
-151.988265991211 -81.424171447754 -199.443771362305 1.350934147835
-149.237640380859 -79.928787231445 -203.096496582031 1.463139891624
-68.562355041504 -85.227416992188 -209.140075683594 2.399863481522
-60.280105590820 -81.460891723633 -209.597763061523 0.776589334011
-146.431198120117 -82.809638977051 -212.347167968750 1.283244967461
-71.646972656250 -82.983932495117 -211.051528930664 1.795776844025
-68.001022338867 -85.761749267578 -213.057449340820 3.791478395462
-77.045227050781 -84.106369018555 -214.656463623047 3.935456514359
-142.149185180664 -85.081146240234 -226.846206665039 2.070412397385
-140.521011352539 -83.511405944824 -230.552734375000 0.975741028786
-148.779510498047 -83.738822937012 -247.029113769531 1.368075966835
14.744686126709 -82.300849914551 -247.635879516602 1.319436669350
9.590565681458 -85.439216613770 -246.318664550781 4.035751819611
-134.505676269531 -88.043762207031 -256.017028808594 4.451851367950
16.082372665405 -84.092384338379 -257.140594482422 2.229413986206
13.798037528992 -86.702690124512 -260.562622070313 3.438514947891
-148.864608764648 -85.727333068848 -262.562896728516 0.918065011501
-151.360321044922 -86.353446960449 -276.600067138672 2.218735218048
0.521468997002 -86.140975952148 -272.106140136719 2.766443252563
10.790244102478 -80.924583435059 -275.759246826172 1.102206945419
-152.993331909180 -87.694313049316 -283.270935058594 3.159054756165
-141.906082153320 -85.189071655273 -283.665313720703 3.448606014252
-148.735900878906 -91.492057800293 -302.267181396484 5.796711921692
-48.326965332031 -80.430732727051 -74.441444396973 1.864497065544
-70.581390380859 -78.401390075684 -66.036720275879 1.531400203705
-44.646652221680 -76.525169372559 -66.345962524414 3.127662420273
-34.770099639893 -77.639686584473 -74.872772216797 3.508807420731
-76.318649291992 -72.181709289551 -68.318908691406 6.631522178650
-29.402006149292 -80.602165222168 -76.487289428711 1.569014787674
-47.781776428223 -78.401031494141 -81.841049194336 3.710543155670
-57.827423095703 -76.937667846680 -92.788536071777 3.194400072098
-59.899795532227 -82.871032714844 -94.121040344238 1.697233915329
-63.521255493164 -80.132560729980 -99.984298706055 1.736140608788
-88.006423950195 -77.389053344727 -106.410560607910 3.038284778595
41.450733184814 -79.426795959473 -117.201187133789 1.025531649590
37.387817382813 -79.314918518066 -126.885948181152 2.241889953613
-42.363056182861 -79.191749572754 -161.946136474609 1.011055707932
-38.353492736816 -82.676589965820 -159.570602416992 2.966159343719
-7.567393779755 -79.658294677734 -169.655883789063 1.062021136284
-60.299633026123 -80.146644592285 -171.989501953125 2.227607488632
-56.694244384766 -81.476509094238 -177.149810791016 1.618867516518
-59.400444030762 -80.632179260254 -174.217910766602 1.663344979286
-32.766372680664 -79.258285522461 -169.892242431641 1.114458084106
-52.940277099609 -79.252456665039 -183.145843505859 1.384344696999
-25.954286575317 -79.997756958008 -181.648818969727 0.696872651577
-146.960983276367 -84.293449401855 -185.943801879883 2.740061998367
-49.592914581299 -79.495788574219 -179.485794067383 1.011839270592
-46.643440246582 -82.084655761719 -191.775894165039 1.484279870987
-32.138183593750 -77.677207946777 -184.087432861328 1.396223783493
-31.460435867310 -78.879226684570 -187.958908081055 1.277102708817
-32.367065429688 -79.273956298828 -191.219955444336 1.974733948708
-23.033842086792 -81.367294311523 -188.805618286133 2.222374916077
-44.652568817139 -83.032249450684 -194.994400024414 1.236513495445
-143.730346679688 -81.827903747559 -195.367538452148 1.340074300766
-38.385471343994 -82.433197021484 -195.652862548828 1.229387164116
-41.885345458984 -83.209320068359 -201.720199584961 2.043169736862
-42.440414428711 -79.535110473633 -199.487091064453 1.792706966400
-42.067813873291 -80.995925903320 -198.337142944336 1.373300552368
-132.675949096680 -80.773887634277 -202.729263305664 2.829920291901
-135.391067504883 -78.422393798828 -201.930053710938 1.894625544548
-47.700218200684 -83.524009704590 -200.845397949219 1.865771174431
-58.805274963379 -81.901802062988 -203.944808959961 1.453379631042
-36.712661743164 -80.499794006348 -203.263610839844 1.465269684792
-143.199142456055 -81.295860290527 -205.770645141602 1.707498669624
-68.625701904297 -79.598251342773 -207.810913085938 1.288911700249
-33.460578918457 -82.310195922852 -207.722808837891 1.462387681007
18.055845260620 -81.141738891602 -201.243225097656 3.453861236572
-76.794181823730 -78.783462524414 -209.407028198242 0.558337807655
-25.971000671387 -77.544204711914 -211.259445190430 1.886223912239
13.509865760803 -82.154335021973 -218.466827392578 2.004690408707
-147.764129638672 -83.141830444336 -218.881134033203 2.044524908066
9.551671981812 -83.156036376953 -225.256286621094 2.737259626389
13.873891830444 -83.322822570801 -220.289779663086 2.760521411896
16.093631744385 -83.419723510742 -228.448806762695 2.744146108627
-133.414108276367 -86.348388671875 -227.864166259766 3.631493568420
-147.794937133789 -83.495285034180 -230.590133666992 0.951107680798
11.592776298523 -83.494682312012 -232.682373046875 1.313233733177
15.386444091797 -82.497421264648 -235.571441650391 2.044001817703
13.537513732910 -80.093727111816 -234.990310668945 0.926290333271
-148.212509155273 -86.324851989746 -239.374237060547 2.196639537811
-143.683044433594 -85.647010803223 -240.411849975586 2.678566932678
17.737064361572 -81.658874511719 -236.319442749023 3.003010034561
-32.442127227783 -80.849021911621 -244.537460327148 1.826402783394
18.387594223022 -83.421730041504 -245.110351562500 2.043081998825
-38.925559997559 -83.606628417969 -245.190765380859 3.860909461975
-146.148056030273 -88.155807495117 -254.019744873047 3.516738414764
13.946076393127 -83.603012084961 -252.871109008789 2.063284873962
-140.732421875000 -83.686859130859 -260.584655761719 1.554836153984
-149.612670898438 -84.133529663086 -254.362487792969 1.142845869064
19.449653625488 -84.295616149902 -258.129302978516 4.025412082672
-6.008006095886 -79.669273376465 -250.279434204102 1.802597403526
-5.609325885773 -83.384803771973 -262.919219970703 2.255302667618
-144.723022460938 -84.247016906738 -256.707000732422 0.838114202023
-151.654846191406 -80.191291809082 -260.711547851563 2.837203502655
-143.123809814453 -84.894416809082 -263.322509765625 2.087151288986
-149.677749633789 -80.255760192871 -263.284179687500 2.257133007050
-150.805847167969 -83.720191955566 -268.839752197266 0.773188471794
-8.979091644287 -83.469284057617 -267.126098632813 2.536834716797
0.581210017204 -81.637474060059 -269.427307128906 3.153096675873
11.700428009033 -87.392066955566 -265.626403808594 2.698536634445
10.138813972473 -83.223815917969 -280.644866943359 3.679893016815
3.905328989029 -84.813217163086 -279.332092285156 3.528565168381
-133.918685913086 -82.097625732422 -292.283813476563 4.009837627411
-140.672317504883 -86.529060363770 -290.048797607422 0.340439409018
-61.752685546875 -74.624473571777 -64.853507995605 5.328126430511
-42.672744750977 -75.252037048340 -63.625461578369 3.461905002594
-56.497074127197 -76.700431823730 -65.625892639160 4.435332298279
-46.602260589600 -75.595542907715 -67.129920959473 3.932448625565
-73.322616577148 -76.961265563965 -63.889797210693 1.462441563606
-83.994331359863 -76.976058959961 -73.013473510742 3.220068693161
-31.793167114258 -74.724098205566 -80.765686035156 2.344302654266
-42.436260223389 -77.073341369629 -86.043708801270 2.025603771210
-48.436054229736 -76.754989624023 -84.037963867188 2.340484380722
-86.115043640137 -75.581260681152 -86.428123474121 3.535754919052
-76.931671142578 -76.539596557617 -102.861549377441 2.114464998245
41.494464874268 -79.198738098145 -107.385841369629 2.668892860413
-84.881156921387 -79.213012695313 -110.739814758301 1.203855991364
40.203693389893 -79.039161682129 -117.257232666016 0.716318309307
41.694427490234 -80.729782104492 -126.226387023926 1.394451379776
35.492511749268 -76.698860168457 -119.839637756348 0.292769461870
33.349395751953 -80.283592224121 -124.662048339844 1.922518253326
35.244750976563 -77.581642150879 -137.146621704102 1.685304880142
25.276351928711 -75.562545776367 -144.445587158203 0.774956107140
-44.797386169434 -81.080093383789 -148.808532714844 2.741542577744
28.666473388672 -77.603820800781 -145.977005004883 1.725422620773
23.988496780396 -78.636047363281 -154.478271484375 0.897539675236
-47.298088073730 -79.036117553711 -156.214950561523 2.446678400040
27.885852813721 -80.299446105957 -151.073455810547 1.735625028610
-43.194087982178 -78.067779541016 -162.320297241211 1.530968308449
27.468507766724 -78.511528015137 -165.341552734375 1.493776798248
-60.384918212891 -80.581314086914 -168.939926147461 1.110533356667
-8.928460121155 -82.670593261719 -176.021362304688 1.826199769974
-35.100074768066 -74.647987365723 -172.916793823242 3.160935640335
-16.232107162476 -79.002700805664 -173.493835449219 2.734634399414
-53.902214050293 -77.816230773926 -175.291412353516 1.831676483154
23.086050033569 -78.115425109863 -169.794784545898 0.582561731339
-15.869479179382 -80.277870178223 -180.846481323242 1.098819732666
-22.290922164917 -82.964942932129 -185.587188720703 1.706765651703
-57.896255493164 -79.704284667969 -184.644180297852 2.616672754288
-26.593711853027 -79.050331115723 -182.652999877930 1.385367274284
19.059965133667 -78.271713256836 -185.148040771484 1.947878599167
-150.970733642578 -77.536468505859 -185.252990722656 2.557962417603
-27.183330535889 -78.239158630371 -187.601562500000 0.837349534035
-49.189041137695 -78.458778381348 -190.943389892578 1.198711276054
-149.685379028320 -82.841300964355 -194.832412719727 0.690318048000
-142.623855590820 -82.296234130859 -200.188903808594 1.433037161827
-17.987998962402 -79.676612854004 -194.110336303711 1.919708728790
-16.352407455444 -81.470123291016 -199.049713134766 3.238343477249
-49.973762512207 -80.859794616699 -195.588241577148 2.646214246750
-21.377798080444 -77.112579345703 -198.177703857422 1.095276236534
-50.623908996582 -80.437110900879 -203.911849975586 1.780974149704
-44.073436737061 -82.477729797363 -201.879791259766 2.131995916367
-55.500564575195 -83.395996093750 -200.725265502930 1.037957191467
-16.956090927124 -78.907508850098 -205.991287231445 2.060637712479
-149.226257324219 -82.927383422852 -209.150009155273 0.482350409031
-56.367630004883 -79.588302612305 -202.796401977539 0.649917960167
-55.648159027100 -80.386833190918 -206.819931030273 1.359584331512
-30.503091812134 -79.513076782227 -201.372055053711 3.326408147812
-14.251876831055 -82.163269042969 -200.272018432617 3.080424308777
-37.255332946777 -80.666595458984 -205.668548583984 1.204069375992
-76.450630187988 -84.469299316406 -213.051803588867 3.535971164703
-143.329620361328 -83.539878845215 -213.121261596680 3.025728464127
-32.790710449219 -81.751937866211 -203.531494140625 2.137349843979
7.661303043365 -80.089042663574 -208.997299194336 2.636744260788
-58.855041503906 -80.700622558594 -211.230331420898 2.738283634186
-69.873809814453 -79.358398437500 -213.996826171875 1.519749641418
-25.057537078857 -77.855415344238 -217.035675048828 1.747897148132
-9.724325180054 -80.237953186035 -212.579727172852 2.956566095352
-23.414299011230 -81.303237915039 -220.435058593750 2.414022207260
14.851951599121 -80.188529968262 -213.949737548828 2.468093872070
-150.150863647461 -80.187660217285 -224.833786010742 2.248772859573
-8.597213745117 -79.294136047363 -215.513244628906 1.105665802956
-149.600189208984 -82.543052673340 -230.436630249023 1.386269688606
8.535670280457 -84.817436218262 -230.912109375000 4.370377063751
15.109747886658 -83.284599304199 -223.216156005859 2.881830692291
-3.219166040421 -82.271675109863 -223.966247558594 2.698841810226
17.956113815308 -79.619361877441 -225.021392822266 1.915586352348
-136.014739990234 -83.270698547363 -230.543746948242 1.541846990585
10.424802780151 -82.851951599121 -222.471740722656 2.178877115250
-152.128082275391 -79.865074157715 -233.489364624023 1.684268593788
-146.795059204102 -84.247238159180 -234.337966918945 2.066473007202
-1.667255043983 -79.918106079102 -221.559921264648 1.106528162956
18.633077621460 -80.091720581055 -234.554870605469 2.626260280609
-31.150573730469 -83.938400268555 -241.063903808594 4.413069248199
-143.488296508789 -79.412811279297 -239.535293579102 1.849976778030
-39.945625305176 -80.549468994141 -239.211486816406 2.574414014816
-44.792564392090 -82.491432189941 -242.815780639648 2.797969102859
-26.800455093384 -82.884620666504 -243.399307250977 3.736648559570
18.000055313110 -81.852531433105 -242.703414916992 2.623846769333
-46.242137908936 -83.008583068848 -243.507690429688 2.821729660034
17.474149703979 -83.675033569336 -242.799560546875 3.157291412354
11.046081542969 -79.158004760742 -236.102508544922 0.798232734203
11.267749786377 -84.154380798340 -243.810836791992 2.682776689529
-42.543006896973 -80.269142150879 -247.022811889648 2.248727083206
21.063257217407 -83.332962036133 -245.267684936523 2.198861598969
-141.174942016602 -82.937934875488 -249.477920532227 4.381782054901
23.066881179810 -81.914344787598 -246.557861328125 2.171953678131
3.933012962341 -84.969429016113 -245.697113037109 4.972002983093
11.132934570313 -81.547851562500 -249.886810302734 1.015247344971
-149.521011352539 -80.735412597656 -256.990112304688 2.605432987213
-147.745742797852 -82.770408630371 -261.044250488281 0.842389941216
-142.042861938477 -85.098388671875 -263.305511474609 2.874619483948
-153.176422119141 -80.337371826172 -262.301025390625 0.784536123276
17.935503005981 -82.617210388184 -267.180725097656 3.143105745316
-151.381057739258 -79.488220214844 -274.489837646484 1.831978082657
-4.029015064240 -82.797927856445 -276.596618652344 3.008342266083
-150.808731079102 -77.494537353516 -274.866668701172 1.931982636452
-143.635604858398 -82.124794006348 -275.309570312500 3.374271154404
-150.240982055664 -81.802917480469 -277.721282958984 2.395956039429
-152.556610107422 -81.095375061035 -286.330169677734 2.299731016159
-133.468872070313 -80.176147460938 -288.395202636719 2.295490741730
-148.383010864258 -85.237113952637 -290.379425048828 0.552671790123
-148.621582031250 -90.311996459961 -290.567749023438 4.670485973358
-146.744232177734 -83.815071105957 -297.804168701172 1.327939748764
-151.281448364258 -81.800003051758 -295.159332275391 1.507717967033
-145.849212646484 -78.390907287598 -295.494476318359 1.951715946198
-148.848251342773 -82.781265258789 -301.713073730469 0.775773048401
-145.707504272461 -82.749015808105 -301.756835937500 2.683344602585
-146.201385498047 -81.308204650879 -301.989959716797 1.772904753685
-56.013179779053 -75.402503967285 -56.430519104004 1.981012701988
-60.836456298828 -76.615173339844 -59.037166595459 1.770500302315
-48.796428680420 -75.365898132324 -62.136402130127 3.966594696045
-30.353164672852 -78.916870117188 -72.375801086426 0.940490245819
-55.394466400146 -76.763336181641 -89.059577941895 2.770633459091
-87.115371704102 -81.174804687500 -101.323654174805 0.860292494297
49.300521850586 -80.283660888672 -105.074424743652 1.934040665627
-80.849708557129 -79.795486450195 -104.047767639160 2.588407278061
38.470115661621 -77.747024536133 -110.050544738770 0.353612154722
38.021411895752 -78.114845275879 -119.547660827637 2.582424163818
36.104145050049 -76.907348632813 -121.606117248535 1.721090316772
37.394039154053 -76.275772094727 -134.185729980469 2.275130748749
31.136377334595 -77.130210876465 -136.085342407227 2.498661518097
34.006000518799 -78.447593688965 -132.333969116211 1.357320785522
29.092945098877 -77.933235168457 -147.816055297852 0.933987915516
-43.210617065430 -78.914222717285 -146.261383056641 2.169224977493
27.841854095459 -76.899391174316 -140.604034423828 1.630868434906
-63.722496032715 -77.680419921875 -153.179977416992 3.245680332184
-39.585952758789 -81.072662353516 -152.460372924805 3.452495574951
-59.819587707520 -80.008369445801 -165.534057617188 1.302621364594
-42.674743652344 -79.068122863770 -159.365661621094 1.918953418732
30.360313415527 -79.961334228516 -153.452743530273 2.075693845749
-35.488868713379 -81.718521118164 -163.986740112305 2.472439765930
-3.196595907211 -77.367439270020 -165.679351806641 1.886861562729
31.207279205322 -78.763275146484 -157.167648315430 1.644066214561
-11.904692649841 -80.646011352539 -166.050918579102 4.466542720795
-62.881523132324 -76.606109619141 -164.195083618164 0.874724268913
-36.974845886230 -79.583839416504 -167.201324462891 1.294577598572
-27.913751602173 -76.056579589844 -174.423004150391 1.289232373238
28.246189117432 -79.923103332520 -172.512893676758 2.116833925247
-55.374717712402 -79.600395202637 -178.371185302734 2.007966041565
-30.038373947144 -76.317802429199 -176.338775634766 2.942179679871
24.014110565186 -80.635307312012 -179.071502685547 1.564944744110
-51.175800323486 -78.636604309082 -184.599166870117 1.133461833000
-25.072708129883 -77.270393371582 -187.382705688477 2.114618778229
-54.020267486572 -78.055877685547 -180.785568237305 1.403949141502
-37.618270874023 -81.313850402832 -196.159255981445 1.008064270020
-29.568162918091 -82.351478576660 -188.320281982422 2.628944873810
-40.599933624268 -80.415023803711 -193.849380493164 1.048187136650
-24.255022048950 -77.974098205566 -191.745132446289 1.462974548340
-133.693298339844 -79.253479003906 -199.557159423828 1.587808132172
17.674734115601 -79.696067810059 -199.973236083984 1.794999003410
-136.475738525391 -74.897918701172 -198.639511108398 1.484480738640
-23.706150054932 -77.877265930176 -198.051300048828 1.597362041473
-17.474014282227 -76.017761230469 -196.745788574219 0.721332669258
-40.366649627686 -76.621292114258 -194.219085693359 2.102159976959
15.430448532104 -80.535461425781 -189.404815673828 3.084902524948
-15.973858833313 -79.461395263672 -198.723205566406 1.751698374748
-60.520084381104 -78.763916015625 -207.282180786133 1.426319956779
-36.420051574707 -76.950416564941 -202.645843505859 0.846008181572
-64.746841430664 -77.865936279297 -207.029998779297 1.358120679855
-69.787773132324 -77.962509155273 -208.452499389648 1.116820096970
20.850851058960 -79.958473205566 -210.605590820313 4.104420661926
-85.423049926758 -81.669631958008 -212.651092529297 3.227776050568
-28.912244796753 -80.550209045410 -217.297286987305 2.693403244019
-81.349617004395 -81.604682922363 -213.788635253906 2.688596487045
-145.524459838867 -82.358642578125 -219.193237304688 1.814790248871
-8.278550148010 -79.488677978516 -213.091110229492 2.774402141571
-10.572452545166 -78.224876403809 -219.311492919922 1.481146574020
14.740018844604 -79.354606628418 -210.396865844727 1.367677569389
14.580083847046 -82.155593872070 -219.986022949219 2.183577537537
-2.702508926392 -79.874366760254 -230.619125366211 0.997541785240
-132.226989746094 -79.756202697754 -226.739639282227 3.054238080978
-146.154617309570 -82.652854919434 -229.592758178711 0.944073081017
-146.352447509766 -75.695205688477 -232.702636718750 2.975436925888
11.271166801453 -80.857658386230 -230.899810791016 1.170400619507
2.483495950699 -80.437393188477 -234.187957763672 2.339522838593
-24.276111602783 -78.656600952148 -234.276855468750 4.078471183777
-148.240692138672 -80.410072326660 -237.481735229492 3.539908885956
11.051607131958 -78.486663818359 -244.010910034180 1.527253866196
-24.048490524292 -80.853263854980 -243.470489501953 2.645263433456
19.748777389526 -77.911468505859 -235.324874877930 2.177645206451
-54.648193359375 -80.994537353516 -245.137527465820 2.230253934860
-50.167274475098 -77.536369323730 -247.333541870117 1.540685772896
-143.944015502930 -82.156539916992 -245.801467895508 2.465448856354
-61.170246124268 -80.331352233887 -246.551651000977 2.444843053818
-3.497752904892 -75.604309082031 -249.778915405273 3.157198905945
-8.487678527832 -82.080230712891 -254.816970825195 2.174574375153
-147.249130249023 -83.000312805176 -257.939331054688 0.851240336895
-133.263732910156 -80.031921386719 -258.847656250000 1.726475596428
-134.556350708008 -79.165496826172 -262.268859863281 2.129780769348
19.696142196655 -78.108451843262 -260.627563476563 1.524749755859
-144.100814819336 -84.158843994141 -271.921691894531 2.541399955750
19.700349807739 -85.214111328125 -268.188598632813 5.910433292389
-148.163589477539 -78.657646179199 -269.737823486328 1.859382867813
6.113108158112 -87.943290710449 -275.624664306641 4.504280090332
-145.726654052734 -80.827507019043 -283.630706787109 1.161736130714
4.521450996399 -79.438766479492 -283.070617675781 0.947799623013
-153.039657592773 -84.187828063965 -283.756225585938 1.068236351013
-139.644775390625 -80.910484313965 -290.549682617188 1.456301927567
-135.369842529297 -81.438049316406 -284.334014892578 3.536527156830
-147.370071411133 -85.825027465820 -292.224609375000 1.403871417046
-16.217655181885 -82.136627197266 -288.967864990234 4.664886951447
-152.704360961914 -81.358421325684 -292.759246826172 1.580459475517
-148.391143798828 -82.109191894531 -294.544494628906 1.905330896378
-147.222579956055 -79.448440551758 -311.726379394531 1.809478402138
-57.689010620117 -73.257186889648 -58.588375091553 4.099239349365
-39.858737945557 -76.128898620605 -61.621150970459 1.993312239647
-72.794898986816 -75.999244689941 -60.989513397217 1.972272276878
-29.946186065674 -74.316848754883 -69.509536743164 4.146591663361
-28.912975311279 -78.469505310059 -73.021072387695 1.212923884392
-86.961807250977 -75.110702514648 -84.898208618164 3.764294862747
86.146644592285 -73.273742675781 -81.361137390137 3.746324062347
-38.735744476318 -74.018478393555 -81.026901245117 1.930218458176
80.663543701172 -78.063552856445 -80.635894775391 1.785504341125
75.108474731445 -74.756057739258 -85.698005676270 2.189149618149
85.621490478516 -72.152023315430 -90.194000244141 5.210641384125
80.868354797363 -74.000175476074 -89.479423522949 4.033586978912
92.569778442383 -74.831146240234 -88.893783569336 1.586600065231
-89.559936523438 -71.971481323242 -95.282821655273 4.740811824799
52.878562927246 -74.090896606445 -103.661933898926 2.101368188858
-92.637901306152 -73.823753356934 -117.042480468750 0.491727054119
37.123718261719 -76.775596618652 -110.528861999512 1.620808601379
49.828578948975 -76.119468688965 -111.235153198242 0.962884187698
39.896877288818 -77.045265197754 -115.392143249512 1.496786713600
30.583341598511 -77.349662780762 -129.403945922852 1.448691129684
26.237440109253 -79.003028869629 -139.584655761719 1.308158397675
27.064735412598 -75.679855346680 -143.259689331055 1.472329139709
32.475543975830 -76.403755187988 -147.260940551758 1.239690661430
-49.923183441162 -78.648567199707 -152.011932373047 1.221740484238
-45.216003417969 -78.635375976563 -151.253097534180 1.207051873207
-41.301635742188 -79.485191345215 -154.123321533203 1.396665811539
27.110744476318 -80.058959960938 -147.120346069336 2.210913658142
23.203626632690 -76.782302856445 -167.652496337891 1.988509416580
-36.347545623779 -77.843307495117 -161.690719604492 1.102121949196
-34.205837249756 -76.446250915527 -156.543014526367 2.258726358414
-47.358299255371 -75.136917114258 -154.404449462891 1.993397474289
1.605384945869 -78.034049987793 -165.432830810547 1.485071778297
25.685632705688 -77.209602355957 -156.036254882813 0.949750363827
30.566028594971 -72.723114013672 -158.358428955078 0.747514963150
27.054740905762 -77.823852539063 -166.705581665039 2.016484498978
-8.845262527466 -77.022407531738 -168.227325439453 1.557493925095
-0.631944000721 -77.462356567383 -168.862564086914 0.440714508295
-54.789104461670 -76.269126892090 -172.922897338867 1.224936842918
-60.875408172607 -77.742614746094 -167.190292358398 1.071589112282
-37.569988250732 -79.161132812500 -173.642761230469 1.448977589607
-38.034004211426 -76.327713012695 -165.951080322266 2.375890493393
23.336164474487 -77.914169311523 -171.717895507813 1.050993323326
-21.005502700806 -80.929374694824 -177.483474731445 1.023032903671
-35.603397369385 -82.307106018066 -180.136779785156 3.996779203415
-59.884838104248 -80.403831481934 -178.674575805664 2.055859088898
105.069519042969 -79.298187255859 -176.948562622070 4.730654239655
20.066659927368 -77.513038635254 -168.835617065430 1.257011651993
-24.879858016968 -76.798454284668 -178.094726562500 2.097985029221
-49.457492828369 -75.840728759766 -180.414642333984 1.033302903175
-15.607848167419 -75.686302185059 -177.540512084961 2.073983430862
108.412887573242 -78.856521606445 -176.299285888672 1.808170318604
-47.366683959961 -78.443748474121 -182.721969604492 2.397493362427
16.698892593384 -78.777793884277 -183.061798095703 1.723176956177
26.265180587769 -77.456550598145 -179.863525390625 0.809282004833
-53.829895019531 -77.917358398438 -180.765945434570 1.192562222481
-22.646051406860 -76.046539306641 -181.137710571289 1.718277335167
-56.221801757813 -79.963539123535 -174.662124633789 1.508002996445
-31.324617385864 -71.998687744141 -180.526748657227 2.231377363205
-26.520874023438 -78.262245178223 -183.938964843750 1.807441353798
22.487743377686 -80.563812255859 -185.162719726563 3.080504894257
-49.566543579102 -79.464927673340 -186.778152465820 1.133360505104
104.596633911133 -78.918983459473 -187.329818725586 2.757353305817
-50.539283752441 -74.737197875977 -190.164627075195 1.449919581413
14.073064804077 -80.516944885254 -199.359207153320 1.802527189255
17.218032836914 -78.146240234375 -200.057342529297 1.873497247696
-45.068626403809 -78.377693176270 -188.777832031250 1.579258680344
-18.592397689819 -76.798507690430 -189.108352661133 1.604235053062
103.990798950195 -79.525497436523 -194.247985839844 2.792876243591
104.877441406250 -80.415664672852 -194.007034301758 4.041357994080
-45.561866760254 -74.087722778320 -189.843658447266 2.601867198944
-148.607192993164 -80.198143005371 -194.615798950195 0.995606184006
-48.961242675781 -76.171684265137 -199.115447998047 3.511114597321
-145.276473999023 -77.776466369629 -200.206314086914 2.316730499268
-135.042678833008 -76.563873291016 -202.370208740234 1.625581145287
-41.786579132080 -75.483139038086 -197.431732177734 1.967951536179
12.982458114624 -79.066612243652 -207.026458740234 2.077180385590
-17.268321990967 -77.457595825195 -200.360900878906 2.535971403122
16.342775344849 -81.015251159668 -203.148406982422 2.943493366241
90.405265808105 -80.936607360840 -207.762741088867 4.382839679718
-38.411651611328 -76.694839477539 -198.385055541992 1.607630372047
-10.673683166504 -80.080223083496 -204.748489379883 3.058285474777
-9.711106300354 -79.471710205078 -209.028564453125 0.459535300732
-37.125427246094 -78.604446411133 -208.810546875000 0.590618669987
9.876043319702 -82.226676940918 -205.646255493164 4.051549911499
-74.481376647949 -76.680694580078 -210.449279785156 1.662464022636
14.630302429199 -80.616798400879 -212.375869750977 2.992441415787
-35.898593902588 -77.605598449707 -209.482833862305 1.447793245316
-142.348297119141 -77.574836730957 -207.846023559570 2.955400466919
-144.760543823242 -77.980758666992 -213.224472045898 1.712489962578
-84.868598937988 -78.389839172363 -213.000259399414 1.136737585068
-33.405384063721 -77.963699340820 -209.559844970703 1.086450934410
-23.626216888428 -78.772567749023 -213.532379150391 0.756908476353
-27.525768280029 -79.519363403320 -211.898849487305 1.594807028770
-90.114501953125 -79.478309631348 -218.847549438477 2.956306457520
-85.818313598633 -78.193511962891 -214.486572265625 1.637137651443
11.028198242188 -78.273429870605 -218.203582763672 1.729070305824
-147.145294189453 -76.999557495117 -217.770050048828 1.761907100677
-11.427565574646 -77.683113098145 -211.257888793945 0.658883035183
8.865312576294 -82.171157836914 -216.760101318359 2.509859085083
-141.443527221680 -79.143074035645 -217.563140869141 3.897013187408
-19.940017700195 -80.766128540039 -220.805053710938 2.326717376709
-2.752214908600 -78.638412475586 -221.973846435547 0.696084976196
-0.940935015678 -79.629814147949 -217.012115478516 2.941605329514
-151.430206298828 -77.805747985840 -224.093032836914 1.233186602592
-134.150772094727 -76.062049865723 -226.458206176758 2.072594165802
-4.382944107056 -78.301811218262 -225.108139038086 0.817910254002
-147.984115600586 -82.787536621094 -228.593185424805 1.403968453407
1.298064947128 -78.328720092773 -229.417449951172 1.768890619278
18.419076919556 -76.136207580566 -230.932189941406 1.424497365952
-1.691174030304 -76.557746887207 -235.082534790039 2.024975061417
2.603296041489 -79.190719604492 -232.609054565430 1.948917269707
9.419424057007 -83.802009582520 -232.516479492188 2.719543218613
-149.229034423828 -79.086280822754 -234.531082153320 1.771441340446
-17.068620681763 -78.775199890137 -237.027786254883 3.047044038773
-30.783605575562 -83.461936950684 -239.694580078125 4.314621925354
8.522532463074 -75.740112304688 -229.343399047852 2.152397394180
0.741266012192 -77.309020996094 -236.683395385742 1.065012693405
6.093429088593 -80.073204040527 -234.003250122070 1.838143467903
-52.101737976074 -78.815444946289 -240.090972900391 3.185140371323
-150.368377685547 -77.423568725586 -246.761474609375 1.193453192711
-150.754074096680 -78.946571350098 -249.596557617188 2.079681396484
12.229395866394 -80.992340087891 -246.337463378906 0.656805515289
22.182016372681 -80.656677246094 -246.120819091797 1.443518161774
-57.820590972900 -78.810813903809 -248.144256591797 1.314856767654
-145.926406860352 -77.248329162598 -254.494873046875 2.760649681091
-151.914352416992 -82.840095520020 -255.697280883789 1.325927615166
-147.579620361328 -81.610847473145 -257.541412353516 1.452707529068
-143.030410766602 -81.592674255371 -259.041259765625 2.442630052567
-135.256713867188 -79.971786499023 -257.554595947266 1.037210702896
-11.332118034363 -79.031921386719 -256.555541992188 1.472416996956
-144.094207763672 -78.826774597168 -266.602447509766 2.583300113678
-10.373659133911 -82.433685302734 -259.781616210938 2.564126014709
-149.116287231445 -80.060188293457 -276.582977294922 1.679808855057
-149.264953613281 -81.730941772461 -283.636718750000 3.078670501709
-151.238677978516 -82.725944519043 -282.457305908203 1.993391513824
-3.551613092422 -76.796257019043 -287.135650634766 1.166219830513
-142.977615356445 -77.777488708496 -286.441467285156 1.131734132767
-33.124584197998 -79.726211547852 -282.439117431641 5.354935169220
-30.379491806030 -77.076889038086 -288.794647216797 1.750419378281
-18.732294082642 -79.902778625488 -285.447387695313 3.969458341599
-7.961096763611 -80.460700988770 -289.142974853516 4.058569431305
17.612632751465 -80.627372741699 -291.130310058594 3.327348470688
-124.044517517090 -79.090156555176 -288.825927734375 2.036646842957
-54.730075836182 -81.765533447266 -286.801757812500 4.772749423981
-37.590484619141 -79.287780761719 -291.532562255859 2.871538639069
-32.624591827393 -80.997253417969 -289.521057128906 2.846168994904
-8.224675178528 -80.701507568359 -288.212158203125 3.887322664261
7.825201034546 -79.178031921387 -286.732482910156 2.543004512787
-139.359939575195 -82.198936462402 -292.840332031250 2.649605751038
9.335144996643 -82.009948730469 -291.681152343750 4.374623775482
-152.481170654297 -82.272003173828 -304.375274658203 4.157473087311
-147.310638427734 -79.857978820801 -301.652923583984 1.519064307213
-150.078689575195 -79.392135620117 -312.001770019531 1.226188302040
-145.214935302734 -80.176193237305 -312.134338378906 2.747932434082
-52.509437561035 -72.221061706543 -52.815258026123 1.865066647530
-54.192035675049 -73.209548950195 -56.294742584229 3.391846895218
-68.187660217285 -72.882888793945 -55.267520904541 1.980716466904
-44.849811553955 -73.881278991699 -57.538223266602 3.535806179047
-40.406654357910 -70.471580505371 -58.627960205078 5.525089740753
-24.173143386841 -70.866683959961 -62.100822448730 3.126255750656
-82.946937561035 -74.018608093262 -66.849136352539 3.046663522720
81.453529357910 -73.885261535645 -77.916465759277 2.640923023224
-90.932449340820 -74.669174194336 -82.574432373047 1.798394799232
84.324584960938 -77.019653320313 -79.367797851563 1.495740175247
85.860618591309 -75.429718017578 -81.030120849609 2.031209230423
93.450630187988 -74.192626953125 -82.114669799805 2.082621097565
-59.793087005615 -79.371665954590 -93.205818176270 1.435398817062
85.009246826172 -76.692878723145 -91.519973754883 1.411642670631
80.099891662598 -73.827171325684 -91.007102966309 3.435025453568
91.057243347168 -77.103927612305 -89.313201904297 1.880993843079
-61.912628173828 -77.815658569336 -96.975585937500 2.787254810333
54.948760986328 -74.132827758789 -95.460029602051 2.060403108597
45.858142852783 -75.928985595703 -103.844573974609 1.462391853333
39.532432556152 -75.946304321289 -105.385139465332 1.957324147224
37.839359283447 -75.027076721191 -107.891372680664 1.608354687691
-92.227081298828 -74.043914794922 -113.523056030273 1.663729190826
35.550289154053 -77.162910461426 -116.488418579102 1.534889221191
-83.821945190430 -75.300735473633 -112.124153137207 1.620633363724
42.344436645508 -76.770729064941 -123.772575378418 1.763361096382
33.214126586914 -76.069396972656 -120.613510131836 1.855553984642
32.925189971924 -77.400497436523 -121.699676513672 0.961927294731
42.371025085449 -74.705337524414 -119.994697570801 3.202242374420
40.050491333008 -78.616668701172 -125.328094482422 0.890265405178
-54.947742462158 -70.550277709961 -138.783432006836 3.251341104507
36.696193695068 -77.742965698242 -132.865097045898 1.158227205276
36.815986633301 -76.430641174316 -139.720397949219 2.111316204071
-49.077053070068 -71.569732666016 -139.157806396484 1.563123703003
-48.255451202393 -77.942802429199 -140.464782714844 2.468163490295
34.797275543213 -77.059928894043 -142.218841552734 1.871067881584
109.917839050293 -75.242546081543 -139.681625366211 1.029446482658
111.894386291504 -75.715217590332 -140.949935913086 2.039878606796
27.509510040283 -78.162216186523 -143.303756713867 0.729438662529
-42.193248748779 -75.651298522949 -146.863891601563 2.067280054092
112.890419006348 -79.114929199219 -155.609619140625 2.385533571243
-42.064914703369 -75.467369079590 -154.888656616211 2.195639610291
-64.480422973633 -78.107597351074 -159.950805664063 1.867306709290
111.409683227539 -77.540054321289 -160.290542602539 1.963481664658
25.113878250122 -78.066772460938 -164.600540161133 1.308218359947
0.146227002144 -77.435180664063 -163.771789550781 1.295835971832
113.096870422363 -78.321754455566 -152.259246826172 3.000239610672
-62.548427581787 -77.511230468750 -161.534469604492 1.354971528053
-35.409915924072 -79.105850219727 -160.361648559570 1.095595717430
112.031898498535 -76.034736633301 -162.389739990234 1.589111804962
27.658754348755 -73.790756225586 -157.320297241211 3.259999036789
-65.063362121582 -76.011680603027 -168.366577148438 0.968187451363
109.248619079590 -75.797576904297 -168.183837890625 1.912608265877
-64.024322509766 -78.488716125488 -168.670333862305 1.323622226715
-52.019229888916 -78.958694458008 -177.554168701172 1.843544721603
106.464332580566 -76.537765502930 -173.908676147461 1.863824963570
-61.717643737793 -76.014770507813 -168.753952026367 1.607476472855
112.865539550781 -76.767684936523 -171.437011718750 1.083859205246
-58.334983825684 -78.636856079102 -172.253784179688 1.825019240379
-13.066087722778 -76.527633666992 -175.505599975586 1.672704339027
-10.652967453003 -77.785980224609 -178.063217163086 1.274895429611
107.163803100586 -77.811569213867 -169.300552368164 3.438241481781
21.930816650391 -76.461631774902 -168.279159545898 1.343618750572
29.360187530518 -78.129211425781 -167.916366577148 3.471297979355
-54.539691925049 -78.735389709473 -176.944259643555 2.364367961884
19.124694824219 -76.870277404785 -183.186676025391 1.078159689903
-56.627819061279 -77.559226989746 -178.705139160156 1.413568854332
-50.864345550537 -74.802925109863 -189.461898803711 1.443974375725
14.301972389221 -77.407966613770 -180.005950927734 2.665555238724
-59.910816192627 -75.571220397949 -183.405578613281 3.078875064850
110.345375061035 -75.368690490723 -183.016769409180 1.349993944168
22.257244110107 -77.702278137207 -178.861282348633 1.877466559410
-31.063854217529 -77.660446166992 -187.384918212891 1.748489260674
-43.239826202393 -74.898628234863 -193.736557006836 2.265336036682
11.520867347717 -76.337638854980 -194.827407836914 0.689373493195
-22.404470443726 -77.977973937988 -188.071289062500 1.582858085632
-51.533596038818 -77.627059936523 -194.632034301758 3.233423948288
102.298774719238 -79.627639770508 -184.748397827148 3.997121095657
15.595397949219 -75.701736450195 -189.748764038086 1.376641035080
-134.732406616211 -77.288085937500 -195.989151000977 1.490489125252
-41.142631530762 -76.503540039063 -191.148925781250 1.611581325531
101.624015808105 -79.459243774414 -195.287094116211 2.194809198380
-147.412811279297 -78.765678405762 -201.716217041016 2.550662755966
18.784626007080 -77.106193542480 -192.093475341797 2.575762033463
-43.265125274658 -82.202896118164 -203.666870117188 3.425846099854
-32.227046966553 -78.517417907715 -203.438964843750 0.898520112038
-38.265605926514 -75.073806762695 -204.695693969727 1.381683588028
-42.138328552246 -77.428619384766 -193.258483886719 1.135873079300
101.856941223145 -80.023437500000 -198.694549560547 2.889380693436
-17.793121337891 -76.713676452637 -201.550918579102 2.052802801132
-150.386276245117 -74.524909973145 -202.957763671875 2.653342962265
14.596046447754 -76.516113281250 -206.785507202148 2.110902786255
-72.542411804199 -79.743057250977 -204.951599121094 3.091401576996
-146.010009765625 -76.287322998047 -210.759887695313 0.949677348137
97.940933227539 -76.665290832520 -207.284057617188 2.051188707352
-33.176052093506 -77.534889221191 -206.166976928711 1.507699608803
-25.781156539917 -76.986534118652 -215.246978759766 1.208994269371
7.515463829041 -79.122383117676 -209.996627807617 1.518173456192
-70.699172973633 -77.013725280762 -212.201828002930 0.875327408314
-27.075904846191 -77.077262878418 -208.489135742188 2.417112112045
-5.731488227844 -80.122932434082 -215.370635986328 1.309087514877
-77.249107360840 -80.543823242188 -215.857070922852 1.841818809509
-12.891899108887 -80.143501281738 -217.571334838867 2.003629446030
10.060191154480 -77.042198181152 -213.950637817383 1.598287463188
18.516912460327 -82.894973754883 -219.343338012695 4.673216342926
-145.675659179688 -77.341751098633 -217.402084350586 0.748640894890
-4.273815155029 -76.048187255859 -214.812026977539 1.310155987740
-91.608840942383 -74.296928405762 -221.659973144531 2.609674692154
-21.379705429077 -74.919876098633 -218.467178344727 1.322740554810
94.471343994141 -79.153503417969 -210.066726684570 2.395564556122
7.361919879913 -79.685478210449 -227.357620239258 1.119747519493
16.222698211670 -80.171157836914 -214.604049682617 2.564537763596
81.215141296387 -73.868637084961 -220.187835693359 2.260526895523
3.232703924179 -77.133331298828 -225.323486328125 0.929765760899
86.977554321289 -77.047332763672 -218.204116821289 1.208771467209
-15.250748634338 -77.473159790039 -221.865982055664 0.948171555996
14.676798820496 -79.811996459961 -221.089660644531 1.498673677444
-146.761138916016 -79.106742858887 -224.939590454102 2.151427268982
-17.412275314331 -83.423255920410 -225.013244628906 5.706336021423
2.552496910095 -81.710968017578 -225.703170776367 3.449589967728
-151.518814086914 -79.898918151855 -228.701950073242 1.908688068390
-133.580047607422 -77.503723144531 -227.603332519531 0.903850317001
11.043063163757 -77.318618774414 -226.020416259766 2.040781736374
-4.129518985748 -78.278221130371 -236.884963989258 3.405134677887
-136.122528076172 -77.914047241211 -231.910736083984 0.850469768047
-146.295257568359 -80.713668823242 -235.188156127930 2.012306213379
-144.369338989258 -76.007743835449 -238.106292724609 2.931969165802
-27.239976882935 -78.686073303223 -235.408584594727 3.115376234055
-144.032943725586 -76.724784851074 -244.102218627930 3.453235864639
20.877180099487 -77.846511840820 -239.427215576172 1.684778809547
7.369280815125 -79.309867858887 -242.701980590820 1.958186268806
-150.528930664063 -75.806961059570 -236.558944702148 1.874707460403
-149.806747436523 -78.027679443359 -242.900253295898 1.588855385780
-45.152656555176 -78.633094787598 -239.785003662109 2.691935300827
-31.268367767334 -81.393768310547 -243.794845581055 2.800956010818
7.351720809937 -81.104164123535 -247.407592773438 1.228115677834
-35.447189331055 -77.326438903809 -245.919113159180 1.879547715187
25.058668136597 -80.577049255371 -248.721038818359 3.534318685532
-2.007872104645 -80.334197998047 -245.399963378906 4.265491008759
-151.619430541992 -76.901420593262 -252.938827514648 1.725090265274
-4.736803054810 -75.195014953613 -247.958099365234 1.863472461700
-141.885498046875 -79.537620544434 -252.613433837891 2.422221183777
-65.699295043945 -79.147201538086 -249.764312744141 2.280712127686
-151.163711547852 -84.899932861328 -258.977294921875 0.266727238894
-124.683639526367 -80.193176269531 -261.375030517578 4.146105766296
-148.346191406250 -74.764244079590 -260.685363769531 0.754932463169
-11.092117309570 -77.483306884766 -265.693817138672 1.332884311676
-144.320449829102 -80.448738098145 -264.841369628906 1.529346227646
-148.273468017578 -78.859214782715 -264.566070556641 1.896992921829
-9.012658119202 -81.546409606934 -267.696868896484 1.029873371124
-146.707153320313 -79.670387268066 -269.185272216797 1.490041971207
-2.955156087875 -82.115348815918 -281.092712402344 4.412602424622
-43.450721740723 -80.891273498535 -282.357086181641 5.987590312958
-135.251968383789 -80.608009338379 -286.522338867188 1.357582211494
-131.565612792969 -76.691429138184 -283.066772460938 3.061455011368
-124.429489135742 -78.615005493164 -284.802276611328 3.161409616470
-52.985706329346 -78.442413330078 -281.642913818359 5.363696575165
-113.025009155273 -78.042686462402 -289.652923583984 3.885771989822
16.990255355835 -83.964401245117 -288.313354492188 6.424276828766
-60.208415985107 -79.142623901367 -286.831146240234 3.088065385818
-140.055358886719 -77.019645690918 -288.441467285156 2.207446575165
-60.847263336182 -76.964408874512 -287.512756347656 1.161758661270
-141.717864990234 -83.525703430176 -290.695953369141 2.275539875031
-117.258552551270 -78.229873657227 -286.747772216797 2.723660945892
-45.731147766113 -78.997306823730 -290.698791503906 2.971144676208
-36.873130798340 -80.124366760254 -290.007934570313 3.006341934204
-132.626678466797 -79.282394409180 -290.552429199219 2.383368253708
-9.923854827881 -77.041984558105 -291.310760498047 0.802761375904
0.833366990089 -82.331230163574 -290.840850830078 5.030125141144
9.036310195923 -80.043823242188 -290.335906982422 2.387910604477
15.383056640625 -79.976364135742 -292.424560546875 2.045278787613
