10.104186058044 -74.232376098633 -226.419189453125 2.332827568054
-5.257750034332 -75.191810607910 -237.014328002930 1.771979808807
-137.104492187500 -77.824165344238 -229.495361328125 1.879284739494
-147.279357910156 -80.742706298828 -232.660476684570 2.187522649765
-145.510910034180 -75.910713195801 -235.470260620117 1.217245340347
-28.320678710938 -76.142211914063 -235.107162475586 4.239307403564
-145.278717041016 -76.439689636230 -241.490615844727 1.058647632599
19.678956985474 -74.144630432129 -240.022369384766 0.784892797470
6.142339229584 -75.799827575684 -243.080017089844 0.670896470547
-151.641418457031 -75.889442443848 -233.799407958984 0.786957144737
-150.998916625977 -77.902366638184 -240.218185424805 0.606400966644
-46.313926696777 -76.343978881836 -239.134841918945 2.655445337296
-32.457180023193 -78.682731628418 -243.493087768555 1.614362239838
6.068950176239 -77.451759338379 -247.836929321289 2.568999767303
-36.761764526367 -74.644432067871 -245.411666870117 2.561609268188
23.731357574463 -76.503623962402 -249.473785400391 2.240402221680
-3.263005971909 -76.944557189941 -245.627243041992 1.704928994179
-153.033859252930 -76.514083862305 -250.181060791016 3.569781064987
-6.149406909943 -71.790824890137 -247.974578857422 2.141509294510
-143.242248535156 -78.948333740234 -250.123336791992 2.757241249084
-67.039436340332 -77.000755310059 -248.728439331055 0.489993333817
-152.530517578125 -84.315689086914 -256.468231201172 1.115776538849
-126.207855224609 -78.968955993652 -259.229858398438 2.916925668716
-149.960708618164 -74.074821472168 -257.920318603516 0.629371881485
-12.806376457214 -73.681243896484 -265.646392822266 2.050761461258
-145.899963378906 -79.543609619141 -262.324310302734 2.172556638718
-149.879196166992 -78.048706054688 -261.924774169922 3.277134656906
-10.682350158691 -77.636482238770 -267.811981201172 1.800352215767
-148.388290405273 -78.686630249023 -266.595794677734 2.292841911316
-4.881538867950 -77.671539306641 -281.332916259766 2.219470024109
-45.410987854004 -77.283645629883 -281.780822753906 5.627717018127
-137.262603759766 -78.855186462402 -284.170349121094 2.757132530212
-133.591293334961 -74.965698242188 -280.668457031250 3.930873155594
-126.452270507813 -76.681861877441 -282.598632812500 3.065618038177
-54.979175567627 -75.063575744629 -280.809173583984 5.599101066589
-115.160911560059 -75.718101501465 -287.647888183594 1.346454262733
14.950897216797 -78.872016906738 -288.988555908203 2.087851047516
-62.287239074707 -75.763053894043 -285.876556396484 1.462465167046
-142.177368164063 -75.315155029297 -285.886505126953 0.935721695423
-62.985050201416 -73.579605102539 -286.479064941406 2.315729379654
-143.747497558594 -81.784812927246 -288.305908203125 2.738770008087
-119.331054687500 -76.083831787109 -284.668945312500 3.247120380402
-47.895889282227 -75.189292907715 -290.015533447266 1.520509719849
-39.004207611084 -76.145317077637 -289.529724121094 1.613425850868
-134.746261596680 -77.352661132813 -288.207824707031 1.132946729660
-12.156714439392 -72.444656372070 -291.255676269531 1.117888212204
-1.283707022667 -77.512413024902 -291.154083251953 2.087824821472
6.877863883972 -75.064842224121 -290.737396240234 2.569602727890
13.179056167603 -74.797737121582 -292.944641113281 1.860795259476
-149.285400390625 -80.524078369141 -293.261932373047 2.748484611511
-147.204177856445 -76.177238464355 -296.513092041016 1.784407496452
-68.267662048340 -74.986763000488 -60.278442382813 2.470229387283
89.276832580566 -73.724342346191 -77.153976440430 3.032495021820
81.354225158691 -74.569297790527 -76.175712585449 1.760907888412
-24.715780258179 -78.782264709473 -74.274909973145 1.839271306992
87.286972045898 -72.658241271973 -74.977233886719 2.633799076080
-35.750675201416 -74.319068908691 -79.630989074707 2.022149085999
91.570426940918 -76.871749877930 -78.226776123047 1.894596219063
92.715492248535 -76.430908203125 -80.989044189453 1.399557471275
-66.826255798340 -72.158859252930 -91.786476135254 2.419258594513
79.546905517578 -73.744644165039 -91.472610473633 3.181646823883
82.138702392578 -72.123344421387 -97.505439758301 3.162833929062
93.954605102539 -73.018211364746 -91.521034240723 3.186647891998
56.077102661133 -74.416191101074 -94.060546875000 2.100884199142
-76.362449645996 -80.871841430664 -99.708053588867 2.185656309128
-78.825103759766 -72.206825256348 -98.606002807617 1.827328443527
51.260570526123 -74.194938659668 -107.969055175781 2.054279565811
-90.282646179199 -79.410781860352 -106.184448242188 1.783766150475
45.674049377441 -74.603126525879 -115.576362609863 0.367639601231
112.486755371094 -72.405525207520 -116.747879028320 1.996827363968
110.793434143066 -71.484527587891 -132.036560058594 0.898108005524
27.002712249756 -71.809898376465 -137.710311889648 1.248463869095
113.444122314453 -76.201683044434 -129.278091430664 1.414016485214
28.743757247925 -73.443595886230 -133.692840576172 1.758818149567
112.888084411621 -73.899627685547 -131.302139282227 0.744149446487
36.205173492432 -77.368766784668 -136.278305053711 0.425495922565
-50.849090576172 -78.518051147461 -146.977554321289 1.455199599266
36.139629364014 -73.933845520020 -140.554962158203 1.663307309151
112.418563842773 -71.827056884766 -137.941314697266 0.677745640278
-49.516082763672 -76.433273315430 -146.394714355469 0.804157316685
31.380788803101 -77.568191528320 -146.205673217773 1.747105956078
-54.318111419678 -75.784927368164 -134.903747558594 1.080079197884
-53.675292968750 -80.322921752930 -146.783447265625 3.383005380630
-50.889820098877 -73.763603210449 -149.192855834961 2.036364793777
-65.092361450195 -78.039154052734 -154.439041137695 2.127647638321
114.069572448730 -72.306663513184 -148.657806396484 1.797171354294
-50.049053192139 -75.305740356445 -151.895751953125 2.269717931747
20.976097106934 -76.393447875977 -156.995193481445 0.530612707138
110.507606506348 -76.191169738770 -157.508026123047 0.397965520620
-66.771011352539 -77.791389465332 -154.505279541016 1.271097540855
-47.579093933105 -75.086082458496 -155.324920654297 2.008143663406
8.201912879944 -73.566711425781 -155.912994384766 2.656974792480
-64.129249572754 -73.363113403320 -156.917739868164 0.762204468250
-59.133007049561 -76.695243835449 -160.775772094727 1.989752888680
-0.290325999260 -80.151565551758 -160.610717773438 3.426765680313
-42.838134765625 -77.933593750000 -168.776412963867 2.110223054886
29.146266937256 -72.266403198242 -163.946899414063 1.123627662659
-64.301155090332 -75.832977294922 -162.276275634766 1.749971270561
-52.310997009277 -72.821014404297 -167.135711669922 6.150698184967
22.433486938477 -74.226554870605 -161.522186279297 1.199639678001
-30.092342376709 -78.942420959473 -172.088073730469 2.408321142197
-31.341938018799 -72.495620727539 -166.479583740234 1.824205756187
15.913629531860 -73.188156127930 -174.996322631836 2.454098224640
-38.446052551270 -78.689361572266 -173.818023681641 1.515674591064
-8.775783538818 -74.520828247070 -173.183090209961 2.733364105225
-61.921016693115 -75.259666442871 -169.961288452148 2.191122055054
-5.053901195526 -74.927131652832 -170.093978881836 0.857650756836
-22.664388656616 -79.055015563965 -177.625259399414 2.652268171310
21.295150756836 -75.967132568359 -181.600845336914 1.930180788040
-36.887371063232 -74.414970397949 -173.571823120117 1.262788414955
18.178716659546 -74.967201232910 -177.897735595703 1.501617074013
-19.098169326782 -74.518119812012 -183.892501831055 2.058169841766
-32.373104095459 -75.893257141113 -179.880096435547 1.835011363029
-145.803787231445 -73.017303466797 -184.113876342773 2.321605443954
-23.396293640137 -75.427314758301 -185.096923828125 1.573989272118
-144.928665161133 -75.571327209473 -188.566009521484 0.963166773319
-150.960006713867 -76.918190002441 -185.491378784180 2.238878011703
-45.935974121094 -77.460472106934 -186.756256103516 1.805214524269
101.027458190918 -75.038810729980 -194.248779296875 0.765275835991
-144.966384887695 -76.204925537109 -189.962020874023 2.393335103989
-151.937515258789 -78.028373718262 -195.060653686523 1.667941212654
20.672801971436 -74.733306884766 -196.184814453125 0.356242299080
-134.866958618164 -74.067474365234 -193.706100463867 4.253237247467
21.475873947144 -70.552062988281 -197.138427734375 1.296483516693
-140.122650146484 -73.938598632813 -198.301467895508 1.249724984169
11.799860954285 -74.856689453125 -195.144104003906 1.298065423965
-136.341857910156 -75.237548828125 -199.581069946289 1.379087924957
7.824272155762 -73.517272949219 -205.410934448242 0.475307852030
-149.100570678711 -76.313041687012 -200.617721557617 1.890761375427
92.195838928223 -70.769363403320 -203.954284667969 1.859276771545
-14.044455528259 -73.865524291992 -204.204635620117 2.260428190231
-27.719541549683 -73.780357360840 -205.207931518555 3.362078189850
-9.693496704102 -78.048088073730 -203.160903930664 2.124746799469
-149.310882568359 -78.874794006348 -208.085083007813 2.166650772095
-38.607841491699 -77.021804809570 -205.663848876953 1.670941829681
-82.298912048340 -75.518150329590 -208.301773071289 2.932043313980
-28.691104888916 -75.855621337891 -210.700241088867 1.339543938637
18.315177917480 -71.099525451660 -208.335357666016 1.125749468803
-146.597183227539 -77.689392089844 -207.091079711914 2.559117317200
-88.305938720703 -75.292381286621 -211.980712890625 1.346268415451
-26.632955551147 -74.657653808594 -213.086456298828 1.821684837341
-25.493854522705 -71.623046875000 -218.959686279297 1.540687799454
-14.651147842407 -73.442573547363 -214.998458862305 0.473402112722
-25.794828414917 -74.280067443848 -213.539047241211 1.346329808235
-79.811370849609 -76.243659973145 -216.647750854492 1.226758241653
-84.601554870605 -77.027442932129 -219.280578613281 2.995781898499
-22.497074127197 -75.751609802246 -220.733795166016 0.800344288349
-4.427884101868 -73.462814331055 -220.856811523438 1.852665066719
-148.178024291992 -74.561309814453 -214.023040771484 2.770888328552
-2.242090940475 -73.111846923828 -217.121734619141 2.212938785553
83.219505310059 -72.008735656738 -224.724639892578 1.059122562408
-143.557037353516 -79.903884887695 -224.881378173828 1.935447931290
-7.406953811646 -74.146316528320 -222.738937377930 2.638938426971
-142.802505493164 -77.133285522461 -227.077774047852 1.466171503067
-148.814270019531 -83.918128967285 -223.800964355469 0.603810548782
-6.395206928253 -73.859130859375 -228.463363647461 2.042465209961
19.445554733276 -74.197921752930 -220.905670166016 2.295832157135
-140.909210205078 -76.406219482422 -226.232910156250 0.640461921692
-14.689194679260 -74.346313476563 -230.027114868164 1.705490469933
76.954971313477 -73.874580383301 -227.410308837891 2.222746610641
79.908042907715 -73.617927551270 -234.347091674805 2.696491003036
8.375066757202 -72.468727111816 -230.789932250977 1.693385958672
-25.705961227417 -73.880439758301 -240.170791625977 1.633963465691
-19.784734725952 -75.360794067383 -235.231277465820 2.932331800461
7.323573112488 -73.261634826660 -243.121734619141 1.388111591339
-47.339599609375 -72.214927673340 -241.123382568359 2.892290592194
-25.337665557861 -75.687667846680 -245.186233520508 2.318331003189
7.999247074127 -74.987426757813 -243.603439331055 1.385186553001
-64.362701416016 -75.362464904785 -246.962341308594 1.563053011894
-30.698328018188 -73.074363708496 -245.762023925781 3.860591411591
-43.616497039795 -73.651458740234 -242.839782714844 0.649453341961
-150.579681396484 -75.973663330078 -242.068679809570 1.583734631538
-48.823310852051 -76.221855163574 -247.156631469727 1.395376563072
-54.263431549072 -75.297851562500 -245.758590698242 2.452158212662
-65.678977966309 -79.161453247070 -249.142715454102 2.282496452332
-8.116362571716 -72.183700561523 -249.458908081055 1.697223424911
-83.322853088379 -73.498771667480 -251.037872314453 2.294767379761
-150.969451904297 -81.264907836914 -255.513183593750 1.504128456116
-139.592254638672 -82.002952575684 -255.936508178711 2.098534345627
-125.530670166016 -73.373352050781 -259.677947998047 1.856109023094
-154.203155517578 -74.130119323730 -260.412994384766 1.743056535721
19.851848602295 -73.515724182129 -261.208496093750 3.090582370758
-11.308411598206 -74.403007507324 -267.753723144531 2.427709817886
-151.868103027344 -77.477569580078 -265.378265380859 1.646852374077
-151.724792480469 -76.838912963867 -273.233093261719 1.189486503601
-142.963302612305 -79.442405700684 -279.785156250000 3.744496107101
-57.308776855469 -76.765861511230 -284.016845703125 3.369282007217
-37.306411743164 -73.755973815918 -286.199218750000 2.114547729492
-25.242378234863 -73.719131469727 -289.518280029297 2.022771120071
-13.799330711365 -74.389297485352 -285.997283935547 2.665259838104
-66.619987487793 -75.144386291504 -284.147399902344 2.232256889343
-78.150169372559 -74.003791809082 -284.896789550781 2.345913648605
-5.429378986359 -75.943801879883 -287.764099121094 0.392654269934
9.909119606018 -75.189598083496 -289.231872558594 2.016743898392
-134.781585693359 -77.726119995117 -287.602172851563 1.255630135536
-77.724197387695 -73.514724731445 -287.586151123047 2.054478406906
-147.995712280273 -76.508972167969 -288.584808349609 0.912969112396
-93.845008850098 -74.218811035156 -287.578430175781 1.844511985779
-72.862319946289 -73.319366455078 -288.220642089844 2.956298351288
-84.195068359375 -76.446830749512 -288.733093261719 2.817941427231
-62.793876647949 -76.727790832520 -288.625976562500 1.586419939995
-23.443054199219 -74.041328430176 -292.614990234375 3.642696857452
-3.035043001175 -72.832427978516 -290.619506835938 1.396093368530
-155.242324829102 -76.664474487305 -292.077697753906 1.945432901382
-148.002532958984 -77.662002563477 -295.947174072266 1.228871822357
-145.691375732422 -76.642143249512 -299.996520996094 1.176835417747
-154.895141601563 -76.029632568359 -305.490264892578 1.804791688919
-56.848735809326 -74.726890563965 -54.275196075439 1.151554703712
-45.035591125488 -72.853767395020 -51.944229125977 1.178704380989
-39.694572448730 -72.711715698242 -53.246707916260 0.878739655018
-74.337776184082 -78.702621459961 -57.063591003418 3.579260826111
-28.363546371460 -74.659049987793 -58.888751983643 1.380308389664
-27.586288452148 -74.769950866699 -77.520874023438 1.864084482193
76.950996398926 -76.807022094727 -83.783912658691 1.339434146881
80.222084045410 -74.913825988770 -84.710823059082 3.386242866516
79.419433593750 -72.686508178711 -85.697669982910 5.056091308594
97.993072509766 -75.361022949219 -90.544464111328 1.365357756615
74.579139709473 -74.246322631836 -91.031837463379 1.933284640312
57.138912200928 -74.437316894531 -93.459915161133 0.905358850956
47.091804504395 -74.509902954102 -100.486320495605 1.285833954811
-64.904457092285 -77.930480957031 -100.190513610840 2.895370721817
-71.467163085938 -71.944732666016 -98.205284118652 3.425824165344
45.868469238281 -72.410652160645 -102.742996215820 2.442135334015
-82.147041320801 -77.593528747559 -106.755554199219 1.216656088829
-91.409400939941 -72.543556213379 -109.885513305664 3.652031183243
50.904388427734 -71.921005249023 -103.497695922852 2.368297100067
107.136848449707 -71.224502563477 -112.170944213867 1.253761053085
34.472747802734 -75.202613830566 -120.290367126465 0.682578325272
46.540473937988 -76.292785644531 -117.024345397949 1.368493080139
44.545352935791 -75.223945617676 -123.768432617188 2.337378978729
30.230514526367 -74.338905334473 -125.711021423340 1.809857130051
110.496551513672 -71.872100830078 -117.849853515625 0.841092944145
36.435489654541 -75.653381347656 -125.806015014648 3.530891656876
31.811262130737 -72.891204833984 -129.546401977539 2.390425443649
-42.970127105713 -72.627265930176 -141.929504394531 2.531872987747
-69.720756530762 -76.091773986816 -145.967971801758 2.028809309006
-52.371749877930 -73.635902404785 -146.346450805664 2.032663345337
-69.944709777832 -74.765197753906 -141.807754516602 1.416323781013
-40.591651916504 -74.875045776367 -147.058822631836 1.235605835915
110.253883361816 -70.110435485840 -151.030441284180 0.903155207634
-70.808418273926 -75.259231567383 -151.978790283203 1.825914025307
23.792945861816 -77.617431640625 -150.714782714844 1.427039742470
33.721740722656 -71.000617980957 -151.261459350586 3.176972389221
115.462684631348 -70.702659606934 -155.854705810547 1.757220387459
8.848576545715 -71.572151184082 -156.630004882813 3.068150997162
33.528579711914 -72.081604003906 -155.804168701172 0.970908582211
-60.189247131348 -74.950675964355 -158.088973999023 2.065086841583
-45.324043273926 -77.171058654785 -168.631881713867 2.537883520126
19.645927429199 -73.064933776855 -163.491851806641 0.983227491379
-65.347366333008 -73.346641540527 -164.719863891602 1.654940605164
-65.021873474121 -72.527854919434 -160.156463623047 1.345180988312
110.587905883789 -74.441177368164 -165.696746826172 1.519873738289
-9.260192871094 -70.705558776855 -167.227142333984 5.316857814789
-57.532424926758 -77.316139221191 -175.247314453125 1.404045581818
-29.088218688965 -73.239051818848 -171.434478759766 1.538904309273
-54.546226501465 -74.169845581055 -171.483398437500 2.731839895248
30.331058502197 -77.311294555664 -168.604904174805 3.726310968399
110.803459167480 -68.183578491211 -169.837173461914 1.742212176323
107.370124816895 -75.021842956543 -182.234512329102 0.551436662674
112.539207458496 -74.268508911133 -191.035873413086 4.745614051819
108.380645751953 -72.985351562500 -175.486663818359 1.721951365471
-56.384647369385 -75.608428955078 -188.415344238281 4.289474964142
-51.719161987305 -73.374198913574 -180.173309326172 1.133433580399
24.723136901855 -74.335838317871 -183.089736938477 1.307958722115
-50.919841766357 -69.947677612305 -185.606994628906 4.390294075012
-21.287599563599 -72.918006896973 -185.040008544922 2.156552076340
-50.056194305420 -73.204467773438 -190.267074584961 1.754222750664
-145.880294799805 -77.589164733887 -193.223968505859 1.997393965721
101.003623962402 -70.535446166992 -192.680725097656 0.340321868658
-45.177593231201 -73.948112487793 -190.027313232422 2.373847246170
-14.854082107544 -75.865768432617 -194.913726806641 0.719667077065
-138.373336791992 -76.816619873047 -198.145034790039 2.441053152084
-44.403350830078 -75.536468505859 -194.152206420898 2.232810258865
105.752548217773 -77.137001037598 -195.366317749023 2.438262462616
107.865303039551 -72.908111572266 -188.460494995117 1.770583391190
-46.626335144043 -76.286453247070 -196.360900878906 0.895591259003
-23.076990127563 -74.230056762695 -194.331146240234 2.832612991333
-149.098373413086 -81.886405944824 -197.889404296875 1.060765147209
-26.034927368164 -73.623367309570 -199.225296020508 0.588230907917
-152.467361450195 -78.786453247070 -196.107528686523 0.879616916180
-152.291656494141 -77.696258544922 -200.161926269531 1.860621333122
-140.898742675781 -76.866714477539 -199.107192993164 2.444954633713
-37.326194763184 -74.067817687988 -196.014419555664 2.779055595398
102.423149108887 -73.774063110352 -200.296600341797 2.889987230301
-38.268863677979 -73.311660766602 -199.371795654297 2.701965808868
-143.792892456055 -79.051811218262 -200.542419433594 2.106104850769
-37.696517944336 -74.284461975098 -206.887130737305 1.953859329224
-18.259872436523 -76.009506225586 -209.103149414063 1.612889170647
94.996818542480 -73.061721801758 -204.045669555664 2.015671730042
94.453666687012 -72.720420837402 -208.433837890625 1.398951530457
-27.937805175781 -75.409988403320 -215.443222045898 1.333596587181
-86.871955871582 -77.450813293457 -210.491607666016 2.603458881378
-72.066513061523 -75.769531250000 -210.342147827148 2.385528802872
-17.771184921265 -74.937515258789 -217.432983398438 2.482229709625
-149.752365112305 -73.452926635742 -210.804977416992 1.198775887489
86.970825195313 -74.581268310547 -215.294464111328 2.498511791229
88.432617187500 -70.940994262695 -220.637374877930 1.358874678612
89.357971191406 -74.040908813477 -218.665878295898 1.382722973824
-100.843185424805 -70.604629516602 -221.357894897461 2.725025177002
-147.845794677734 -78.043884277344 -221.937774658203 2.484142303467
-18.406368255615 -78.059226989746 -218.725021362305 2.046188116074
80.352935791016 -71.532035827637 -223.882125854492 2.181808710098
-146.176330566406 -81.750778198242 -223.972564697266 1.311312437057
-30.331007003784 -74.146385192871 -220.466278076172 2.755821943283
-132.585815429688 -71.527938842773 -229.492156982422 2.912207603455
-11.958917617798 -75.694000244141 -226.306716918945 0.497216224670
19.316595077515 -73.166168212891 -219.796600341797 2.247555017471
16.854114532471 -73.246101379395 -233.267181396484 1.234728574753
-155.335739135742 -79.869537353516 -231.707641601563 2.055440902710
-123.511016845703 -73.011444091797 -229.964050292969 0.602933049202
-8.203348159790 -73.597175598145 -232.406890869141 1.399356842041
0.875317990780 -72.213462829590 -237.911926269531 1.917981624603
67.811897277832 -74.279899597168 -235.231933593750 2.800354957581
69.993034362793 -71.821922302246 -236.216705322266 1.636070489883
0.766501009464 -74.771911621094 -239.955169677734 1.473758935928
19.008741378784 -73.521324157715 -237.354995727539 2.002979040146
-25.691440582275 -72.849174499512 -239.990463256836 1.418838858604
-38.088752746582 -76.630401611328 -242.968063354492 2.264985799789
-46.222518920898 -75.956855773926 -237.181808471680 4.343711376190
-39.846817016602 -75.713790893555 -241.569137573242 2.177069902420
-19.042909622192 -76.417266845703 -242.823928833008 1.929755568504
-54.267429351807 -72.377662658691 -240.396514892578 3.514567375183
4.246647834778 -73.335777282715 -244.019226074219 1.838940262794
-70.366264343262 -70.692947387695 -244.913391113281 2.669732332230
16.513536453247 -71.638793945313 -245.098663330078 0.751367449760
-146.411331176758 -78.018287658691 -245.761215209961 1.437779903412
-70.124412536621 -78.279838562012 -249.272552490234 1.685010075569
12.280093193054 -75.720512390137 -247.438858032227 1.936073899269
-163.856994628906 -75.936676025391 -247.969985961914 2.237307548523
17.664478302002 -72.587654113770 -249.556167602539 1.682836294174
-82.112632751465 -76.371475219727 -250.834533691406 1.277227163315
-74.339035034180 -72.892944335938 -249.729003906250 2.178180217743
22.567146301270 -73.229156494141 -256.250732421875 1.522796750069
-88.484153747559 -73.515045166016 -254.458724975586 1.734071254730
-128.820068359375 -76.379920959473 -253.597869873047 4.035416603088
-136.364776611328 -76.531234741211 -255.715499877930 2.183220863342
-134.009826660156 -76.396263122559 -256.277435302734 1.921958446503
-144.653213500977 -73.938346862793 -257.383361816406 2.674986362457
-140.266632080078 -77.779365539551 -255.094589233398 2.394173860550
-136.165344238281 -74.155593872070 -260.565612792969 1.000593423843
-159.539886474609 -76.697433471680 -256.816101074219 3.779353618622
-127.490684509277 -72.487274169922 -262.057769775391 2.871186494827
-134.498992919922 -74.078979492188 -257.682739257813 0.878823280334
-163.551589965820 -78.066200256348 -263.221191406250 3.762280941010
-156.180496215820 -75.662040710449 -261.475708007813 2.150618314743
-150.319625854492 -75.230117797852 -263.892395019531 1.647259473801
-146.258026123047 -78.944267272949 -263.062500000000 1.822743058205
14.535020828247 -79.861106872559 -279.614959716797 1.668255686760
-164.638870239258 -77.982925415039 -266.206848144531 4.251393795013
-154.372680664063 -73.182136535645 -273.258911132813 2.166034221649
-6.205653190613 -75.152114868164 -274.574798583984 2.600580930710
-160.534088134766 -76.000549316406 -265.563049316406 2.265580654144
14.059012413025 -77.360679626465 -279.536346435547 1.613254547119
-152.754638671875 -75.003562927246 -280.545989990234 2.193924427032
-161.708023071289 -73.928306579590 -287.734985351563 1.804581999779
-153.200302124023 -73.533966064453 -280.043426513672 2.925990343094
-168.038757324219 -71.437850952148 -280.708557128906 2.487338304520
2.347754001617 -72.735458374023 -287.478149414063 2.608932495117
9.637127876282 -77.204559326172 -282.741760253906 1.212566971779
-97.459953308105 -70.403282165527 -285.232574462891 2.115383625031
-151.581115722656 -76.654739379883 -286.033111572266 2.639932870865
-148.434753417969 -76.072929382324 -282.977508544922 1.684553146362
-110.488998413086 -72.677711486816 -288.687164306641 1.743641257286
-150.490417480469 -74.646018981934 -288.639526367188 1.176691412926
-149.542633056641 -74.798057556152 -290.712463378906 0.935818910599
-68.296890258789 -73.980270385742 -289.060302734375 2.091651201248
-162.261352539063 -77.819580078125 -289.735504150391 2.850814580917
-122.297096252441 -76.438491821289 -287.504852294922 2.483213901520
-43.467651367188 -77.343643188477 -290.240631103516 1.611491560936
-154.382141113281 -73.946205139160 -289.505920410156 2.383759975433
-139.851196289063 -74.674468994141 -289.969177246094 2.466903924942
-17.748622894287 -75.517959594727 -291.247711181641 1.374680757523
-126.605384826660 -74.257652282715 -294.768096923828 0.996887385845
3.148109912872 -73.847480773926 -290.871795654297 1.916837573051
12.927147865295 -74.842475891113 -289.906646728516 2.096484184265
-133.598556518555 -75.034523010254 -292.745727539063 0.674361646175
-145.625732421875 -74.320960998535 -292.801513671875 2.084932804108
-156.348999023438 -73.403739929199 -307.550933837891 0.786741554737
-70.223991394043 -73.412635803223 -48.777420043945 2.709238052368
-22.805931091309 -72.851661682129 -60.031093597412 1.468202710152
-20.644559860229 -74.598983764648 -64.384803771973 1.234258770943
76.145072937012 -71.591369628906 -73.494644165039 2.202932834625
92.422180175781 -72.095428466797 -75.574424743652 2.709836244583
-36.182437896729 -70.528129577637 -77.161750793457 0.715237140656
79.487823486328 -73.938034057617 -75.749961853027 1.911553502083
89.150535583496 -75.601242065430 -80.238182067871 1.350390076637
73.065269470215 -72.330047607422 -80.570266723633 2.265169858932
71.386062622070 -71.158691406250 -87.496200561523 2.557849168777
-45.599349975586 -77.352081298828 -84.816940307617 1.224500536919
-92.126937866211 -74.118064880371 -87.672332763672 1.470963478088
59.422428131104 -73.889694213867 -92.064224243164 1.896103024483
49.905361175537 -74.099441528320 -96.542991638184 0.533245444298
97.282279968262 -69.622817993164 -96.976036071777 2.573022365570
-93.149078369141 -72.496734619141 -101.488494873047 2.968974351883
85.903816223145 -72.174606323242 -96.382530212402 3.205646038055
81.339607238770 -72.200149536133 -98.999465942383 2.284080743790
92.537055969238 -73.073287963867 -96.282577514648 2.311075210571
83.498611450195 -69.157463073730 -102.194976806641 1.584828019142
92.399322509766 -72.118667602539 -99.333900451660 1.605372428894
-81.241180419922 -78.905891418457 -100.609436035156 3.704412460327
42.105922698975 -76.167129516602 -109.690315246582 0.974459350109
105.709518432617 -72.548789978027 -112.092720031738 2.072329998016
112.838447570801 -69.268272399902 -110.134399414063 1.004891991615
47.158790588379 -72.408889770508 -116.489074707031 2.148910284042
110.148933410645 -69.416458129883 -124.356056213379 1.535364985466
115.976585388184 -73.161117553711 -135.118652343750 1.216825485229
-51.259563446045 -73.128990173340 -130.630355834961 2.123753070831
30.187461853027 -73.713752746582 -132.601440429688 0.950488328934
37.109863281250 -76.020683288574 -129.285476684570 2.547587156296
24.083311080933 -70.707221984863 -142.482681274414 2.594147920609
114.886756896973 -71.342643737793 -139.129714965820 2.305805444717
112.167602539063 -72.270011901855 -134.048202514648 0.875742018223
-73.265159606934 -75.723014831543 -147.412841796875 2.193420171738
-46.146232604980 -75.605102539063 -146.761505126953 1.844309687614
-71.705421447754 -72.501678466797 -147.678024291992 0.624687254429
21.634880065918 -74.931556701660 -151.530319213867 0.894595026970
112.883323669434 -70.671638488770 -153.248764038086 1.791771769524
-53.466724395752 -74.523918151855 -149.952697753906 1.040401816368
-69.398048400879 -73.385742187500 -148.042205810547 2.011837244034
-39.085193634033 -77.754058837891 -154.456146240234 1.183888316154
36.513465881348 -72.004531860352 -150.303024291992 2.851102352142
111.198318481445 -72.494361877441 -155.141510009766 1.414794564247
116.928413391113 -72.591171264648 -157.482543945313 0.708766043186
-67.973823547363 -73.554100036621 -150.881820678711 0.936254262924
-70.745635986328 -75.118156433105 -162.185806274414 2.164275169373
21.199455261230 -75.976638793945 -162.216445922852 1.258254289627
-57.392890930176 -76.107238769531 -162.569000244141 2.683856248856
-30.710107803345 -79.510581970215 -161.677352905273 4.530296802521
7.760737895966 -72.106567382813 -162.810104370117 1.425839662552
112.244323730469 -73.394630432129 -164.847656250000 0.896979212761
6.244900226593 -73.072959899902 -164.426269531250 2.084949970245
-35.176662445068 -74.740036010742 -165.394454956055 1.999831914902
0.214561000466 -71.546134948730 -164.625320434570 1.524318695068
106.710311889648 -70.690475463867 -173.264007568359 0.646956264973
-40.930652618408 -69.281776428223 -171.506744384766 1.417091727257
29.649185180664 -70.185897827148 -168.975082397461 0.949779987335
112.517097473145 -70.191619873047 -171.465408325195 1.621274113655
-52.942546844482 -73.156425476074 -177.534103393555 2.663867235184
-27.741415023804 -75.450202941895 -170.140396118164 1.052126169205
102.162956237793 -73.603546142578 -173.960449218750 3.324797153473
32.289863586426 -74.739074707031 -171.880722045898 2.956482648849
115.227416992188 -69.993598937988 -175.622711181641 3.565671205521
-37.229923248291 -75.550506591797 -172.049743652344 1.623021721840
107.184127807617 -70.320571899414 -180.815856933594 1.119072675705
-57.688785552979 -73.777709960938 -176.882003784180 0.528922080994
-23.810108184814 -74.110626220703 -176.615402221680 1.263538599014
-142.944656372070 -74.768226623535 -180.014099121094 2.729620695114
-53.971012115479 -73.890045166016 -183.321899414063 0.691897094250
-146.122863769531 -74.160331726074 -182.863433837891 1.557082891464
-31.873542785645 -73.109230041504 -186.014175415039 1.974186062813
22.582338333130 -72.378265380859 -186.264587402344 2.285277843475
110.547813415527 -68.633148193359 -182.165359497070 2.770936012268
-29.641340255737 -74.133285522461 -188.594894409180 0.395169615746
13.532981872559 -74.496269226074 -191.219619750977 2.093977689743
18.230482101440 -73.004920959473 -198.905258178711 2.726036787033
-147.648880004883 -73.286705017090 -191.166442871094 1.552166938782
103.069717407227 -74.059593200684 -196.973937988281 1.539469718933
-17.980182647705 -70.651039123535 -193.242340087891 1.406847953796
105.060066223145 -68.517127990723 -191.146499633789 2.334464550018
16.004720687866 -72.002113342285 -188.341979980469 1.514734148979
-130.522583007813 -73.935401916504 -200.032119750977 1.196491718292
-142.474197387695 -74.154464721680 -196.667999267578 1.827375531197
95.881515502930 -67.362281799316 -199.883575439453 3.869517803192
-11.227403640747 -73.276329040527 -199.827133178711 3.000296592712
-14.854471206665 -75.528282165527 -197.312316894531 1.500752925873
11.865922927856 -73.528450012207 -204.217056274414 1.825489282608
-147.446136474609 -73.603065490723 -204.225677490234 2.893054008484
-146.314193725586 -76.288429260254 -204.587799072266 1.678425788879
100.474983215332 -75.163330078125 -204.690689086914 1.124576926231
-75.466697692871 -75.134117126465 -208.644973754883 1.344724774361
-36.298702239990 -71.887748718262 -201.208175659180 3.003803730011
19.874437332153 -72.218353271484 -209.931182861328 1.461373448372
-23.942169189453 -75.637001037598 -209.529174804688 2.826677799225
-78.257637023926 -72.499473571777 -211.447219848633 0.780986070633
92.901123046875 -71.037734985352 -208.365524291992 1.741376280785
-81.680122375488 -71.315277099609 -212.858276367188 2.151623964310
-146.606597900391 -75.930801391602 -216.766860961914 1.307060718536
-78.369316101074 -75.629714965820 -214.467056274414 1.663150310516
-15.241897583008 -73.237625122070 -211.818420410156 1.480709314346
-21.171493530273 -74.141326904297 -216.522613525391 1.234842777252
22.068861007690 -70.938064575195 -210.607788085938 3.465749025345
-5.227126121521 -72.320343017578 -212.325546264648 2.091457128525
-83.090972900391 -73.372489929199 -217.785247802734 2.078192234039
91.862754821777 -71.742843627930 -214.163619995117 3.074155569077
-94.327201843262 -75.597618103027 -213.477340698242 2.203162193298
-146.615142822266 -80.065101623535 -222.490844726563 2.445226669312
-14.256511688232 -74.106727600098 -218.546401977539 1.010166049004
16.777763366699 -72.549697875977 -215.348205566406 1.680142283440
-102.730674743652 -72.889656066895 -217.889160156250 2.075150966644
9.232279777527 -74.471076965332 -219.257110595703 2.287871599197
-25.077962875366 -75.681541442871 -215.218627929688 0.466175436974
83.465286254883 -73.239601135254 -224.051025390625 1.186332941055
-145.762420654297 -74.640907287598 -218.794387817383 1.430173158646
7.060169219971 -70.350273132324 -225.207778930664 2.103747844696
-6.764472007751 -74.087577819824 -220.874343872070 3.835062980652
17.381254196167 -69.553474426270 -220.176162719727 1.905486464500
84.948448181152 -69.946456909180 -224.855148315430 2.535144329071
-12.505322456360 -73.629394531250 -225.792205810547 0.979377329350
-129.296066284180 -77.025695800781 -225.689590454102 3.925681829453
-8.509882926941 -76.332611083984 -224.281112670898 1.294680237770
17.299692153931 -72.565353393555 -233.591567993164 1.058179497719
-125.292144775391 -74.067749023438 -222.698486328125 3.356752634048
-149.326568603516 -75.334350585938 -227.092712402344 1.950588941574
-139.805160522461 -74.940505981445 -227.048706054688 2.266794681549
-132.178482055664 -74.077804565430 -227.869613647461 0.664067089558
-11.951350212097 -72.882888793945 -226.210586547852 1.601198673248
72.059822082520 -71.481430053711 -229.587844848633 0.846080183983
-140.982620239258 -75.176277160645 -232.738586425781 1.100470185280
73.347831726074 -71.058898925781 -227.730148315430 1.869303941727
-16.312765121460 -75.245819091797 -225.453384399414 0.857096076012
-141.630020141602 -79.792991638184 -229.873626708984 1.866792321205
77.979843139648 -74.251342773438 -231.355361938477 1.228200793266
12.805724143982 -75.876655578613 -235.647308349609 3.753031015396
-142.430343627930 -74.453994750977 -233.968673706055 1.171307802200
-149.424636840820 -75.005310058594 -234.492340087891 1.850538611412
13.978445053101 -69.117973327637 -233.426666259766 2.129659891129
-2.206398010254 -73.414489746094 -236.914535522461 0.587589025497
-23.741144180298 -71.626502990723 -240.834350585938 1.652573823929
-3.569062948227 -71.802955627441 -239.288726806641 0.879204511642
-161.368484497070 -75.895706176758 -235.017593383789 3.190227985382
10.645921707153 -73.015213012695 -244.629974365234 1.414965987206
-163.527862548828 -73.888046264648 -233.006195068359 1.041718840599
-15.702527999878 -72.787261962891 -233.404418945313 2.333727836609
67.701766967773 -72.933723449707 -238.997192382813 0.996820747852
-9.287010192871 -72.153907775879 -240.125946044922 0.984953105450
-25.109668731689 -72.865394592285 -238.428588867188 1.695280671120
-25.949243545532 -71.187995910645 -240.632766723633 2.464774370193
-15.096177101135 -70.796936035156 -243.568344116211 1.985698580742
-144.050170898438 -73.593284606934 -233.620849609375 1.781521797180
9.418276786804 -74.636573791504 -243.126007080078 0.437280535698
65.220832824707 -73.884513854980 -240.820510864258 1.362990379333
12.487530708313 -73.174629211426 -243.587387084961 1.908583402634
-161.734069824219 -73.877807617188 -237.578186035156 0.883916378021
-47.678165435791 -75.099380493164 -243.112930297852 1.396793961525
5.118924140930 -77.170089721680 -246.963623046875 2.114306449890
17.448209762573 -69.122749328613 -248.048553466797 1.641596794128
-56.848667144775 -72.930030822754 -248.030288696289 1.164430618286
-3.393351078033 -71.963348388672 -242.811294555664 2.293260097504
21.264410018921 -74.481742858887 -249.120834350586 2.210035800934
-165.243041992188 -74.644317626953 -244.624542236328 3.454327106476
-71.334571838379 -76.019897460938 -249.789260864258 1.699854731560
-51.758293151855 -71.903717041016 -246.216964721680 2.244399547577
-79.169662475586 -72.948432922363 -246.929275512695 2.152282714844
-160.817489624023 -73.826255798340 -242.540756225586 3.170421123505
-151.467803955078 -75.041168212891 -249.615722656250 2.785404920578
-59.176090240479 -71.382926940918 -250.853225708008 2.567744016647
-68.576721191406 -77.335296630859 -249.786743164063 0.878683567047
-153.937545776367 -73.477882385254 -250.976181030273 2.840292453766
-152.150390625000 -72.932022094727 -248.516693115234 1.119709134102
-77.560073852539 -73.601020812988 -250.330902099609 1.895483493805
-92.560638427734 -71.055717468262 -250.769790649414 2.191719770432
-163.953048706055 -75.575454711914 -248.872161865234 1.896171689034
-154.935638427734 -74.109573364258 -252.054489135742 2.417572975159
-134.399322509766 -72.009887695313 -254.674041748047 1.426225423813
-81.831283569336 -75.882118225098 -251.665420532227 0.828035771847
-163.273117065430 -72.286468505859 -251.298965454102 2.929507255554
-145.117507934570 -77.459945678711 -254.573089599609 2.125879287720
-90.022789001465 -73.626129150391 -253.234268188477 1.632611155510
-98.504768371582 -69.125625610352 -257.576385498047 1.475352883339
-148.482315063477 -73.510910034180 -256.235076904297 1.082974672318
-96.181282043457 -73.261116027832 -258.720214843750 1.773619651794
-150.760787963867 -73.729507446289 -253.075164794922 0.892003834248
-99.967475891113 -74.848823547363 -254.516036987305 1.880928039551
-166.087173461914 -77.320686340332 -255.245086669922 3.875914335251
-161.479568481445 -77.918983459473 -256.222869873047 4.735415458679
-123.108146667480 -72.826675415039 -254.905014038086 0.823340892792
-149.116149902344 -77.000999450684 -256.713195800781 0.617112994194
-110.937477111816 -72.922233581543 -258.335876464844 1.694077968597
-14.482501983643 -76.248794555664 -260.169006347656 1.432269692421
-142.792800903320 -73.345527648926 -259.573120117188 1.978347182274
-125.232322692871 -73.602088928223 -259.304931640625 1.727858543396
-155.867431640625 -73.990058898926 -261.667816162109 0.741105377674
21.555421829224 -73.163749694824 -267.583679199219 1.972593307495
-150.337829589844 -73.317634582520 -278.762268066406 3.324326038361
-167.974884033203 -73.305320739746 -276.443939208984 2.104652643204
-5.975982189178 -76.861152648926 -280.431732177734 1.282367110252
-148.309646606445 -76.308738708496 -278.781707763672 2.313320875168
-7.108531951904 -71.631256103516 -278.836761474609 3.533926963806
14.180280685425 -72.082237243652 -285.173156738281 1.868126988411
-134.398422241211 -73.112640380859 -285.100555419922 1.198779702187
-70.519165039063 -75.581893920898 -282.190887451172 4.345539569855
-37.412120819092 -72.414360046387 -282.746978759766 4.304892063141
-114.935234069824 -72.063705444336 -286.233215332031 1.443327188492
-91.436691284180 -73.663948059082 -291.054199218750 1.013365864754
-90.938812255859 -72.857887268066 -292.131927490234 0.432259947062
-48.347202301025 -75.987335205078 -288.263000488281 1.768401384354
-115.517189025879 -71.397460937500 -290.284729003906 2.539632797241
-109.212440490723 -74.284469604492 -289.866363525391 0.556189537048
-32.107162475586 -74.574638366699 -290.387481689453 1.346394419670
-114.912712097168 -74.359069824219 -288.459045410156 0.506316900253
-125.585807800293 -75.224761962891 -288.827880859375 1.318851351738
-144.310867309570 -75.946472167969 -291.700927734375 2.095556735992
8.546726226807 -70.346641540527 -289.300476074219 1.907144308090
14.579001426697 -73.861038208008 -293.070922851563 1.056416869164
-156.658660888672 -74.594131469727 -292.255859375000 1.243737220764
-154.980285644531 -74.826507568359 -300.533966064453 1.433390736580
-145.660766601563 -76.076293945313 -309.049774169922 2.299415349960
-150.699264526367 -71.514587402344 -307.692779541016 4.501484394073
-152.373825073242 -77.753524780273 -310.950622558594 0.572674810886
29.852155685425 -71.977355957031 -15.035643577576 1.149855256081
27.481321334839 -70.914382934570 -18.996049880981 1.812099814415
25.515504837036 -71.983940124512 -20.592916488647 1.399705410004
30.246873855591 -72.343719482422 -39.294795989990 1.304105043411
-52.361507415771 -68.507690429688 -51.255863189697 3.543682813644
-62.954261779785 -71.618072509766 -50.015453338623 0.322235822678
-37.082965850830 -72.121253967285 -51.474983215332 2.397161006927
-79.353683471680 -74.534088134766 -58.016281127930 1.747110009193
83.916633605957 -75.180267333984 -76.308135986328 1.127875208855
-17.085849761963 -71.917045593262 -72.087028503418 1.746793270111
91.830261230469 -73.729248046875 -69.239173889160 2.084317922592
98.521446228027 -70.373168945313 -79.483688354492 2.936357736588
-90.978958129883 -72.880462646484 -79.076141357422 1.861208319664
74.920158386230 -69.057373046875 -77.603263854980 5.270214557648
-39.636180877686 -76.338706970215 -83.384765625000 2.752567052841
102.855529785156 -70.119750976563 -84.103935241699 1.675842761993
-52.588325500488 -75.162933349609 -88.645668029785 1.079999923706
53.539421081543 -71.202766418457 -88.708602905273 1.718027591705
74.361976623535 -72.555847167969 -88.780364990234 3.792521476746
59.256050109863 -74.269866943359 -95.311241149902 2.336681842804
51.798229217529 -71.555625915527 -100.962127685547 3.249059915543
71.897682189941 -73.573204040527 -94.588790893555 1.870403051376
48.587886810303 -68.222618103027 -98.442588806152 1.337873339653
104.395195007324 -71.391212463379 -101.386215209961 1.972355127335
111.926498413086 -72.204383850098 -106.214454650879 1.668534755707
81.321578979492 -68.089088439941 -101.285820007324 3.316111564636
90.948532104492 -71.518180847168 -102.979347229004 1.914388179779
103.501686096191 -69.827865600586 -99.718055725098 2.037308216095
108.889381408691 -65.551246643066 -101.651756286621 2.450017690659
41.453590393066 -76.441452026367 -106.024131774902 1.499614000320
110.965286254883 -70.618911743164 -119.538124084473 0.616886436939
115.489334106445 -72.404968261719 -120.172798156738 1.618126988411
34.742343902588 -71.562133789063 -119.392646789551 2.177077054977
43.696380615234 -72.836013793945 -118.916122436523 2.101403713226
112.374656677246 -69.388359069824 -128.536087036133 1.517608523369
40.554195404053 -74.389961242676 -125.925796508789 1.203610539436
115.635261535645 -68.554389953613 -129.967361450195 1.334016323090
111.814781188965 -70.046371459961 -125.152603149414 0.818097054958
26.677381515503 -70.010253906250 -136.969223022461 2.259733438492
-47.053184509277 -75.184516906738 -132.446121215820 3.841191291809
-53.255481719971 -73.352813720703 -137.374450683594 0.903247117996
114.741043090820 -69.334922790527 -133.597610473633 1.187017798424
-71.830383300781 -75.373153686523 -141.387664794922 1.480842232704
-73.590171813965 -72.938926696777 -138.010345458984 1.403980970383
-56.552543640137 -75.056892395020 -140.407867431641 1.099329471588
35.312549591064 -71.860298156738 -139.433731079102 2.226327896118
109.581741333008 -69.518440246582 -146.325515747070 3.965495109558
-64.328865051270 -73.784591674805 -144.172760009766 3.926060676575
-43.782112121582 -69.959693908691 -143.352142333984 2.564091920853
39.062679290771 -75.243003845215 -148.953506469727 4.711816787720
-64.134513854980 -75.107437133789 -148.797210693359 2.673140048981
114.838348388672 -66.867294311523 -144.158905029297 2.669219732285
112.355178833008 -71.414703369141 -156.753555297852 1.481022357941
114.606559753418 -72.085830688477 -149.468887329102 1.692256212234
-36.833564758301 -72.937965393066 -154.066467285156 1.508139848709
-64.434265136719 -73.478996276855 -157.865402221680 1.735575675964
-69.538795471191 -68.792953491211 -153.061370849609 2.063019037247
31.738939285278 -70.148208618164 -150.594497680664 1.757547616959
0.418251991272 -74.365051269531 -162.447067260742 2.037467002869
109.167045593262 -70.724525451660 -157.888671875000 1.465145826340
111.121719360352 -67.775527954102 -155.061370849609 1.774061322212
114.149681091309 -69.780746459961 -157.492462158203 1.289766907692
-63.472602844238 -75.043922424316 -159.976272583008 0.809884488583
-45.212154388428 -74.490753173828 -160.374923706055 1.919369101524
3.981712102890 -73.337669372559 -166.933486938477 2.812312126160
-24.352851867676 -70.768951416016 -172.911849975586 3.471714258194
107.508445739746 -70.941215515137 -163.923553466797 1.524766445160
-35.320495605469 -71.300338745117 -159.653274536133 2.337163925171
111.692176818848 -71.796234130859 -168.940902709961 1.288660407066
-40.321311950684 -71.742240905762 -170.874191284180 1.641836881638
111.615066528320 -71.934265136719 -167.352676391602 1.195446252823
-148.685791015625 -72.208869934082 -179.795425415039 2.164572238922
-29.098005294800 -71.028076171875 -174.041534423828 1.396344780922
-19.966316223145 -69.897346496582 -179.668930053711 3.569179058075
29.486732482910 -74.968589782715 -175.584045410156 2.166907548904
16.781297683716 -71.716438293457 -179.533004760742 1.966527342796
25.352203369141 -72.728584289551 -181.808914184570 1.133240580559
107.481758117676 -72.726089477539 -185.208679199219 2.133409500122
-150.917510986328 -71.795227050781 -185.280822753906 2.278454780579
-20.139038085938 -73.294982910156 -187.066619873047 1.600516915321
105.553268432617 -69.864089965820 -178.375473022461 1.783959984779
104.259613037109 -69.784599304199 -191.007537841797 2.094343185425
106.612350463867 -70.892898559570 -180.286178588867 1.239266157150
97.407943725586 -74.024131774902 -195.146484375000 2.652339458466
-153.265228271484 -81.060684204102 -193.980224609375 2.930451869965
100.043136596680 -74.302093505859 -203.374862670898 1.324884414673
-29.837890625000 -71.681091308594 -194.194229125977 1.957088112831
99.285156250000 -69.033378601074 -196.617416381836 1.762697339058
-125.651214599609 -74.133506774902 -192.883163452148 3.831804275513
-29.448490142822 -75.099304199219 -190.832092285156 2.062717914581
-140.610839843750 -74.002647399902 -198.829818725586 1.434571027756
93.079620361328 -70.420288085938 -199.339355468750 3.571967840195
9.891777992249 -72.075325012207 -199.068664550781 1.436431527138
24.199804306030 -73.480850219727 -194.566345214844 2.228092432022
-147.719406127930 -74.266815185547 -197.801376342773 1.321420550346
-138.435958862305 -72.097579956055 -202.575225830078 2.253238201141
-12.827354431152 -73.007781982422 -204.216232299805 1.729324698448
-124.331214904785 -77.878562927246 -200.823669433594 4.125394821167
-144.692291259766 -77.063606262207 -200.485839843750 1.956683635712
8.135751724243 -70.663375854492 -199.200241088867 2.065231561661
-23.120031356812 -72.716400146484 -202.636856079102 1.207501173019
19.764562606812 -71.601783752441 -205.198394775391 1.944076061249
7.817883014679 -72.142845153809 -209.058944702148 1.067503452301
88.345321655273 -71.375625610352 -210.464431762695 0.754530131817
-22.143495559692 -67.708175659180 -210.552810668945 3.555908441544
94.046768188477 -70.001625061035 -209.847610473633 2.042237997055
99.396011352539 -70.682312011719 -206.936981201172 1.337858080864
-145.943786621094 -71.213798522949 -215.747283935547 2.710151195526
95.873512268066 -68.389564514160 -210.859893798828 3.082344055176
6.890504837036 -69.996078491211 -208.445648193359 1.737920641899
5.223546981812 -71.909782409668 -211.034317016602 2.612379550934
-33.756355285645 -71.313735961914 -208.309478759766 2.678111076355
-90.358619689941 -70.425819396973 -212.229873657227 3.003594636917
-30.795980453491 -72.161201477051 -212.176040649414 2.121849060059
85.026283264160 -71.842224121094 -215.619918823242 2.348762512207
85.737037658691 -71.594032287598 -217.969604492188 1.206733107567
-35.191757202148 -69.600311279297 -213.323638916016 4.690386295319
-80.939422607422 -68.378639221191 -219.382034301758 6.302275657654
-2.384550094604 -71.942970275879 -215.587890625000 1.087841033936
