-115.175262451172 -70.405517578125 -293.084167480469 1.438452601433
-108.906585693359 -73.366363525391 -292.640716552734 1.726830482483
-31.807643890381 -74.484947204590 -292.351562500000 1.162867069244
-114.622077941895 -73.399200439453 -291.294891357422 1.194270014763
-125.299255371094 -74.143798828125 -291.788818359375 0.532477676868
-143.999099731445 -74.621490478516 -294.869537353516 2.045818805695
8.875137329102 -70.713829040527 -290.774627685547 2.045267343521
14.909562110901 -74.239372253418 -294.531219482422 1.175573945045
-156.325073242188 -73.127609252930 -295.535400390625 1.471750140190
-154.560684204102 -73.260276794434 -303.797790527344 2.840063571930
-145.164321899414 -74.489639282227 -312.231750488281 1.123157620430
-150.168029785156 -69.893371582031 -310.862731933594 2.831445932388
-151.874176025391 -76.066764831543 -314.227264404297 2.363044977188
27.221767425537 -76.480300903320 -16.351799011230 4.412472248077
24.905002593994 -75.335411071777 -20.321359634399 3.437776803970
22.945093154907 -76.360748291016 -21.954084396362 3.860859394073
27.872476577759 -76.505477905273 -40.608180999756 4.364559173584
-54.557281494141 -71.604217529297 -53.384780883789 3.317325115204
-65.195358276367 -74.616935729980 -52.301090240479 1.797701716423
-39.316761016846 -75.379714965820 -53.494365692139 2.456499099731
-81.538345336914 -77.240776062012 -60.515705108643 2.796810865402
81.902404785156 -79.396385192871 -77.089508056641 2.811006546021
-19.098880767822 -75.098846435547 -73.888992309570 2.883244037628
89.754882812500 -78.132041931152 -69.917259216309 4.471672058105
96.590950012207 -74.703170776367 -80.041297912598 1.242657780647
-92.918937683105 -75.161537170410 -81.671272277832 2.646636724472
72.986282348633 -73.158500671387 -78.391563415527 2.507806301117
-41.572830200195 -79.114471435547 -85.486579895020 1.436793565750
100.976753234863 -74.430992126465 -84.611404418945 3.579118013382
-54.454551696777 -77.723571777344 -90.866561889648 1.683456659317
51.704055786133 -74.913650512695 -89.751754760742 2.721576213837
72.510536193848 -76.491226196289 -89.623001098633 1.502646565437
57.458000183105 -77.948219299316 -96.336982727051 3.435374736786
50.090595245361 -75.073104858398 -102.026779174805 2.394898414612
70.097892761230 -77.399002075195 -95.471130371094 4.339025497437
46.889251708984 -71.741706848145 -99.493713378906 1.748536825180
102.687843322754 -75.472869873047 -101.892921447754 3.014525651932
110.261329650879 -76.298812866211 -106.652519226074 3.439750671387
79.651092529297 -71.922569274902 -101.988845825195 0.826885879040
89.258438110352 -75.431365966797 -103.629646301270 2.625233888626
101.793273925781 -73.923835754395 -100.212028503418 2.884873628616
107.246788024902 -69.678779602051 -102.027137756348 1.726564049721
39.749164581299 -79.773933410645 -107.267364501953 3.614664793015
109.459953308105 -74.513465881348 -119.961471557617 1.417370200157
113.971191406250 -76.339241027832 -120.573898315430 2.466672420502
33.234088897705 -74.632293701172 -120.634605407715 1.511121511459
42.168380737305 -76.009826660156 -120.081871032715 2.102323293686
110.978729248047 -73.170272827148 -128.925445556641 2.245598554611
39.085060119629 -77.429649353027 -127.145919799805 1.682559132576
114.263214111328 -72.351402282715 -130.310104370117 1.910975933075
110.375625610352 -73.870285034180 -125.557868957520 1.206353783607
25.374980926514 -72.742973327637 -138.271286010742 1.434608459473
-48.450923919678 -77.181518554688 -134.601898193359 3.391372203827
-54.580120086670 -75.212699890137 -139.568664550781 1.380096673965
113.399658203125 -73.070434570313 -133.960418701172 1.392891883850
-73.131484985352 -76.974205017090 -143.806411743164 2.121188402176
-74.901245117188 -74.569381713867 -140.413284301758 1.242214202881
-57.862514495850 -76.837570190430 -142.660873413086 3.348742723465
34.015796661377 -74.651245117188 -140.670761108398 1.460203647614
108.375373840332 -73.016761779785 -146.743423461914 3.016203880310
-65.583999633789 -75.427574157715 -146.489044189453 2.544430732727
-45.007511138916 -71.837707519531 -145.396652221680 1.255530118942
37.831352233887 -77.938522338867 -150.197967529297 3.724257230759
-65.354255676270 -76.686462402344 -151.129699707031 1.433786749840
113.636497497559 -70.453880310059 -144.483596801758 2.128582239151
111.239974975586 -74.794319152832 -157.167724609375 1.307193040848
113.405853271484 -75.593460083008 -149.870071411133 1.860170006752
-37.976783752441 -74.738281250000 -156.078628540039 1.787697911263
-65.539398193359 -74.925918579102 -160.176239013672 1.142373204231
-70.644737243652 -70.253692626953 -155.359619140625 0.474278986454
30.580490112305 -72.741783142090 -151.842926025391 1.558280944824
-0.654676973820 -76.449645996094 -164.084930419922 1.814516544342
108.071739196777 -74.053527832031 -158.326431274414 0.922211050987
110.027412414551 -71.166442871094 -155.436614990234 0.949161529541
113.059646606445 -73.169555664063 -157.864105224609 0.922401487827
-64.571952819824 -76.470962524414 -162.299072265625 1.711162328720
-46.303409576416 -76.110160827637 -162.496856689453 0.897730350494
2.967431068420 -75.397178649902 -168.518249511719 2.808504581451
-25.272371292114 -72.436584472656 -174.758056640625 2.046471118927
106.475677490234 -74.166275024414 -164.380981445313 2.075879335403
-36.386516571045 -73.037765502930 -161.625061035156 1.922299981117
110.703552246094 -74.995071411133 -169.365615844727 0.835595011711
-41.271244049072 -73.265625000000 -172.903350830078 1.099648714066
110.607963562012 -75.154861450195 -167.780441284180 0.865800499916
-149.532714843750 -72.430404663086 -182.974380493164 1.777403593063
-30.007646560669 -72.628143310547 -175.941406250000 2.124908924103
-20.804616928101 -71.516464233398 -181.455230712891 1.640479087830
28.544797897339 -77.181159973145 -176.921463012695 3.424916982651
15.917893409729 -73.735565185547 -180.957321166992 1.449327230453
24.501388549805 -74.808067321777 -183.156875610352 1.663041591644
106.658004760742 -75.647506713867 -185.688613891602 2.588504552841
-151.700973510742 -71.914527893066 -188.476547241211 1.906739830971
-20.934362411499 -74.806350708008 -188.902328491211 2.067337274551
104.687103271484 -72.862358093262 -178.835784912109 1.008606195450
103.529808044434 -72.588989257813 -191.478378295898 1.297106146812
105.755546569824 -73.875274658203 -180.749771118164 0.827883243561
96.677955627441 -76.694633483887 -195.749877929688 1.632269024849
-154.054229736328 -81.029190063477 -197.332351684570 1.994391083717
99.398048400879 -76.883964538574 -203.953094482422 1.770111918449
-30.538476943970 -72.986091613770 -196.108093261719 3.696526765823
98.624061584473 -71.704086303711 -197.129119873047 1.274891495705
-126.381103515625 -74.418098449707 -195.844390869141 2.925425052643
-30.221685409546 -76.455848693848 -192.791427612305 2.757316827774
-141.273880004883 -74.040412902832 -201.946212768555 1.934283137321
92.433578491211 -72.984756469727 -199.936080932617 2.592695236206
9.234663963318 -73.741561889648 -200.567779541016 0.731330633163
23.477783203125 -75.366073608398 -195.935241699219 1.590622067451
-148.395492553711 -74.242118835449 -200.996810913086 2.400995016098
-139.038772583008 -72.105895996094 -205.640716552734 3.515544176102
-13.436676025391 -74.354278564453 -205.967880249023 2.714144229889
-125.016197204590 -78.063804626465 -203.823440551758 5.077352046967
-145.369842529297 -77.033058166504 -203.689010620117 1.694794058800
7.495339870453 -72.308921813965 -200.697616577148 1.569785833359
-23.741985321045 -73.973854064941 -204.493270874023 2.294908046722
19.177064895630 -73.287841796875 -206.585464477539 1.070674896240
7.267335891724 -73.644340515137 -210.579345703125 1.131428241730
87.808830261230 -73.730209350586 -211.123092651367 1.700505614281
-22.627204895020 -68.864303588867 -212.325775146484 4.679948329926
93.517692565918 -72.427017211914 -210.426422119141 0.446169465780
98.827857971191 -73.207023620605 -207.469543457031 3.015706539154
-146.395141601563 -70.953323364258 -218.877288818359 1.897320628166
95.372306823730 -70.820602416992 -211.396118164063 1.579659700394
6.356439113617 -71.496597290039 -209.945144653320 2.164277553558
4.696956157684 -73.355072021484 -212.578460693359 1.929645657539
-34.301311492920 -72.375335693359 -210.257202148438 2.533639907837
-90.845603942871 -70.818138122559 -214.762039184570 0.946872949600
-31.308902740479 -73.199707031250 -214.104034423828 2.444829940796
84.540420532227 -74.087348937988 -216.319519042969 1.108173251152
85.278930664063 -73.813446044922 -218.657745361328 1.058666944504
-35.664505004883 -70.575233459473 -215.261138916016 5.120294570923
-81.328964233398 -68.771560668945 -221.784194946289 7.574723243713
-2.861829996109 -73.240936279297 -217.212142944336 2.204958200455
88.205390930176 -73.485237121582 -217.518585205078 1.216343998909
-148.770874023438 -74.971916198730 -223.036407470703 1.251734256744
-167.629104614258 -74.521614074707 -214.163238525391 4.416100502014
-158.780456542969 -72.719505310059 -222.518753051758 0.695813059807
-20.012882232666 -74.437553405762 -228.527572631836 2.198831081390
-152.239730834961 -75.259475708008 -224.813781738281 3.042488336563
-7.344765186310 -77.637130737305 -227.764160156250 2.272341489792
6.921259880066 -71.792427062988 -218.614929199219 1.809417009354
-162.487136840820 -76.468521118164 -223.895858764648 3.786671400070
-162.870330810547 -72.993942260742 -227.003143310547 1.652078032494
78.910308837891 -72.924087524414 -230.612731933594 1.392671823502
4.291982173920 -72.915863037109 -229.648300170898 0.778216004372
-151.684524536133 -74.282348632813 -225.020187377930 2.470063447952
-142.501586914063 -73.719223022461 -224.567825317383 2.066232681274
-20.573823928833 -74.921081542969 -225.918731689453 1.612393736839
3.098663091660 -74.971221923828 -224.805557250977 1.447519421577
82.448280334473 -72.826156616211 -223.303207397461 1.416575551033
-159.848083496094 -74.386238098145 -230.220565795898 3.245645761490
-146.600173950195 -72.101181030273 -229.195816040039 1.443473935127
-124.842391967773 -71.243904113770 -231.096221923828 2.014467954636
81.294403076172 -74.671539306641 -230.057220458984 2.465900897980
-115.206245422363 -70.469062805176 -231.712661743164 2.073914766312
-147.614349365234 -74.970100402832 -230.354461669922 2.051092147827
-151.562805175781 -75.855125427246 -230.979492187500 2.850901842117
-147.154968261719 -73.337997436523 -229.614776611328 1.382783532143
-153.547561645508 -70.887069702148 -230.828460693359 2.187730550766
-165.990005493164 -70.904045104980 -235.116317749023 1.149491190910
-136.092041015625 -72.350700378418 -235.700424194336 3.312203884125
-134.682144165039 -72.873451232910 -234.090347290039 1.943786144257
-155.268218994141 -72.944725036621 -231.225021362305 1.126429080963
-145.234909057617 -71.734306335449 -234.317749023438 1.610220074654
-152.153930664063 -70.814369201660 -235.094436645508 1.701466441154
72.644485473633 -72.164367675781 -225.014114379883 3.928967475891
68.098663330078 -70.037475585938 -239.051116943359 1.028233766556
-160.394775390625 -72.058700561523 -238.826965332031 2.186326503754
69.707611083984 -72.526245117188 -234.224075317383 1.439323782921
-19.650463104248 -72.523704528809 -237.276062011719 1.343522667885
9.513558387756 -72.763572692871 -238.231033325195 2.009166240692
11.881401062012 -75.587821960449 -236.255233764648 2.881185293198
-146.462844848633 -72.578346252441 -245.128662109375 3.080593585968
14.847756385803 -72.426223754883 -242.971969604492 1.719633579254
65.337600708008 -73.609504699707 -237.571884155273 1.094569325447
11.937412261963 -71.890975952148 -237.030593872070 2.248256206512
5.849483966827 -75.146865844727 -244.158813476563 0.899505615234
-6.965476989746 -70.084037780762 -241.433197021484 1.660552620888
-18.800384521484 -75.105934143066 -246.061874389648 3.579153776169
0.632175981998 -74.872810363770 -243.681747436523 1.856261849403
2.885066032410 -71.941108703613 -242.804916381836 1.134345054626
57.198036193848 -73.735595703125 -242.156127929688 2.059195995331
-57.770671844482 -73.441856384277 -246.233642578125 1.314614534378
18.735418319702 -72.915878295898 -249.044067382813 1.246477127075
-59.384445190430 -72.450279235840 -245.940475463867 1.691269755363
-7.626778125763 -72.186996459961 -249.547042846680 2.002308607101
-64.120605468750 -70.554199218750 -252.826507568359 3.341369390488
-85.063339233398 -76.988082885742 -252.481216430664 3.133053302765
-81.733947753906 -75.211341857910 -252.103256225586 0.666517913342
-14.844854354858 -71.808914184570 -252.711105346680 1.347775340080
-124.150733947754 -75.132865905762 -259.931030273438 1.237774968147
-14.657781600952 -70.306373596191 -256.470428466797 0.438234895468
-120.176666259766 -72.596069335938 -257.493804931641 2.859171867371
-116.422019958496 -70.333992004395 -259.490722656250 3.322922945023
-103.377044677734 -75.336997985840 -259.298431396484 3.180128812790
-143.229629516602 -71.946861267090 -262.916046142578 1.195239424706
-145.799301147461 -71.034576416016 -267.419555664063 1.807726740837
-167.195144653320 -70.716117858887 -265.978179931641 2.367257118225
15.252098083496 -73.950004577637 -281.580322265625 1.659497261047
-57.775367736816 -73.967277526855 -285.463317871094 1.780529618263
-65.209022521973 -72.697395324707 -285.634796142578 0.355838626623
-43.322162628174 -73.905845642090 -286.150756835938 0.722912311554
-27.684560775757 -73.881103515625 -284.348205566406 1.866219997406
-94.020126342773 -72.209274291992 -292.378417968750 1.093338370323
-29.749738693237 -70.528205871582 -288.854858398438 1.827823638916
-2.583683013916 -69.172073364258 -286.771789550781 3.906096935272
-165.620773315430 -73.227241516113 -290.675811767578 1.881261944771
-13.614828109741 -73.676071166992 -289.710388183594 1.926037549973
8.039670944214 -69.609664916992 -289.946350097656 2.471329450607
15.075596809387 -68.945205688477 -291.018920898438 3.523748874664
-55.655082702637 -72.865066528320 -292.660766601563 1.908399939537
-28.700082778931 -74.029975891113 -288.994903564453 2.520229578018
15.387836456299 -69.869995117188 -291.286376953125 2.831942796707
-68.294891357422 -73.160270690918 -293.959930419922 3.417155504227
-37.186363220215 -71.504478454590 -291.467102050781 1.616878509521
-16.569433212280 -70.844863891602 -292.194702148438 1.863017797470
12.759351730347 -72.093498229980 -291.785766601563 1.401999831200
-12.296483993530 -73.881385803223 -291.035491943359 1.367518186569
5.400991916656 -70.135681152344 -293.129852294922 2.657448291779
13.125580787659 -72.006080627441 -293.543090820313 1.647223591805
-134.020294189453 -73.660255432129 -293.240783691406 1.841772794724
-141.870086669922 -73.732772827148 -302.941772460938 2.778519630432
-148.373001098633 -75.391197204590 -312.695098876953 1.124653220177
38.822731018066 -70.391227722168 -12.921324729919 1.410187959671
29.981449127197 -75.299736022949 -10.715947151184 4.453823566437
38.795257568359 -75.502838134766 -15.964879035950 4.329233646393
20.329225540161 -75.409736633301 -21.465923309326 3.631755113602
42.384796142578 -75.367767333984 -24.498804092407 5.124912738800
21.951835632324 -74.019172668457 -21.291698455811 1.954142451286
23.543815612793 -78.150032043457 -30.531234741211 5.767318725586
21.733566284180 -77.162826538086 -36.060749053955 5.188815593719
42.146587371826 -73.056030273438 -33.151645660400 2.166494846344
26.484245300293 -74.906234741211 -37.498271942139 3.723978757858
40.108367919922 -75.411209106445 -33.590866088867 4.162943840027
32.418869018555 -73.274208068848 -37.747962951660 1.228538513184
32.488639831543 -75.491760253906 -39.740676879883 2.942163228989
31.669790267944 -74.045112609863 -41.517498016357 2.344438314438
42.425712585449 -74.907478332520 -42.946567535400 4.591419696808
34.286067962646 -72.226463317871 -44.101993560791 3.695097208023
-38.847660064697 -71.120666503906 -54.421329498291 2.338191509247
-30.578275680542 -71.064918518066 -48.039604187012 3.903560161591
-88.985176086426 -72.491737365723 -57.198234558105 4.695343494415
-87.388259887695 -76.965538024902 -65.191055297852 3.858052492142
79.959587097168 -75.049713134766 -68.302818298340 2.612391710281
82.620391845703 -75.493614196777 -71.693191528320 1.549334287643
-16.367807388306 -75.837211608887 -74.642753601074 4.729903697968
-86.734153747559 -77.320007324219 -72.301269531250 3.211061477661
-24.877058029175 -74.780570983887 -79.316070556641 2.525237560272
-49.919075012207 -77.870864868164 -89.179862976074 1.744206905365
63.819725036621 -72.850341796875 -85.923873901367 2.862984895706
54.551261901855 -72.024803161621 -91.972908020020 0.775235772133
97.491630554199 -74.545532226563 -89.318077087402 0.801112294197
72.876045227051 -75.686424255371 -95.974380493164 1.567448973656
-64.585662841797 -78.263397216797 -93.814598083496 1.127473235130
-65.519233703613 -73.915557861328 -97.025863647461 1.206753134727
44.511478424072 -75.314338684082 -97.367172241211 1.802524328232
73.793861389160 -77.805801391602 -101.867027282715 5.311203002930
51.412456512451 -77.881278991699 -103.031135559082 1.521586060524
101.096298217773 -76.296844482422 -98.008811950684 3.607628822327
-92.009727478027 -74.863250732422 -107.973678588867 4.214091300964
38.597248077393 -78.789512634277 -111.531463623047 0.951543629169
106.844802856445 -72.489982604980 -108.019432067871 1.383791685104
46.365543365479 -71.772705078125 -110.949104309082 2.912306308746
103.256759643555 -72.160690307617 -107.423202514648 0.607038557529
-84.999641418457 -74.152252197266 -114.842605590820 2.240546226501
35.856262207031 -73.637847900391 -114.670516967773 0.984077751637
108.645378112793 -75.463874816895 -118.389137268066 0.928433775902
102.633331298828 -73.251029968262 -116.236366271973 3.770708560944
107.360061645508 -76.024436950684 -115.126510620117 2.872089862823
109.615608215332 -77.085655212402 -115.851188659668 3.183534145355
34.709934234619 -74.545326232910 -114.735961914063 1.181532979012
32.446315765381 -77.591773986816 -119.467025756836 2.135382413864
43.726570129395 -73.771713256836 -114.639732360840 2.440429449081
109.538345336914 -73.971115112305 -123.849220275879 1.839650511742
39.830837249756 -72.728141784668 -125.177986145020 1.608685135841
109.711334228516 -75.088211059570 -132.104919433594 2.222037076950
113.785102844238 -72.281250000000 -129.524810791016 1.698768138885
32.699527740479 -73.259757995605 -122.211570739746 1.412377119064
-77.357933044434 -75.693603515625 -127.676620483398 5.054717540741
116.645462036133 -76.586471557617 -135.740646362305 2.005966901779
-58.750064849854 -78.005378723145 -140.567825317383 4.041716098785
34.769542694092 -75.284599304199 -136.541427612305 2.573870420456
-73.656372070313 -74.358230590820 -139.901931762695 0.184814542532
29.141222000122 -72.719635009766 -135.172653198242 1.140764594078
-74.720428466797 -75.523658752441 -142.541213989258 1.836075305939
-43.974681854248 -76.597526550293 -146.728149414063 1.927607774734
-72.584609985352 -76.067001342773 -137.135437011719 3.038567543030
110.619445800781 -69.832862854004 -138.277633666992 1.020715355873
115.457946777344 -74.140846252441 -141.137847900391 1.867961525917
120.991661071777 -74.093078613281 -145.656356811523 4.927972316742
-72.275756835938 -74.511047363281 -145.635589599609 1.252719521523
9.070114135742 -72.310012817383 -151.050674438477 1.769599556923
-56.681579589844 -72.905754089355 -153.910934448242 3.882212877274
-47.636528015137 -75.993927001953 -155.183151245117 1.624403834343
108.673461914063 -71.735809326172 -159.429656982422 0.793784260750
-40.717891693115 -75.882682800293 -152.034408569336 1.969498276711
11.466259002686 -72.241638183594 -159.912124633789 1.970309853554
22.323167800903 -72.722709655762 -159.662414550781 0.310571342707
113.911788940430 -74.349197387695 -164.039825439453 1.612924456596
30.949388504028 -70.901847839355 -161.681365966797 1.279835462570
-2.122364997864 -76.712852478027 -161.328292846680 1.468058466911
31.368642807007 -73.241737365723 -163.215652465820 1.923601150513
-68.779151916504 -69.164077758789 -159.772079467773 2.197834491730
-63.087699890137 -72.261245727539 -159.724319458008 1.529203414917
-67.007736206055 -73.034080505371 -164.116455078125 0.766176819801
113.275222778320 -72.020851135254 -161.394958496094 2.282899618149
-45.516506195068 -71.709365844727 -164.142501831055 1.606977105141
18.248857498169 -76.743476867676 -169.922744750977 1.674197077751
-63.333652496338 -75.706893920898 -173.237304687500 1.391691923141
-60.143184661865 -75.461952209473 -173.830749511719 1.944821953773
-41.413841247559 -74.911666870117 -162.080245971680 2.943267822266
-35.043800354004 -69.074447631836 -168.884796142578 3.199638128281
113.533103942871 -70.296997070313 -173.251235961914 1.202088832855
-35.471942901611 -74.007408142090 -175.848632812500 2.520766973495
16.099618911743 -73.279136657715 -172.398147583008 1.082670092583
108.363311767578 -76.546890258789 -187.113143920898 2.319467306137
-150.976089477539 -75.889343261719 -177.762405395508 3.677627563477
-143.834930419922 -74.889038085938 -176.119827270508 1.965880393982
-151.695388793945 -72.778327941895 -178.552810668945 1.571889638901
-143.679138183594 -70.905189514160 -181.698242187500 1.824247479439
-28.261699676514 -71.978698730469 -183.900405883789 1.486703872681
-24.120559692383 -72.460586547852 -185.835937500000 1.860738158226
22.904687881470 -70.645492553711 -190.581008911133 0.745498120785
-141.927169799805 -73.251800537109 -188.159774780273 1.716098785400
-144.950347900391 -72.386810302734 -186.452102661133 1.776133537292
-21.587182998657 -67.178436279297 -188.031707763672 1.560825228691
14.132382392883 -76.366172790527 -182.929672241211 1.392481565475
-143.377319335938 -74.138786315918 -193.578506469727 0.574233293533
-34.059154510498 -76.701805114746 -183.954345703125 1.329026460648
101.372581481934 -74.770126342773 -189.266784667969 1.064917087555
107.498077392578 -71.782783508301 -192.726638793945 2.363663196564
21.577520370483 -72.342941284180 -191.500656127930 0.929213643074
-19.703380584717 -76.704437255859 -190.182418823242 0.457267194986
-25.431180953979 -75.976684570313 -197.443710327148 1.612540841103
-149.885559082031 -70.815956115723 -197.565994262695 1.483898043633
-133.486724853516 -72.638137817383 -199.088882446289 0.270653009415
-123.418876647949 -72.287040710449 -195.959838867188 0.892030000687
-123.278656005859 -74.365562438965 -198.759124755859 1.473328709602
-20.045534133911 -71.541831970215 -196.808013916016 2.792623996735
11.255794525146 -74.752166748047 -193.588958740234 1.447002887726
94.276115417480 -69.641685485840 -200.500579833984 2.124825477600
-146.931961059570 -73.333984375000 -197.351058959961 0.877769470215
-146.263488769531 -71.096084594727 -202.049224853516 1.236150979996
-147.589797973633 -68.981246948242 -199.568237304688 2.727882385254
-155.347763061523 -69.966049194336 -201.374588012695 2.049865722656
-27.837980270386 -72.660491943359 -201.025772094727 3.100784301758
-13.915013313293 -77.558349609375 -195.463546752930 1.953984260559
-145.965652465820 -68.766334533691 -198.855865478516 2.618406534195
-17.732816696167 -74.759346008301 -197.763336181641 2.033293485641
-162.928634643555 -73.640594482422 -200.370590209961 2.676443338394
-132.172317504883 -73.284873962402 -200.439163208008 0.853480696678
13.752196311951 -70.313102722168 -209.260147094727 2.345534801483
-162.848678588867 -72.081970214844 -204.286941528320 0.816475450993
-144.354431152344 -74.226943969727 -205.100952148438 2.031210422516
10.930336952209 -73.991203308105 -201.356063842773 1.976955771446
-154.880096435547 -74.725601196289 -206.316253662109 3.376805782318
-23.160867691040 -74.054161071777 -201.659957885742 1.031422972679
102.819259643555 -72.481544494629 -200.124755859375 2.522274732590
-154.389160156250 -72.730545043945 -215.949813842773 1.147432208061
-163.528579711914 -73.504600524902 -213.188552856445 1.560912132263
-79.132034301758 -71.177665710449 -213.592712402344 2.331872224808
90.790802001953 -72.086250305176 -210.427902221680 1.823635697365
-3.718324899673 -72.074737548828 -214.754089355469 0.905124187469
-152.563751220703 -72.774497985840 -212.743728637695 2.093607425690
-88.914039611816 -68.844108581543 -216.324020385742 2.418831586838
-6.830876827240 -72.863983154297 -210.978546142578 1.411897897720
15.241019248962 -70.942985534668 -222.909927368164 1.451899051666
-144.619796752930 -73.931709289551 -219.647323608398 1.839313626289
-2.722069025040 -73.908126831055 -220.796615600586 1.741853237152
-18.084409713745 -68.658462524414 -220.925689697266 3.186611890793
-17.433778762817 -69.331153869629 -219.416610717773 3.246044874191
87.624732971191 -73.010284423828 -215.618743896484 1.386418104172
-22.047523498535 -69.571846008301 -216.731353759766 2.682290077209
-28.601161956787 -72.686035156250 -217.990203857422 1.941342830658
-104.719200134277 -72.326324462891 -222.983535766602 1.251508474350
-15.029897689819 -71.747795104980 -224.882843017578 1.787649989128
89.826591491699 -70.993476867676 -219.236007690430 0.521378517151
81.479393005371 -71.411796569824 -218.846694946289 0.927665352821
6.517601013184 -75.394737243652 -223.630538940430 2.638642072678
-11.698240280151 -72.137336730957 -226.562911987305 1.217294931412
78.740242004395 -77.381454467773 -222.833816528320 2.410818338394
-126.436462402344 -72.422515869141 -224.671905517578 1.761340737343
-23.508777618408 -73.471290588379 -222.643218994141 1.509764909744
-101.229339599609 -70.806610107422 -225.862762451172 2.258926630020
-106.312660217285 -74.057083129883 -228.892715454102 2.844122886658
-134.328216552734 -71.927230834961 -228.882720947266 1.869193553925
79.865676879883 -72.360443115234 -224.333938598633 1.171373963356
-125.553260803223 -73.709968566895 -228.827301025391 1.533191084862
3.133438110352 -72.045829772949 -229.987869262695 1.755878329277
76.456245422363 -71.945426940918 -224.124526977539 1.125816702843
-14.653406143188 -73.230499267578 -229.046112060547 1.064550161362
-10.123133659363 -73.371315002441 -231.141876220703 0.922917306423
-5.159997940063 -71.577865600586 -232.185226440430 1.649202704430
7.903355121613 -72.882377624512 -229.419052124023 1.258532762527
84.221878051758 -72.459365844727 -225.494125366211 1.543505430222
13.798128128052 -72.463829040527 -232.800781250000 0.891964912415
3.010919094086 -73.575386047363 -231.360931396484 2.197510004044
-6.716114044189 -73.831169128418 -228.072631835938 1.912760138512
-6.131039142609 -70.726623535156 -234.414718627930 1.270105719566
16.235668182373 -70.821014404297 -232.614593505859 0.739448189735
-10.408232688904 -70.480453491211 -235.405380249023 1.913766384125
73.051200866699 -71.748176574707 -237.321304321289 1.842124223709
-8.192346572876 -70.102897644043 -236.224014282227 1.113672614098
20.731664657593 -72.842254638672 -232.327606201172 2.966211795807
-163.384811401367 -70.307083129883 -243.773666381836 2.262947320938
-4.904926776886 -71.796089172363 -241.855300903320 2.076261758804
-9.763649940491 -71.116676330566 -242.112380981445 1.064064860344
-167.242248535156 -70.791900634766 -256.766021728516 3.108713865280
-9.784243583679 -72.820716857910 -245.101577758789 0.270697563887
18.261457443237 -73.342727661133 -245.227355957031 1.589474558830
-146.960113525391 -74.701469421387 -252.944549560547 1.439838051796
-67.662384033203 -71.250274658203 -249.110290527344 0.458848506212
-58.862396240234 -70.538131713867 -248.771987915039 2.386347293854
54.376522064209 -71.062583923340 -247.761352539063 1.557485103607
-76.982452392578 -72.364868164063 -247.849319458008 1.859875559807
16.299282073975 -72.424858093262 -247.434738159180 0.909039497375
-75.460571289063 -71.998298645020 -252.347503662109 1.238047480583
-16.862024307251 -72.491294860840 -249.647033691406 2.590337276459
-147.839141845703 -73.209625244141 -255.393066406250 1.948366999626
48.597251892090 -70.403099060059 -249.148330688477 1.359384655952
-81.181289672852 -69.331275939941 -251.740509033203 2.110898017883
-98.172439575195 -72.062545776367 -256.304962158203 1.900104284286
-96.361854553223 -76.370048522949 -254.672760009766 2.629476547241
-120.853187561035 -72.858657836914 -258.876495361328 3.379705190659
-107.204406738281 -70.824745178223 -258.073272705078 2.802881479263
-107.139724731445 -70.842933654785 -260.775512695313 0.609626948833
19.700031280518 -72.147666931152 -259.949127197266 3.895107984543
-128.207351684570 -69.432670593262 -266.888061523438 3.126439332962
-9.395103454590 -73.672492980957 -277.570343017578 2.041373014450
-145.982818603516 -73.620719909668 -283.391967773438 0.971514999866
-168.726211547852 -71.081649780273 -284.215026855469 1.078271150589
-126.446289062500 -72.075752258301 -288.297332763672 2.924653291702
-115.117515563965 -72.226577758789 -284.043731689453 2.735155344009
-77.617683410645 -67.810676574707 -288.470764160156 2.329196691513
-56.259834289551 -67.557250976563 -289.379211425781 3.379131555557
-43.787017822266 -70.512313842773 -287.330444335938 2.119535923004
-13.706406593323 -70.227294921875 -289.544769287109 1.526427745819
-11.920048713684 -69.755210876465 -288.955688476563 2.138580322266
-35.924243927002 -71.314079284668 -290.190277099609 1.655635714531
-34.245975494385 -70.287010192871 -288.822845458984 3.571965694427
-19.322774887085 -68.692024230957 -291.916442871094 4.195940971375
-71.418090820313 -72.332969665527 -292.778411865234 2.307204008102
-53.958572387695 -69.024909973145 -293.861907958984 4.176447391510
-13.946082115173 -67.764503479004 -291.711914062500 3.861979007721
-14.118532180786 -71.028244018555 -291.822967529297 1.442403435707
-4.274911880493 -70.005325317383 -292.003906250000 1.965356230736
3.218662023544 -67.956932067871 -294.340667724609 2.642665386200
-88.209259033203 -70.670692443848 -288.920654296875 2.253184080124
-144.774826049805 -69.584243774414 -291.107086181641 2.024888038635
-117.426528930664 -72.026741027832 -295.681579589844 3.539354324341
-153.552291870117 -74.237800598145 -301.440734863281 1.850549697876
-154.768020629883 -71.836776733398 -300.430847167969 1.128672719002
-144.291519165039 -71.555137634277 -303.055236816406 1.187515735626
45.479545593262 -76.496124267578 -23.117284774780 5.137405395508
17.982151031494 -74.910057067871 -24.553588867188 4.694800853729
48.982093811035 -76.146041870117 -26.681814193726 4.689797878265
47.599411010742 -77.160476684570 -33.875324249268 5.801442623138
85.926292419434 -71.308464050293 -67.630752563477 1.260626673698
95.982040405273 -72.858192443848 -74.649726867676 2.160996675491
98.027626037598 -72.441802978516 -80.734291076660 1.616246700287
96.298606872559 -73.265914916992 -86.023590087891 1.612534523010
53.009323120117 -74.178619384766 -88.184204101563 2.944603919983
49.207534790039 -74.593627929688 -93.175071716309 2.187749624252
61.233818054199 -71.910484313965 -92.082695007324 0.356815606356
-65.310836791992 -70.274299621582 -93.033134460449 1.210940241814
70.498329162598 -74.990310668945 -90.037696838379 2.855560541153
102.140136718750 -72.334671020508 -94.673927307129 2.584398984909
73.709381103516 -76.399589538574 -100.040359497070 3.806883335114
94.261756896973 -71.231979370117 -98.484489440918 2.694214105606
-81.485969543457 -75.176177978516 -102.087547302246 1.197148919106
44.714519500732 -73.977172851563 -103.643341064453 0.977394282818
-86.801551818848 -76.076278686523 -108.878479003906 3.252313137054
49.948326110840 -74.965957641602 -112.661911010742 1.288339138031
40.782577514648 -71.062812805176 -105.974777221680 1.593246936798
103.703262329102 -74.823783874512 -105.056015014648 2.133670806885
39.025661468506 -71.265045166016 -108.936538696289 1.521404504776
39.960479736328 -74.572814941406 -115.389198303223 3.029933929443
41.607112884521 -70.888122558594 -115.402481079102 1.093035340309
104.922607421875 -69.776153564453 -116.265861511230 1.688423275948
-82.074501037598 -72.777023315430 -121.040008544922 1.734076738358
112.166526794434 -74.086280822754 -123.801658630371 1.597935318947
37.998886108398 -69.676933288574 -120.620452880859 1.686338305473
42.517013549805 -73.242752075195 -118.785011291504 3.184543848038
33.841579437256 -73.691452026367 -121.643867492676 0.147610753775
-56.268135070801 -73.078094482422 -131.612503051758 1.632047533989
29.740293502808 -72.276229858398 -123.335357666016 2.047921419144
-77.668273925781 -74.966377258301 -137.630538940430 2.795310258865
-58.816604614258 -72.803588867188 -134.558273315430 2.309895038605
-77.951507568359 -71.780471801758 -133.538406372070 1.560451626778
33.515251159668 -72.444381713867 -128.012359619141 2.290896654129
-57.643325805664 -71.717689514160 -133.713455200195 1.677125096321
37.099334716797 -72.727371215820 -133.520431518555 2.229288339615
-75.425888061523 -73.146415710449 -139.922180175781 1.453443050385
-58.404479980469 -75.449531555176 -140.467285156250 2.062986612320
28.627267837524 -72.092651367188 -139.445404052734 1.260667800903
110.395332336426 -75.485778808594 -145.292938232422 1.652509093285
117.390563964844 -72.461212158203 -137.487243652344 2.677440166473
32.327461242676 -71.960624694824 -140.444702148438 1.796990871429
-47.131500244141 -71.051795959473 -143.728210449219 1.886929631233
109.140563964844 -71.925666809082 -155.606842041016 1.390115857124
-73.907249450684 -72.658195495605 -147.741195678711 1.398423433304
-53.848842620850 -74.240173339844 -141.096008300781 1.672345042229
33.100673675537 -75.443855285645 -151.535675048828 1.610625982285
-72.737571716309 -73.912879943848 -145.630233764648 1.551360607147
-70.824119567871 -74.573410034180 -148.854141235352 1.835610389709
116.579879760742 -70.055885314941 -148.532257080078 1.698604702950
-64.267761230469 -72.346809387207 -151.624771118164 2.672330141068
-40.241188049316 -71.863151550293 -152.412277221680 1.708472132683
29.434635162354 -69.099945068359 -151.426910400391 2.361301422119
-75.701400756836 -72.426002502441 -149.768951416016 1.547517895699
9.685532569885 -74.337387084961 -156.803146362305 0.976914167404
32.863475799561 -70.115486145020 -155.932403564453 1.675965309143
27.391456604004 -72.924217224121 -150.097579956055 3.072714328766
8.347252845764 -75.970115661621 -155.761474609375 2.184541225433
-48.406066894531 -70.984672546387 -154.326293945313 0.247026160359
25.648937225342 -71.819190979004 -152.749237060547 2.056726217270
-46.726894378662 -73.844413757324 -149.986923217773 3.916165113449
6.312816143036 -74.038650512695 -152.228256225586 2.903578996658
21.098045349121 -73.216011047363 -149.427124023438 2.513189792633
-72.504867553711 -75.369796752930 -155.028671264648 2.116066217422
-45.431385040283 -72.297973632813 -155.427185058594 2.718616485596
-69.856178283691 -70.394775390625 -160.464004516602 2.293502092361
12.204186439514 -68.079483032227 -162.621612548828 4.286592483521
21.318603515625 -72.924667358398 -148.047409057617 2.016193628311
1.535670042038 -71.043891906738 -162.683319091797 1.753000736237
21.075683593750 -70.802696228027 -155.866958618164 1.899529457092
29.330102920532 -73.138084411621 -163.531356811523 0.188561156392
-47.062156677246 -74.683891296387 -163.021240234375 1.435800790787
-33.431198120117 -72.527076721191 -161.422531127930 0.572320103645
-38.239696502686 -71.462432861328 -161.443817138672 1.600923657417
29.230825424194 -72.970573425293 -162.780288696289 0.659223556519
-45.293586730957 -72.706443786621 -167.181182861328 1.174394965172
-42.462829589844 -72.633705139160 -163.133789062500 1.490035295486
20.251630783081 -73.953094482422 -164.563522338867 1.849108099937
-41.742794036865 -72.167518615723 -173.543869018555 1.837023139000
30.884975433350 -70.319702148438 -172.610412597656 2.701094865799
115.742973327637 -70.305435180664 -165.100616455078 2.148883342743
-32.528823852539 -71.596549987793 -173.358383178711 1.804857254028
105.925506591797 -69.768066406250 -171.215225219727 2.291501283646
-34.138236999512 -69.834465026855 -177.906005859375 1.670347332954
-38.007720947266 -73.003295898438 -180.489959716797 1.597355127335
17.708736419678 -73.897026062012 -175.284515380859 0.922128438950
103.277183532715 -69.615196228027 -180.002990722656 2.353290557861
-29.071857452393 -71.452880859375 -184.132934570313 0.956977665424
-32.291725158691 -68.033500671387 -174.564407348633 1.404060602188
-23.150308609009 -73.437965393066 -186.846176147461 2.282806158066
-147.328567504883 -75.807167053223 -188.823944091797 2.199705123901
13.914894104004 -73.766181945801 -183.148880004883 1.427206516266
106.393623352051 -70.221076965332 -191.977920532227 1.620436310768
-157.799118041992 -71.980880737305 -195.267562866211 1.356177210808
-26.257505416870 -72.231071472168 -191.541107177734 0.939625620842
-115.465553283691 -70.581176757813 -196.210662841797 0.966840803623
-132.227218627930 -72.546569824219 -198.365890502930 1.411381959915
-108.629898071289 -70.247901916504 -201.845626831055 2.960157871246
-110.966773986816 -69.394462585449 -200.689788818359 1.643484354019
-15.579413414001 -69.426422119141 -198.764877319336 2.129688978195
19.371444702148 -73.311584472656 -197.716461181641 1.576638221741
-19.531524658203 -66.254730224609 -201.447219848633 0.693032801151
-125.147834777832 -70.469467163086 -204.257751464844 1.398859858513
-24.616878509521 -69.997077941895 -207.350433349609 3.845092058182
-130.522506713867 -74.924163818359 -204.041946411133 2.561709403992
-12.233440399170 -69.438659667969 -202.297805786133 2.007750749588
-144.434768676758 -71.794082641602 -205.014785766602 0.788764476776
90.859184265137 -70.578872680664 -208.855209350586 0.699284434319
-165.296401977539 -72.097961425781 -204.225875854492 1.746518135071
-1.827517986298 -73.409606933594 -214.038497924805 1.844488382339
12.017647743225 -67.234558105469 -211.329025268555 2.072618722916
9.382758140564 -68.103027343750 -216.827178955078 1.912615656853
83.130714416504 -70.566566467285 -218.381256103516 0.519300162792
4.601655006409 -68.802497863770 -215.425598144531 4.140338420868
15.038867950439 -71.488281250000 -214.217102050781 0.538815259933
-15.006811141968 -75.602905273438 -214.420379638672 1.906843900681
-89.484405517578 -71.344245910645 -216.279037475586 1.220004558563
-100.013259887695 -72.815170288086 -218.025222778320 1.794647336006
-3.469321966171 -70.191383361816 -221.434631347656 0.429556220770
-168.047378540039 -71.921768188477 -229.168838500977 2.102506160736
12.239915847778 -69.492713928223 -220.767868041992 1.732984542847
-143.437133789063 -72.439254760742 -224.088623046875 1.037767529488
11.923864364624 -69.045265197754 -225.946105957031 2.109548807144
-134.147247314453 -72.125389099121 -223.605133056641 1.522897958755
-116.164581298828 -71.172157287598 -228.140609741211 1.404298543930
18.196462631226 -67.126991271973 -224.111389160156 4.733394145966
75.077156066895 -70.223274230957 -227.894073486328 2.017056226730
5.036189079285 -68.865463256836 -225.146163940430 2.002085685730
-113.972366333008 -73.105018615723 -225.251129150391 2.436024665833
75.003196716309 -70.150909423828 -227.530090332031 1.964584231377
79.854629516602 -71.898712158203 -230.924407958984 2.081068277359
-122.646263122559 -71.895034790039 -231.921035766602 0.624756991863
-117.830757141113 -73.138534545898 -232.975982666016 2.227002382278
-11.264077186584 -70.579101562500 -231.683349609375 0.769281208515
70.251586914063 -72.900672912598 -228.658203125000 1.839247345924
66.265747070313 -69.694168090820 -235.723022460938 2.014004707336
73.432487487793 -69.801788330078 -232.927795410156 1.545433402061
-133.526885986328 -72.745796203613 -237.762557983398 3.926033020020
70.009674072266 -74.101333618164 -234.706222534180 1.140970468521
65.447006225586 -72.821739196777 -235.828948974609 1.476025819778
-167.247451782227 -73.680053710938 -229.029632568359 1.959905147552
-0.375703990459 -73.246032714844 -241.207794189453 0.997762322426
15.875324249268 -70.222473144531 -243.815872192383 1.803657650948
-4.318597793579 -72.177101135254 -241.961776733398 1.580998539925
14.179281234741 -72.748703002930 -242.568649291992 1.635436058044
67.347274780273 -71.955451965332 -240.138732910156 1.323653697968
10.554517745972 -73.576133728027 -240.786285400391 1.832783341408
-8.402490615845 -67.630264282227 -243.888961791992 2.362833976746
-2.288183927536 -71.241836547852 -244.698577880859 2.135484933853
65.837509155273 -70.524879455566 -244.730010986328 2.438705921173
6.063064098358 -73.243003845215 -245.400756835938 2.287353992462
-9.585613250732 -71.211853027344 -241.588897705078 1.123533964157
14.432534217834 -72.364852905273 -246.560729980469 2.266678810120
-166.236068725586 -67.964881896973 -242.130554199219 1.495369911194
60.376445770264 -68.854927062988 -249.261718750000 2.625737667084
52.413265228271 -69.694061279297 -250.434631347656 0.964796185493
56.306526184082 -73.449150085449 -242.174819946289 1.484434008598
-13.490243911743 -70.390045166016 -251.433685302734 2.248823165894
55.262809753418 -73.261672973633 -246.352554321289 2.971703290939
-73.574966430664 -72.248237609863 -249.285308837891 1.614109158516
51.665924072266 -71.884124755859 -251.067108154297 1.272272944450
-89.566444396973 -73.005836486816 -254.736251831055 1.773015499115
-127.228981018066 -73.410469055176 -254.939254760742 1.918145298958
-134.381225585938 -67.809272766113 -253.682723999023 0.956632316113
48.623851776123 -69.664665222168 -255.880493164063 2.437197208405
-137.181213378906 -69.686058044434 -257.475799560547 2.787183284760
-107.637428283691 -76.111907958984 -254.977798461914 3.921911478043
-112.406074523926 -69.934288024902 -258.425994873047 1.894726276398
-83.941673278809 -71.856712341309 -253.401367187500 2.679309368134
-112.301658630371 -72.757942199707 -263.366333007813 2.312603712082
-124.586326599121 -69.466506958008 -265.442291259766 2.214898347855
-144.735061645508 -70.336288452148 -266.880584716797 0.997945904732
-13.478114128113 -71.851814270020 -261.533477783203 2.094032764435
-170.884185791016 -70.248435974121 -267.061676025391 4.243297100067
-11.022172927856 -73.144248962402 -272.050109863281 2.671973705292
-158.736587524414 -67.099075317383 -267.243316650391 2.868461370468
-153.935638427734 -68.030548095703 -274.276214599609 2.571938753128
-168.839035034180 -67.051322937012 -275.954864501953 3.531489372253
-12.483746528625 -68.226600646973 -276.386199951172 2.614154815674
-133.580062866211 -71.180679321289 -284.434844970703 0.580561995506
-158.151199340820 -68.238037109375 -288.501556396484 2.976688146591
-143.940841674805 -70.113647460938 -282.844238281250 1.555182576180
-135.856002807617 -73.153099060059 -285.586334228516 0.890894889832
-8.784969329834 -69.970161437988 -283.147216796875 0.804763913155
-124.510581970215 -74.646545410156 -284.309020996094 1.062478780746
-141.721450805664 -71.340454101563 -286.542022705078 1.460297703743
-114.932586669922 -69.293716430664 -286.462890625000 1.153971433640
-77.168090820313 -68.886970520020 -289.530761718750 1.154575705528
-62.017189025879 -70.341285705566 -285.354461669922 2.084387302399
-5.309765815735 -70.776176452637 -288.780975341797 0.609884023666
-50.842227935791 -71.117614746094 -290.532623291016 1.104736924171
-60.588687896729 -71.295516967773 -288.490692138672 1.952640295029
-69.276222229004 -68.607353210449 -291.622680664063 2.077717304230
-86.798271179199 -71.236381530762 -295.212707519531 3.952524185181
-102.441261291504 -65.759819030762 -290.157165527344 3.185846805573
-160.406661987305 -69.692138671875 -291.861022949219 0.896912038326
-158.225433349609 -70.065307617188 -290.924316406250 2.144294738770
-126.324836730957 -72.274551391602 -297.130462646484 2.430858850479
-145.084533691406 -70.685623168945 -295.167114257813 1.590162873268
-156.789627075195 -69.658912658691 -300.664184570313 1.634784579277
-147.070144653320 -70.318077087402 -316.698791503906 3.821239471436
45.927330017090 -73.099250793457 -19.836526870728 2.310130119324
19.022270202637 -79.753166198730 -26.700233459473 7.787332057953
43.219844818115 -74.811660766602 -36.433261871338 3.998599529266
-18.962781906128 -75.807716369629 -66.806709289551 2.095338821411
80.604652404785 -72.543968200684 -66.399749755859 2.427486896515
84.954856872559 -68.869583129883 -69.810119628906 3.460614681244
75.789306640625 -72.067848205566 -70.796791076660 0.844871282578
75.681533813477 -73.026565551758 -68.335067749023 2.085398435593
94.438636779785 -75.123275756836 -73.919593811035 2.389854192734
-95.890647888184 -74.920478820801 -73.095069885254 5.462008953094
69.016342163086 -75.142433166504 -77.817604064941 3.415826797485
-36.581798553467 -71.019126892090 -77.321525573730 0.989423573017
98.917945861816 -73.868934631348 -87.193664550781 1.047438621521
62.535892486572 -76.951583862305 -89.844322204590 5.404605865479
108.317390441895 -72.946617126465 -93.001388549805 3.932076454163
105.261734008789 -74.823043823242 -98.256477355957 1.342741250992
70.839752197266 -74.122848510742 -98.132415771484 2.641275644302
-78.496978759766 -74.971656799316 -99.954788208008 1.261476993561
54.897594451904 -74.465728759766 -106.570892333984 3.328618049622
106.575416564941 -73.482780456543 -105.684616088867 1.413593053818
48.573966979980 -77.259780883789 -113.166625976563 1.691305756569
83.045768737793 -73.099945068359 -102.964744567871 2.362138032913
42.602409362793 -76.090789794922 -109.473289489746 1.335286378860
106.159538269043 -71.016426086426 -101.398254394531 0.943966984749
47.854629516602 -71.620010375977 -107.994567871094 1.381503105164
110.612205505371 -74.633430480957 -112.422729492188 1.084961533546
107.860992431641 -72.077873229980 -115.432441711426 1.816927194595
-78.971862792969 -67.820083618164 -114.548522949219 3.071406364441
-78.938140869141 -72.545631408691 -116.540031433105 2.594506025314
42.947196960449 -73.217445373535 -119.526802062988 3.053912401199
115.137825012207 -69.783782958984 -117.988288879395 2.207475662231
115.100410461426 -69.959205627441 -122.772285461426 1.764169096947
-82.213752746582 -72.484626770020 -127.371002197266 3.141096591949
107.823112487793 -71.539718627930 -122.630691528320 1.615429282188
-63.442104339600 -73.224929809570 -134.518463134766 4.460020542145
-88.033927917480 -70.739356994629 -127.528984069824 1.812281966209
-75.117683410645 -71.064247131348 -129.239974975586 1.551084518433
-57.679576873779 -67.827850341797 -126.044898986816 0.301306545734
33.771751403809 -71.359039306641 -130.243881225586 0.947329819202
41.287616729736 -72.120025634766 -134.084167480469 2.372245550156
-75.507369995117 -73.029006958008 -136.564666748047 2.105303764343
28.260917663574 -70.694419860840 -131.503601074219 0.965664148331
106.800361633301 -73.351860046387 -137.266036987305 2.716875791550
-40.671905517578 -72.225021362305 -148.498519897461 0.949500918388
25.366889953613 -70.515747070313 -146.801940917969 1.409649610519
112.142440795898 -67.338775634766 -146.216369628906 2.559839010239
34.988784790039 -73.114784240723 -144.300018310547 1.208801865578
111.058937072754 -72.327293395996 -143.606597900391 1.397756338120
-54.725330352783 -72.879020690918 -148.669494628906 1.641530036926
-67.335342407227 -73.671653747559 -150.483001708984 1.407646179199
-52.831691741943 -74.035087585449 -155.418563842773 1.719418644905
-43.845615386963 -71.080787658691 -167.908645629883 0.820643484592
3.226476907730 -69.964340209961 -154.909194946289 2.886226177216
110.437377929688 -67.844177246094 -154.605209350586 1.962316036224
108.434349060059 -70.120056152344 -160.108932495117 2.330568313599
8.855275154114 -67.620544433594 -159.876480102539 2.608716487885
2.507801055908 -71.506866455078 -161.580474853516 0.552182137966
15.186520576477 -70.069389343262 -159.103805541992 1.258595943451
22.082231521606 -70.633407592773 -151.907363891602 0.720685124397
113.706176757813 -73.325431823730 -165.951492309570 2.343733310699
106.821716308594 -72.783317565918 -171.336135864258 1.795575022697
25.412048339844 -70.017257690430 -173.151351928711 2.170471906662
26.672182083130 -70.410316467285 -163.779724121094 2.309684991837
114.492706298828 -70.841865539551 -162.253692626953 1.282849311829
