11.122304916382 -74.967773437500 -156.124176025391 1.692840814590
34.355365753174 -71.074348449707 -155.193634033203 1.952949047089
28.833036422729 -73.827033996582 -149.379531860352 3.413623809814
9.759229660034 -76.585311889648 -155.090988159180 3.316262960434
-46.921382904053 -70.809982299805 -153.746795654297 1.434037208557
27.111400604248 -72.688179016113 -152.030517578125 3.225441694260
-45.291004180908 -73.708541870117 -149.414596557617 2.390762329102
7.745091915131 -74.638221740723 -151.554718017578 3.022208452225
22.534843444824 -74.032981872559 -148.722213745117 2.455176115036
-71.077827453613 -74.854309082031 -154.511337280273 2.177059650421
-43.963230133057 -72.160888671875 -154.846725463867 2.700957775116
-68.348983764648 -69.897422790527 -159.923538208008 1.340175747871
13.739857673645 -68.724937438965 -161.915100097656 3.019455432892
22.756742477417 -73.749717712402 -147.341033935547 1.884067893028
3.030997037888 -71.539268493652 -162.008041381836 0.848301291466
22.558994293213 -71.596481323242 -155.153320312500 1.619467258453
30.794977188110 -74.019813537598 -162.810241699219 1.703689455986
-45.612297058105 -74.496437072754 -162.452484130859 1.351591110229
-31.955635070801 -72.536659240723 -160.819793701172 1.773557186127
-36.748691558838 -71.404647827148 -160.846466064453 2.122435331345
30.696575164795 -73.853622436523 -162.058776855469 1.638321042061
-43.807998657227 -72.529045104980 -166.601837158203 1.031382441521
-40.984481811523 -72.510528564453 -162.548782348633 2.537940025330
21.708028793335 -74.703765869141 -163.862792968750 1.582448601723
-40.237464904785 -72.017105102539 -172.955703735352 0.594041526318
32.407081604004 -71.190917968750 -171.876052856445 4.019626140594
117.241973876953 -72.393150329590 -164.203247070313 2.996506214142
-31.016780853271 -71.576019287109 -172.750442504883 1.638723254204
107.445075988770 -71.696258544922 -170.334716796875 1.833743214607
-32.592380523682 -69.775230407715 -177.294754028320 2.238176584244
-36.500778198242 -72.880210876465 -179.897583007813 0.251052290201
19.187313079834 -74.573562622070 -174.588394165039 1.518244862556
104.816482543945 -71.474723815918 -179.126937866211 1.297305226326
-27.536905288696 -71.442131042480 -183.517745971680 1.796498656273
-30.727407455444 -68.012329101563 -173.943115234375 2.455197572708
-21.638412475586 -73.500274658203 -186.226776123047 1.434030771255
-145.833526611328 -74.121414184570 -188.451660156250 1.253452897072
15.411189079285 -74.361305236816 -182.459487915039 1.955959439278
107.947731018066 -72.081222534180 -191.097991943359 1.296392679214
-156.236724853516 -70.125610351563 -194.901489257813 1.270390510559
-24.719133377075 -72.233085632324 -190.923278808594 2.106189012527
-113.885917663574 -69.316093444824 -195.758193969727 0.714465200901
-130.669204711914 -71.038581848145 -197.952713012695 2.246789932251
-107.035171508789 -69.058433532715 -201.378768920898 3.586249351501
-109.362136840820 -68.176483154297 -200.224349975586 1.419854640961
-13.988573074341 -69.552474975586 -198.116333007813 2.252711057663
20.902284622192 -73.930931091309 -197.014831542969 1.066345453262
-17.890562057495 -66.316085815430 -200.794769287109 2.256804227829
-123.549804687500 -69.039772033691 -203.823410034180 1.574884295464
-23.016201019287 -69.965553283691 -206.721237182617 2.589659214020
-128.986770629883 -73.419441223145 -203.634048461914 2.443648338318
-10.636141777039 -69.598930358887 -201.642837524414 2.366173982620
-142.851867675781 -70.091163635254 -204.622283935547 1.716595649719
92.443115234375 -72.160614013672 -208.006271362305 1.047362327576
-163.717239379883 -70.105415344238 -203.874557495117 1.871117830276
-0.263749986887 -73.673171997070 -213.377807617188 3.557986736298
13.661205291748 -67.702575683594 -210.619430541992 2.637893199921
11.025252342224 -68.514274597168 -216.125732421875 1.836412191391
84.734367370605 -72.005760192871 -217.547042846680 1.551903367043
6.232062816620 -69.151679992676 -214.735885620117 2.406127691269
16.628219604492 -71.987831115723 -213.517074584961 1.740159392357
-13.471700668335 -75.680114746094 -213.792953491211 1.750837802887
-87.878501892090 -70.371215820313 -215.779266357422 1.112129211426
-98.423469543457 -71.688125610352 -217.550979614258 0.716374695301
-1.845718026161 -70.405708312988 -220.765396118164 1.127127051353
-166.416290283203 -69.801101684570 -228.821960449219 1.132457852364
13.870421409607 -69.929718017578 -220.065933227539 1.137356758118
-141.825775146484 -70.681762695313 -223.696380615234 1.032999396324
13.570879936218 -69.459289550781 -225.243118286133 2.316185474396
-132.533370971680 -70.499885559082 -223.193923950195 1.614681839943
-114.530212402344 -69.782546997070 -227.691375732422 1.426535606384
19.866109848022 -67.635734558105 -223.389419555664 5.142850875854
76.705177307129 -71.515449523926 -227.074020385742 1.043300509453
6.684835910797 -69.185821533203 -224.455764770508 1.924886941910
-112.370994567871 -71.756317138672 -224.804687500000 1.846920132637
76.631530761719 -71.443367004395 -226.709915161133 1.154313683510
81.464675903320 -73.246803283691 -230.101211547852 1.504788637161
-121.013923645020 -70.400917053223 -231.486831665039 2.569015502930
-116.214233398438 -71.708000183105 -232.537017822266 1.551790833473
-9.624917984009 -70.647315979004 -231.030410766602 1.069108128548
71.844085693359 -74.122184753418 -227.857086181641 1.664848089218
67.917503356934 -70.834770202637 -234.917907714844 1.614785075188
75.076515197754 -71.052879333496 -232.109329223633 1.096040129662
-131.893859863281 -71.078086853027 -237.352279663086 3.136413812637
71.597305297852 -75.297607421875 -233.909881591797 1.457611441612
67.055236816406 -73.950157165527 -235.036727905273 2.613619804382
-165.641342163086 -71.570922851563 -228.687591552734 1.373038768768
1.243777036667 -73.432395935059 -240.543502807617 1.853698968887
17.540681838989 -70.627593994141 -243.109405517578 2.380050659180
-2.682259082794 -72.305595397949 -241.301193237305 1.465664982796
15.806955337524 -73.134262084961 -241.874603271484 1.775976657867
68.975944519043 -73.095123291016 -239.339691162109 1.879310131073
12.167448043823 -73.917190551758 -240.102203369141 1.545670270920
-6.698237895966 -67.695075988770 -243.219757080078 2.236280441284
-0.633548974991 -71.389068603516 -244.030685424805 1.618486404419
67.495429992676 -71.627044677734 -243.928649902344 2.918468236923
7.690208911896 -73.504562377930 -244.724060058594 1.903134107590
-7.935958862305 -71.267959594727 -240.934936523438 0.224820613861
16.073431015015 -72.739669799805 -245.864761352539 1.152919888496
-164.524169921875 -65.823478698730 -241.765777587891 3.145821332932
62.067245483398 -69.864440917969 -248.464767456055 2.867120265961
54.095417022705 -70.587654113770 -249.656021118164 1.988063931465
57.919391632080 -74.426582336426 -241.402359008789 1.987392067909
-11.809274673462 -70.356147766113 -250.784179687500 2.634122371674
56.886642456055 -74.209487915039 -245.581405639648 1.617051005363
-71.918251037598 -71.379600524902 -248.757980346680 1.364341616631
53.318714141846 -72.764732360840 -250.297836303711 2.016818284988
-87.907997131348 -71.893379211426 -254.242324829102 2.495999813080
-125.572029113770 -71.769294738770 -254.519149780273 1.068762660027
-132.647552490234 -66.072937011719 -253.256088256836 2.847081422806
50.317531585693 -70.485580444336 -255.108993530273 3.138527870178
-135.466079711914 -67.896659851074 -257.061309814453 0.893738090992
-106.020217895508 -74.744949340820 -254.529830932617 2.953437089920
-110.695030212402 -68.488739013672 -257.964813232422 2.076943874359
-82.270317077637 -70.828018188477 -252.892501831055 2.525714397430
-110.620437622070 -71.295822143555 -262.915130615234 1.388988614082
-122.853675842285 -67.825073242188 -265.002746582031 2.405197620392
-143.009735107422 -68.407157897949 -266.482879638672 2.773818731308
-11.797714233398 -71.781661987305 -260.889160156250 3.671176195145
-169.154663085938 -67.952102661133 -266.713867187500 3.803318977356
-9.339392662048 -73.070632934570 -271.405670166016 4.192288875580
-156.963790893555 -64.972709655762 -266.860809326172 4.416729927063
-152.162521362305 -65.946128845215 -273.887786865234 1.995503187180
-167.047393798828 -64.752059936523 -275.591522216797 4.689607143402
-10.723370552063 -68.117431640625 -275.726715087891 2.113533973694
-131.833084106445 -69.344787597656 -284.018615722656 1.098109602928
-156.352508544922 -66.043411254883 -288.121856689453 1.743625044823
-142.180999755859 -68.138343811035 -282.444061279297 3.469932556152
-134.134155273438 -71.280967712402 -285.181610107422 1.478874802589
-7.036063194275 -69.888381958008 -282.486907958984 2.387548923492
-122.813316345215 -72.937873840332 -283.887908935547 2.577962875366
-139.971740722656 -69.382850646973 -286.141998291016 3.201560258865
-113.157035827637 -67.712135314941 -286.003997802734 2.187571525574
-75.384574890137 -67.823791503906 -288.997833251953 1.857866525650
-60.263797760010 -69.505332946777 -284.797729492188 2.524654150009
-3.561393022537 -70.722793579102 -288.116821289063 1.790423870087
-49.090621948242 -70.419639587402 -289.957183837891 2.914701700211
-58.842628479004 -70.468238830566 -287.934631347656 1.122651457787
-67.485458374023 -67.647323608398 -291.073547363281 3.327398300171
-85.035507202148 -70.017562866211 -294.706726074219 4.264921188354
-100.610168457031 -64.340446472168 -289.661468505859 4.144449710846
-158.621490478516 -67.453689575195 -291.490905761719 3.054309844971
-156.447555541992 -67.860755920410 -290.551361083984 2.037976980209
-124.568878173828 -70.494659423828 -296.704162597656 3.160082101822
-143.308303833008 -68.649978637695 -294.771118164063 2.206909179688
-154.986999511719 -67.439552307129 -300.286926269531 1.598217844963
-145.246124267578 -68.177314758301 -316.305114746094 4.691544055939
47.107784271240 -74.729652404785 -19.084562301636 3.679125547409
20.125722885132 -80.981071472168 -26.023975372314 8.949337959290
44.409297943115 -76.344329833984 -35.692558288574 4.784388542175
-17.721174240112 -76.359542846680 -66.188819885254 3.320270299911
81.881217956543 -74.493316650391 -65.578781127930 3.951756477356
86.289192199707 -70.868049621582 -68.967468261719 1.873742461205
77.081687927246 -73.933959960938 -69.983314514160 2.139985561371
76.955642700195 -74.899909973145 -67.525291442871 4.191076755524
95.692497253418 -77.239273071289 -73.081321716309 4.489366531372
-94.616508483887 -74.371452331543 -72.621704101563 4.135405540466
70.280174255371 -76.888069152832 -77.028205871582 4.562931537628
-35.250602722168 -71.286712646484 -76.720069885254 1.024387836456
100.215103149414 -76.000183105469 -86.342140197754 3.621894121170
63.798732757568 -78.563003540039 -89.073822021484 7.346714973450
109.637977600098 -75.188873291016 -92.128425598145 6.089659690857
106.566703796387 -77.003395080566 -97.396125793457 3.789040803909
72.157730102539 -75.821197509766 -97.335662841797 2.949868679047
-77.172348022461 -74.569992065430 -99.447967529297 1.148904442787
56.229007720947 -75.910263061523 -105.805931091309 3.413604259491
107.913673400879 -75.655014038086 -104.816833496094 1.466701626778
49.879867553711 -78.591690063477 -112.423873901367 2.252075195313
84.386390686035 -74.952148437500 -102.140800476074 3.167730808258
43.918006896973 -77.352378845215 -108.737808227539 1.420981526375
107.523941040039 -73.198478698730 -100.522384643555 0.793003976345
49.229423522949 -72.961006164551 -107.232826232910 2.436111927032
111.947227478027 -76.837936401367 -111.551300048828 3.274755954742
109.238029479980 -74.233268737793 -114.557022094727 1.793596148491
-77.518203735352 -67.360107421875 -114.016624450684 2.038170814514
-77.546768188477 -72.078475952148 -116.025146484375 1.790191054344
44.322837829590 -74.448066711426 -118.780174255371 2.294459104538
116.551315307617 -72.032249450684 -117.090568542480 2.935051202774
116.520874023438 -72.189949035645 -121.875244140625 2.480705261230
-80.799850463867 -71.932670593262 -126.862106323242 2.664112091064
109.221878051758 -73.668792724609 -121.753349304199 1.696902275085
-62.026359558105 -72.910362243652 -133.976119995117 2.945125341415
-86.594673156738 -70.105422973633 -127.024948120117 2.191925048828
-73.680900573730 -70.605201721191 -128.712280273438 2.296878814697
-56.205497741699 -67.625061035156 -125.472030639648 1.371766209602
35.195476531982 -72.422744750977 -129.508087158203 2.530967235565
42.707500457764 -73.275230407715 -133.336639404297 2.799496412277
-74.083633422852 -72.537986755371 -136.044784545898 1.943181514740
29.696992874146 -71.676429748535 -130.775955200195 0.958786189556
108.202697753906 -75.413848876953 -136.397094726563 2.615371704102
-39.216869354248 -72.179550170898 -147.908706665039 2.119904279709
26.835920333862 -71.402267456055 -146.079101562500 1.822678089142
113.646141052246 -69.444137573242 -145.315338134766 1.987075448036
36.415504455566 -74.144897460938 -143.568115234375 1.792514085770
112.487701416016 -74.426315307617 -142.725723266602 1.971505403519
-53.277709960938 -72.635864257813 -148.109039306641 1.703443288803
-65.893989562988 -73.245140075684 -149.949615478516 0.879731595516
-51.387149810791 -73.794120788574 -154.858612060547 0.864786267281
-42.335960388184 -70.921249389648 -167.320632934570 1.174265265465
4.721433162689 -70.511444091797 -154.226821899414 2.678628444672
111.950698852539 -69.895462036133 -153.709213256836 0.970860660076
109.926841735840 -72.123260498047 -159.224960327148 1.265081882477
10.392299652100 -68.228958129883 -159.174774169922 1.564276218414
3.994369983673 -72.019783020020 -160.905014038086 1.528236746788
16.687076568604 -70.769073486328 -158.398803710938 1.177504181862
23.560007095337 -71.455535888672 -151.191207885742 1.704385638237
115.164749145508 -75.381225585938 -165.068954467773 2.417487382889
108.299186706543 -74.723320007324 -170.464813232422 1.889139175415
26.940006256104 -70.809844970703 -172.426406860352 1.320078611374
28.176031112671 -71.254173278809 -163.053848266602 1.776717185974
115.978706359863 -72.922218322754 -161.360687255859 0.671593785286
-28.620563507080 -70.090614318848 -173.877502441406 0.431370764971
112.833137512207 -71.659362792969 -169.279647827148 1.964752554893
20.602533340454 -69.096168518066 -175.667922973633 1.590665340424
19.667303085327 -73.609001159668 -165.033981323242 1.540939450264
110.302970886230 -71.784812927246 -175.575714111328 1.833576560020
25.604614257813 -72.003639221191 -170.135559082031 2.257993459702
111.443939208984 -70.935729980469 -180.565490722656 1.869429349899
-37.975677490234 -69.411613464355 -176.049560546875 2.005342960358
28.531824111938 -69.445495605469 -172.291549682617 1.112999200821
109.109657287598 -71.958732604980 -183.825912475586 1.434523701668
25.522104263306 -70.473686218262 -178.194458007813 2.314239978790
-151.718048095703 -67.061714172363 -183.620086669922 3.456284999847
-29.615816116333 -70.537689208984 -188.155807495117 1.646822690964
26.575565338135 -72.701614379883 -184.966476440430 1.950565695763
-110.650558471680 -69.717536926270 -193.733291625977 1.157770276070
-110.143112182617 -70.746376037598 -189.713668823242 1.577959775925
23.059684753418 -69.146911621094 -191.283569335938 2.118127822876
13.960629463196 -72.380424499512 -186.073684692383 1.189661979675
-25.103090286255 -72.702720642090 -191.073074340820 2.015140533447
-27.854187011719 -71.625999450684 -187.590454101563 1.989889740944
-24.361148834229 -72.134353637695 -185.521453857422 1.844961643219
21.172763824463 -73.610321044922 -178.832992553711 3.623043298721
-150.946472167969 -69.051223754883 -193.809951782227 1.011810302734
-143.964553833008 -70.887023925781 -198.234756469727 2.044978380203
-139.917129516602 -69.386009216309 -194.741912841797 1.131515741348
-18.173364639282 -68.379829406738 -191.391860961914 1.466193199158
15.854095458984 -70.883102416992 -198.781509399414 2.322073459625
100.559997558594 -73.217590332031 -195.079681396484 1.025901317596
-113.723434448242 -69.341812133789 -201.662017822266 1.490368008614
20.108789443970 -69.854103088379 -200.794952392578 0.541166067123
-15.490971565247 -69.841674804688 -195.736251831055 1.176836013794
-17.186851501465 -69.474403381348 -196.776611328125 0.794172227383
99.317413330078 -71.633064270020 -199.736968994141 1.497723221779
9.953897476196 -72.447433471680 -199.438674926758 1.747653245926
-23.426231384277 -69.780403137207 -195.019119262695 2.163735389709
-120.573585510254 -71.107154846191 -202.404418945313 1.338713049889
-132.724441528320 -68.082252502441 -201.401290893555 2.449618101120
-109.695198059082 -67.625556945801 -206.183685302734 4.534220218658
-143.096664428711 -69.544403076172 -204.470870971680 1.854141235352
21.547729492188 -72.013961791992 -197.185012817383 1.113339662552
97.167648315430 -73.406173706055 -206.203628540039 3.084490299225
-165.285964965820 -67.619491577148 -205.636688232422 2.181886434555
102.194869995117 -72.481819152832 -202.741897583008 2.576707363129
-15.636941909790 -70.444030761719 -209.284164428711 1.874115228653
93.882530212402 -76.047843933105 -213.225326538086 0.827394008636
91.290893554688 -69.672309875488 -216.434402465820 1.437911033630
13.833194732666 -69.795928955078 -210.853073120117 1.389750361443
17.649944305420 -71.440963745117 -210.285980224609 1.621996641159
12.105332374573 -70.789054870605 -210.177551269531 1.869708180428
-8.336577415466 -69.848922729492 -219.255569458008 1.244046211243
-95.940444946289 -68.631195068359 -218.277801513672 0.795735955238
-5.804595947266 -71.921783447266 -217.601760864258 2.606338262558
92.827209472656 -70.608322143555 -213.689620971680 2.017750263214
-90.685066223145 -71.123886108398 -221.096389770508 2.302191257477
-100.981735229492 -71.145820617676 -220.950698852539 2.273227214813
-92.360656738281 -69.406143188477 -220.126647949219 1.653112053871
89.626335144043 -73.654060363770 -221.139678955078 1.495872735977
-133.002517700195 -70.542770385742 -226.749114990234 1.586135745049
-131.912033081055 -63.464389801025 -229.446487426758 1.608183622360
-117.299911499023 -68.223449707031 -227.016601562500 1.477895855904
-111.313270568848 -66.959907531738 -226.000686645508 1.490530133247
-131.599441528320 -67.336387634277 -223.307708740234 1.673781037331
-106.299346923828 -74.431007385254 -227.369857788086 2.560165405273
-112.555488586426 -67.185073852539 -228.428710937500 1.858191490173
-8.385697364807 -68.702499389648 -224.718765258789 1.376537561417
-17.770980834961 -71.797691345215 -225.192031860352 2.354648351669
0.399616986513 -70.540931701660 -232.356185913086 0.964234888554
-7.871946811676 -68.672683715820 -228.465988159180 2.119041919708
16.880029678345 -71.688987731934 -232.055130004883 1.241418957710
-16.300312042236 -70.861412048340 -227.775146484375 1.354757666588
-161.843154907227 -68.529815673828 -224.723052978516 1.526743650436
-0.688921988010 -68.963951110840 -231.256530761719 2.110575199127
83.083984375000 -71.692459106445 -228.713073730469 1.303236722946
9.886812210083 -69.509017944336 -235.737808227539 1.421938776970
-7.354008197784 -69.311851501465 -230.290161132813 1.645781159401
-154.029998779297 -65.000152587891 -235.141052246094 2.365792512894
-137.695831298828 -69.659088134766 -234.122451782227 3.341984987259
69.461158752441 -67.814170837402 -235.353881835938 2.229391098022
-5.413108825684 -69.910308837891 -234.315093994141 1.158494114876
5.029530048370 -69.731277465820 -234.363693237305 1.642168998718
73.221824645996 -70.689514160156 -237.117111206055 2.077983856201
78.788925170898 -72.341651916504 -235.051773071289 2.035688400269
69.377571105957 -73.330947875977 -237.224060058594 1.768414139748
-0.673416972160 -68.437377929688 -236.246597290039 1.132138013840
57.092685699463 -70.835075378418 -238.703170776367 2.419250726700
-15.307464599609 -69.667510986328 -238.718627929688 2.043484687805
-14.486500740051 -68.690490722656 -240.529037475586 2.380868673325
10.570743560791 -70.497016906738 -239.614120483398 0.926372885704
67.739540100098 -70.830589294434 -243.191329956055 2.332219839096
62.062927246094 -71.021980285645 -238.978561401367 1.700280070305
54.087341308594 -67.924201965332 -246.642562866211 1.117351055145
63.250846862793 -72.901786804199 -243.634719848633 0.962316691875
-15.045410156250 -67.868423461914 -248.127990722656 1.690805435181
-82.136878967285 -67.013183593750 -248.752395629883 3.635859727859
-75.579528808594 -65.697731018066 -252.942642211914 5.060946941376
44.434242248535 -70.375419616699 -249.872283935547 1.622086882591
-142.184967041016 -65.504676818848 -250.602844238281 4.757021903992
40.780670166016 -70.747596740723 -257.018066406250 0.798905789852
-86.111160278320 -68.996345520020 -252.277832031250 1.547294497490
-152.567382812500 -67.959472656250 -256.662872314453 2.947752714157
-141.184829711914 -67.078117370605 -256.125030517578 1.530868172646
49.781147003174 -71.600357055664 -251.900039672852 1.984944701195
-124.459091186523 -66.089340209961 -254.311111450195 2.277048587799
-115.280639648438 -67.442100524902 -256.845703125000 1.277705550194
-93.348854064941 -67.478866577148 -255.676834106445 0.941425323486
-14.842825889587 -73.084220886230 -254.503997802734 1.473134994507
33.444995880127 -70.374969482422 -259.252807617188 1.985497474670
24.288545608521 -71.804237365723 -260.960662841797 1.213320136070
-154.670013427734 -67.109046936035 -257.583679199219 2.838011503220
-112.393989562988 -68.762573242188 -263.832519531250 2.812257051468
-11.625582695007 -69.927864074707 -259.941925048828 3.257303714752
-132.881042480469 -67.219390869141 -265.766845703125 1.833816051483
-11.090962409973 -67.652305603027 -271.722259521484 1.629418969154
-162.556976318359 -66.625045776367 -277.949554443359 4.064316272736
-7.917665004730 -66.776977539063 -278.086730957031 1.750406742096
-161.235305786133 -65.164024353027 -290.197296142578 4.665764808655
-157.958679199219 -66.429740905762 -277.907470703125 4.785814285278
-145.976730346680 -65.816543579102 -285.992675781250 1.668283581734
-167.154891967773 -66.521621704102 -284.702545166016 3.244890451431
18.750314712524 -66.151771545410 -287.326171875000 2.732108116150
-102.729705810547 -70.375190734863 -287.035949707031 2.644656181335
-86.042968750000 -66.649932861328 -286.409576416016 3.438733577728
-167.092956542969 -65.993682861328 -285.292846679688 3.942776441574
-88.222518920898 -68.274520874023 -289.270019531250 1.855400919914
-152.604354858398 -69.663398742676 -289.179473876953 2.186272144318
-72.896492004395 -68.700798034668 -290.954772949219 2.959081649780
-65.972091674805 -67.992858886719 -289.792602539063 3.336567640305
-79.920387268066 -66.511535644531 -290.686401367188 4.124227523804
-1.708973050117 -64.477645874023 -288.800720214844 0.986974358559
-82.930290222168 -68.457817077637 -292.062408447266 1.930530071259
-96.212562561035 -67.747741699219 -291.894012451172 2.277138471603
-114.546897888184 -66.919113159180 -293.337554931641 2.383514404297
-114.715774536133 -66.002212524414 -294.635040283203 3.909297227859
-135.486907958984 -63.093540191650 -293.583099365234 4.316066265106
-141.025878906250 -71.601928710938 -301.046478271484 2.861559629440
-142.988265991211 -70.333854675293 -311.658813476563 1.881885528564
25.321001052856 -75.361961364746 -17.096200942993 3.028153657913
30.746519088745 -72.708488464355 -21.077947616577 3.044609308243
29.985401153564 -77.266761779785 -17.809064865112 4.879090309143
45.738712310791 -76.282081604004 -24.803020477295 4.510971546173
24.095890045166 -76.254119873047 -31.647811889648 4.012717247009
-77.412857055664 -70.996963500977 -49.943870544434 2.493729352951
87.703155517578 -73.329299926758 -64.174545288086 3.761968612671
-12.904971122742 -73.184120178223 -68.055488586426 2.851748704910
101.673660278320 -74.766624450684 -71.415237426758 6.431492805481
96.856971740723 -72.908035278320 -77.209335327148 1.332922220230
72.271728515625 -78.031547546387 -80.227867126465 3.190563201904
68.631355285645 -72.944664001465 -85.217384338379 2.174448013306
-46.948074340820 -72.669494628906 -82.874343872070 2.109538078308
61.075798034668 -73.538787841797 -82.311584472656 4.636279106140
-97.343627929688 -71.979644775391 -88.652626037598 2.462000370026
-49.212852478027 -71.940711975098 -88.037681579590 1.462293744087
-55.340511322021 -77.003723144531 -87.870674133301 3.681613206863
97.568725585938 -75.068313598633 -96.147209167480 2.477841377258
57.769748687744 -74.615386962891 -98.711212158203 1.873575568199
63.121376037598 -71.366790771484 -91.127212524414 1.889242410660
-95.191925048828 -69.839454650879 -96.000381469727 1.952165365219
109.220878601074 -71.910820007324 -94.394409179688 3.233068704605
47.922489166260 -72.718833923340 -95.684288024902 1.308538913727
101.661071777344 -72.429100036621 -97.003456115723 1.233940958977
106.931976318359 -73.153800964355 -105.834335327148 1.461570501328
102.269477844238 -72.775039672852 -104.311279296875 1.949065685272
75.078330993652 -72.473953247070 -103.755554199219 2.410208940506
87.329719543457 -73.409141540527 -105.886077880859 2.791012048721
48.453243255615 -75.219573974609 -110.577423095703 1.207711935043
109.775199890137 -72.718750000000 -106.442131042480 1.430184602737
46.406276702881 -72.918060302734 -108.342742919922 2.904431819916
46.133460998535 -70.529838562012 -100.993217468262 1.489300727844
109.593505859375 -74.710281372070 -113.450370788574 0.549754917622
-78.422256469727 -69.188949584961 -109.364120483398 1.612368345261
48.148036956787 -71.434074401855 -113.730300903320 1.113592743874
36.917533874512 -72.880653381348 -112.298423767090 2.195082902908
106.733505249023 -73.584114074707 -108.117462158203 0.916308104992
43.635643005371 -71.126823425293 -112.366928100586 1.643955111504
-88.767059326172 -69.804351806641 -117.998374938965 2.353850603104
-96.285636901855 -69.971916198730 -116.544174194336 0.525984406471
109.025352478027 -71.215568542480 -120.086746215820 1.021374702454
-92.368927001953 -74.125732421875 -117.563003540039 0.390505164862
39.854015350342 -71.302291870117 -122.639877319336 1.085810542107
38.007244110107 -71.632019042969 -117.367614746094 0.973657429218
-78.664413452148 -71.255187988281 -124.179405212402 2.439635276794
30.436235427856 -69.506607055664 -131.564865112305 1.128682971001
109.987037658691 -73.244499206543 -132.312530517578 2.021915912628
-48.484142303467 -70.981201171875 -136.153991699219 1.274681210518
-88.165512084961 -71.266372680664 -130.962646484375 1.648658514023
36.898021697998 -72.437500000000 -136.122680664063 0.423424303532
-88.299011230469 -69.619659423828 -135.634658813477 1.085710525513
-89.592506408691 -71.885482788086 -136.463241577148 2.283870697021
-47.247642517090 -73.497772216797 -136.755477905273 1.253226161003
-70.917327880859 -71.084754943848 -139.773239135742 0.945717036724
-49.278907775879 -70.193031311035 -137.348815917969 1.040975689888
114.503730773926 -70.881721496582 -138.025573730469 2.362673521042
-74.214225769043 -67.569915771484 -140.857238769531 2.063085556030
36.431941986084 -72.365615844727 -130.437500000000 1.338359355927
-75.934532165527 -68.170715332031 -138.999023437500 1.320230603218
-76.252616882324 -69.317237854004 -134.352279663086 1.417800664902
-86.306434631348 -70.461776733398 -136.764556884766 2.320138692856
-54.210247039795 -70.222999572754 -151.025146484375 1.895413160324
32.354839324951 -69.808776855469 -148.582229614258 1.950928449631
32.071128845215 -70.649002075195 -151.411727905273 2.341054677963
20.040267944336 -69.917366027832 -144.587677001953 1.932752966881
114.297027587891 -74.370544433594 -148.322219848633 1.418788671494
-96.543960571289 -73.435684204102 -155.796508789063 5.019994735718
17.812694549561 -72.100677490234 -148.677703857422 2.001870155334
-69.582679748535 -71.847541809082 -148.571289062500 0.752507388592
24.084224700928 -70.645652770996 -149.604980468750 1.836125850677
-45.107128143311 -69.112693786621 -154.472854614258 0.827755510807
8.823120117188 -68.657264709473 -149.903427124023 2.282538414001
10.297758102417 -70.585586547852 -156.518066406250 2.254857778549
18.715488433838 -70.926254272461 -162.699966430664 2.330191373825
-45.292633056641 -71.166671752930 -163.522537231445 1.224766850471
-39.671905517578 -67.017616271973 -153.356857299805 2.868906021118
-45.170688629150 -68.985313415527 -157.596038818359 2.531568527222
-100.991149902344 -68.451484680176 -170.278335571289 1.785473227501
19.985475540161 -68.094551086426 -171.851333618164 0.497971534729
-36.043624877930 -70.911506652832 -173.730789184570 2.120057344437
14.894487380981 -66.057380676270 -178.064346313477 3.191695213318
-145.138687133789 -72.042297363281 -173.412811279297 2.258106470108
-33.242603302002 -66.670845031738 -174.637893676758 2.045885801315
-151.092407226563 -66.364837646484 -177.127197265625 2.053169012070
20.848665237427 -71.136329650879 -181.350189208984 2.774477243423
-31.504201889038 -72.754920959473 -172.154754638672 1.698498725891
-107.626213073730 -70.950782775879 -182.282806396484 1.358529090881
-104.450736999512 -69.123580932617 -182.761810302734 2.055917978287
-31.068716049194 -68.110717773438 -182.114532470703 0.553155183792
-18.536458969116 -70.313529968262 -186.007293701172 1.782266139984
15.861432075500 -70.556610107422 -189.344146728516 1.854989647865
20.629005432129 -69.857414245605 -195.476257324219 1.068632721901
17.709419250488 -66.077110290527 -186.987991333008 2.029122829437
-139.973907470703 -68.909851074219 -186.819671630859 1.230234980583
18.185691833496 -69.724761962891 -192.547637939453 2.040685653687
11.395125389099 -70.862815856934 -197.393295288086 1.771450519562
-139.186782836914 -66.401542663574 -196.717086791992 2.028571605682
-116.542015075684 -69.361732482910 -198.386215209961 2.873988628387
16.423669815063 -68.279022216797 -197.885375976563 1.527312278748
-111.361145019531 -70.562599182129 -194.285598754883 1.103878974915
-107.471351623535 -69.932182312012 -192.195617675781 2.490221500397
-161.861740112305 -70.277214050293 -200.348632812500 2.301620244980
-18.566469192505 -72.984146118164 -202.596725463867 2.995253801346
17.181972503662 -67.281272888184 -201.713165283203 0.626219570637
-137.648620605469 -65.809410095215 -201.228912353516 3.172094583511
-132.532119750977 -68.414794921875 -207.376770019531 2.566738843918
-17.357669830322 -68.258468627930 -206.567825317383 0.740563273430
-10.530579566956 -68.530120849609 -203.907928466797 1.553833007813
-14.080131530762 -70.194740295410 -208.535888671875 3.056544542313
-144.058135986328 -69.910675048828 -208.139251708984 1.540131688118
-17.277008056641 -71.403877258301 -207.059555053711 1.692768692970
-11.166543960571 -67.501281738281 -211.302902221680 1.477871656418
17.286756515503 -68.937431335449 -209.484954833984 0.375734210014
-9.964051246643 -69.399436950684 -209.162551879883 2.593271493912
12.171612739563 -66.496719360352 -211.886550903320 2.207872152328
-6.823609828949 -70.838989257813 -216.786178588867 1.851186394691
-14.774346351624 -71.230995178223 -211.704086303711 1.739710330963
13.194490432739 -69.279685974121 -223.630538940430 1.381065964699
-1.538084983826 -70.301322937012 -219.696166992188 0.598217129707
13.448654174805 -68.154632568359 -221.956573486328 1.563465476036
-3.506958007813 -70.535751342773 -223.935592651367 1.919726014137
-156.614242553711 -67.630599975586 -222.278335571289 1.234703779221
84.647438049316 -71.002197265625 -221.113479614258 1.002474665642
-133.149398803711 -67.305397033691 -223.277526855469 1.455544590950
-133.074874877930 -67.326362609863 -225.118667602539 0.752803146839
-7.201436996460 -69.124511718750 -227.129364013672 2.099969863892
13.994979858398 -70.862144470215 -233.246292114258 1.358974218369
-150.955200195313 -66.226249694824 -224.176864624023 1.166236758232
86.773773193359 -68.273536682129 -220.728759765625 1.236137866974
-4.573507785797 -69.269248962402 -224.263931274414 1.582758426666
3.515214920044 -70.564491271973 -226.507095336914 1.774442076683
73.912628173828 -69.751586914063 -227.473968505859 2.239204645157
4.646945953369 -70.284736633301 -232.517654418945 2.251306533813
-15.699621200562 -68.125541687012 -230.727340698242 2.578834056854
-121.079940795898 -70.752342224121 -236.615798950195 4.410496234894
-2.680932998657 -68.971626281738 -236.835403442383 1.409046173096
1.874711036682 -69.486358642578 -233.612426757813 0.959743082523
68.883064270020 -70.940071105957 -236.659301757813 1.765574455261
-159.309310913086 -66.401359558105 -239.470718383789 2.126386880875
-8.644762039185 -68.629806518555 -245.509002685547 3.334021806717
-165.128906250000 -68.130729675293 -239.527603149414 0.352408885956
10.053329467773 -70.301856994629 -244.051132202148 1.016683936119
-165.128570556641 -66.331886291504 -239.036422729492 1.936845660210
-156.836425781250 -64.838401794434 -243.771484375000 4.277893066406
56.342468261719 -71.523597717285 -249.610778808594 2.017979621887
65.293197631836 -68.045578002930 -243.517562866211 1.047296166420
56.996288299561 -68.911781311035 -242.840606689453 1.547123312950
52.352935791016 -71.505004882813 -248.206619262695 1.183764934540
-158.321517944336 -66.066535949707 -246.247894287109 2.506450176239
-152.492187500000 -67.567939758301 -250.999740600586 2.195668935776
-13.628270149231 -67.922889709473 -248.003128051758 1.191258072853
-151.944229125977 -66.119476318359 -247.057144165039 1.941163778305
22.679618835449 -71.561691284180 -254.255447387695 1.259518742561
-164.805923461914 -66.377082824707 -251.358169555664 2.332988739014
-166.331542968750 -63.030807495117 -244.633438110352 5.444957256317
-79.456764221191 -66.333480834961 -251.873062133789 3.064730405807
-168.277999877930 -67.263160705566 -264.703552246094 2.677081346512
-84.427047729492 -68.191825866699 -258.102264404297 3.705514669418
40.415790557861 -65.862457275391 -250.578521728516 1.170470714569
25.427227020264 -72.092704772949 -255.570724487305 2.450569629669
-156.951354980469 -64.558029174805 -259.595214843750 1.053978800774
-99.805931091309 -64.455627441406 -260.365936279297 3.901962995529
40.465797424316 -68.893646240234 -257.919738769531 1.361790060997
-99.796173095703 -67.857177734375 -259.675262451172 2.125238895416
-151.367126464844 -63.092708587646 -260.842498779297 0.712008774281
-105.224800109863 -64.864250183105 -259.445343017578 2.464657783508
-162.338989257813 -66.289764404297 -259.468231201172 2.960571765900
-111.623039245605 -68.179939270020 -262.476531982422 1.265488743782
-152.289535522461 -67.570373535156 -267.485992431641 1.462631583214
-155.804626464844 -68.329994201660 -264.289855957031 2.538067340851
-165.332885742188 -68.406631469727 -264.869018554688 1.438895702362
-159.123321533203 -66.092895507813 -264.387145996094 3.241237640381
-164.056564331055 -64.170150756836 -268.404022216797 5.387228012085
-161.169036865234 -63.075515747070 -267.331359863281 6.209317207336
25.780649185181 -69.645584106445 -264.156097412109 1.360050678253
-148.778778076172 -65.387496948242 -267.077331542969 2.476724386215
-146.261016845703 -64.612205505371 -285.902618408203 0.429005563259
20.440853118896 -73.307723999023 -278.953796386719 1.723186016083
-7.375593185425 -67.088775634766 -275.135345458984 2.963531970978
-124.838073730469 -69.175422668457 -284.760589599609 0.467333942652
-135.256439208984 -70.977279663086 -287.855865478516 2.442130088806
-135.333557128906 -66.192504882813 -287.051391601563 1.276397228241
-125.807937622070 -64.756942749023 -285.620208740234 1.798022985458
-114.529975891113 -65.919876098633 -288.284271240234 1.645438432693
-106.060081481934 -67.686393737793 -287.731781005859 1.178780555725
13.692603111267 -67.509460449219 -290.663970947266 2.860638380051
-86.817543029785 -65.898010253906 -286.770202636719 3.827243328094
-145.841430664063 -67.270034790039 -293.754150390625 1.926173210144
-98.231376647949 -64.822799682617 -289.438415527344 3.568867444992
-125.560607910156 -65.148246765137 -291.872222900391 1.880546569824
12.261404991150 -72.774307250977 -288.886383056641 2.305796623230
-112.973335266113 -67.900955200195 -293.613708496094 2.125354290009
2.819453954697 -68.262107849121 -290.113067626953 2.807813405991
-141.187072753906 -67.343940734863 -290.711212158203 0.980663180351
-153.681167602539 -67.926040649414 -300.430023193359 0.563906908035
-159.113296508789 -66.621299743652 -309.357879638672 4.993982315063
-151.642745971680 -66.887542724609 -312.252105712891 0.735161602497
50.003791809082 -77.492019653320 -24.661817550659 6.011110305786
20.822704315186 -74.905670166016 -32.065040588379 2.767887830734
35.021438598633 -75.556427001953 -37.341323852539 3.929621458054
-49.056335449219 -71.965095520020 -50.213848114014 2.906061172485
-13.401003837585 -71.279556274414 -61.417358398438 2.365500211716
94.464805603027 -77.672218322754 -72.241333007813 4.460277557373
68.333541870117 -71.844871520996 -68.443962097168 4.262870788574
-20.347074508667 -73.802124023438 -74.525634765625 3.017435550690
-93.038520812988 -71.641708374023 -82.433776855469 1.480891704559
-39.194583892822 -72.708450317383 -79.441932678223 1.856052756310
65.588356018066 -73.227500915527 -81.307647705078 3.680919647217
57.751033782959 -76.853179931641 -85.033805847168 5.734988689423
57.565177917480 -73.730056762695 -86.872146606445 2.335066080093
-56.201576232910 -72.655258178711 -86.850425720215 3.907436132431
68.042602539063 -71.657470703125 -88.038757324219 2.324331760406
45.677764892578 -75.848350524902 -96.181427001953 2.694988727570
67.736389160156 -74.855712890625 -91.485382080078 3.068137407303
-62.949531555176 -69.812065124512 -96.379058837891 2.821870326996
52.649974822998 -70.764587402344 -95.958755493164 3.220881462097
46.458858489990 -73.504043579102 -97.936134338379 1.130386471748
104.401611328125 -75.280746459961 -95.329895019531 3.298393726349
-68.678726196289 -75.088935852051 -99.662979125977 1.717573404312
110.755195617676 -74.078117370605 -101.007720947266 2.778214216232
-78.964027404785 -69.533187866211 -96.892318725586 3.354303598404
56.892597198486 -74.152565002441 -104.779998779297 2.429463624954
49.904518127441 -70.832435607910 -100.675849914551 3.860884428024
95.534866333008 -73.853233337402 -100.254722595215 1.981591820717
88.227890014648 -65.991455078125 -110.700508117676 3.317798376083
55.380985260010 -73.703025817871 -103.619361877441 0.525244176388
-71.253997802734 -71.811546325684 -107.002059936523 4.244709968567
-76.824645996094 -70.847763061523 -110.576187133789 2.470004320145
-81.308845520020 -72.879295349121 -119.857192993164 2.185876607895
-92.607147216797 -76.221519470215 -117.826583862305 2.456915855408
105.284576416016 -73.204612731934 -114.087059020996 0.922255039215
-84.903533935547 -68.702339172363 -119.951759338379 1.571557521820
-78.397651672363 -68.320960998535 -120.072662353516 0.554588496685
111.758033752441 -70.855415344238 -115.180000305176 2.144756555557
-62.668872833252 -65.942245483398 -118.185760498047 0.608801126480
114.101150512695 -74.392929077148 -130.680465698242 1.851577043533
109.839675903320 -72.043632507324 -129.116729736328 2.056781530380
112.473724365234 -71.930145263672 -118.921981811523 1.525197863579
-92.507888793945 -68.491477966309 -136.096771240234 2.323165416718
-50.438194274902 -67.424468994141 -139.934616088867 1.236143827438
-74.988418579102 -71.532470703125 -146.273223876953 1.465863227844
-67.846755981445 -68.171905517578 -150.349426269531 1.507980942726
-72.179176330566 -68.178665161133 -144.486419677734 2.164042949677
-53.166748046875 -67.198516845703 -145.628982543945 1.186833262444
-46.958751678467 -68.678070068359 -150.597503662109 1.252306818962
21.219154357910 -72.104248046875 -144.536911010742 2.803281545639
-93.617393493652 -66.283531188965 -151.179763793945 1.197821140289
-42.791893005371 -71.899276733398 -148.214477539063 1.570985913277
-53.380775451660 -68.985076904297 -150.937057495117 1.047450304031
-42.122993469238 -66.812339782715 -155.806106567383 2.047505378723
29.398916244507 -73.285011291504 -161.119445800781 2.254976749420
-47.252170562744 -68.818176269531 -153.173858642578 2.241058588028
-95.582557678223 -69.855461120605 -149.668319702148 1.780588746071
-40.953342437744 -68.818679809570 -159.853851318359 1.164407730103
26.823116302490 -68.643966674805 -154.846969604492 1.543479561806
-100.170196533203 -69.486053466797 -163.281875610352 2.761107444763
23.215967178345 -69.643020629883 -157.675247192383 1.324633598328
-104.212982177734 -65.202056884766 -171.517639160156 2.732741594315
-99.164253234863 -66.225128173828 -163.767517089844 1.585903167725
23.710357666016 -66.174423217773 -165.894454956055 1.949783205986
26.734241485596 -68.177894592285 -167.657882690430 1.408169150352
-104.918838500977 -69.931320190430 -174.434020996094 1.621102452278
-141.801452636719 -68.190528869629 -176.210678100586 1.344056844711
-22.546684265137 -67.953010559082 -186.830307006836 0.963787019253
-22.791353225708 -67.090270996094 -183.455810546875 2.517548084259
-111.718009948730 -66.778778076172 -188.711975097656 1.949580311775
-140.985626220703 -65.734626770020 -189.169265747070 1.734228610992
-104.355545043945 -70.154647827148 -181.416900634766 2.404559850693
-151.054656982422 -69.953796386719 -196.556686401367 2.950495958328
-128.594177246094 -70.005645751953 -193.941802978516 0.875357806683
-134.354507446289 -67.010543823242 -195.915679931641 1.280437231064
-19.770996093750 -65.309570312500 -192.794906616211 3.368177175522
-119.699874877930 -68.194770812988 -193.705307006836 3.367399930954
-112.666854858398 -65.674453735352 -195.632369995117 1.678843736649
-19.186971664429 -70.658828735352 -195.210678100586 1.639052391052
-153.003448486328 -64.458297729492 -197.600448608398 2.231963157654
-132.667907714844 -69.706863403320 -208.794235229492 4.182184696198
-122.753608703613 -65.262039184570 -204.980453491211 0.707276642323
17.260644912720 -67.104003906250 -203.388626098633 1.510003805161
-159.663482666016 -66.289291381836 -205.882064819336 2.268668413162
11.448628425598 -71.378623962402 -211.367294311523 1.516655325890
15.070064544678 -72.301086425781 -213.724639892578 1.455186963081
-17.577253341675 -67.959976196289 -207.798721313477 1.642004132271
-4.140837192535 -69.294540405273 -214.029144287109 1.705946564674
-165.250305175781 -66.981201171875 -212.138015747070 1.498577237129
-157.415557861328 -65.278152465820 -216.583267211914 3.559509277344
-97.698059082031 -68.277801513672 -217.998947143555 0.866043806076
-99.402023315430 -66.013435363770 -226.411224365234 3.643178224564
-157.881408691406 -64.392150878906 -221.250579833984 3.547399520874
-103.499771118164 -67.287605285645 -221.399841308594 0.176724314690
-13.806778907776 -69.333648681641 -218.063156127930 1.434024572372
-123.649581909180 -66.628211975098 -227.309646606445 0.561011075974
-141.672760009766 -68.818458557129 -224.876129150391 1.331344485283
-4.457108974457 -70.076454162598 -224.979797363281 1.909191250801
-131.655227661133 -65.191673278809 -226.498931884766 1.765306234360
-123.543502807617 -64.265480041504 -226.421051025391 1.935616016388
-110.881988525391 -67.851867675781 -229.424118041992 1.785889267921
2.555629014969 -68.229042053223 -228.500564575195 0.892194449902
-106.269905090332 -65.859657287598 -227.976135253906 2.494347333908
-156.731033325195 -69.296173095703 -222.831161499023 1.325661420822
-145.768783569336 -69.099876403809 -226.949981689453 2.699533224106
-163.949905395508 -66.563819885254 -226.662338256836 1.098181366920
-5.642888069153 -68.520515441895 -228.637390136719 1.168769121170
-7.764293193817 -62.000846862793 -230.280883789063 6.059067726135
78.992393493652 -63.701175689697 -226.199996948242 4.608746051788
4.123748779297 -66.452148437500 -232.322143554688 1.362735509872
-141.634506225586 -65.404792785645 -233.651809692383 2.153501749039
-11.539715766907 -69.536163330078 -229.537261962891 1.835849881172
77.510848999023 -72.114280700684 -224.979843139648 1.501520872116
73.279006958008 -69.281654357910 -231.832687377930 2.246854782104
-130.341705322266 -66.483032226563 -232.236465454102 2.835029125214
-158.716171264648 -65.522438049316 -228.092971801758 2.171344518661
-111.058609008789 -64.809059143066 -232.382095336914 2.824895381927
-119.589492797852 -65.621101379395 -234.124633789063 1.776490569115
-166.165618896484 -63.075607299805 -234.339935302734 4.973779678345
-156.995315551758 -64.684577941895 -238.008834838867 4.047660350800
-137.419418334961 -65.920448303223 -239.421249389648 6.384443759918
-8.257541656494 -72.288887023926 -234.531936645508 1.498235106468
-1.779291987419 -67.429664611816 -241.154739379883 1.845075726509
-159.220123291016 -63.878128051758 -240.656448364258 4.577957630157
8.786313056946 -70.519958496094 -240.357559204102 1.149535059929
9.326464653015 -66.982192993164 -237.169616699219 1.450273871422
-161.537261962891 -65.384735107422 -242.288162231445 3.236241817474
15.121195793152 -68.473236083984 -243.221649169922 0.868955075741
52.665592193604 -68.303901672363 -246.020690917969 1.315729856491
54.317516326904 -66.140083312988 -249.288818359375 1.495974779129
-8.349229812622 -68.740615844727 -245.518997192383 3.616847753525
51.764156341553 -66.546730041504 -246.511901855469 1.804823994637
-161.571517944336 -65.954559326172 -254.701843261719 4.233470916748
-162.426544189453 -64.031982421875 -249.449111938477 3.539784193039
-160.175842285156 -67.009643554688 -248.565673828125 1.709635972977
55.840816497803 -67.433967590332 -252.677841186523 3.147078752518
-88.644378662109 -68.691421508789 -253.190979003906 1.082914113998
-123.256874084473 -65.764663696289 -253.252151489258 3.794255495071
-105.138191223145 -67.868125915527 -254.879776000977 1.903793215752
32.135681152344 -68.483810424805 -256.417877197266 1.333012223244
42.070758819580 -68.670494079590 -252.230941772461 1.885961294174
-97.131347656250 -65.970001220703 -254.069946289063 2.630961656570
-91.567558288574 -65.083496093750 -256.521026611328 3.691880464554
46.703590393066 -67.171684265137 -254.613861083984 1.185819983482
43.610092163086 -66.573211669922 -254.615478515625 2.006625413895
-155.117904663086 -66.921859741211 -260.152191162109 2.461241960526
34.946033477783 -65.884880065918 -255.221572875977 1.863338589668
-138.384658813477 -67.874412536621 -265.180175781250 3.604721307755
-114.955070495605 -63.496921539307 -260.586791992188 2.898274421692
-131.662170410156 -64.803215026855 -265.342651367188 2.988551139832
34.727802276611 -70.850601196289 -263.396057128906 3.947819232941
-125.549568176270 -67.277778625488 -264.667694091797 0.687398791313
-8.718070983887 -65.390769958496 -258.249084472656 3.206717729568
23.853002548218 -69.691017150879 -273.187438964844 2.112797498703
-9.788588523865 -66.169960021973 -267.496002197266 2.378757715225
24.678228378296 -65.515266418457 -281.900909423828 4.580513477325
-148.833343505859 -66.158554077148 -283.228332519531 1.995913505554
-9.321252822876 -69.537910461426 -277.561035156250 1.257536888123
-152.412445068359 -67.641738891602 -287.558410644531 2.217529058456
-124.952232360840 -64.333297729492 -285.194152832031 2.685337066650
-156.917587280273 -67.029205322266 -288.866027832031 2.452638387680
-117.663558959961 -65.382751464844 -286.763763427734 2.213112592697
-104.526504516602 -67.762512207031 -290.089172363281 1.906388044357
-6.323482036591 -66.743377685547 -288.117919921875 1.521308541298
-108.849693298340 -65.777847290039 -292.850952148438 3.717506408691
-115.792228698730 -68.329605102539 -289.753021240234 1.662445068359
-118.077804565430 -66.858367919922 -291.687927246094 1.656975150108
-135.084274291992 -63.049362182617 -290.168823242188 3.115166902542
-123.123802185059 -68.495674133301 -293.535675048828 2.227015495300
-156.683441162109 -66.356712341309 -290.205200195313 1.781510591507
-144.097747802734 -69.452690124512 -296.648162841797 2.845842361450
-150.796951293945 -64.502502441406 -298.805908203125 2.788762331009
-152.261566162109 -62.596782684326 -308.875762939453 4.515250205994
-155.930709838867 -64.041358947754 -301.779296875000 4.387528896332
-145.010589599609 -66.224838256836 -312.348083496094 2.478404760361
