14.927696228027 -74.209808349609 -244.284759521484 1.689465880394
-165.758163452148 -68.958503723145 -242.009338378906 1.615361213684
60.913475036621 -70.964698791504 -246.572875976563 1.629697442055
52.960220336914 -71.806076049805 -247.809768676758 0.806440770626
56.745452880859 -75.332275390625 -239.400207519531 4.140886306763
-12.930581092834 -72.267379760742 -249.526000976563 0.510217785835
55.748897552490 -75.263519287109 -243.593078613281 2.605949878693
-73.042900085449 -73.821136474609 -247.997070312500 2.051981687546
52.210453033447 -74.010780334473 -248.386016845703 1.601098060608
-88.976150512695 -74.674652099609 -253.602172851563 1.542088985443
-126.635528564453 -74.934349060059 -254.215011596680 1.956545114517
-133.776931762695 -69.270050048828 -253.203598022461 1.886755466461
49.231525421143 -71.921623229980 -253.296234130859 1.476729035378
-136.542831420898 -71.246322631836 -256.971099853516 1.949288487434
-107.056625366211 -77.714141845703 -253.954818725586 5.514127731323
-111.759994506836 -71.621520996094 -257.636047363281 1.775017142296
-83.361587524414 -73.509300231934 -252.238693237305 1.959973573685
-111.613082885742 -74.589584350586 -262.489898681641 2.607320070267
-123.859634399414 -71.311462402344 -264.799011230469 1.069314599037
-143.994781494141 -72.142517089844 -266.436737060547 1.365463614464
-12.812902450562 -74.025466918945 -259.577758789063 2.820867061615
-170.139678955078 -71.955368041992 -266.913177490234 3.689607620239
-10.246234893799 -75.636329650879 -270.023773193359 3.064610481262
-157.977279663086 -68.861358642578 -267.051116943359 2.159781694412
-153.102813720703 -70.018386840820 -273.999450683594 1.000213623047
-167.982315063477 -69.029289245605 -275.872924804688 1.841316699982
-11.638383865356 -70.842468261719 -274.518432617188 1.272160053253
-132.649780273438 -73.547233581543 -283.832611083984 0.432401210070
-157.161392211914 -70.627105712891 -288.258880615234 0.522869765759
-143.022811889648 -72.392448425293 -282.390167236328 2.392446279526
-134.921340942383 -75.543525695801 -284.951141357422 1.448058128357
-7.872522830963 -72.798820495605 -281.183502197266 1.736297249794
-123.597335815430 -77.044166564941 -283.503540039063 3.410645723343
-140.767929077148 -73.736297607422 -286.025268554688 1.150458693504
-113.972984313965 -71.795349121094 -285.706207275391 1.359679460526
-76.175415039063 -71.630104064941 -288.361541748047 2.006799221039
-61.078136444092 -73.021636962891 -283.974945068359 3.056490182877
-4.338647842407 -73.784011840820 -286.751892089844 0.440751463175
-49.849964141846 -73.994575500488 -289.002593994141 2.942328214645
-59.619125366211 -74.073371887207 -287.065612792969 1.464390277863
-68.259719848633 -71.443695068359 -290.372253417969 1.045429110527
-85.752143859863 -74.106979370117 -294.079589843750 3.424950122833
-101.426322937012 -68.421600341797 -289.362487792969 1.296584963799
-159.385772705078 -72.170303344727 -291.599273681641 2.112430572510
-157.216690063477 -72.524505615234 -290.627655029297 2.553570032120
-125.259162902832 -75.042884826660 -296.408599853516 2.895385742188
-144.032394409180 -73.321861267090 -294.702972412109 1.043083310127
-155.671340942383 -72.410362243652 -300.358551025391 0.591485977173
-145.777786254883 -73.579513549805 -316.257049560547 3.554508209229
43.905609130859 -68.404693603516 -17.298143386841 2.419800043106
17.049676895142 -75.149787902832 -24.264488220215 5.348236560822
41.374748229980 -70.593429565430 -33.866748809814 0.344144999981
-20.471342086792 -72.233108520508 -64.892395019531 1.972417235374
79.098678588867 -69.357299804688 -63.466312408447 2.045849800110
83.502258300781 -65.802200317383 -66.934127807617 3.944297313690
74.334434509277 -68.991386413574 -67.929092407227 2.000349283218
74.195251464844 -69.876884460449 -65.441650390625 2.842450141907
93.003814697266 -72.211906433105 -70.751808166504 1.027416825294
-97.320274353027 -71.223258972168 -72.065261840820 4.114493370056
67.626419067383 -72.243904113770 -74.932044982910 2.857004642487
-37.951908111572 -67.685226440430 -75.739898681641 2.434579133987
97.635276794434 -71.366271972656 -84.005981445313 1.907372236252
61.271816253662 -74.379890441895 -86.972312927246 3.085245370865
107.102386474609 -70.652709960938 -89.732635498047 4.915013313293
104.097038269043 -72.670570373535 -94.964279174805 2.046252250671
69.679145812988 -71.829284667969 -95.246345520020 0.863491117954
-79.630523681641 -72.133644104004 -98.715415954590 2.119455337524
53.830104827881 -72.356285095215 -103.849136352539 1.896174550056
105.498710632324 -71.554527282715 -102.413375854492 0.698940277100
47.567890167236 -75.317695617676 -110.430435180664 1.255748152733
81.942253112793 -70.997734069824 -99.969612121582 1.975130438805
41.560901641846 -74.016754150391 -106.840103149414 2.396422386169
105.046058654785 -68.961585998535 -98.206184387207 0.504127204418
46.815723419189 -69.525482177734 -105.434516906738 1.517989277840
109.604873657227 -72.918914794922 -109.069183349609 1.794578671455
106.898254394531 -70.441955566406 -112.183227539063 1.881850481033
-79.912750244141 -65.412345886230 -113.517181396484 1.235771536827
-79.877433776855 -70.194496154785 -115.368621826172 0.978665232658
42.029468536377 -71.441596984863 -116.969131469727 1.981277585030
114.212821960449 -68.253128051758 -114.723655700684 3.327627182007
114.227638244629 -68.568969726563 -119.500564575195 1.286919951439
-83.032577514648 -70.438819885254 -126.232727050781 1.700066089630
106.942443847656 -70.115493774414 -119.394149780273 1.742952227592
-64.186279296875 -71.464035034180 -133.144699096680 3.518748521805
-88.843032836914 -68.675666809082 -126.507041931152 1.176174640656
-75.910148620605 -69.102409362793 -128.062988281250 1.025545001030
-58.494659423828 -65.843292236328 -124.769187927246 2.242991447449
32.981433868408 -69.862350463867 -127.838241577148 1.576883196831
40.536010742188 -70.765983581543 -131.570114135742 1.758086800575
-76.227180480957 -71.280075073242 -135.330780029297 1.300852656364
27.487819671631 -69.213005065918 -129.178558349609 3.287942886353
106.074035644531 -72.352996826172 -133.980545043945 3.419630765915
-41.258502960205 -70.966682434082 -146.892181396484 2.190447092056
24.764234542847 -69.472572326660 -144.507003784180 1.834426879883
111.540924072266 -66.627059936523 -143.043121337891 2.681624174118
34.346481323242 -72.035415649414 -141.822280883789 0.376485854387
110.406990051270 -71.532325744629 -140.300354003906 1.691883802414
-55.311870574951 -71.569175720215 -147.201263427734 2.175123691559
-67.904335021973 -72.364311218262 -149.131835937500 1.778118729591
-53.348609924316 -72.930717468262 -153.891876220703 1.738100051880
-44.212024688721 -70.380874633789 -166.361862182617 2.213434457779
2.717577934265 -69.071136474609 -152.874404907227 5.005955696106
109.926712036133 -67.372024536133 -151.432083129883 3.486370086670
107.974945068359 -69.800689697266 -156.888717651367 2.108432769775
8.411149024963 -66.896926879883 -157.844985961914 1.995121598244
2.066174030304 -70.806236267090 -159.505172729492 1.633117079735
14.722785949707 -69.347312927246 -156.929916381836 1.294979214668
21.535852432251 -69.727119445801 -149.643234252930 2.159351348877
113.297233581543 -73.197509765625 -162.575271606445 1.285902380943
106.475257873535 -72.786376953125 -168.050277709961 0.785629391670
25.103424072266 -69.749107360840 -170.857543945313 0.717719972134
26.257957458496 -69.871520996094 -161.464889526367 0.145202234387
114.053504943848 -70.609481811523 -158.943389892578 0.974615693092
-30.445919036865 -69.630752563477 -172.821456909180 1.921798944473
110.968406677246 -69.640037536621 -166.927230834961 0.552637994289
18.779605865479 -68.206466674805 -174.209747314453 2.260945081711
17.790798187256 -72.374923706055 -163.440948486328 1.823253750801
108.497230529785 -69.998382568359 -173.237762451172 1.384464263916
23.758728027344 -70.879859924316 -168.540298461914 2.769531965256
109.675514221191 -69.303161621094 -178.242645263672 2.012751579285
-39.786903381348 -69.116889953613 -175.097198486328 3.057312488556
26.680706024170 -68.365280151367 -170.753875732422 1.813629269600
107.381103515625 -70.456382751465 -181.487869262695 0.799926400185
23.735128402710 -69.617637634277 -176.645843505859 3.040074586868
-153.472717285156 -68.149444580078 -183.743865966797 2.620134592056
-31.306257247925 -70.558746337891 -187.085357666016 1.531459450722
24.871892929077 -72.057281494141 -183.330871582031 0.640175461769
-112.290779113770 -70.729064941406 -193.401168823242 1.154181003571
-111.810203552246 -71.619583129883 -189.345382690430 2.948850393295
21.379764556885 -68.748161315918 -189.792892456055 2.084551572800
12.265089035034 -71.898284912109 -184.559265136719 1.755015134811
-26.746376037598 -72.773895263672 -189.889480590820 2.028665781021
-29.539453506470 -71.610229492188 -186.468795776367 0.903578221798
-26.060728073120 -72.015243530273 -184.353378295898 1.813363194466
19.422271728516 -72.816734313965 -177.218536376953 2.092645168304
-152.588867187500 -70.466430664063 -193.855117797852 1.901895761490
-145.549423217773 -72.377754211426 -198.154998779297 1.060934782028
-141.548751831055 -70.722091674805 -194.678207397461 1.884836554527
-19.856056213379 -68.395179748535 -190.290039062500 1.049131035805
14.260099411011 -70.802459716797 -197.292495727539 2.377750396729
98.947212219238 -72.170967102051 -192.768768310547 0.968665599823
-115.294540405273 -70.645828247070 -201.364776611328 2.158744812012
18.522893905640 -69.798217773438 -199.301315307617 1.932715892792
-17.120086669922 -69.972869873047 -194.559860229492 1.461545944214
-18.809850692749 -69.657028198242 -195.626708984375 1.597176671028
97.732025146484 -70.753471374512 -197.486724853516 0.777997732162
8.381521224976 -72.446235656738 -197.949539184570 1.903757810593
-25.061792373657 -69.966880798340 -193.915130615234 2.162622690201
-122.120269775391 -72.502754211426 -202.108703613281 1.361257910728
-134.308410644531 -69.567382812500 -201.313415527344 2.153775453568
-111.241889953613 -69.039779663086 -205.905075073242 3.615623474121
-144.637542724609 -71.233131408691 -204.424240112305 0.893484771252
19.949550628662 -71.823333740234 -195.609329223633 1.092102766037
95.658668518066 -72.760345458984 -203.909851074219 2.297887086868
-166.832809448242 -69.568519592285 -205.848709106445 2.367611408234
100.644882202148 -71.672279357910 -200.436431884766 1.388782143593
-17.136396408081 -71.023498535156 -208.081161499023 1.868852138519
92.463508605957 -75.664878845215 -210.868957519531 1.970440626144
89.839920043945 -69.424835205078 -214.309997558594 1.641257405281
12.339227676392 -70.134483337402 -209.410766601563 2.484238386154
16.166328430176 -71.721862792969 -208.755920410156 1.441611528397
10.614925384521 -71.121902465820 -208.718017578125 1.098317980766
-9.751273155212 -70.685264587402 -218.002044677734 1.654462218285
-97.368103027344 -70.307212829590 -217.837539672852 1.200005054474
-7.214632987976 -72.677124023438 -216.258300781250 2.380253791809
91.360038757324 -70.254409790039 -211.522308349609 1.545979142189
-92.063369750977 -72.839195251465 -220.525634765625 2.118422031403
-102.360252380371 -72.958709716797 -220.470092773438 1.155663371086
-93.764244079590 -71.107124328613 -219.628082275391 2.030694961548
88.256927490234 -73.576080322266 -218.895416259766 0.890096783638
-134.331024169922 -72.865852355957 -226.567382812500 1.160575270653
-133.284271240234 -65.869865417480 -229.487808227539 1.825800895691
-118.649734497070 -70.400581359863 -226.773025512695 2.358082056046
-112.685096740723 -69.044715881348 -225.746749877930 0.478102624416
-132.990463256836 -69.533836364746 -223.221740722656 1.234295129776
-107.587020874023 -76.506698608398 -226.823654174805 4.056540966034
-113.902847290039 -69.362243652344 -228.176834106445 1.983901023865
-9.761513710022 -69.720329284668 -223.500427246094 2.096787691116
-19.111780166626 -72.922637939453 -223.953720092773 1.406939864159
-0.889425992966 -71.722389221191 -230.995056152344 2.166090965271
-9.213844299316 -69.809104919434 -227.241897583008 1.212508082390
15.597857475281 -72.695922851563 -230.510879516602 1.447248458862
-17.626661300659 -72.057548522949 -226.553344726563 1.862074613571
-163.207061767578 -71.074043273926 -224.863388061523 1.771386265755
-2.003135919571 -70.120872497559 -229.957839965820 1.221162080765
81.765457153320 -71.930671691895 -226.586975097656 1.191896796227
8.617886543274 -70.708351135254 -234.325210571289 0.441237330437
-8.673110008240 -70.502952575684 -229.039276123047 1.465773344040
-155.333435058594 -67.812637329102 -235.323211669922 2.752147436142
-138.965057373047 -72.272743225098 -234.007003784180 2.558851003647
68.167114257813 -68.409362792969 -233.472335815430 2.114912986755
-6.689817905426 -71.214599609375 -233.024932861328 1.010603189468
3.750616073608 -70.933425903320 -232.987365722656 3.042325496674
71.971305847168 -71.303802490234 -235.106216430664 1.052426218987
77.534980773926 -72.831420898438 -232.938339233398 0.588092684746
68.153854370117 -73.985420227051 -235.159576416016 2.605654478073
-1.947100996971 -69.759162902832 -234.962265014648 0.803329169750
55.859493255615 -71.662033081055 -236.828735351563 4.350940704346
-16.545392990112 -71.215698242188 -237.521148681641 1.708793759346
-15.717379570007 -70.290847778320 -239.355590820313 1.469525933266
9.346721649170 -71.816909790039 -238.160522460938 2.126338243484
66.546394348145 -71.699806213379 -241.220535278320 1.604858160019
60.833618164063 -71.808479309082 -237.053955078125 1.622694730759
52.898899078369 -69.044822692871 -244.886306762695 1.545862913132
62.082130432129 -73.829040527344 -241.634704589844 1.589971780777
-16.214712142944 -69.725639343262 -246.982238769531 2.468664884567
-83.302810668945 -69.558753967285 -248.226104736328 3.269965648651
-76.720428466797 -68.317176818848 -252.399597167969 2.692797660828
43.299823760986 -71.697196960449 -248.118118286133 2.765780687332
-143.343231201172 -68.709403991699 -250.654800415039 2.421090602875
39.715484619141 -72.341346740723 -255.279617309570 2.252737283707
-87.225379943848 -71.696624755859 -251.718872070313 2.152924537659
-153.645660400391 -71.466018676758 -256.721588134766 2.313329219818
-142.277526855469 -70.454238891602 -256.112854003906 1.445732474327
48.676612854004 -72.935150146484 -250.056991577148 1.116660594940
-125.579391479492 -69.239837646484 -254.185272216797 0.826660394669
-116.365531921387 -70.584167480469 -256.592651367188 0.426704525948
-94.446006774902 -70.364219665527 -255.229919433594 2.964734077454
-15.903543472290 -75.146781921387 -253.180099487305 3.081669092178
32.397289276123 -72.115653991699 -257.590026855469 2.343089342117
23.271045684814 -73.691505432129 -259.330322265625 1.628745436668
-155.747894287109 -70.667404174805 -257.688537597656 1.270064353943
-113.402526855469 -72.105766296387 -263.506256103516 1.778763651848
-12.667330741882 -72.139793395996 -258.690917968750 3.659707784653
-133.884979248047 -70.831085205078 -265.671142578125 1.222761869431
-12.047034263611 -70.249099731445 -270.534912109375 1.613621354103
-163.452667236328 -70.934341430664 -278.127990722656 3.286521673203
-8.824286460876 -69.552803039551 -276.896667480469 1.558631062508
-162.033264160156 -69.865303039551 -290.405273437500 1.369349956512
-158.857055664063 -70.692031860352 -278.051849365234 0.969321072102
-146.808181762695 -70.226905822754 -286.046997070313 2.539725303650
-167.989456176758 -71.099594116211 -284.920989990234 0.325875848532
17.919761657715 -68.967720031738 -285.916259765625 2.269087791443
-103.511444091797 -74.387184143066 -286.557495117188 1.214059591293
-86.867851257324 -70.477508544922 -285.907623291016 1.131399154663
-167.927230834961 -70.590843200684 -285.527862548828 0.772412240505
-89.005386352539 -72.217224121094 -288.731872558594 2.790382385254
-153.368972778320 -74.242568969727 -289.163024902344 2.851815223694
-73.661201477051 -72.546432495117 -290.266387939453 1.275061607361
-66.754867553711 -71.731689453125 -289.067260742188 2.373458385468
-80.708045959473 -70.419471740723 -290.132568359375 0.918514490128
-2.540395021439 -67.546722412109 -287.625701904297 2.793355464935
-83.686332702637 -72.439941406250 -291.469879150391 2.305892229080
-96.975822448730 -71.856826782227 -291.442199707031 2.028658866882
-115.303337097168 -71.258674621582 -293.073944091797 1.439631342888
-115.469192504883 -70.386817932129 -294.402526855469 2.150063514709
-136.276168823242 -67.651725769043 -293.630554199219 1.932066917419
-141.664337158203 -76.456481933594 -300.856842041016 3.130324602127
-143.541793823242 -75.558967590332 -311.522216796875 1.065191507339
22.108676910400 -69.187667846680 -15.482108116150 2.868262052536
27.544509887695 -66.613243103027 -19.501499176025 1.319386482239
26.797559738159 -71.068481445313 -16.090391159058 1.386379718781
42.603912353516 -70.158561706543 -22.973939895630 1.292412042618
21.025291442871 -70.571784973145 -30.006458282471 0.899997949600
-80.357986450195 -66.931159973145 -49.360733032227 1.051006793976
84.896041870117 -68.089721679688 -62.050098419189 1.685520052910
-15.669138908386 -69.073287963867 -66.820602416992 2.881434440613
98.945358276367 -69.626251220703 -69.115798950195 2.945564985275
94.164131164551 -68.007911682129 -75.010475158691 4.821176528931
69.658073425293 -73.472511291504 -78.074432373047 1.752012848854
66.014556884766 -68.589538574219 -83.261466979980 0.796942114830
-49.578754425049 -69.386650085449 -81.947929382324 3.253365755081
58.438835144043 -69.162544250488 -80.404327392578 4.461482048035
-99.923698425293 -69.389129638672 -88.189979553223 4.417150020599
-51.803165435791 -68.851249694824 -87.152328491211 1.003850936890
-57.882961273193 -73.966682434082 -86.871887207031 4.800974845886
95.069763183594 -70.784896850586 -93.859466552734 3.931720256805
55.293365478516 -70.812683105469 -96.787849426270 3.216881275177
60.543853759766 -67.262466430664 -89.268630981445 2.833832502365
-97.725669860840 -67.471328735352 -95.585273742676 1.602389335632
106.674400329590 -67.455551147461 -92.109458923340 3.654537916183
45.401008605957 -68.915275573730 -93.912284851074 1.868661284447
99.144111633301 -68.134819030762 -94.766471862793 2.979331016541
104.502265930176 -69.098152160645 -103.521713256836 1.197643160820
99.822601318359 -68.715713500977 -102.053199768066 2.253362417221
72.625869750977 -68.666877746582 -101.747497558594 1.619740843773
84.904670715332 -69.549987792969 -103.737800598145 1.133016705513
46.091976165771 -71.900833129883 -108.709243774414 2.697299957275
107.346595764160 -68.655143737793 -104.118484497070 2.225537061691
44.002559661865 -69.547279357910 -106.570083618164 1.211186885834
43.639545440674 -66.920600891113 -99.306312561035 1.614617228508
107.248191833496 -70.878616333008 -111.058303833008 1.843659520149
-80.841606140137 -67.095527648926 -108.814849853516 1.226542592049
45.779090881348 -68.224678039551 -111.988243103027 0.959567666054
34.550449371338 -69.734825134277 -110.608345031738 3.747762441635
104.328834533691 -69.605537414551 -105.791007995605 1.215182662010
41.251670837402 -67.917488098145 -110.675621032715 0.765707373619
-91.100639343262 -68.098434448242 -117.514877319336 1.963146209717
-98.630226135254 -68.292671203613 -116.122276306152 3.035927534103
106.707031250000 -67.610679626465 -117.811454772949 2.766353130341
-94.664466857910 -72.438697814941 -116.968498229980 0.640070080757
37.565971374512 -68.469535827637 -120.970077514648 1.418057322502
35.674350738525 -68.643417358398 -115.706275939941 1.895486116409
-80.928390502930 -69.651954650879 -123.555191040039 1.229484081268
28.213274002075 -67.063163757324 -130.032287597656 4.127875804901
107.799957275391 -70.032371520996 -129.954437255859 1.650868773460
-50.643966674805 -69.473228454590 -135.265731811523 1.145436048508
-90.366531372070 -69.981521606445 -130.417846679688 2.420118093491
34.744430541992 -70.078483581543 -134.433456420898 1.743750929832
-90.473213195801 -68.491317749023 -135.142807006836 1.520621180534
-91.737152099609 -70.796005249023 -135.907302856445 2.592955350876
-49.377796173096 -71.995857238770 -135.772674560547 1.557248950005
-73.041091918945 -69.919281005859 -139.077209472656 0.816397249699
-51.435344696045 -68.732864379883 -136.492935180664 1.652523636818
112.345672607422 -67.814651489258 -135.702499389648 2.047221899033
-76.361701965332 -66.475090026855 -140.305969238281 0.864458084106
34.225734710693 -69.823638916016 -128.758102416992 1.544787645340
-78.093048095703 -67.031318664551 -138.444122314453 1.559397816658
-78.442512512207 -68.026947021484 -133.764984130859 1.320536851883
-88.462356567383 -69.350410461426 -136.226608276367 1.130445957184
-56.240951538086 -69.263275146484 -150.203735351563 2.661041736603
30.290170669556 -67.907760620117 -147.012756347656 2.180823564529
30.040458679199 -68.843704223633 -149.815292358398 0.822762966156
17.941223144531 -68.006912231445 -143.125534057617 1.326659679413
112.266769409180 -71.643310546875 -145.879470825195 0.798719525337
-98.496322631836 -73.052543640137 -155.239227294922 4.432785987854
15.772294998169 -70.346069335938 -147.160537719727 1.635671496391
-71.618789672852 -70.958732604980 -147.833099365234 1.463890075684
22.037710189819 -68.860145568848 -148.080123901367 1.970113158226
-47.117832183838 -68.176895141602 -153.605911254883 2.137617111206
6.761496067047 -67.034568786621 -148.578750610352 4.985600948334
8.315070152283 -69.165405273438 -155.112686157227 1.601277828217
16.791851043701 -69.626197814941 -161.205474853516 3.550946712494
-47.200786590576 -70.530189514160 -162.583938598633 1.299692988396
-41.713504791260 -65.992172241211 -152.511993408203 3.710015058517
-47.154071807861 -68.153305053711 -156.732040405273 2.056676864624
-102.858833312988 -68.593536376953 -169.916717529297 1.482237577438
18.118051528931 -67.085601806641 -170.433990478516 2.143761873245
-37.861747741699 -70.520133972168 -172.713104248047 1.828536868095
13.064649581909 -65.305351257324 -176.755661010742 5.327764511108
-146.939178466797 -72.724723815918 -173.319747924805 2.278750419617
-35.093597412109 -66.284080505371 -173.735321044922 2.512463569641
-152.913192749023 -67.232452392578 -177.272338867188 2.000542640686
19.097339630127 -70.430519104004 -179.819000244141 2.643936157227
-33.319343566895 -72.265296936035 -171.036972045898 2.056651353836
-109.359466552734 -71.553565979004 -181.889923095703 2.552328586578
-106.197525024414 -69.711677551270 -182.401123046875 1.060362100601
-32.837669372559 -67.948257446289 -181.140747070313 1.845167875290
-20.249681472778 -70.153617858887 -184.847839355469 2.008162021637
14.178022384644 -70.164596557617 -187.871429443359 1.333767414093
18.994480133057 -69.620803833008 -193.981033325195 1.271857976913
15.961089134216 -65.591613769531 -185.648605346680 2.809505939484
-141.682540893555 -69.985290527344 -186.776870727539 1.104669451714
16.523332595825 -69.415870666504 -191.080062866211 1.370890259743
9.788637161255 -70.780715942383 -195.945098876953 2.084140539169
-140.829208374023 -67.797325134277 -196.744552612305 1.012384653091
-118.142623901367 -70.585647583008 -198.115066528320 3.233558177948
14.796307563782 -68.164688110352 -196.478042602539 1.385052680969
-112.988113403320 -71.598930358887 -193.931457519531 2.202538490295
-109.123840332031 -70.861213684082 -191.829254150391 2.468201160431
-163.431579589844 -72.016075134277 -200.445617675781 2.039810657501
-20.102283477783 -73.370506286621 -201.339416503906 2.099228382111
15.579904556274 -67.286331176758 -200.329925537109 2.183882951736
-139.255645751953 -67.339172363281 -201.259765625000 2.488588094711
-134.058273315430 -70.095046997070 -207.272674560547 3.212302684784
-18.902889251709 -68.766685485840 -205.453918457031 1.691999793053
-12.098092079163 -68.882492065430 -202.726409912109 1.851287961006
-15.588968276978 -70.734176635742 -207.327850341797 2.317819118500
-145.561859130859 -71.729827880859 -208.086822509766 2.208772897720
-18.787391662598 -71.925659179688 -205.840560913086 1.655890941620
-12.676332473755 -68.104667663574 -210.156692504883 1.705568313599
15.771697044373 -69.196983337402 -208.041427612305 0.717519760132
-11.475195884705 -69.919090270996 -207.944183349609 2.797857522964
10.655407905579 -66.887870788574 -210.567474365234 2.286257982254
-8.251458168030 -71.578193664551 -215.488006591797 1.702431797981
-16.244163513184 -71.881294250488 -210.466033935547 2.037585735321
11.812393188477 -70.046638488770 -222.203475952148 1.772471547127
-2.944988012314 -71.084320068359 -218.367477416992 2.256415367126
12.040377616882 -68.864471435547 -220.565460205078 2.342669010162
-4.872674942017 -71.478118896484 -222.614013671875 2.276068687439
-158.009628295898 -70.042671203613 -222.403778076172 1.822941303253
83.252655029297 -70.974433898926 -219.000900268555 1.056422472000
-134.540863037109 -69.517280578613 -223.206268310547 1.750196456909
-134.449310302734 -69.598258972168 -225.044982910156 0.145066052675
-8.551251411438 -70.209877014160 -225.885192871094 0.693487226963
12.715972900391 -71.937576293945 -231.754150390625 1.189016461372
-152.347274780273 -68.645538330078 -224.297775268555 0.397100269794
85.348953247070 -68.213554382324 -218.687957763672 1.570887327194
-5.948349952698 -70.233818054199 -222.993484497070 1.524649143219
2.172661066055 -71.521881103516 -225.121154785156 1.304085016251
72.564857482910 -70.041267395020 -225.493698120117 3.466695308685
3.356533050537 -71.429435729980 -231.127471923828 2.075652122498
-17.025436401367 -69.414779663086 -229.589035034180 1.223989963531
-122.317291259766 -73.282394409180 -236.316207885742 3.226482391357
-3.943902969360 -70.332496643066 -235.550735473633 1.190511107445
0.586845993996 -70.695236206055 -232.272460937500 1.092052102089
67.631164550781 -71.582244873047 -234.678634643555 2.161229133606
-160.559173583984 -69.408424377441 -239.650512695313 2.311131238937
-9.831221580505 -70.336479187012 -244.283142089844 1.624544024467
-166.361053466797 -71.196525573730 -239.701431274414 0.943968176842
8.868025779724 -71.773460388184 -242.605926513672 1.287211656570
-166.382568359375 -69.382530212402 -239.270065307617 0.960824310780
-158.062271118164 -67.963752746582 -243.978683471680 1.542429089546
55.215686798096 -72.717620849609 -247.713775634766 2.458393335342
64.076377868652 -68.951545715332 -241.660324096680 1.852382659912
55.782367706299 -69.877395629883 -241.028259277344 0.562805533409
51.213493347168 -72.692375183105 -246.346237182617 1.680985927582
-159.512756347656 -69.287666320801 -246.426086425781 1.656590700150
-153.626022338867 -70.887054443359 -251.074050903320 2.926556587219
-14.798314094543 -69.761863708496 -246.843139648438 1.347900629044
-153.128112792969 -69.303863525391 -247.176879882813 1.557253837585
21.598628997803 -73.243782043457 -252.651260375977 1.702911496162
-165.946884155273 -69.831192016602 -251.580245971680 1.442989468575
-167.566116333008 -66.280120849609 -244.983657836914 3.060729742050
-80.600959777832 -68.955802917480 -251.343780517578 1.848055601120
-169.288116455078 -71.191764831543 -264.919097900391 2.682559013367
-85.495941162109 -71.068084716797 -257.551666259766 1.640283226967
39.244640350342 -67.250183105469 -249.008728027344 1.753866076469
24.363142013550 -73.790573120117 -253.923965454102 3.370391845703
-158.035263061523 -68.206985473633 -259.803436279297 1.610020160675
-100.888816833496 -67.561767578125 -260.073242187500 1.265537619591
39.390991210938 -70.521385192871 -256.244873046875 1.734568476677
-100.852561950684 -70.938400268555 -259.270324707031 1.807983517647
-152.454254150391 -66.728172302246 -261.049255371094 2.838292121887
-106.311691284180 -67.993652343750 -259.187438964844 1.494792580605
-163.406875610352 -69.987075805664 -259.666717529297 1.417719602585
-112.649665832520 -71.471046447754 -262.163543701172 0.695162594318
-153.272659301758 -71.431625366211 -267.548767089844 2.846026182175
-156.809341430664 -72.120254516602 -264.360351562500 2.000097513199
-166.330718994141 -72.310722351074 -265.020660400391 2.468512058258
-160.148437500000 -69.920707702637 -264.560882568359 1.289199709892
-165.063064575195 -68.180747985840 -268.682525634766 2.225553035736
-162.196151733398 -67.022644042969 -267.621246337891 2.449980735779
24.771396636963 -71.624763488770 -262.582153320313 0.992373645306
-149.787002563477 -69.201644897461 -267.181640625000 2.717317342758
-147.104873657227 -69.023132324219 -285.999328613281 2.098665952682
19.602666854858 -75.826255798340 -277.297058105469 3.317491054535
-8.306232452393 -69.761611938477 -273.931915283203 3.799958705902
-125.650238037109 -73.332893371582 -284.518096923828 1.069622993469
-136.022003173828 -75.339454650879 -287.643768310547 0.638129472733
-136.152633666992 -70.531738281250 -286.998809814453 1.785816431046
-126.654792785645 -68.955055236816 -285.531982421875 1.543402314186
-115.342254638672 -70.093070983887 -288.056549072266 1.674759745598
-106.861106872559 -71.756065368652 -287.371246337891 0.908311426640
12.906105041504 -70.485069274902 -289.251739501953 1.315848112106
-87.646316528320 -69.745635986328 -286.299774169922 1.350347876549
-146.587921142578 -71.934364318848 -293.754608154297 2.496124505997
-99.045127868652 -68.872650146484 -289.102630615234 0.782047271729
-126.346557617188 -69.550025939941 -291.765197753906 1.707598328590
11.509583473206 -75.702346801758 -287.313598632813 2.227295637131
-113.717918395996 -72.233398437500 -293.303588867188 1.609780669212
2.036140918732 -71.327217102051 -288.772125244141 2.816764831543
-141.961074829102 -71.861503601074 -290.669982910156 1.991463422775
-154.359603881836 -72.888290405273 -300.473968505859 1.108627676964
-159.722244262695 -71.933036804199 -309.487670898438 3.972006320953
-152.223327636719 -72.220352172852 -312.305511474609 1.808126091957
46.878993988037 -71.320709228516 -22.755172729492 2.554466247559
17.743198394775 -69.270462036133 -30.496925354004 3.217710018158
31.995185852051 -69.953773498535 -35.623390197754 1.741085886955
-51.992156982422 -67.625617980957 -49.348503112793 3.046118259430
-16.244180679321 -66.955680847168 -60.253761291504 2.163009643555
91.772735595703 -72.629074096680 -69.908805847168 1.778180122375
65.552833557129 -66.939727783203 -66.536911010742 4.234689712524
-23.045482635498 -69.978492736816 -73.332107543945 1.711246013641
-95.679077148438 -68.803306579590 -81.947998046875 0.871828615665
-41.856945037842 -69.235183715820 -78.447883605957 0.852815568447
62.938816070557 -68.773422241211 -79.371498107910 3.644037723541
55.171226501465 -72.597885131836 -83.044570922852 4.762053489685
54.972057342529 -69.539138793945 -84.986831665039 2.620036602020
-58.795230865479 -69.595687866211 -86.003738403320 4.070023536682
65.439224243164 -67.402091979980 -86.128974914551 1.358978152275
43.191223144531 -72.081672668457 -94.325355529785 3.499375343323
65.195404052734 -70.715240478516 -89.470436096191 1.360547304153
-65.482925415039 -67.135803222656 -95.680366516113 0.501203954220
50.111732482910 -66.924232482910 -94.209587097168 1.018890857697
43.965667724609 -69.788902282715 -96.149726867676 1.891737818718
101.896629333496 -70.902275085449 -92.975357055664 1.973546266556
-71.130683898926 -72.574913024902 -98.838241577148 3.292907476425
108.289947509766 -69.824584960938 -98.633636474609 1.649110794067
-81.494010925293 -67.033302307129 -96.343750000000 4.851312637329
54.467300415039 -70.559165954590 -102.876121520996 1.441493272781
47.410289764404 -67.175041198730 -98.945877075195 1.567965149879
93.061904907227 -69.726341247559 -98.022712707520 4.212002754211
85.775199890137 -62.286693572998 -108.786972045898 1.518962860107
52.940872192383 -70.086616516113 -101.744369506836 1.959928154945
-73.670265197754 -69.567321777344 -106.304183959961 2.234394550323
-79.217056274414 -68.777481079102 -109.957221984863 1.872078299522
-83.596420288086 -71.158737182617 -119.205085754395 0.818610012531
-94.880043029785 -74.544303894043 -117.164672851563 2.060001611710
102.930938720703 -69.437713623047 -111.782440185547 2.941697835922
-87.230232238770 -67.023124694824 -119.469520568848 2.184208393097
-80.727500915527 -66.581268310547 -119.545616149902 2.304100513458
109.391151428223 -67.061607360840 -112.895416259766 2.091504096985
-65.040306091309 -63.985263824463 -117.599868774414 0.521317183971
111.909873962402 -71.085334777832 -128.249053955078 1.035581827164
107.611816406250 -68.728202819824 -126.801559448242 2.268238782883
110.151344299316 -68.252090454102 -116.593315124512 1.870828270912
-94.688377380371 -67.420913696289 -135.679092407227 2.467567443848
-52.597606658936 -66.062828063965 -139.179077148438 1.988702416420
-77.048095703125 -70.621757507324 -145.594467163086 0.890702962875
-69.902221679688 -67.326713562012 -149.716537475586 1.561335444450
-74.287788391113 -67.183029174805 -143.894927978516 0.087421849370
-55.276046752930 -66.052101135254 -144.901641845703 2.583556413651
-49.008911132813 -67.633026123047 -149.763549804688 0.673759579659
19.140640258789 -70.179092407227 -142.992019653320 2.571516513824
-95.681221008301 -65.723152160645 -150.836090087891 2.782389402390
-44.833122253418 -70.732223510742 -147.238571166992 0.722203195095
-55.424301147461 -68.014923095703 -150.149368286133 2.378764390945
-44.143970489502 -65.892234802246 -154.988204956055 1.986133337021
27.482646942139 -71.825141906738 -159.453628540039 2.157425165176
-49.277400970459 -67.861007690430 -152.336334228516 1.963318943977
-97.625564575195 -69.262619018555 -149.224639892578 1.101401567459
-42.918064117432 -68.019348144531 -158.956863403320 1.228240013123
24.804962158203 -67.005439758301 -153.361129760742 2.181364059448
-102.091918945313 -69.388397216797 -162.882873535156 1.040075540543
21.233621597290 -68.133125305176 -156.186492919922 3.124586105347
-106.100410461426 -65.418983459473 -171.291229248047 3.092581748962
-101.113098144531 -66.135429382324 -163.467285156250 3.094685554504
21.769630432129 -64.932960510254 -164.511322021484 3.639351844788
24.828697204590 -66.963371276855 -166.180740356445 1.449988007545
-106.733917236328 -70.248718261719 -174.055618286133 1.927487730980
-143.613830566406 -68.934402465820 -176.214019775391 1.968760251999
-24.274805068970 -67.861541748047 -185.783843994141 1.828448414803
-24.558618545532 -66.890373229980 -182.442047119141 2.225455045700
-113.432388305664 -67.636940002441 -188.489471435547 1.677486896515
-142.703323364258 -66.899566650391 -189.239089965820 1.126362085342
-106.104682922363 -70.696792602539 -181.022033691406 2.051753044128
-152.663238525391 -71.460205078125 -196.571319580078 1.046254754066
-130.228134155273 -71.202339172363 -193.758224487305 1.978462219238
-135.998809814453 -68.331459045410 -195.880844116211 2.722206830978
-21.470346450806 -65.388946533203 -191.807968139648 2.624598264694
-121.354248046875 -69.296279907227 -193.503387451172 2.284218549728
-114.328552246094 -66.771125793457 -195.450714111328 1.709300756454
-20.812679290771 -70.808952331543 -194.040130615234 1.769490718842
-154.655334472656 -66.021804809570 -197.813507080078 0.610724747181
-134.168624877930 -71.434486389160 -208.647750854492 5.057374477386
-124.332946777344 -66.767822265625 -204.895889282227 1.327700257301
15.672174453735 -67.163696289063 -202.009582519531 1.121118664742
-161.221420288086 -68.191291809082 -206.088394165039 2.814051866531
9.974843025208 -71.756919860840 -209.893341064453 0.430231213570
13.626407623291 -72.720634460449 -212.186843872070 2.753464460373
-19.114082336426 -68.511184692383 -206.695907592773 0.935604453087
-5.609024047852 -69.916976928711 -212.760055541992 1.648774027824
-166.743896484375 -69.144844055176 -212.367034912109 0.693693399429
-158.885635375977 -67.511611938477 -216.796966552734 1.630899786949
-99.131515502930 -69.962310791016 -217.586029052734 1.503086924553
-100.780288696289 -67.993896484375 -226.083343505859 1.482113838196
-159.317321777344 -66.784828186035 -221.494964599609 1.498228073120
-104.911186218262 -69.142646789551 -221.068847656250 1.189074754715
-15.236863136292 -70.185340881348 -216.875610351563 0.982373058796
-125.011566162109 -68.879104614258 -227.174682617188 2.410481452942
-143.034255981445 -71.166969299316 -224.829010009766 0.580206871033
-5.817628860474 -71.063011169434 -223.681198120117 2.075660705566
-133.037780761719 -67.496284484863 -226.482559204102 1.586036086082
-124.936416625977 -66.487396240234 -226.363861083984 1.271148324013
-112.213958740234 -70.044853210449 -229.134826660156 2.051285743713
1.208847999573 -69.263168334961 -227.199203491211 1.917885899544
-107.634735107422 -67.960166931152 -227.712966918945 1.698614478111
-158.105285644531 -71.726661682129 -222.902191162109 1.256734728813
-147.108245849609 -71.557411193848 -226.928436279297 1.650578379631
-165.314880371094 -69.194175720215 -226.885192871094 1.901574969292
-6.984882831573 -69.640518188477 -227.398574829102 1.709834814072
-9.153982162476 -63.200069427490 -229.275588989258 5.047176361084
77.574157714844 -63.901885986328 -224.375915527344 4.931896686554
2.794616937637 -67.597877502441 -231.063522338867 1.134024739265
-142.948730468750 -68.044609069824 -233.712158203125 1.120535612106
-12.863165855408 -70.743904113770 -228.316299438477 1.377057194710
76.162757873535 -72.284454345703 -222.891098022461 1.900103926659
71.966598510742 -69.721778869629 -229.870986938477 1.057204961777
-131.659454345703 -68.963188171387 -232.162399291992 2.761049747467
-160.078567504883 -68.148582458496 -228.303298950195 0.830028951168
-112.392883300781 -67.103240966797 -232.193328857422 1.777619957924
-120.899253845215 -68.057159423828 -233.983200073242 2.480550765991
-167.493865966797 -65.983489990234 -234.693252563477 3.353671789169
-158.275299072266 -67.621398925781 -238.225906372070 1.318178296089
-138.676315307617 -68.708465576172 -239.423995971680 6.018187046051
-9.509067535400 -73.627212524414 -233.188003540039 1.573626399040
-3.017738103867 -68.925048828125 -239.910614013672 1.446963787079
-160.483505249023 -66.924942016602 -240.918273925781 2.107050180435
7.569465160370 -71.882118225098 -238.918487548828 1.135990381241
8.046296119690 -68.235862731934 -235.844726562500 1.893916130066
-162.770980834961 -68.507560729980 -242.519592285156 1.733619451523
13.910221099854 -69.868141174316 -241.792785644531 1.525844097137
51.475257873535 -69.417915344238 -244.264770507813 0.537534117699
53.136028289795 -67.346824645996 -247.588027954102 0.859346210957
-9.534555435181 -70.444610595703 -244.286865234375 1.856841325760
50.561435699463 -67.686965942383 -244.821792602539 1.264685750008
-162.686264038086 -69.487113952637 -254.907440185547 3.231506824493
-163.607788085938 -67.400817871094 -249.728958129883 1.116913676262
-161.336624145508 -70.325157165527 -248.727630615234 2.810571908951
54.702659606934 -68.736648559570 -250.918807983398 1.603836655617
-89.752975463867 -71.447219848633 -252.663909912109 1.565349221230
-124.390090942383 -68.868446350098 -253.127059936523 1.704708814621
-106.237831115723 -70.844184875488 -254.524383544922 1.611491799355
31.043930053711 -70.145072937012 -254.830917358398 1.696174860001
40.941661834717 -70.094635009766 -250.552642822266 1.626349329948
-98.257408142090 -68.840827941895 -253.707244873047 0.765812575817
-92.680267333984 -67.980422973633 -256.137176513672 1.189753055573
45.581401824951 -68.629295349121 -252.942932128906 1.826680660248
42.482418060303 -68.061996459961 -252.991622924805 1.793077468872
-156.174072265625 -70.569564819336 -260.265655517578 1.106118202209
33.818023681641 -67.480247497559 -253.696533203125 1.560214400291
-139.387161254883 -71.521087646484 -265.111633300781 2.970983028412
-116.043853759766 -66.761581420898 -260.459259033203 0.559210658073
-132.693405151367 -68.390228271484 -265.316375732422 1.765881061554
33.722442626953 -72.714996337891 -261.703796386719 3.757352828979
-126.563636779785 -70.780250549316 -264.506072998047 0.828921139240
-9.819323539734 -67.520599365234 -257.123596191406 2.747500419617
22.926910400391 -71.987434387207 -271.623718261719 1.528662323952
-10.797707557678 -68.615188598633 -266.348754882813 2.727487564087
23.791421890259 -68.093566894531 -280.462982177734 3.293853044510
-149.686508178711 -70.505882263184 -283.298126220703 2.931000709534
-10.205918312073 -72.308700561523 -276.292266845703 1.753683924675
-153.211395263672 -72.166694641113 -287.608154296875 3.134261131287
-125.807136535645 -68.509086608887 -285.112640380859 0.772466540337
-157.710113525391 -71.642494201660 -288.974945068359 0.909712672234
-118.494636535645 -69.537246704102 -286.582336425781 2.350584268570
-105.305381774902 -71.894699096680 -289.711212158203 2.487744092941
-7.138877868652 -69.834465026855 -286.909027099609 0.884752988815
-109.622100830078 -70.045372009277 -292.575195312500 1.723089694977
-116.567718505859 -72.562393188477 -289.455810546875 2.655688285828
-118.849601745605 -71.178627014160 -291.458435058594 2.621284246445
-135.905212402344 -67.490875244141 -290.216217041016 0.351222485304
-123.862464904785 -72.926132202148 -293.295379638672 1.485379338264
-157.470214843750 -71.012275695801 -290.333526611328 1.426359415054
-144.796875000000 -74.193901062012 -296.559326171875 1.752924323082
-151.523529052734 -69.384498596191 -298.938659667969 1.432398438454
-152.914352416992 -67.826858520508 -309.078582763672 1.515522122383
-156.634109497070 -69.072830200195 -301.970855712891 2.026511669159
-145.597274780273 -71.495254516602 -312.364868164063 0.122548930347
-149.099945068359 -70.035247802734 -313.476104736328 0.984380066395
32.136859893799 -67.839752197266 -13.127314567566 2.594615697861
42.032333374023 -69.281547546387 -15.391071319580 2.330730438232
26.189537048340 -63.245540618896 -27.486581802368 1.434060335159
48.764801025391 -66.688690185547 -28.045791625977 3.832537174225
28.738590240479 -67.014144897461 -34.626411437988 1.439459443092
36.717586517334 -71.307449340820 -33.992885589600 2.850458145142
-57.956050872803 -66.659133911133 -44.387500762939 1.570482254028
83.025787353516 -66.928298950195 -58.484527587891 3.818547487259
80.360054016113 -67.235519409180 -63.366569519043 1.301938176155
-94.534576416016 -64.446731567383 -62.402774810791 2.051322221756
-14.836826324463 -65.520988464355 -61.100803375244 3.548128366470
-90.574501037598 -70.344749450684 -66.672897338867 1.008000612259
95.277420043945 -66.541046142578 -67.298927307129 1.222046971321
-17.942619323730 -64.599418640137 -66.530540466309 3.458334922791
66.971847534180 -69.106941223145 -74.202362060547 1.533302068710
-40.498016357422 -70.058563232422 -75.590812683105 1.750015258789
-30.598291397095 -71.725227355957 -78.415748596191 1.544258236885
54.993183135986 -65.632339477539 -84.153976440430 1.721977949142
-47.815036773682 -77.196380615234 -86.110565185547 0.918381810188
61.651241302490 -63.983161926270 -80.321525573730 1.473776698112
52.365436553955 -67.340377807617 -83.630241394043 3.656872034073
48.788639068604 -70.858009338379 -90.043403625488 1.739087939262
62.969959259033 -66.631774902344 -89.581573486328 1.876409888268
57.089965820313 -67.595588684082 -95.631011962891 1.716714501381
101.504798889160 -64.928489685059 -93.033248901367 2.308947801590
102.781295776367 -69.640853881836 -93.157447814941 2.076039314270
56.998115539551 -70.972023010254 -95.914199829102 1.468773841858
106.535293579102 -65.850204467773 -96.292427062988 1.582787632942
-74.242225646973 -71.968444824219 -99.383773803711 1.973619341850
-72.641540527344 -68.734893798828 -101.338394165039 1.302921772003
101.984611511230 -69.942337036133 -94.678276062012 1.499517560005
52.784328460693 -66.612319946289 -99.103073120117 1.972927093506
70.070938110352 -69.243331909180 -99.102798461914 0.740763962269
-71.762466430664 -62.562366485596 -101.500900268555 2.061620950699
-82.767089843750 -65.574752807617 -105.656181335449 1.868859171867
93.078674316406 -66.875038146973 -106.447181701660 2.135363340378
41.689392089844 -67.366058349609 -102.554977416992 2.429737567902
100.899345397949 -67.157539367676 -99.576889038086 0.788197994232
42.771156311035 -66.672782897949 -109.495246887207 1.721377968788
110.765281677246 -65.185081481934 -104.825080871582 2.756896018982
-84.585601806641 -63.746715545654 -107.720039367676 1.669743299484
104.671745300293 -63.963329315186 -106.752983093262 3.968600273132
-87.277694702148 -64.749610900879 -117.013137817383 2.139131784439
-59.664630889893 -69.150833129883 -125.219985961914 1.817073702812
-58.117675781250 -66.161109924316 -127.000434875488 1.920197486877
-74.351799011230 -68.805213928223 -129.140411376953 1.856520533562
-51.422969818115 -68.936805725098 -129.857345581055 0.256502509117
-86.799385070801 -68.128425598145 -131.894210815430 1.842642784119
-78.740661621094 -69.701103210449 -134.256393432617 1.350153923035
-85.660186767578 -67.256889343262 -127.709701538086 2.979803800583
-56.826618194580 -70.788406372070 -137.726562500000 1.545378684998
-73.308883666992 -66.377716064453 -138.558090209961 0.781916856766
-60.596096038818 -67.139213562012 -135.343490600586 1.822548508644
-63.296611785889 -69.400276184082 -137.844390869141 2.872260808945
21.896329879761 -69.164733886719 -138.588027954102 3.330887079239
-88.567550659180 -69.128158569336 -144.036361694336 2.631332159042
-46.893692016602 -70.065933227539 -144.821578979492 2.345319032669
-99.419143676758 -65.518753051758 -149.525604248047 1.587240815163
-102.293144226074 -66.720275878906 -152.040206909180 2.817072629929
16.980218887329 -71.417007446289 -151.247421264648 2.012501239777
13.395078659058 -70.849319458008 -157.071823120117 0.867449223995
-99.942008972168 -68.036048889160 -158.753784179688 1.197036862373
-101.385055541992 -66.077934265137 -157.748153686523 1.452527642250
-98.009796142578 -67.187614440918 -168.306579589844 3.239434003830
19.552772521973 -65.891914367676 -168.179550170898 2.893176317215
-112.318122863770 -69.863037109375 -168.530700683594 6.248383522034
18.658744812012 -69.839981079102 -167.121963500977 1.915248632431
-146.402099609375 -69.867271423340 -177.794464111328 2.878216505051
16.623991012573 -68.385971069336 -174.785385131836 1.193182110786
22.103507995605 -69.516601562500 -184.740036010742 1.088669419289
-153.662322998047 -66.351425170898 -188.158111572266 1.662139415741
19.579744338989 -69.890571594238 -177.817306518555 0.974709689617
15.699064254761 -67.013763427734 -176.516464233398 2.492035150528
-139.019302368164 -73.306701660156 -190.774581909180 5.084746360779
-151.794845581055 -69.756225585938 -189.853744506836 1.817550778389
17.619457244873 -67.362815856934 -187.843902587891 1.521780610085
19.476699829102 -66.370101928711 -185.416046142578 1.703997492790
-145.655303955078 -68.047454833984 -192.941619873047 2.730820417404
-108.793067932129 -71.415725708008 -195.257965087891 2.159590959549
21.286188125610 -68.137649536133 -194.777511596680 1.326703906059
-125.745414733887 -65.273101806641 -193.050704956055 2.587194919586
11.433799743652 -69.542480468750 -196.375976562500 2.475806474686
-132.704452514648 -65.637199401855 -195.535507202148 1.404763936996
-152.315979003906 -67.774261474609 -193.765060424805 1.443260312080
-162.750854492188 -70.667251586914 -200.709671020508 2.478960514069
-162.949966430664 -66.628211975098 -201.198348999023 0.641841053963
-19.123811721802 -66.020629882813 -201.513336181641 1.043238639832
-166.403701782227 -68.367385864258 -202.156875610352 1.420178771019
-22.542953491211 -67.415893554688 -192.412155151367 1.672963380814
-15.882785797119 -67.821685791016 -197.056579589844 1.330217957497
12.810784339905 -67.925209045410 -193.657089233398 0.509492754936
-159.296417236328 -65.656326293945 -198.658706665039 1.141174674034
-110.930099487305 -67.050354003906 -201.834930419922 1.095730304718
-17.699733734131 -69.925193786621 -205.617858886719 1.310272216797
-157.040634155273 -69.519065856934 -201.548446655273 1.794809937477
17.117946624756 -65.728805541992 -198.192062377930 1.127839803696
-164.495941162109 -67.713905334473 -201.765747070313 1.394994854927
-121.538444519043 -70.809242248535 -204.670150756836 2.076893806458
