-158.067733764648 -70.029060363770 -223.840621948242 2.248803138733
-110.461334228516 -68.096496582031 -228.317672729492 2.324392557144
-118.977668762207 -69.092811584473 -230.035583496094 3.214689970016
-165.602432250977 -67.680908203125 -230.022903442383 1.930581569672
-156.412231445313 -69.016426086426 -233.751312255859 2.828314542770
-136.818618774414 -69.755599975586 -235.261642456055 3.096294403076
-7.519441127777 -73.038330078125 -230.995635986328 1.474005579948
-1.191046953201 -67.934127807617 -237.578918457031 1.893358588219
-158.667846679688 -68.228981018066 -236.378509521484 0.301594555378
9.450059890747 -70.776344299316 -236.867553710938 0.757129967213
9.918294906616 -67.269584655762 -233.634292602539 2.704839229584
-160.954956054688 -69.769584655762 -238.020812988281 2.662917852402
15.720385551453 -68.537513732910 -239.729965209961 2.758303403854
53.236629486084 -67.415351867676 -242.682434082031 2.401740550995
54.820766448975 -65.168212890625 -245.927810668945 1.857658743858
-7.746654987335 -69.346145629883 -241.933197021484 1.630545735359
52.290531158447 -65.674240112305 -243.146072387695 1.805991530418
-161.030990600586 -70.173332214355 -250.440826416016 2.622273206711
-161.908966064453 -68.342880249023 -245.159042358398 1.152068614960
-159.582565307617 -71.276382446289 -244.325332641602 2.999719858170
56.359878540039 -66.378952026367 -249.340332031250 1.526655197144
-88.052833557129 -71.151504516602 -249.270126342773 2.738982439041
-122.726196289063 -69.068893432617 -249.147888183594 6.017340660095
-104.569190979004 -70.707962036133 -250.879089355469 4.487250328064
32.670764923096 -67.956092834473 -252.995727539063 1.557310223579
42.626113891602 -67.956703186035 -248.852996826172 0.480359256268
-96.607322692871 -68.626243591309 -250.076919555664 3.542402744293
-91.077796936035 -67.571525573730 -252.538894653320 1.676535964012
47.210388183594 -66.313537597656 -251.234649658203 1.195162057877
44.103275299072 -65.790687561035 -251.215301513672 2.644065141678
-154.580261230469 -70.909751892090 -255.930511474609 1.435950636864
35.422409057617 -65.305709838867 -251.776031494141 2.687669277191
-137.851501464844 -71.386466979980 -261.040405273438 2.474763393402
-114.514961242676 -66.501152038574 -256.485595703125 1.885294437408
-131.206512451172 -68.150390625000 -261.189239501953 3.255470991135
35.288372039795 -70.165069580078 -260.015991210938 2.034682989120
-125.032554626465 -70.484031677246 -260.573242187500 2.406752586365
-8.253926277161 -65.835647583008 -254.615142822266 1.666673421860
24.344799041748 -69.139587402344 -269.745544433594 1.366417884827
-9.346620559692 -66.516479492188 -263.867248535156 2.697553873062
25.029150009155 -64.828330993652 -278.405029296875 3.116453409195
-148.419647216797 -69.683670043945 -279.020141601563 3.207714557648
-8.842636108398 -69.736579895020 -273.978759765625 3.593228101730
-151.980972290039 -71.195388793945 -283.354980468750 2.099329233170
-124.599037170410 -67.250511169434 -281.060272216797 4.273518085480
-156.505508422852 -70.675376892090 -284.635437011719 1.999489188194
-117.294113159180 -68.100791931152 -282.674194335938 4.308551311493
-104.118103027344 -70.114707946777 -286.086059570313 2.723533153534
-5.961075782776 -66.728294372559 -284.509246826172 0.950465261936
-108.500625610352 -68.199119567871 -288.802764892578 0.748633861542
-115.365081787109 -70.960739135742 -285.710815429688 0.887589275837
-117.694419860840 -69.519813537598 -287.616149902344 1.789255619049
-134.781524658203 -66.147285461426 -285.974975585938 0.852899849415
-122.707328796387 -71.254692077637 -289.464874267578 3.356731414795
-156.293792724609 -69.979454040527 -285.966339111328 1.296668648720
-143.665527343750 -72.680877685547 -292.502868652344 1.551480412483
-150.492767333984 -67.866958618164 -294.565551757813 1.413875818253
-152.048416137695 -65.862472534180 -304.602539062500 2.803814172745
-155.649505615234 -67.491226196289 -297.511108398438 3.455941915512
-144.726989746094 -69.265724182129 -308.153717041016 0.541414499283
-148.265380859375 -67.808044433594 -309.148742675781 1.432514905930
37.138557434082 -76.824890136719 -11.482734680176 5.221953392029
47.020626068115 -78.013198852539 -13.943707466125 7.397266387939
30.924657821655 -71.659820556641 -25.531774520874 4.917793273926
53.536457061768 -74.737648010254 -26.553453445435 5.106946468353
33.426109313965 -75.055625915527 -32.872646331787 4.925934314728
41.473472595215 -79.254646301270 -32.546566009521 7.843439579010
-53.393806457520 -75.537117004395 -41.441963195801 8.516615867615
87.364807128906 -73.059104919434 -57.427612304688 8.100751876831
84.635139465332 -73.179595947266 -62.282436370850 4.888739585876
-90.250450134277 -73.036857604980 -58.842235565186 4.940491199493
-10.535060882568 -72.986152648926 -58.661636352539 6.236909389496
-86.267517089844 -78.671424865723 -63.434700012207 5.562574863434
99.484199523926 -72.082321166992 -66.378158569336 6.233404159546
-13.729887962341 -71.860496520996 -64.000480651855 1.807114601135
71.123451232910 -74.746139526367 -73.012794494629 3.320105791092
-36.330890655518 -77.228889465332 -73.001121520996 3.599853992462
-26.449287414551 -78.615753173828 -76.033126831055 1.243505597115
58.957485198975 -70.992965698242 -82.630424499512 3.557343244553
-43.693286895752 -83.980049133301 -83.742134094238 1.048434495926
65.644798278809 -69.424217224121 -78.815177917480 2.072163105011
56.361934661865 -72.762260437012 -82.151428222656 4.919282913208
52.745441436768 -76.032028198242 -88.672584533691 4.075935363770
66.870338439941 -71.621498107910 -88.205215454102 2.999697208405
60.919937133789 -72.391517639160 -94.213432312012 1.330656290054
105.324569702148 -69.187995910645 -92.090980529785 2.748521327972
106.666053771973 -73.870079040527 -92.451225280762 4.380586147308
60.872116088867 -75.752212524414 -94.652015686035 3.481384754181
110.321205139160 -69.883041381836 -95.456718444824 2.675910472870
-70.376640319824 -78.536506652832 -96.401992797852 4.638079643250
-68.849800109863 -75.192527770996 -98.225502014160 2.470571041107
105.852371215820 -74.112655639648 -93.973594665527 3.288700342178
56.552230834961 -71.312652587891 -97.577919006348 2.365932226181
73.872779846191 -73.683776855469 -97.932014465332 1.233589649200
-68.060951232910 -69.006706237793 -98.112670898438 1.032072663307
-79.079124450684 -71.986686706543 -102.255393981934 2.037970066071
96.738685607910 -70.636535644531 -105.466567993164 2.853448390961
45.421569824219 -72.070549011230 -100.911872863770 0.747341930866
104.658660888672 -71.120529174805 -98.722442626953 1.011380910873
46.395408630371 -71.040779113770 -107.826309204102 2.497071504593
114.420585632324 -68.760917663574 -104.005249023438 4.604814052582
-80.952362060547 -70.092292785645 -104.207435607910 2.058134078979
108.283714294434 -67.541893005371 -105.792289733887 1.626958966255
-83.760681152344 -70.703842163086 -113.500129699707 2.992857694626
-56.206302642822 -74.309791564941 -122.272666931152 6.132794857025
-54.727264404297 -71.218215942383 -123.932807922363 3.560733318329
-70.950714111328 -74.001304626465 -125.975265502930 6.336360454559
-48.034721374512 -73.758941650391 -127.005279541016 6.492694377899
-83.444244384766 -73.382766723633 -128.527267456055 3.315336465836
-75.398094177246 -74.724533081055 -131.067977905273 3.367824554443
-82.258666992188 -72.689025878906 -124.322441101074 2.287315845490
-53.521911621094 -75.324386596680 -134.878814697266 0.970340371132
-70.075302124023 -71.125267028809 -135.283065795898 2.336298227310
-57.308914184570 -71.845809936523 -132.278305053711 0.987957358360
-60.012001037598 -74.028556823730 -134.845123291016 3.186914205551
25.150009155273 -72.493293762207 -136.720626831055 1.903379678726
-85.369041442871 -73.845565795898 -140.677932739258 6.900963783264
-43.701286315918 -74.126808166504 -142.065292358398 1.288679003716
-96.347167968750 -70.147560119629 -145.847290039063 2.380940437317
-99.238960266113 -71.273963928223 -148.376205444336 3.801501512527
20.088415145874 -74.229972839355 -149.403884887695 2.799135208130
16.413803100586 -73.446624755859 -155.146942138672 2.136387109756
-96.964248657227 -72.242507934570 -155.174652099609 3.975848436356
-98.420669555664 -70.354690551758 -154.059799194336 1.674695491791
-95.179168701172 -70.924209594727 -164.702758789063 6.236924171448
22.343172073364 -67.889465332031 -166.093872070313 1.289423227310
-109.449752807617 -73.798652648926 -164.858917236328 7.602066993713
21.520364761353 -71.895095825195 -165.209060668945 1.188805222511
-143.657440185547 -73.880424499512 -173.654449462891 2.728105306625
19.357299804688 -70.118324279785 -172.768600463867 2.548102855682
24.711435317993 -70.705444335938 -182.837707519531 1.692282676697
-151.112304687500 -69.996894836426 -183.745056152344 2.187994003296
22.291099548340 -71.436897277832 -175.906585693359 3.376480579376
18.388641357422 -68.681343078613 -174.421432495117 1.756906151772
-136.410232543945 -76.605316162109 -186.878372192383 7.240140914917
-149.220718383789 -73.291442871094 -185.622039794922 1.895353913307
20.153902053833 -68.477149963379 -185.777618408203 1.424610376358
22.030889511108 -67.570396423340 -183.331390380859 2.233260393143
-143.150238037109 -71.350555419922 -188.709289550781 1.083230018616
-106.280166625977 -74.060028076172 -191.674362182617 5.593051433563
23.733154296875 -68.875663757324 -192.788345336914 2.679265499115
-123.285324096680 -68.278663635254 -188.956558227539 5.565320968628
13.880176544189 -70.351211547852 -194.317993164063 0.895779073238
-130.272811889648 -68.630699157715 -191.361953735352 3.837801456451
-149.825073242188 -71.138519287109 -189.429656982422 0.783237278461
-160.314636230469 -73.861663818359 -196.360534667969 3.500640153885
-160.578002929688 -69.807739257813 -196.658203125000 0.842442035675
-16.793804168701 -67.049682617188 -198.875381469727 2.570090055466
-164.019851684570 -71.551788330078 -197.650085449219 1.911375761032
-20.064102172852 -68.915351867676 -189.803833007813 1.215421080589
-13.464985847473 -69.006752014160 -194.551071166992 2.912149667740
15.272228240967 -68.841239929199 -191.545578002930 1.989083886147
-156.903213500977 -68.900268554688 -194.125411987305 0.432810664177
-108.571563720703 -69.427131652832 -198.012008666992 1.454856395721
-15.372372627258 -70.738494873047 -203.175720214844 1.821361541748
-154.633712768555 -72.591186523438 -197.221603393555 1.370085597038
19.483360290527 -66.373542785645 -196.030960083008 1.336948156357
-162.116241455078 -70.888847351074 -197.254653930664 1.291782617569
-119.164314270020 -73.207939147949 -200.876220703125 3.458678960800
-109.287452697754 -69.287017822266 -202.993301391602 2.742419242859
-123.317649841309 -67.199783325195 -203.271865844727 1.525165796280
-11.610923767090 -71.312843322754 -199.855331420898 3.488717079163
-15.394636154175 -66.967880249023 -201.028656005859 1.480406761169
-161.097427368164 -68.730262756348 -205.420425415039 2.681192398071
-158.528564453125 -69.466445922852 -209.483917236328 3.194671392441
-163.413467407227 -71.411270141602 -215.255706787109 1.442810773849
-145.182846069336 -72.785926818848 -207.136520385742 1.339583635330
-141.618682861328 -70.188270568848 -219.729324340820 3.253384113312
-4.310282230377 -66.882049560547 -217.393829345703 2.303761720657
-10.947443008423 -67.652351379395 -214.164947509766 1.263924002647
-98.398178100586 -69.684188842773 -218.328369140625 1.043096303940
-4.765783786774 -67.512344360352 -218.744689941406 2.578473806381
-162.599975585938 -69.466781616211 -222.354812622070 2.603435754776
-110.545196533203 -66.181503295898 -227.232803344727 1.481591701508
1.679751992226 -66.207946777344 -224.791152954102 2.447432756424
7.110443115234 -66.206069946289 -226.339111328125 4.389950275421
-110.242660522461 -69.257690429688 -229.077270507813 2.685914516449
-0.554687023163 -64.177528381348 -227.806335449219 2.981385946274
-113.783020019531 -68.319068908691 -232.675643920898 1.188639998436
-3.298943042755 -65.379066467285 -235.091567993164 1.045715928078
-1.712703943253 -69.117492675781 -229.605850219727 2.042372941971
1.144433975220 -66.467765808105 -235.421936035156 0.697507381439
69.950622558594 -67.524032592773 -232.699249267578 0.984836637974
-12.312170982361 -70.143699645996 -232.560073852539 1.574743866920
6.041687011719 -66.613410949707 -234.156448364258 1.590158581734
12.729331970215 -67.264617919922 -237.744659423828 2.656085252762
9.268345832825 -70.298301696777 -235.689590454102 1.294010877609
3.119530916214 -70.953811645508 -237.327758789063 2.595060348511
68.505706787109 -68.578071594238 -234.587402343750 1.750798821449
72.470466613770 -66.394905090332 -236.350555419922 2.427092075348
15.741305351257 -68.875129699707 -238.776535034180 2.270233392715
60.656730651855 -66.490249633789 -236.680267333984 2.764637708664
58.887878417969 -69.540084838867 -236.282089233398 2.975188255310
48.995838165283 -63.401519775391 -241.743408203125 5.085735321045
39.588939666748 -67.950866699219 -247.597122192383 3.242540359497
41.789268493652 -67.523803710938 -249.535079956055 1.509557843208
-132.171707153320 -69.135993957520 -250.681091308594 4.061151027679
-12.614172935486 -70.504455566406 -248.482147216797 1.422070980072
27.782222747803 -68.368629455566 -254.648101806641 2.740278244019
49.782154083252 -66.757568359375 -249.284683227539 1.737675786018
26.238357543945 -63.760627746582 -251.641311645508 3.870479345322
-98.502487182617 -67.267784118652 -256.071441650391 2.124963045120
35.185955047607 -65.829086303711 -251.508270263672 2.564218521118
-148.404266357422 -68.894569396973 -256.224853515625 1.138909697533
-114.076705932617 -65.572036743164 -256.416412353516 2.602643013000
-102.042526245117 -68.816017150879 -251.819320678711 2.920967102051
-4.673480987549 -65.785316467285 -255.519271850586 3.026556730270
-150.298538208008 -72.986953735352 -252.215621948242 1.240070343018
33.544887542725 -64.421760559082 -254.552322387695 2.610926151276
-110.335678100586 -69.785202026367 -252.217346191406 4.497192382813
30.390489578247 -66.519554138184 -254.701904296875 2.147158145905
-131.184860229492 -66.882614135742 -256.609527587891 2.465544223785
-115.842842102051 -68.614524841309 -256.272888183594 0.191175788641
-103.953880310059 -65.234680175781 -256.568817138672 2.381340503693
-114.436912536621 -67.678604125977 -260.177520751953 1.100268840790
-135.738143920898 -69.785385131836 -259.279144287109 3.574489593506
29.760766983032 -65.149581909180 -259.694335937500 1.116211652756
-116.277862548828 -66.229728698730 -261.498382568359 0.237965017557
-141.532333374023 -69.528503417969 -263.828796386719 1.026826620102
-3.004064083099 -67.780860900879 -268.751129150391 1.645775198936
-151.523391723633 -68.123870849609 -276.733581542969 1.744002580643
-7.372859001160 -67.310455322266 -278.585388183594 1.209945321083
-1.675747036934 -67.976776123047 -283.044158935547 3.295562982559
-132.788574218750 -69.895271301270 -283.082794189453 1.636216521263
-120.527572631836 -65.110260009766 -285.303344726563 4.704882144928
-135.708953857422 -65.449127197266 -287.786529541016 1.608411788940
-125.506034851074 -68.830780029297 -291.273986816406 0.803906321526
-149.008666992188 -69.275016784668 -291.833892822266 1.230446219444
-149.201904296875 -70.358940124512 -297.651123046875 3.079154729843
-146.824630737305 -71.566802978516 -299.926239013672 1.701714634895
-148.533874511719 -64.937049865723 -294.704498291016 1.214934825897
-141.287185668945 -68.564033508301 -298.832763671875 4.224328517914
-143.463119506836 -67.693763732910 -299.770446777344 2.341046333313
-147.692642211914 -67.810806274414 -307.611389160156 2.225646495819
25.043312072754 -79.011444091797 -27.510740280151 6.679892063141
51.045787811279 -77.054649353027 -31.367471694946 5.942775249481
30.060264587402 -80.023864746094 -34.746593475342 7.680521011353
35.378280639648 -77.155944824219 -37.345500946045 5.232657909393
-43.100334167480 -73.479125976563 -46.014007568359 4.838313102722
-76.762557983398 -75.352005004883 -46.867084503174 6.772333621979
82.754585266113 -71.712287902832 -59.345153808594 5.815202236176
82.177940368652 -69.849754333496 -57.972942352295 5.755788326263
72.766532897949 -72.761352539063 -63.675106048584 5.515896320343
-94.809410095215 -73.500923156738 -68.774276733398 4.028083324432
102.925117492676 -73.100578308105 -70.586982727051 5.956398963928
-32.991851806641 -69.570381164551 -73.221557617188 4.773503780365
71.309463500977 -72.927803039551 -73.854202270508 1.769154191017
-41.428833007813 -71.069633483887 -76.503822326660 2.032899379730
-48.451663970947 -72.220809936523 -78.214324951172 6.028322696686
53.865016937256 -72.359054565430 -86.211372375488 2.598328590393
104.450485229492 -71.290977478027 -85.507736206055 2.760918140411
67.795066833496 -69.938247680664 -90.794479370117 2.646595001221
59.122856140137 -71.349540710449 -91.366264343262 1.195760011673
51.023193359375 -72.169174194336 -99.031723022461 3.004852533340
62.168266296387 -69.869033813477 -94.248138427734 1.724882245064
107.533073425293 -70.233909606934 -95.528244018555 1.051466703415
73.480895996094 -73.496047973633 -103.256820678711 3.804212331772
52.445552825928 -70.861541748047 -103.093116760254 2.935809612274
80.287849426270 -71.747840881348 -102.866004943848 1.602227091789
93.337646484375 -69.838699340820 -106.937995910645 1.559009075165
-77.216773986816 -74.088150024414 -105.927742004395 5.063608169556
-84.074974060059 -75.456329345703 -105.975257873535 3.389498710632
-82.776123046875 -74.026794433594 -111.737541198730 2.247801780701
-58.965499877930 -71.670783996582 -113.295730590820 8.226278305054
-53.090953826904 -76.141395568848 -119.822677612305 9.657743453979
-91.670646667480 -70.264038085938 -117.430885314941 1.576028347015
-76.148536682129 -72.518959045410 -116.572525024414 3.047038316727
-74.688812255859 -73.096481323242 -124.528442382813 4.370127677917
-58.810966491699 -74.017257690430 -123.120819091797 5.802618026733
-86.900276184082 -66.877807617188 -126.145591735840 1.270767688751
-90.359886169434 -72.837387084961 -126.315910339355 4.630158424377
-47.437919616699 -73.011131286621 -133.513137817383 2.077140808105
-53.423049926758 -68.995147705078 -132.387741088867 1.938621759415
-74.590347290039 -70.179748535156 -134.798934936523 0.715188264847
-53.514125823975 -70.899444580078 -139.097198486328 3.035822868347
-72.212959289551 -72.035591125488 -142.415481567383 1.551509141922
24.164966583252 -68.651351928711 -137.457992553711 3.483919143677
-56.342510223389 -71.297859191895 -142.052963256836 0.594700515270
-48.649055480957 -70.771530151367 -143.419509887695 2.257251501083
15.391729354858 -71.420166015625 -150.392547607422 1.720300912857
16.424499511719 -68.776512145996 -148.599411010742 1.947036027908
-141.548843383789 -69.319725036621 -171.977508544922 4.207921981812
-105.274291992188 -73.024391174316 -176.406738281250 4.048234939575
-106.027000427246 -71.044113159180 -183.153228759766 2.023862123489
-146.727279663086 -71.718566894531 -190.833419799805 2.124501228333
-109.169479370117 -70.272033691406 -181.620529174805 2.144739151001
-150.961975097656 -68.506050109863 -192.263793945313 0.884942650795
-112.522628784180 -66.688919067383 -192.219680786133 1.097174048424
-144.222396850586 -71.897895812988 -194.844619750977 1.669969797134
-148.528060913086 -74.639556884766 -199.506774902344 2.740467071533
-150.518676757813 -73.941154479980 -207.007843017578 2.047633647919
-143.062240600586 -71.287513732910 -217.522445678711 2.777348995209
-151.268630981445 -73.412452697754 -219.431701660156 2.857756376266
-102.316497802734 -69.241203308105 -219.090927124023 1.424315810204
-100.112319946289 -69.059715270996 -222.771759033203 1.541312217712
-120.898010253906 -64.989418029785 -222.143997192383 4.756340980530
-108.748840332031 -66.204421997070 -223.776504516602 2.018626689911
-152.578414916992 -71.485122680664 -228.682891845703 2.972363948822
-1.424275994301 -69.139343261719 -226.171615600586 1.181208133698
-129.534667968750 -67.583007812500 -225.562576293945 1.588708400726
-153.954513549805 -70.884864807129 -232.082077026367 1.836456894875
-133.026687622070 -68.243164062500 -230.459335327148 3.153488397598
-9.042660713196 -68.381950378418 -237.749252319336 1.802040100098
9.421004295349 -69.156707763672 -239.326049804688 1.470211505890
64.966583251953 -62.870662689209 -237.197601318359 3.834734201431
22.028335571289 -67.641571044922 -243.979171752930 3.995981454849
62.880191802979 -65.156250000000 -242.948577880859 2.224008321762
42.810230255127 -64.364662170410 -241.514434814453 7.105302810669
56.180320739746 -66.230781555176 -245.292190551758 1.491265177727
-149.816772460938 -69.834716796875 -248.134292602539 2.241151809692
-151.003204345703 -68.651519775391 -248.147933959961 0.920937180519
44.049789428711 -69.749374389648 -250.126251220703 1.722344517708
32.822368621826 -63.987171173096 -255.543975830078 1.484213232994
49.916690826416 -63.646816253662 -246.265502929688 2.710314035416
-141.258041381836 -70.606246948242 -252.777618408203 1.594366788864
-133.055236816406 -67.197952270508 -251.143753051758 3.851884841919
-123.726974487305 -67.861358642578 -253.686096191406 1.864331245422
-131.450698852539 -65.070251464844 -253.603958129883 3.145432233810
-138.505874633789 -65.329963684082 -254.706451416016 4.169578075409
-121.476806640625 -67.711357116699 -253.258621215820 3.906690120697
-140.229492187500 -68.100646972656 -256.462036132813 2.019600868225
-123.643302917480 -69.046600341797 -257.204864501953 0.964378654957
-123.541595458984 -63.963798522949 -257.779602050781 2.786467552185
-123.813674926758 -71.273590087891 -259.587158203125 2.828806400299
-116.150283813477 -68.177459716797 -257.341461181641 1.002001404762
-1.812212944031 -66.972434997559 -261.197753906250 2.061907768250
30.262031555176 -68.066123962402 -259.288970947266 1.655818939209
-143.998733520508 -70.833786010742 -261.034484863281 2.658311128616
31.533794403076 -62.608222961426 -263.182678222656 2.836242914200
-3.620784044266 -65.423103332520 -265.840576171875 1.818622708321
18.430969238281 -69.114433288574 -280.187957763672 1.209456324577
-140.346786499023 -67.957580566406 -285.787597656250 2.831597328186
-122.035408020020 -65.739372253418 -284.171478271484 4.630931377411
-131.770553588867 -67.665512084961 -281.973876953125 2.782738924026
-155.322326660156 -65.625717163086 -285.326049804688 1.041352272034
-122.157836914063 -66.778556823730 -284.640625000000 3.809879064560
-115.265121459961 -63.634757995605 -284.837432861328 4.947139263153
-124.974723815918 -65.439743041992 -286.601593017578 1.565855503082
-150.046615600586 -68.594039916992 -292.446289062500 2.315167903900
31.079025268555 -77.926116943359 -10.364104270935 6.540441989899
31.506139755249 -79.828193664551 -15.673129081726 7.508418560028
41.552780151367 -79.520835876465 -14.786323547363 8.039496421814
48.784580230713 -70.848892211914 -21.630769729614 1.505411386490
27.247177124023 -77.876525878906 -24.164062500000 5.922282695770
27.460565567017 -77.927444458008 -29.472557067871 5.917700290680
-33.751838684082 -75.901977539063 -41.543666839600 11.023217201233
-78.843139648438 -75.896903991699 -47.424686431885 7.538496971130
-11.628727912903 -73.603538513184 -52.975025177002 9.050447463989
72.540870666504 -71.297348022461 -62.447731018066 5.267043113708
99.281761169434 -71.535743713379 -63.536361694336 6.734692573547
66.400558471680 -70.823257446289 -76.921661376953 3.130020856857
64.570663452148 -66.669548034668 -78.091415405273 1.725453138351
102.164802551270 -67.291336059570 -79.444145202637 1.981242656708
-60.163642883301 -70.465408325195 -83.883972167969 6.700156688690
-61.582744598389 -69.824645996094 -88.892288208008 2.579336643219
51.019336700439 -68.585380554199 -90.716209411621 1.778120517731
-60.508266448975 -69.772987365723 -93.315567016602 3.016623973846
-67.528915405273 -68.794250488281 -95.727142333984 2.246468782425
-98.587722778320 -70.362258911133 -93.232322692871 3.676151275635
-70.908889770508 -70.911399841309 -96.720443725586 4.011148929596
50.475505828857 -70.509292602539 -100.605354309082 3.784833431244
-68.446235656738 -73.481437683105 -99.791442871094 2.593158483505
53.148525238037 -70.931488037109 -95.970802307129 3.446710824966
99.901351928711 -71.677169799805 -98.515815734863 1.451921343803
92.902702331543 -70.716308593750 -104.055160522461 1.084171056747
-72.510986328125 -72.162773132324 -108.184600830078 4.012787818909
-80.027259826660 -72.357116699219 -106.975166320801 3.700999259949
-60.999580383301 -68.803428649902 -114.862129211426 4.656081676483
-93.145446777344 -70.426513671875 -113.599662780762 4.032802581787
-75.131782531738 -74.522857666016 -124.766258239746 5.190447807312
-88.193702697754 -67.016456604004 -122.494003295898 2.667504549026
-61.732509613037 -69.932929992676 -117.002410888672 4.489723205566
-57.622467041016 -70.668434143066 -114.283943176270 7.015328884125
-86.284690856934 -68.562492370605 -126.544578552246 2.665444850922
-59.318759918213 -71.472106933594 -125.535202026367 3.508063554764
-80.205734252930 -69.839653015137 -123.402961730957 1.189373373985
-69.573783874512 -71.062606811523 -128.294387817383 4.980624198914
-65.005294799805 -72.059593200684 -127.487899780273 4.940737724304
-58.472751617432 -67.723945617676 -132.618927001953 2.453220367432
-51.831863403320 -69.954704284668 -134.072479248047 1.773834943771
-89.288734436035 -70.706329345703 -132.419921875000 0.964782595634
-95.108886718750 -70.556663513184 -137.112625122070 3.442534446716
-85.350433349609 -72.591896057129 -133.392623901367 3.196655750275
26.340320587158 -70.290878295898 -143.818954467773 2.019806861877
-48.068523406982 -71.031173706055 -139.903488159180 0.711687088013
16.873950958252 -66.696296691895 -144.851974487305 0.733318030834
-96.021354675293 -67.941246032715 -157.569427490234 1.629794478416
-95.972419738770 -67.384490966797 -166.844177246094 5.002430915833
-96.509071350098 -64.931205749512 -167.602661132813 5.338159561157
-106.988868713379 -71.616508483887 -164.910949707031 4.319049358368
-103.852531433105 -71.340385437012 -178.686553955078 3.551772117615
-106.846199035645 -65.973915100098 -176.922912597656 2.992131710052
-142.839767456055 -69.811965942383 -183.505142211914 2.625027894974
-108.251731872559 -69.283157348633 -183.353912353516 1.455604553223
-131.480941772461 -65.190689086914 -187.869613647461 6.960529804230
-142.453277587891 -72.513107299805 -194.061035156250 2.157668352127
-122.243545532227 -69.881072998047 -193.832229614258 1.888263821602
-153.921707153320 -71.885040283203 -194.534011840820 1.403820991516
-141.208038330078 -68.322731018066 -196.452331542969 1.289864182472
-119.753959655762 -64.428085327148 -195.247161865234 3.709059953690
-132.534484863281 -68.876808166504 -199.359146118164 3.472174167633
-144.015594482422 -67.593124389648 -205.955749511719 0.479494869709
-129.950042724609 -68.032447814941 -219.171386718750 5.564217090607
-110.458930969238 -66.414489746094 -224.061691284180 1.419377326965
-148.472518920898 -70.537757873535 -224.091186523438 3.172257423401
-115.862640380859 -65.193481445313 -227.333862304688 1.461601018906
-106.992195129395 -66.631347656250 -228.746765136719 1.927075982094
-122.519592285156 -69.365631103516 -230.861236572266 2.687721490860
-127.897125244141 -69.887565612793 -231.311843872070 4.175444602966
-116.067672729492 -64.311599731445 -232.040664672852 1.475636005402
4.395475864410 -67.539680480957 -231.714538574219 0.907124578953
-147.738708496094 -68.693588256836 -231.969924926758 1.627366304398
9.278259277344 -69.237648010254 -229.005630493164 1.808388113976
10.103478431702 -63.907173156738 -237.143615722656 2.448714256287
3.300565958023 -67.767379760742 -236.324386596680 1.473363757133
16.028717041016 -65.117523193359 -236.729751586914 3.592886447906
-142.048309326172 -68.856872558594 -233.080352783203 1.134150743484
-2.072360038757 -66.021972656250 -240.972991943359 2.060071945190
20.914028167725 -62.543491363525 -238.347351074219 4.013316154480
49.393276214600 -63.250244140625 -244.899993896484 3.918739557266
52.737564086914 -64.436477661133 -241.454864501953 3.688853263855
-145.561126708984 -69.226524353027 -247.608764648438 2.285376548767
-4.441349029541 -68.148002624512 -250.310745239258 3.998454809189
31.210870742798 -64.705177307129 -252.891571044922 2.949987888336
-131.329666137695 -62.111946105957 -255.763778686523 4.548893928528
-126.210693359375 -65.000801086426 -257.210968017578 1.290457725525
-125.880050659180 -67.229614257813 -254.686157226563 1.119302511215
27.133079528809 -64.305641174316 -257.225280761719 1.851672410965
-135.515350341797 -66.858291625977 -259.379638671875 0.867451608181
31.655189514160 -66.283729553223 -255.096496582031 1.381020188332
32.302871704102 -64.321128845215 -261.765319824219 2.651952266693
-151.433593750000 -66.705680847168 -260.756774902344 2.115818500519
-146.013961791992 -69.865783691406 -284.916259765625 1.523943305016
-151.945114135742 -67.053649902344 -287.017944335938 2.158487558365
-140.994796752930 -65.603584289551 -286.327575683594 2.827266693115
9.779403686523 -65.773948669434 -290.546447753906 1.774419426918
-152.682510375977 -66.567787170410 -291.644287109375 2.656179189682
47.188953399658 -78.294082641602 -23.089159011841 6.913662433624
38.355560302734 -78.293128967285 -36.965129852295 6.219520568848
-64.001068115234 -73.853660583496 -43.349323272705 6.365394115448
-73.860000610352 -71.741386413574 -42.490451812744 6.642497062683
-25.821538925171 -73.581565856934 -47.264743804932 7.442986488342
-20.249475479126 -73.630233764648 -55.180133819580 4.797557353973
-11.600110054016 -72.196640014648 -63.578483581543 3.739192485809
-25.266042709351 -69.304801940918 -67.330352783203 5.145045280457
68.920410156250 -71.376266479492 -68.912483215332 3.486361980438
-95.865043640137 -71.269042968750 -76.991462707520 2.331728458405
-47.331058502197 -71.214439392090 -79.874244689941 4.067357063293
56.116188049316 -68.890235900879 -80.650497436523 4.619247913361
58.763351440430 -70.665428161621 -84.422355651855 1.798352956772
71.067489624023 -69.891021728516 -83.109642028809 3.070996999741
105.894897460938 -69.537979125977 -89.801261901855 3.444537639618
56.104663848877 -68.808250427246 -88.181709289551 0.836215734482
100.546340942383 -69.799209594727 -98.013801574707 0.440145641565
-77.279502868652 -72.631401062012 -99.795486450195 0.665207803249
-96.112716674805 -72.906532287598 -100.373611450195 4.170864105225
79.092361450195 -69.003883361816 -106.424804687500 1.371035337448
-74.658187866211 -70.137100219727 -98.194068908691 1.415390372276
-78.263320922852 -72.095321655273 -114.320373535156 1.560674428940
-81.940307617188 -69.386070251465 -115.975578308105 2.220713853836
-52.746677398682 -71.378677368164 -122.156440734863 5.305107593536
-78.109382629395 -68.887207031250 -122.042671203613 1.124713182449
-59.561050415039 -72.162261962891 -126.963356018066 2.573958158493
-77.541267395020 -73.328956604004 -131.509399414063 2.571957349777
-72.392189025879 -66.788871765137 -128.856964111328 2.626057386398
-79.752502441406 -67.742271423340 -122.238784790039 1.256785035133
-85.410118103027 -69.202636718750 -124.820152282715 1.576750040054
-59.640026092529 -70.370376586914 -127.754714965820 1.519568324089
-88.096595764160 -70.755882263184 -129.901458740234 1.320541381836
-49.673671722412 -71.511100769043 -129.155899047852 3.127256155014
-52.088981628418 -70.497734069824 -137.559448242188 2.760592222214
28.417640686035 -69.197296142578 -134.472152709961 1.135910272598
-57.425834655762 -65.769309997559 -131.834045410156 3.448790311813
14.443381309509 -69.906555175781 -143.023056030273 3.904069662094
21.589750289917 -66.839263916016 -144.025405883789 1.650479674339
19.943983078003 -68.018890380859 -148.275238037109 2.179578065872
-95.209327697754 -71.629493713379 -141.389801025391 4.532721042633
-92.948890686035 -69.561332702637 -151.307373046875 2.461730241776
-96.384796142578 -64.885856628418 -149.599502563477 2.400273561478
-95.651893615723 -69.713157653809 -152.883926391602 1.427326917648
-91.748352050781 -67.102058410645 -155.663742065430 3.600045442581
-149.660476684570 -74.579620361328 -173.073562622070 3.792255878448
-151.498306274414 -71.314262390137 -173.311126708984 2.100230932236
-103.523376464844 -69.928550720215 -181.420288085938 2.836708784103
-141.095825195313 -65.480056762695 -174.584228515625 1.922814369202
-109.175559997559 -69.687751770020 -175.562988281250 3.461997985840
-148.500106811523 -68.796897888184 -184.359848022461 4.552427291870
-111.569229125977 -68.675643920898 -188.791854858398 2.146075725555
-104.101676940918 -68.293678283691 -183.431106567383 2.441371917725
-142.146087646484 -69.556007385254 -192.241302490234 1.956693410873
-132.238967895508 -68.584472656250 -195.395202636719 0.889489710331
-105.887580871582 -67.596748352051 -195.333389282227 2.018894672394
-113.439704895020 -68.446342468262 -197.311309814453 1.128960132599
-112.459777832031 -66.209983825684 -198.392227172852 2.019322633743
-111.416168212891 -66.450553894043 -200.599700927734 1.473548889160
-131.804031372070 -67.389114379883 -195.534225463867 1.228480458260
-133.268890380859 -68.251899719238 -195.929733276367 0.473892927170
-129.949630737305 -69.971420288086 -197.730667114258 3.041790485382
-122.052803039551 -65.379516601563 -199.380218505859 1.402397274971
-121.768562316895 -65.795196533203 -204.182983398438 0.922959387302
-114.958839416504 -65.405006408691 -201.723281860352 1.385912895203
-144.476165771484 -68.379417419434 -214.252166748047 0.791917204857
-149.320938110352 -67.606307983398 -222.454879760742 1.801114439964
-153.922607421875 -65.013313293457 -219.727340698242 4.723716259003
-139.262527465820 -69.523376464844 -221.316894531250 3.853586912155
-134.115447998047 -66.381492614746 -224.658599853516 1.171377897263
-123.322296142578 -68.342277526855 -220.114685058594 4.704586505890
-139.910766601563 -65.138023376465 -227.643508911133 1.583979129791
-146.500183105469 -69.595695495605 -226.904571533203 2.564407348633
-137.614837646484 -66.879859924316 -222.552368164063 4.524472236633
-129.982528686523 -64.558525085449 -224.814300537109 2.266548395157
-147.304824829102 -67.946113586426 -228.260391235352 0.885815560818
-133.552841186523 -66.783134460449 -230.008255004883 1.914980530739
-123.547676086426 -64.120872497559 -226.840209960938 1.908350586891
-5.017878055573 -67.540931701660 -233.902908325195 1.340377569199
5.505308151245 -65.183319091797 -233.554199218750 1.397550702095
12.275909423828 -64.135650634766 -238.728149414063 2.432501554489
13.709383010864 -64.923355102539 -237.875381469727 3.241729497910
-7.473635196686 -66.551414489746 -241.241058349609 1.295964241028
-9.945914268494 -62.169307708740 -244.568313598633 3.098283529282
45.583297729492 -59.785205841064 -248.729415893555 5.003425598145
51.971260070801 -65.452392578125 -246.402450561523 0.794527292252
-144.327575683594 -65.019264221191 -253.161636352539 1.871305227280
44.130821228027 -62.532932281494 -253.987030029297 1.865214705467
34.785427093506 -63.045719146729 -248.475158691406 5.231056213379
-156.181747436523 -64.002395629883 -253.368011474609 2.811628580093
-149.415969848633 -64.504158020020 -256.953796386719 0.448802798986
-145.393402099609 -67.285331726074 -258.062103271484 2.382041215897
4.029651165009 -64.916908264160 -260.914215087891 2.694092273712
-152.637420654297 -65.312759399414 -262.507080078125 2.234485387802
3.337377071381 -63.033866882324 -272.498535156250 2.264187812805
-143.291076660156 -67.506401062012 -269.847229003906 4.986124515533
-143.937911987305 -64.302246093750 -281.715301513672 2.760083675385
-150.580047607422 -65.541404724121 -279.483917236328 3.296638727188
-148.660003662109 -63.656620025635 -279.671600341797 1.636505484581
-144.235885620117 -63.962562561035 -280.373657226563 3.906381130219
-153.821197509766 -61.369289398193 -284.952270507813 2.385547399521
-148.883560180664 -62.038551330566 -281.394653320313 1.218540191650
-149.179031372070 -65.179527282715 -281.406250000000 1.869431257248
-143.279357910156 -67.577468872070 -284.302795410156 2.443169593811
-140.447387695313 -63.929821014404 -284.760894775391 3.526534080505
16.108423233032 -64.349044799805 -289.243713378906 2.924038171768
-147.187728881836 -60.996837615967 -285.579803466797 2.382229804993
-155.875106811523 -64.282348632813 -287.245971679688 0.893671572208
-149.690246582031 -63.520446777344 -285.984924316406 1.435356020927
-147.889938354492 -63.329730987549 -291.084197998047 1.392953157425
-150.939346313477 -64.054985046387 -285.347900390625 1.188107013702
-148.156448364258 -67.187866210938 -288.510803222656 2.434257030487
4.387198925018 -59.616828918457 -290.272827148438 1.115715146065
-143.148742675781 -64.357109069824 -290.219360351563 1.486985683441
-143.738632202148 -64.883125305176 -290.344451904297 1.361464142799
32.291194915771 -68.101440429688 -16.220273971558 1.951698541641
41.390518188477 -73.453208923340 -12.442380905151 2.381559371948
44.079032897949 -69.741439819336 -20.813194274902 1.332561016083
21.480306625366 -77.920570373535 -28.454421997070 5.838643074036
32.167819976807 -68.164962768555 -32.622341156006 3.377568244934
43.487247467041 -79.904792785645 -33.289550781250 8.052948951721
-56.007106781006 -71.649314880371 -39.901691436768 7.503348350525
-52.780899047852 -73.301185607910 -42.955524444580 6.060546398163
92.819557189941 -70.212318420410 -56.151508331299 8.400856018066
-94.500091552734 -70.514328002930 -61.660915374756 5.066497325897
96.055999755859 -72.383422851563 -64.176490783691 5.806550502777
65.686492919922 -67.634719848633 -63.805294036865 5.308940887451
105.677429199219 -70.745819091797 -73.920715332031 5.790519714355
67.370246887207 -69.498092651367 -69.476394653320 2.792023420334
-38.660144805908 -73.984428405762 -75.212043762207 2.504414319992
61.034790039063 -67.471748352051 -79.825088500977 4.121399402618
-57.576351165771 -69.362640380859 -73.453369140625 9.692792892456
64.308189392090 -66.579704284668 -81.627868652344 0.772740125656
66.147613525391 -68.656814575195 -77.927703857422 1.301756978035
-97.515754699707 -71.739448547363 -77.079421997070 3.744917392731
53.269756317139 -69.994010925293 -87.134170532227 1.296782255173
52.778461456299 -71.004264831543 -91.121742248535 1.578414082527
67.290199279785 -69.212959289551 -88.819641113281 1.837934255600
54.542575836182 -66.252944946289 -91.320854187012 2.187503576279
-79.762390136719 -71.459899902344 -105.738143920898 3.821065425873
86.990745544434 -72.345718383789 -101.841705322266 0.748854100704
-74.322555541992 -68.058929443359 -110.570213317871 0.729211211205
-72.723114013672 -68.812339782715 -104.911186218262 2.179234743118
-81.386497497559 -70.850173950195 -117.736869812012 2.342114448547
-84.975868225098 -69.804695129395 -106.877311706543 1.892674446106
-87.554824829102 -72.294136047363 -116.295707702637 1.100896477699
-76.261131286621 -69.529777526855 -120.713432312012 2.825994253159
-52.229183197021 -65.530509948730 -123.571601867676 2.417728900909
-72.263450622559 -71.627037048340 -130.999710083008 2.108485221863
-52.519207000732 -65.704170227051 -132.699981689453 2.120526790619
-87.600112915039 -68.716766357422 -131.780532836914 2.060759544373
29.816732406616 -66.034004211426 -134.842651367188 1.985704064369
21.637142181396 -67.534950256348 -135.804443359375 4.088314533234
-90.289344787598 -69.669509887695 -135.462890625000 0.944934546947
20.596256256104 -66.547485351563 -149.541854858398 2.047975063324
-86.690078735352 -70.611785888672 -141.595184326172 3.931340932846
-92.520233154297 -67.831703186035 -142.598937988281 1.803544521332
21.267618179321 -66.520553588867 -150.556900024414 2.395015478134
-94.141334533691 -66.143768310547 -142.530319213867 1.960772156715
-93.595893859863 -66.418388366699 -142.820892333984 2.254186391830
-98.150978088379 -66.898086547852 -153.685180664063 1.979602694511
-96.857513427734 -69.440170288086 -154.806213378906 1.938603639603
-104.048439025879 -66.616111755371 -170.281005859375 2.310879707336
-103.122344970703 -66.276130676270 -164.158721923828 2.385801315308
-99.388870239258 -70.217308044434 -160.370666503906 1.967697262764
-103.806678771973 -65.948852539063 -168.753494262695 2.764341354370
-133.872726440430 -73.671897888184 -174.024337768555 8.823981285095
-105.661026000977 -67.286323547363 -173.595718383789 2.292127132416
-140.772262573242 -66.655281066895 -184.292968750000 2.364291191101
-146.905319213867 -70.741455078125 -183.032638549805 3.581539392471
-146.989349365234 -67.109817504883 -190.805465698242 3.508640527725
-123.355781555176 -66.429962158203 -192.065612792969 2.701036930084
-128.748641967773 -64.275039672852 -196.034851074219 2.322804212570
-117.712211608887 -66.658332824707 -193.646011352539 3.616412401199
-138.992004394531 -69.475898742676 -200.260391235352 3.243388652802
-122.298034667969 -66.653068542480 -199.977172851563 2.449417352676
-144.257156372070 -68.950309753418 -202.311141967773 3.393317937851
-148.707580566406 -71.292808532715 -202.300613403320 1.634232521057
-156.314208984375 -64.999504089355 -226.419876098633 3.208524227142
-139.563156127930 -67.320396423340 -230.810714721680 2.043836116791
-125.631820678711 -65.296157836914 -230.749404907227 2.066449403763
-150.899032592773 -64.247299194336 -228.383361816406 2.200539112091
-0.823841989040 -66.872360229492 -232.428787231445 1.438852548599
15.465432167053 -67.131256103516 -236.915985107422 3.451111316681
0.102397002280 -62.388545989990 -237.386901855469 0.775539159775
-148.065551757813 -66.930801391602 -241.135253906250 2.200780391693
-3.854854106903 -64.009284973145 -244.287109375000 0.883157908916
-146.945617675781 -63.677883148193 -249.161361694336 3.272626399994
-4.823989868164 -63.324104309082 -246.612106323242 1.475847482681
-148.587493896484 -66.892257690430 -248.257751464844 2.521309137344
27.544792175293 -65.192832946777 -250.850250244141 4.668992996216
-152.444091796875 -64.995941162109 -252.113739013672 2.197880506516
-145.218933105469 -66.827209472656 -248.919296264648 1.956804394722
-149.827575683594 -62.249191284180 -249.888961791992 0.718164324760
-149.079116821289 -64.385292053223 -254.686172485352 1.499396681786
36.326545715332 -63.585521697998 -250.416595458984 2.736129522324
31.253498077393 -63.798770904541 -257.529815673828 1.626233100891
-144.044601440430 -64.804634094238 -253.275436401367 1.756835103035
-148.402618408203 -61.674510955811 -256.003234863281 1.314095020294
-154.460220336914 -63.501174926758 -254.951217651367 1.187895059586
-145.935348510742 -65.331588745117 -259.365295410156 2.798083543777
28.621374130249 -62.159248352051 -258.517852783203 2.545320510864
29.729608535767 -61.389228820801 -260.527038574219 1.370275855064
-150.171798706055 -62.251689910889 -258.946655273438 1.741667389870
-140.373336791992 -64.698326110840 -258.795684814453 2.330558300018
-149.846496582031 -65.202003479004 -262.136108398438 1.287274837494
-143.956176757813 -63.789020538330 -256.763031005859 1.459220409393
-146.298858642578 -67.257850646973 -260.866149902344 1.942362666130
-149.829147338867 -62.729396820068 -263.731475830078 0.852907776833
-148.285766601563 -65.092895507813 -264.405242919922 1.848617792130
-149.707015991211 -64.547813415527 -278.587341308594 2.376572132111
-146.828002929688 -67.165222167969 -279.809082031250 2.987460374832
-147.191680908203 -65.456268310547 -275.553527832031 1.163327455521
17.458499908447 -63.125881195068 -280.773956298828 2.851991176605
-152.936477661133 -62.347957611084 -280.430816650391 3.219362020493
-143.485580444336 -61.610733032227 -278.845642089844 5.294768333435
-2.229384899139 -65.851493835449 -286.018157958984 1.976056694984
10.082320213318 -63.373126983643 -291.547943115234 1.142442941666
-149.597076416016 -65.142143249512 -292.078521728516 1.230418086052
27.763694763184 -78.501129150391 -17.392765045166 6.258622646332
44.123981475830 -70.591400146484 -23.710681915283 1.056638360023
53.236255645752 -76.669616699219 -26.952396392822 6.454437732697
43.841751098633 -70.251007080078 -29.004545211792 1.701890945435
27.331699371338 -78.011489868164 -34.654235839844 5.620652675629
43.417415618896 -78.951080322266 -34.111103057861 7.125446319580
82.812782287598 -70.168937683105 -57.810920715332 6.214411258698
79.173950195313 -68.221168518066 -55.290256500244 6.402388572693
-12.400448799133 -73.794212341309 -65.320480346680 3.510652542114
67.530944824219 -67.505012512207 -63.271949768066 4.268350124359
-25.579435348511 -76.015419006348 -72.057014465332 2.524640798569
-26.381565093994 -71.219230651855 -75.473739624023 1.961361646652
-52.192935943604 -70.171798706055 -74.860046386719 9.042527198792
-48.559631347656 -71.873962402344 -76.344650268555 7.194270133972
66.719184875488 -72.433158874512 -78.611251831055 2.715343713760
104.818756103516 -70.652755737305 -86.960243225098 2.877502202988
-59.994918823242 -66.205398559570 -83.064071655273 3.635754585266
55.434299468994 -69.785278320313 -92.617668151855 2.894007921219
64.777038574219 -64.708435058594 -89.577339172363 0.669987201691
106.523620605469 -66.708595275879 -91.539192199707 2.880571842194
-62.833000183105 -66.898933410645 -93.562774658203 1.829046607018
59.493061065674 -63.819099426270 -92.790679931641 2.377813339233
-68.684219360352 -72.226776123047 -99.551467895508 2.436796426773
68.625610351563 -69.008262634277 -93.864433288574 1.450889468193
71.694740295410 -67.403068542480 -98.575141906738 2.651764392853
-68.676902770996 -71.716430664063 -105.254310607910 5.158437252045
-94.959548950195 -67.560661315918 -107.736572265625 2.222932815552
-66.255813598633 -65.983268737793 -105.817832946777 3.774272203445
-79.128257751465 -66.465347290039 -105.642501831055 1.986813187599
-63.021751403809 -67.400215148926 -107.223754882813 6.227619647980
-80.624862670898 -67.018043518066 -110.538536071777 0.936341106892
-77.755630493164 -67.233924865723 -114.567634582520 2.124806642532
-73.082054138184 -69.643630981445 -115.747146606445 3.498585224152
-66.299598693848 -71.750053405762 -119.774948120117 7.131882190704
-78.650329589844 -70.917121887207 -124.203041076660 2.265628814697
33.310558319092 -68.109916687012 -121.410934448242 2.433151006699
-50.457992553711 -66.950691223145 -124.109832763672 3.695182800293
30.487527847290 -66.956108093262 -128.093963623047 3.781742334366
30.695045471191 -69.411193847656 -129.995452880859 2.707802057266
34.821094512939 -65.378654479980 -130.976943969727 3.482360363007
-49.586479187012 -68.885902404785 -133.607055664063 1.009182214737
23.680986404419 -66.024688720703 -143.707000732422 0.582304835320
27.115653991699 -64.417007446289 -135.113037109375 1.085946679115
-142.399047851563 -63.349914550781 -173.062896728516 3.566338777542
-147.053405761719 -67.280654907227 -171.898544311523 3.551831960678
-147.361618041992 -68.267921447754 -174.484069824219 1.045016050339
-145.152603149414 -65.493820190430 -183.665359497070 2.939159393311
-144.151260375977 -65.921218872070 -184.483276367188 3.233711004257
-144.641357421875 -68.740074157715 -188.670257568359 2.214356660843
-139.513824462891 -67.268974304199 -189.859146118164 3.031884193420
-144.319976806641 -66.161483764648 -191.595855712891 2.131438732147
-121.107734680176 -60.933917999268 -194.255752563477 4.553785800934
-131.944549560547 -66.518692016602 -197.060333251953 1.941829204559
-145.391571044922 -65.229637145996 -206.197708129883 0.372132420540
-145.111389160156 -66.250267028809 -219.379791259766 1.245483279228
-149.101547241211 -65.973487854004 -219.529144287109 3.264485120773
-143.061203002930 -61.618976593018 -225.068832397461 1.495806336403
-153.476242065430 -64.350334167480 -222.778762817383 2.459672689438
-146.586273193359 -63.757511138916 -229.915634155273 1.262272119522
-148.196090698242 -64.335960388184 -225.541229248047 2.051260709763
-145.139160156250 -62.732952117920 -225.633544921875 1.695773720741
-138.345642089844 -61.882266998291 -226.156478881836 3.738092660904
-143.407531738281 -63.707317352295 -230.071121215820 2.252570867538
