-90.001152038574 -79.107406616211 -83.560073852539 3.246319055557
85.297859191895 -78.455207824707 -82.745033264160 1.624959349632
86.783180236816 -76.787803649902 -84.377258300781 2.046052932739
94.335052490234 -75.383766174316 -85.523056030273 1.081042051315
-58.934459686279 -82.927993774414 -94.743247985840 2.161874055862
85.809486389160 -77.741500854492 -94.889152526855 2.269937038422
80.858894348145 -74.980278015137 -94.222564697266 1.376806020737
91.893470764160 -78.113410949707 -92.776367187500 1.440201044083
-61.132236480713 -81.294136047363 -98.434455871582 2.491246461868
55.657901763916 -75.593223571777 -98.349990844727 0.338149756193
46.485149383545 -77.290290832520 -106.665435791016 2.180571079254
40.140083312988 -77.371955871582 -108.122039794922 1.687565088272
38.397056579590 -76.405914306641 -110.575874328613 1.147293090820
-91.732139587402 -77.550346374512 -114.454467773438 2.007646799088
36.027137756348 -78.315574645996 -119.204170227051 1.541777849197
-83.288093566895 -78.700859069824 -113.206550598145 2.735177516937
42.712619781494 -77.578666687012 -126.561782836914 1.090465307236
33.615894317627 -77.136772155762 -123.262023925781 1.634786605835
33.335071563721 -78.438621520996 -124.385139465332 1.261388063431
42.755512237549 -75.630699157715 -122.722190856934 2.842411518097
40.429710388184 -79.416007995605 -128.143493652344 2.407102346420
-54.869819641113 -72.619918823242 -140.084564208984 1.260862469673
36.957431793213 -78.369598388672 -135.604675292969 1.213568925858
36.960197448730 -76.844421386719 -142.416839599609 0.629077315331
-48.988105773926 -73.523330688477 -140.568023681641 1.854913949966
-48.074619293213 -79.837493896484 -142.083297729492 2.452553510666
34.918468475342 -77.431915283203 -144.906738281250 1.342998266220
110.024238586426 -74.365165710449 -143.307464599609 1.424207210541
111.991012573242 -74.763427734375 -144.615875244141 1.765098214149
27.636589050293 -78.628936767578 -145.928985595703 1.829263448715
-42.141525268555 -77.242721557617 -148.487609863281 0.432451277971
112.843795776367 -77.690963745117 -159.386062622070 0.669337093830
-42.126823425293 -76.808990478516 -156.503784179688 2.061973810196
-64.560928344727 -79.687843322754 -161.348846435547 0.967140376568
111.271812438965 -75.998825073242 -163.995773315430 1.981032013893
24.946840286255 -77.918693542480 -167.178955078125 2.194121122360
-0.014227000065 -77.754737854004 -166.001022338867 2.524148225784
113.082595825195 -76.998031616211 -156.015655517578 1.432983279228
-62.661487579346 -79.008796691895 -162.938583374023 2.073008060455
-35.485919952393 -80.158546447754 -162.174758911133 1.872799873352
111.838989257813 -74.418670654297 -166.055175781250 2.067373275757
27.517421722412 -73.825042724609 -159.803558349609 3.108312129974
-65.295722961426 -77.343841552734 -169.686935424805 2.243034601212
108.972564697266 -74.052078247070 -171.801788330078 0.378742247820
-64.218338012695 -79.791549682617 -170.081268310547 2.705596923828
-52.330299377441 -79.774711608887 -179.133331298828 2.025091648102
106.122962951660 -74.664375305176 -177.509582519531 2.161574602127
-61.956096649170 -77.275787353516 -170.118392944336 2.239720106125
112.560585021973 -74.857192993164 -175.131088256836 0.285744398832
-58.577136993408 -79.728370666504 -173.742492675781 1.258196353912
-13.400455474854 -76.719360351563 -177.525253295898 0.349550276995
-11.001383781433 -77.855293273926 -180.152435302734 2.113940715790
106.907676696777 -76.067214965820 -172.952941894531 0.789461672306
21.686212539673 -76.257347106934 -170.763488769531 1.348098874092
29.147563934326 -77.803649902344 -170.550979614258 2.036899805069
-54.845611572266 -79.614952087402 -178.483505249023 2.081299543381
18.682701110840 -76.255317687988 -185.638107299805 2.703961372375
-56.977775573730 -78.422134399414 -180.179214477539 1.341507315636
-51.411327362061 -75.233665466309 -190.920303344727 1.139984846115
13.914208412170 -76.976135253906 -182.412170410156 1.574055194855
-60.358982086182 -76.348396301270 -184.771743774414 4.079627513885
109.857536315918 -73.146301269531 -186.627410888672 1.434112071991
21.888374328613 -77.164863586426 -181.382461547852 1.908928751945
-31.537729263306 -77.803222656250 -189.195098876953 1.416973114014
-43.845836639404 -75.062515258789 -195.296279907227 2.104503631592
10.911346435547 -75.498275756836 -197.155120849609 1.658875107765
-22.884418487549 -77.946182250977 -190.005416870117 1.547331333160
-52.102779388428 -77.908294677734 -196.166458129883 3.753515243530
101.862625122070 -77.491455078125 -188.384124755859 1.305556535721
15.043785095215 -74.947433471680 -192.113464355469 1.169669747353
-135.305816650391 -78.999366760254 -196.412490844727 2.126904964447
-41.685825347900 -76.709167480469 -192.787765502930 0.222031041980
101.040107727051 -77.009864807129 -198.902664184570 1.557065129280
-148.036437988281 -80.523590087891 -202.014602661133 1.488936305046
18.224227905273 -76.222229003906 -194.542663574219 1.869877576828
-43.881618499756 -82.056144714355 -205.447723388672 4.242681026459
-32.906745910645 -78.184783935547 -205.251251220703 1.608272075653
-39.020603179932 -74.811386108398 -206.320343017578 1.529693007469
-42.694332122803 -77.586174011230 -194.911712646484 1.543252706528
101.235832214355 -77.464431762695 -202.328781127930 1.906144618988
-18.481515884399 -76.185119628906 -203.498992919922 0.967979729176
-151.099487304688 -76.299781799316 -203.084259033203 1.321108102798
13.824310302734 -75.253204345703 -209.152587890625 2.809241294861
-73.211929321289 -80.076110839844 -206.268218994141 2.041795253754
-146.801223754883 -77.742889404297 -210.994583129883 1.475846171379
97.144592285156 -73.912597656250 -210.757202148438 1.257540225983
-33.910030364990 -77.135475158691 -207.934600830078 1.764622688293
-26.651353836060 -76.176437377930 -217.090118408203 0.695497989655
6.746282100677 -77.883972167969 -212.349319458008 1.525845527649
-71.516044616699 -77.092147827148 -213.453796386719 1.505337834358
-27.851228713989 -76.498565673828 -210.321838378906 1.882100343704
-6.554107189178 -78.952377319336 -217.576263427734 2.075227975845
-78.053710937500 -80.623069763184 -217.130142211914 2.527914047241
-13.742698669434 -79.031677246094 -219.681701660156 2.323304176331
9.200053215027 -75.638061523438 -216.270034790039 2.261623144150
17.681591033936 -81.171119689941 -221.953430175781 3.139109134674
-146.540145874023 -78.585754394531 -217.670196533203 1.742928504944
-5.159478187561 -74.871665954590 -216.910537719727 1.501225113869
-92.597686767578 -74.455062866211 -222.545669555664 2.554998397827
-22.330980300903 -73.933853149414 -220.302398681641 0.759099662304
93.680526733398 -76.374732971191 -213.569778442383 1.245561361313
6.363606929779 -77.913658142090 -229.715866088867 1.827390551567
15.406105041504 -78.635871887207 -217.101821899414 1.180448412895
80.197013854980 -71.015357971191 -223.345535278320 2.807502508163
2.219310045242 -75.498939514160 -227.548950195313 1.116296172142
86.040214538574 -74.151329040527 -221.537979125977 2.487407684326
-16.206190109253 -76.272216796875 -223.859680175781 1.363146305084
13.765136718750 -78.104133605957 -223.552124023438 1.032106399536
-147.698577880859 -80.136215209961 -225.243927001953 1.778619050980
-18.307729721069 -82.159652709961 -227.161605834961 5.049390316010
1.613105058670 -80.073989868164 -228.061782836914 2.661514282227
-152.493194580078 -80.895935058594 -228.965896606445 1.981378555298
-134.585052490234 -78.218841552734 -228.030548095703 0.633743762970
10.021374702454 -75.524444580078 -228.354492187500 2.965943574905
-5.280435085297 -76.416534423828 -239.042129516602 3.873624563217
-137.179092407227 -78.540946960449 -232.314636230469 1.216964721680
-147.346099853516 -81.417602539063 -235.542770385742 2.910641431808
-145.542068481445 -76.590538024902 -238.338363647461 2.476973772049
-28.357896804810 -77.278503417969 -237.273773193359 2.398768186569
-145.275878906250 -77.116134643555 -244.357604980469 2.526722669601
19.677726745605 -75.464302062988 -241.900039672852 1.669749736786
6.153334140778 -77.064613342285 -245.039886474609 1.048393964767
-151.682342529297 -76.546585083008 -236.704238891602 2.486113071442
-151.009231567383 -78.557426452637 -243.120529174805 2.777433872223
-46.327342987061 -77.407356262207 -241.409271240234 2.160312652588
-32.453937530518 -79.796936035156 -245.686187744141 2.568526744843
6.102016925812 -78.712860107422 -249.798370361328 2.648567914963
-36.731220245361 -75.740547180176 -247.627532958984 3.083970785141
23.777467727661 -77.832321166992 -251.328750610352 3.584520578384
-3.240964889526 -78.170906066895 -247.644241333008 1.900709390640
-152.979049682617 -77.154151916504 -253.094390869141 2.463928461075
-6.093192100525 -73.004302978516 -250.005020141602 3.153336048126
-143.197494506836 -79.626541137695 -252.979812622070 1.443627119064
-66.997413635254 -77.976623535156 -251.127258300781 2.585350751877
-152.468399047852 -84.953186035156 -259.384155273438 1.516617536545
-126.109077453613 -79.707000732422 -261.984191894531 3.807110548019
-149.850128173828 -74.721359252930 -260.813293457031 1.308071732521
-12.651483535767 -74.856224060059 -267.717773437500 1.689808607101
-145.784378051758 -80.202789306641 -265.196929931641 0.889843225479
-149.760101318359 -78.692687988281 -264.820098876953 1.254719972610
-10.529920578003 -78.818161010742 -269.873504638672 0.305539965630
-148.243713378906 -79.333091735840 -269.482604980469 2.431356906891
-4.648400783539 -78.866180419922 -283.359466552734 2.466301679611
-45.172630310059 -78.320190429688 -284.049743652344 4.011671066284
-137.013702392578 -79.532447814941 -286.990325927734 1.353012442589
-133.348342895508 -75.659774780273 -283.463684082031 2.468599319458
-126.204605102539 -77.402343750000 -285.352325439453 1.328691482544
-54.737758636475 -76.063583374023 -283.133789062500 3.811877965927
-114.879547119141 -76.478958129883 -290.333160400391 2.182241201401
15.224720954895 -80.138404846191 -290.897125244141 1.669075250626
-62.018001556396 -76.731002807617 -288.245361328125 1.245038509369
-141.904296875000 -75.972099304199 -288.733276367188 0.370536804199
-62.703697204590 -74.544425964355 -288.850433349609 2.260559082031
-143.485046386719 -82.433868408203 -291.166809082031 0.684953331947
-119.068847656250 -76.830566406250 -287.379547119141 2.198077917099
-47.599994659424 -76.210319519043 -292.297668457031 1.890492677689
-38.715164184570 -77.201301574707 -291.759307861328 1.526443839073
-134.467407226563 -78.036865234375 -291.011596679688 1.353302478790
-11.843627929688 -73.603958129883 -293.321777343750 1.695967435837
-0.991212010384 -78.714065551758 -293.158813476563 2.933978319168
7.177173137665 -76.298583984375 -292.691467285156 1.006569504738
13.492465019226 -76.054443359375 -294.860717773438 1.450026631355
-148.988235473633 -81.148056030273 -296.154968261719 2.270496845245
-146.870666503906 -76.807044982910 -299.390411376953 0.834571897984
-69.346618652344 -76.091934204102 -62.686588287354 2.547602415085
88.299858093262 -75.430816650391 -78.617607116699 1.368611574173
80.368309020996 -76.245628356934 -77.687423706055 1.599084258080
-25.726762771606 -80.046989440918 -76.424827575684 2.501227617264
86.301162719727 -74.358528137207 -76.452041625977 1.146137356758
-36.711940765381 -75.537063598633 -81.843597412109 1.970658063889
90.587585449219 -78.586364746094 -79.678970336914 2.468879699707
91.750877380371 -78.148025512695 -82.434013366699 2.382041454315
-67.705513000488 -73.247245788574 -94.183334350586 3.192808151245
78.655876159668 -75.403060913086 -92.994255065918 1.775648117065
81.290046691895 -73.787567138672 -99.010269165039 1.747704505920
93.066314697266 -74.732688903809 -92.955886840820 1.733340620995
55.199558258057 -75.981391906738 -95.723159790039 1.295234441757
-77.227897644043 -81.917404174805 -102.168273925781 2.380709171295
-79.663398742676 -73.243644714355 -101.074615478516 1.136050939560
50.467323303223 -75.731491088867 -109.660087585449 1.569421410561
-91.103263854980 -80.397552490234 -108.726814270020 3.759389400482
44.924926757813 -76.112525939941 -117.301010131836 0.669769465923
111.751487731934 -74.174201965332 -118.070854187012 1.430092692375
110.153373718262 -73.235733032227 -133.368713378906 1.930193781853
26.397512435913 -73.230880737305 -139.544296264648 1.694409489632
112.769134521484 -77.965141296387 -130.597900390625 2.369566202164
28.108095169067 -74.874206542969 -135.517669677734 1.826733827591
112.234184265137 -75.659500122070 -132.623535156250 0.762887179852
35.569545745850 -78.826545715332 -138.061294555664 0.967122435570
-51.422882080078 -79.629318237305 -149.282424926758 2.187724828720
35.542976379395 -75.388351440430 -142.335739135742 1.068167686462
111.812507629395 -73.580390930176 -139.263885498047 1.557852983475
-50.085296630859 -77.550163269043 -148.690078735352 1.135091066360
30.803974151611 -79.000129699707 -148.017501831055 1.820418715477
-54.953510284424 -76.891304016113 -137.227600097656 2.466911315918
-54.257194519043 -81.423309326172 -149.106567382813 4.525272846222
-51.431854248047 -74.873168945313 -151.494430541992 1.850438117981
-65.619232177734 -79.089668273926 -156.828704833984 1.082297801971
113.525802612305 -74.058799743652 -149.970642089844 0.613003671169
-50.580913543701 -76.416648864746 -154.193374633789 1.777995944023
20.468746185303 -77.777214050293 -158.868270874023 1.656830430031
110.001831054688 -77.923110961914 -158.844894409180 1.856546282768
-67.296478271484 -78.835327148438 -156.904800415039 1.284198164940
-48.089622497559 -76.204170227051 -157.607528686523 1.438568711281
7.699396133423 -74.901542663574 -157.860504150391 1.016454815865
-64.623115539551 -74.415657043457 -159.298141479492 1.098197102547
-59.616847991943 -77.764465332031 -163.128631591797 0.678885638714
-0.790091991425 -81.449943542480 -162.613815307617 3.067500591278
-43.279281616211 -79.060546875000 -171.032485961914 3.191220760345
28.696397781372 -73.677062988281 -165.767898559570 2.410950183868
-64.772521972656 -76.881011962891 -164.659439086914 1.039229512215
-52.741847991943 -73.912292480469 -169.444763183594 5.121181011200
21.961641311646 -75.612792968750 -163.384857177734 1.232185721397
-30.517896652222 -80.116622924805 -174.268508911133 2.663503885269
-31.775987625122 -73.668998718262 -168.662872314453 2.009170532227
15.526700973511 -74.539436340332 -176.897033691406 1.696273207664
-38.860046386719 -79.829818725586 -176.048263549805 3.438375234604
-9.178127288818 -75.777275085449 -175.232620239258 1.606366395950
-62.344181060791 -76.311508178711 -172.329620361328 1.476215243340
-5.476425170898 -76.200256347656 -172.121597290039 0.673841357231
-23.057401657104 -80.254196166992 -179.761215209961 1.063765406609
20.936841964722 -77.334640502930 -183.471252441406 1.437278389931
-37.286258697510 -75.561706542969 -175.789596557617 1.755724191666
17.802192687988 -76.325218200684 -179.786117553711 1.844142556190
-19.436090469360 -75.726760864258 -186.003662109375 0.625083923340
-32.740070343018 -77.053062438965 -182.071807861328 0.718840122223
-146.131332397461 -73.732543945313 -186.982543945313 1.434534788132
-23.730424880981 -76.618362426758 -187.234451293945 1.565028548241
-145.239486694336 -76.286788940430 -191.431243896484 1.913479447365
-151.294326782227 -77.612350463867 -188.393753051758 2.419667720795
-46.267498016357 -78.562576293945 -189.030197143555 0.392524272203
100.746490478516 -76.707717895508 -195.640884399414 1.861778616905
-145.271301269531 -76.919242858887 -192.827911376953 1.155654668808
-152.218811035156 -78.711906433105 -197.969528198242 1.565448403358
20.406665802002 -76.088027954102 -198.057769775391 2.426144361496
-135.141387939453 -74.818466186523 -196.509887695313 1.343937873840
21.231687545776 -71.909263610840 -199.003494262695 1.459404230118
-140.368927001953 -74.665855407715 -201.136535644531 0.640584647655
11.527235984802 -76.177604675293 -197.070297241211 1.739663481712
-136.585617065430 -75.978607177734 -202.394439697266 1.403191804886
7.618455886841 -74.815422058105 -207.359756469727 0.722308933735
-149.341979980469 -77.003684997559 -203.508255004883 1.298069715500
91.989837646484 -72.397018432617 -205.395950317383 2.589234828949
-14.258295059204 -75.079391479492 -206.284667968750 2.676697492599
-27.926691055298 -74.940277099609 -207.369766235352 1.616915702820
-9.929963111877 -79.279609680176 -205.217971801758 2.240137577057
-149.517517089844 -79.559280395508 -210.978622436523 1.626186370850
-38.824584960938 -78.138992309570 -207.893249511719 2.225878953934
-82.492897033691 -76.463378906250 -210.791610717773 0.602428674698
-28.873399734497 -77.007835388184 -212.869308471680 1.303001403809
18.136014938354 -72.436447143555 -210.219543457031 1.504672765732
-146.805221557617 -78.385162353516 -209.967498779297 2.159884691238
-88.476860046387 -76.211608886719 -214.506271362305 1.694358944893
-26.796350479126 -75.816192626953 -215.242279052734 1.040463566780
-25.610296249390 -72.781867980957 -221.106353759766 3.184670209885
-14.798669815063 -74.646408081055 -217.081619262695 0.898792803288
-25.954065322876 -75.441543579102 -215.689575195313 1.358628749847
-79.958244323730 -77.192634582520 -219.123077392578 3.550972938538
-84.735588073730 -77.955894470215 -221.785110473633 4.826304912567
-22.619020462036 -76.920799255371 -222.865524291992 2.748722553253
-4.540651798248 -74.702278137207 -222.878662109375 3.302657127380
-148.332336425781 -75.246017456055 -216.906509399414 0.902403175831
-2.375925064087 -74.362480163574 -219.130310058594 1.397572994232
83.133331298828 -73.586662292480 -226.220581054688 1.324036240578
-143.667205810547 -80.598815917969 -227.740921020508 2.181665182114
-7.511031150818 -75.372840881348 -224.779098510742 1.159007668495
-142.888763427734 -77.829620361328 -229.930709838867 2.023978710175
-148.946380615234 -84.593338012695 -226.694931030273 1.173855543137
-6.463902950287 -75.085517883301 -230.497161865234 0.439804434776
19.329612731934 -75.530281066895 -222.785125732422 2.493372678757
-140.997756958008 -77.110519409180 -229.074005126953 1.144673943520
-14.750205993652 -75.539299011230 -232.110885620117 2.741838693619
76.877784729004 -75.426193237305 -228.945083618164 0.611246883869
79.873329162598 -75.176101684570 -235.863861083984 4.320808410645
8.325338363647 -73.750968933105 -232.734222412109 0.920489728451
-25.704118728638 -75.023323059082 -242.320007324219 1.414836406708
-19.818387985229 -76.530235290527 -237.346221923828 1.329496264458
7.344656944275 -74.531005859375 -245.072677612305 2.287760972977
-47.325023651123 -73.272926330566 -243.400878906250 0.657322585583
-25.312818527222 -76.828407287598 -247.334472656250 4.461747169495
8.016489028931 -76.259071350098 -245.551589965820 1.499556541443
-64.324958801270 -76.350021362305 -249.343978881836 1.140408039093
-30.659730911255 -74.193847656250 -247.940429687500 4.919322967529
-43.597324371338 -74.722724914551 -245.096008300781 0.606079041958
-150.571426391602 -76.629058837891 -244.967056274414 1.388740539551
-48.788139343262 -77.269760131836 -249.445846557617 3.239576101303
-54.232902526855 -76.325584411621 -248.079711914063 0.702578485012
-65.642913818359 -80.142303466797 -251.534973144531 3.678070783615
-8.052732467651 -73.388465881348 -251.501388549805 3.061890125275
-83.252967834473 -74.409629821777 -253.531570434570 0.450288057327
-150.901229858398 -81.909179687500 -258.417541503906 1.678755879402
-139.524658203125 -82.691207885742 -258.773284912109 2.774773836136
-125.407463073730 -74.113754272461 -262.424102783203 1.402826309204
-154.077758789063 -74.758377075195 -263.331359863281 1.170962572098
19.979969024658 -74.820999145508 -263.084289550781 2.504240274429
-11.143742561340 -75.582313537598 -269.816589355469 2.472554445267
-151.726043701172 -78.111351013184 -268.285034179688 2.498140096664
-151.533203125000 -77.467674255371 -276.138397216797 1.741234064102
-142.742797851563 -80.100593566895 -282.639801025391 2.507384300232
-57.054706573486 -77.754508972168 -286.356567382813 3.303263187408
-37.028072357178 -74.820953369141 -288.416961669922 2.681263208389
-24.944320678711 -74.828712463379 -291.663696289063 2.619189500809
-13.525262832642 -75.545928955078 -288.074737548828 2.043507337570
-66.358596801758 -76.096702575684 -286.541687011719 1.699977040291
-77.879554748535 -74.910697937012 -287.359283447266 0.912041425705
-5.150986194611 -77.131744384766 -289.792572021484 1.128076195717
10.198848724365 -76.436210632324 -291.167877197266 1.760816931725
-134.507797241211 -78.410614013672 -290.406402587891 1.613641500473
-77.435585021973 -74.421379089355 -290.045684814453 1.691026568413
-147.710968017578 -77.141334533691 -291.467254638672 2.324779033661
-93.558769226074 -75.062713623047 -290.134979248047 1.312379479408
-72.569267272949 -74.244491577148 -290.650909423828 1.406998753548
-83.910820007324 -77.327453613281 -291.233489990234 2.694830894470
-62.511909484863 -77.691802978516 -290.998474121094 1.770801424980
-23.127746582031 -75.155715942383 -294.749786376953 4.544405460358
-2.727507114410 -74.027687072754 -292.631286621094 1.563506126404
-154.937072753906 -77.266136169434 -295.003570556641 2.972466945648
-147.678176879883 -78.289093017578 -298.830383300781 2.138152599335
-145.338867187500 -77.275352478027 -302.865081787109 0.665789783001
-154.507095336914 -76.623107910156 -308.413360595703 1.015887022018
-57.962932586670 -75.880783081055 -56.614894866943 0.849080681801
-46.156768798828 -74.055320739746 -54.211860656738 1.880650401115
-40.807529449463 -73.933135986328 -55.482234954834 1.203674197197
-75.450286865234 -79.786415100098 -59.510871887207 3.532690048218
-29.450569152832 -75.920555114746 -61.057762145996 1.705181121826
-28.562154769897 -76.021224975586 -79.684974670410 1.288862824440
76.002067565918 -78.460777282715 -85.323493957520 2.302186489105
79.285987854004 -76.579673767090 -86.229408264160 2.130980491638
78.497924804688 -74.348541259766 -87.219406127930 3.082561492920
97.089721679688 -77.091896057129 -91.956871032715 2.903885602951
73.683639526367 -75.885704040527 -92.583602905273 2.050379753113
56.257663726807 -76.007080078125 -95.116195678711 2.485231161118
46.252616882324 -76.035552978516 -102.202682495117 1.235033512115
-65.755867004395 -79.020324707031 -102.579956054688 3.679661273956
-72.307022094727 -73.010482788086 -100.629661560059 2.581611871719
45.050994873047 -73.929946899414 -104.465103149414 1.652498245239
-82.957374572754 -78.611579895020 -109.247863769531 0.931366562843
-92.181114196777 -73.523361206055 -112.429512023926 1.490954756737
50.093212127686 -73.459373474121 -105.189277648926 2.133407354355
106.378898620605 -72.975616455078 -113.525169372559 1.116340875626
33.749816894531 -76.665046691895 -122.082427978516 1.733498930931
45.793434143066 -77.804504394531 -118.745018005371 1.875862121582
43.842914581299 -76.723114013672 -125.500137329102 0.818396687508
29.543519973755 -75.780975341797 -127.527755737305 2.142849206924
109.770011901855 -73.632247924805 -119.184333801270 1.711411595345
35.743793487549 -77.119522094727 -127.586555480957 3.728581666946
31.152830123901 -74.336708068848 -131.352539062500 1.270636796951
-43.551452636719 -73.772842407227 -144.182968139648 1.125263452530
-70.290687561035 -77.130317687988 -148.384063720703 1.841692686081
-52.930297851563 -74.741729736328 -148.656860351563 0.663902282715
-70.534393310547 -75.805831909180 -144.224288940430 1.109277606010
-41.151050567627 -76.026214599609 -149.299606323242 1.654664397240
109.732955932617 -71.846046447754 -152.364486694336 1.363304376602
-71.339073181152 -76.289268493652 -154.400665283203 1.900037288666
23.243143081665 -79.016624450684 -152.572006225586 1.383847236633
33.200687408447 -72.438125610352 -153.054367065430 2.182776212692
114.968223571777 -72.455108642578 -157.157897949219 1.520172953606
8.358095169067 -72.909004211426 -158.572158813477 2.056442499161
33.030540466309 -73.515121459961 -157.598937988281 2.245423555374
-60.682369232178 -76.017707824707 -160.446929931641 1.499768018723
-45.763027191162 -78.288444519043 -170.902282714844 4.243407249451
19.190467834473 -74.438926696777 -165.370330810547 1.908713340759
-65.794403076172 -74.388893127441 -167.107406616211 1.744031071663
-65.493072509766 -73.574623107910 -162.541534423828 1.310394883156
110.137985229492 -76.167617797852 -167.031692504883 1.773799777031
-9.683365821838 -71.964385986328 -169.276901245117 3.735680818558
-57.932033538818 -78.381294250488 -177.590805053711 2.112538576126
-29.495536804199 -74.417671203613 -173.604721069336 1.989533185959
-54.956222534180 -75.249320983887 -173.806747436523 0.863251090050
29.889442443848 -78.723213195801 -170.422424316406 2.811200618744
110.402671813965 -69.907966613770 -171.166152954102 0.785128712654
107.017089843750 -76.723991394043 -183.588836669922 1.523585438728
112.241699218750 -75.984519958496 -192.358551025391 5.406017780304
107.995086669922 -74.696243286133 -176.833572387695 1.286546587944
-56.698764801025 -76.668693542480 -190.750457763672 4.530540466309
-52.074081420898 -74.458503723145 -182.478988647461 1.830247402191
24.380001068115 -75.715644836426 -184.938385009766 1.807208418846
-51.228908538818 -71.031257629395 -187.905288696289 3.426872253418
-21.612369537354 -74.117317199707 -187.163070678711 1.253442168236
-50.350032806396 -74.288063049316 -192.562500000000 1.637816905975
-146.171035766602 -78.297592163086 -196.096298217773 1.777328968048
100.730781555176 -72.205406188965 -194.069702148438 1.640221714973
-45.475887298584 -75.050865173340 -192.294067382813 0.907978773117
-15.131332397461 -77.083076477051 -197.000244140625 1.982900381088
-138.631790161133 -77.550773620605 -200.971755981445 1.991580724716
-44.683132171631 -76.639289855957 -196.415435791016 1.435877680779
105.470001220703 -78.823486328125 -196.731643676758 2.739049434662
107.557777404785 -74.607772827148 -189.810195922852 1.437295556068
-46.895744323730 -77.379043579102 -198.637939453125 1.232029080391
-23.351160049438 -75.415786743164 -196.465713500977 1.933092355728
-149.377792358398 -82.578956604004 -200.784072875977 0.791059851646
-26.277345657349 -74.794105529785 -201.377029418945 2.096849203110
-152.745315551758 -79.467170715332 -199.020126342773 0.502492427826
-152.541091918945 -78.374794006348 -203.072586059570 1.089540362358
-141.151565551758 -77.590354919434 -201.949035644531 0.718209147453
-37.589290618896 -75.196876525879 -198.234146118164 2.867575407028
102.183296203613 -75.444107055664 -201.679306030273 2.378421545029
-38.508884429932 -74.434669494629 -201.596557617188 1.493722558022
-144.045532226563 -79.763145446777 -203.403182983398 0.383869022131
-37.895317077637 -75.404342651367 -209.109039306641 1.550236701965
-18.452596664429 -77.203460693359 -211.209915161133 1.366367697716
94.782379150391 -74.700202941895 -205.472259521484 2.291774988174
94.266853332520 -74.353660583496 -209.863342285156 1.379466414452
-28.089975357056 -76.561759948730 -217.607376098633 1.447383284569
-87.060226440430 -78.376670837402 -213.010208129883 1.307227492332
-72.249511718750 -76.753150939941 -212.770874023438 2.063414573669
-17.909856796265 -76.127456665039 -219.535873413086 1.306652545929
-149.921615600586 -74.133804321289 -213.697113037109 2.466151714325
86.818061828613 -76.180488586426 -216.770004272461 0.676044762135
88.325973510742 -72.542129516602 -222.101394653320 1.505696058273
89.227439880371 -75.647026062012 -220.126663208008 1.030231595039
-100.939384460449 -71.468421936035 -223.954910278320 1.071478128433
-147.966262817383 -78.724235534668 -224.821670532227 2.126371860504
-18.549423217773 -79.245758056641 -220.833984375000 1.392955064774
80.263641357422 -73.099403381348 -225.394897460938 0.884583294392
-146.299057006836 -82.436149597168 -226.849151611328 0.866038441658
-30.448112487793 -75.285285949707 -222.643737792969 4.560142993927
-132.636077880859 -72.262367248535 -232.279769897461 1.475404500961
-12.047525405884 -76.900253295898 -228.375198364258 1.620207190514
19.198026657104 -74.498825073242 -221.676101684570 1.930377721786
16.815986633301 -74.559585571289 -235.161224365234 1.272672653198
-155.404586791992 -80.513763427734 -234.637542724609 3.585938692093
-123.564445495605 -73.780853271484 -232.698410034180 1.048001766205
-8.247356414795 -74.813720703125 -234.451232910156 1.339727878571
0.869435012341 -73.461441040039 -239.900802612305 1.125541448593
67.780220031738 -75.790351867676 -236.821609497070 2.033365249634
69.976760864258 -73.340179443359 -237.791488647461 1.898701906204
0.762911021709 -76.017997741699 -241.946533203125 0.680977940559
18.993974685669 -74.840286254883 -239.236267089844 1.166200518608
-25.686668395996 -73.992248535156 -242.138824462891 1.849950790405
-38.080532073975 -77.723075866699 -245.193389892578 1.253480911255
-46.246131896973 -77.021980285645 -239.455444335938 2.687531471252
-39.843368530273 -76.800613403320 -243.804336547852 1.872731566429
-19.035209655762 -77.584182739258 -244.935058593750 3.040529012680
-54.257663726807 -73.409210205078 -242.715637207031 1.277152538300
4.272899150848 -74.592536926270 -245.988632202148 2.507464170456
-70.322486877441 -71.658630371094 -247.327560424805 1.501360297203
16.552539825439 -72.942550659180 -246.993347167969 0.443021446466
-146.389022827148 -78.687263488770 -248.636062622070 1.271134495735
-70.084022521973 -79.243293762207 -251.690765380859 2.964673042297
12.317350387573 -77.006088256836 -249.361846923828 2.263792991638
-163.812911987305 -76.536186218262 -250.947723388672 3.309090137482
17.726463317871 -73.892707824707 -251.444580078125 2.280896425247
-82.055168151855 -77.287162780762 -253.323104858398 2.205570459366
-74.274864196777 -73.839714050293 -252.168487548828 1.274240016937
22.666614532471 -74.548530578613 -258.110137939453 1.829018115997
-88.393707275391 -74.403373718262 -256.983276367188 1.303377866745
-128.744888305664 -77.111824035645 -256.366058349609 2.819995641708
-136.277313232422 -77.232254028320 -258.528930664063 0.746477365494
-133.918533325195 -77.106048583984 -259.076629638672 1.792138218880
-144.545455932617 -74.605934143066 -260.244476318359 2.646468639374
-140.187637329102 -78.465621948242 -257.932312011719 2.119474411011
-136.039581298828 -74.853958129883 -263.376007080078 2.083240509033
-159.445877075195 -77.307449340820 -259.768402099609 3.491229057312
-127.349731445313 -73.218360900879 -264.814971923828 1.852486252785
-134.390258789063 -74.785881042480 -260.483154296875 0.928998708725
-163.424438476563 -78.656036376953 -266.198394775391 4.933425903320
-156.054641723633 -76.281829833984 -264.407043457031 2.328466892242
-150.177764892578 -75.871009826660 -266.788269042969 2.370266199112
-146.135681152344 -79.601524353027 -265.936798095703 1.235818266869
14.748858451843 -81.132530212402 -281.526916503906 3.712244272232
-164.493484497070 -78.566406250000 -269.190429687500 4.037417411804
-154.166641235352 -73.800598144531 -276.177368164063 2.890190601349
-6.003167152405 -76.346427917480 -276.607574462891 2.433901548386
-160.384948730469 -76.600486755371 -268.520599365234 4.319594383240
14.282114982605 -78.630332946777 -281.449310302734 2.287442684174
-152.512084960938 -75.623130798340 -283.455993652344 1.325780749321
-161.417999267578 -74.507911682129 -290.697662353516 1.481776475906
-152.955017089844 -74.152160644531 -282.954986572266 0.670573115349
-167.780960083008 -71.997825622559 -283.707427978516 0.912029385567
2.636713027954 -73.953910827637 -289.457702636719 2.248967647552
9.880150794983 -78.454719543457 -284.681030273438 1.913685202599
-97.172836303711 -71.234809875488 -287.808013916016 1.651489257813
-151.312133789063 -77.274955749512 -288.937164306641 2.866924524307
-148.181900024414 -76.707572937012 -285.862365722656 2.336068868637
-110.189704895020 -73.456039428711 -291.342224121094 1.506403088570
-150.198028564453 -75.268646240234 -291.535552978516 1.796052098274
-149.238449096680 -75.422897338867 -293.602874755859 2.320367574692
-68.001495361328 -74.922569274902 -291.463714599609 0.680550217628
-161.974456787109 -78.395576477051 -292.704284667969 4.326686859131
-122.019203186035 -77.171669006348 -290.233398437500 3.102225780487
-43.178897857666 -78.381736755371 -292.497802734375 2.930544376373
-154.081756591797 -74.553062438965 -292.424682617188 0.937880873680
-139.551223754883 -75.337570190430 -292.801483154297 3.372321367264
-17.447391510010 -76.655471801758 -293.349548339844 2.145797729492
-126.275398254395 -74.968902587891 -297.520690917969 3.615284442902
3.453052997589 -75.066627502441 -292.847320556641 0.226646274328
13.222190856934 -76.100364685059 -291.824340820313 2.119965314865
-133.283523559570 -75.719978332520 -295.540802001953 2.643422365189
-145.307296752930 -74.959564208984 -295.668090820313 1.152562141418
-155.938369750977 -73.990112304688 -310.480773925781 0.928490757942
-71.365676879883 -74.518379211426 -51.196334838867 2.481895685196
-23.879224777222 -74.134002685547 -62.165481567383 1.640825629234
-21.698623657227 -75.886627197266 -66.507453918457 0.868344962597
75.154808044434 -73.249351501465 -75.035408020020 1.038604259491
91.442001342773 -73.815292358398 -77.018066406250 2.405533790588
-37.143741607666 -71.746223449707 -79.374206542969 2.839592456818
78.501853942871 -75.607398986816 -77.272392272949 0.616438448429
88.184738159180 -77.305015563965 -81.703903198242 1.121618747711
72.114601135254 -73.970993041992 -82.129882812500 1.291465640068
70.481475830078 -72.788185119629 -89.064880371094 1.318692326546
-46.541091918945 -78.528015136719 -87.090652465820 1.297117352486
-93.037818908691 -75.110870361328 -90.222190856934 2.893362760544
58.534889221191 -75.469337463379 -93.706459045410 1.324027657509
49.044078826904 -75.638847351074 -98.242279052734 1.705680012703
96.439788818359 -71.346389770508 -98.388366699219 1.139438509941
-93.970863342285 -73.475746154785 -104.043037414551 0.561002850533
85.048133850098 -73.854286193848 -97.864875793457 1.601592421532
80.499618530273 -73.860198974609 -100.509109497070 2.308322191238
91.677116394043 -74.778854370117 -97.725868225098 0.854427993298
82.689544677734 -70.823669433594 -103.689399719238 0.644719421864
91.561378479004 -73.821533203125 -100.777252197266 1.758851766586
-82.093452453613 -79.931831359863 -103.097396850586 3.960336923599
41.315547943115 -77.666809082031 -111.437576293945 0.496055305004
104.945983886719 -74.294387817383 -113.456466674805 1.976849794388
112.075759887695 -71.043045043945 -111.453086853027 1.294795870781
46.423629760742 -73.923431396484 -118.203201293945 0.670158326626
109.470932006836 -71.170639038086 -125.690696716309 1.383391499519
115.348342895508 -74.930305480957 -136.420944213867 1.416637897491
-51.910312652588 -74.250335693359 -132.934020996094 1.540654897690
29.544174194336 -75.150749206543 -134.417846679688 1.427582383156
36.437564849854 -77.486968994141 -131.062194824219 1.601505160332
23.511058807373 -72.113449096680 -144.333236694336 1.534930825233
114.289642333984 -73.104743957520 -140.437133789063 0.292777061462
111.536506652832 -74.025138854980 -135.372680664063 1.419727921486
-73.824905395508 -76.746734619141 -149.849853515625 2.012988090515
-46.710113525391 -76.734855651855 -149.036071777344 1.792868733406
-72.251091003418 -73.531303405762 -150.103332519531 2.203989028931
21.100460052490 -76.321792602539 -153.398483276367 2.484850883484
112.373443603516 -72.415908813477 -154.567428588867 0.816792249680
-54.007095336914 -75.622909545898 -152.270248413086 2.210906744003
-69.945037841797 -74.424087524414 -150.454330444336 1.263064861298
-39.611515045166 -78.905807495117 -156.689880371094 1.052589893341
35.982696533203 -73.453582763672 -152.079971313477 2.227572441101
110.692726135254 -74.230705261230 -156.471557617188 1.889571309090
116.436325073242 -74.348152160645 -158.778320312500 1.774695515633
-68.504486083984 -74.595962524414 -153.285507202148 0.616174042225
-71.214599609375 -76.141174316406 -164.607025146484 3.424215555191
20.724994659424 -77.357566833496 -164.087783813477 2.738839387894
-57.863746643066 -77.181961059570 -164.910995483398 2.719801902771
-31.200216293335 -80.689781188965 -163.862091064453 3.235548973083
7.305224895477 -73.434783935547 -164.759048461914 2.691250801086
111.793350219727 -75.128135681152 -166.171936035156 2.238788604736
5.795348167419 -74.394119262695 -166.384963989258 2.089130878448
-35.625843048096 -75.899246215820 -167.602355957031 2.650879383087
-0.227706998587 -72.843688964844 -166.619003295898 1.239466905594
106.320404052734 -72.396469116211 -174.619277954102 1.302340269089
-41.321849822998 -70.414283752441 -173.744979858398 1.773762345314
29.237512588501 -71.594955444336 -170.791458129883 1.578653216362
112.118209838867 -71.921501159668 -172.785583496094 1.115471839905
-53.312397003174 -74.237846374512 -179.847000122070 1.494370937347
-28.165117263794 -76.634971618652 -172.304229736328 1.271146297455
101.766014099121 -75.291313171387 -175.345077514648 3.365357875824
31.877822875977 -76.156311035156 -173.684570312500 3.583913564682
114.854133605957 -71.731079101563 -176.926437377930 2.537029504776
-37.642337799072 -76.696975708008 -174.270431518555 1.672081828117
106.840881347656 -72.023040771484 -182.167877197266 1.075745940208
-58.064838409424 -74.841110229492 -179.223785400391 1.671161651611
-24.189914703369 -75.306106567383 -178.754592895508 1.421367287636
-143.303634643555 -75.497505187988 -182.867019653320 2.046423196793
-54.309020996094 -74.963340759277 -185.641403198242 1.904747486115
-146.462310791016 -74.875213623047 -185.734878540039 1.339852929115
-32.192951202393 -74.266639709473 -188.200729370117 1.145022034645
22.265886306763 -73.747497558594 -188.124557495117 2.243400096893
110.219131469727 -70.347770690918 -183.495986938477 1.143397569656
-29.949327468872 -75.297538757324 -190.768798828125 2.229257583618
13.238206863403 -75.826728820801 -193.135238647461 2.481125354767
17.987424850464 -74.348213195801 -200.791519165039 1.427282691002
-147.935180664063 -73.989746093750 -194.046234130859 2.055634737015
102.808830261230 -75.734519958496 -198.353042602539 0.784140169621
-18.247087478638 -71.857414245605 -195.343780517578 0.906663596630
104.785774230957 -70.203994750977 -192.509719848633 2.532124519348
15.702343940735 -73.344261169434 -190.241027832031 1.599049329758
-130.758728027344 -74.698799133301 -202.809677124023 2.024348497391
-142.731033325195 -74.873733520508 -199.517333984375 2.830262184143
95.664283752441 -69.007202148438 -201.300750732422 1.728202700615
-11.465245246887 -74.504280090332 -201.889953613281 1.673335552216
-15.116040229797 -76.743888854980 -199.398544311523 2.012947797775
11.652810096741 -74.843177795410 -206.141708374023 2.220762968063
-147.655441284180 -74.297607421875 -207.104232788086 2.247001886368
-146.531799316406 -76.987091064453 -207.461563110352 2.263254404068
100.256088256836 -76.822654724121 -206.085998535156 1.357410788536
-75.657310485840 -76.105705261230 -211.093627929688 1.328718900681
-36.522235870361 -73.017127990723 -203.420059204102 1.745330691338
19.700443267822 -73.560203552246 -211.806823730469 0.997983217239
-24.130748748779 -76.808540344238 -211.669677734375 0.797822773457
-78.421150207520 -73.458229064941 -213.910598754883 1.562726259232
92.720481872559 -72.664993286133 -209.803085327148 1.113426804543
-81.830490112305 -72.259712219238 -215.341232299805 1.720968604088
-146.749832153320 -76.619667053223 -219.641891479492 2.145825862885
-78.526901245117 -76.585861206055 -216.933334350586 2.334344625473
-15.407656669617 -74.441421508789 -213.905029296875 1.208869457245
-21.312437057495 -75.318687438965 -218.645294189453 0.939460098743
21.903842926025 -72.287986755371 -212.469329833984 3.182574510574
-5.386535167694 -73.562774658203 -214.351501464844 1.736909866333
-83.219787597656 -74.307907104492 -220.278091430664 3.925478935242
91.714134216309 -73.361930847168 -215.607818603516 1.919033885002
-94.490188598633 -76.492340087891 -216.039154052734 2.180328130722
-146.740173339844 -80.749824523926 -225.368850708008 2.089721441269
-14.385373115540 -75.309570312500 -220.627624511719 2.614352941513
16.635007858276 -73.875640869141 -217.242523193359 0.812501251698
-102.856491088867 -73.748558044434 -220.499221801758 1.534373760223
9.105660438538 -75.764846801758 -221.197952270508 1.675704360008
-25.232606887817 -76.844604492188 -217.365859985352 1.292924404144
83.370277404785 -74.818946838379 -225.546417236328 1.174630761147
-145.888534545898 -75.331626892090 -221.663360595703 1.461824059486
6.985274791718 -71.631385803223 -227.158493041992 1.696680665016
-6.879505157471 -75.317932128906 -222.910659790039 1.859946131706
17.279054641724 -70.878349304199 -222.064575195313 1.541647672653
84.871025085449 -71.531036376953 -226.339218139648 2.732461452484
-12.588969230652 -74.833900451660 -227.862457275391 0.902931630611
-129.390563964844 -77.775588989258 -228.461608886719 3.190831422806
-8.613194465637 -77.553726196289 -226.329467773438 2.583202838898
17.266143798828 -73.880348205566 -235.482452392578 1.630720257759
-125.393157958984 -74.835380554199 -225.444396972656 1.558248877525
-149.405578613281 -76.005287170410 -229.983383178711 1.034700989723
-139.883132934570 -75.648544311523 -229.882080078125 1.260317087173
-132.248382568359 -74.814949035645 -230.656677246094 1.018051385880
-12.029603004456 -74.089263916016 -228.276962280273 1.101871132851
72.005111694336 -73.012458801270 -231.150115966797 1.408155202866
-141.027404785156 -75.875679016113 -235.579086303711 2.836825370789
73.283599853516 -72.596260070801 -229.284439086914 1.490815758705
-16.404630661011 -76.435729980469 -227.547622680664 1.959199905396
-141.709899902344 -80.491874694824 -232.721450805664 1.678631663322
77.924797058105 -75.804130554199 -232.884201049805 2.557287454605
12.771727561951 -77.172668457031 -237.567474365234 3.334781646729
-142.464920043945 -75.146888732910 -236.817291259766 2.832222461700
-149.458023071289 -75.670600891113 -237.383224487305 2.441314458847
13.957398414612 -70.420181274414 -235.334884643555 0.919327020645
-2.222846984863 -74.651176452637 -238.922775268555 1.353451609612
-23.726612091064 -72.776580810547 -242.970123291016 1.505373358727
-3.564990043640 -73.032661437988 -241.303894042969 0.588907957077
-161.401901245117 -76.514122009277 -237.980636596680 2.567260503769
10.676914215088 -74.296447753906 -246.560821533203 2.072152614594
-163.565460205078 -74.499504089355 -235.980728149414 1.090262174606
-15.737220764160 -73.973915100098 -235.493041992188 2.036592721939
67.697883605957 -74.441078186035 -240.586471557617 1.660932421684
-9.279140472412 -73.360755920410 -242.175582885742 2.030246734619
-25.114330291748 -74.011848449707 -240.573516845703 1.556876420975
-25.934158325195 -72.329627990723 -242.781448364258 2.387109041214
-15.062262535095 -71.978736877441 -245.651702880859 2.804815292358
-144.083435058594 -74.280128479004 -236.478546142578 2.212948799133
9.433987617493 -75.914085388184 -245.065414428711 1.451027035713
65.224235534668 -75.380905151367 -242.425292968750 2.682266950607
12.511611938477 -74.463768005371 -245.507339477539 1.205170989037
-161.744293212891 -74.492996215820 -240.541900634766 1.403016686440
-47.662879943848 -76.154624938965 -245.394531250000 1.513348817825
5.147880077362 -78.428115844727 -248.930572509766 2.936686754227
17.514642715454 -70.428062438965 -249.935745239258 2.576197624207
-56.795257568359 -73.946098327637 -250.365127563477 2.346632957458
-3.368804931641 -73.191230773926 -244.825454711914 1.029367685318
21.316331863403 -75.801109313965 -250.989105224609 2.180758237839
-165.213943481445 -75.240821838379 -247.609695434570 1.680488586426
-71.282272338867 -76.978294372559 -252.213058471680 2.593537807465
-51.711883544922 -72.940902709961 -248.520584106445 2.389194011688
-79.122344970703 -73.878387451172 -249.397796630859 1.185978531837
-160.797805786133 -74.441482543945 -245.498840332031 2.024975776672
-151.410690307617 -75.687744140625 -252.518585205078 1.716819286346
-59.099697113037 -72.387939453125 -253.200805664063 4.215727806091
-68.529617309570 -78.304428100586 -252.194992065430 2.305488586426
-153.866149902344 -74.113883972168 -253.892669677734 0.807296693325
-152.091644287109 -73.576744079590 -251.422119140625 1.373328804970
-77.494972229004 -74.534820556641 -252.790191650391 1.022176027298
-92.482620239258 -71.930824279785 -253.317001342773 1.688384413719
-163.902160644531 -76.173950195313 -251.850189208984 2.808224916458
-154.860214233398 -74.740928649902 -254.977401733398 1.646755337715
-134.300552368164 -72.719337463379 -257.472381591797 1.933947443962
-81.766944885254 -76.798316955566 -254.151931762695 2.131453990936
-163.194915771484 -72.885917663574 -254.270477294922 0.953065574169
-145.040267944336 -78.127693176270 -257.439636230469 2.825390338898
-89.940071105957 -74.509338378906 -255.768142700195 1.379864931107
-98.378326416016 -69.972770690918 -260.157653808594 0.768403947353
-148.379684448242 -74.164413452148 -259.118835449219 1.256021022797
-96.064125061035 -74.116455078125 -261.290588378906 3.754523038864
-150.677886962891 -74.376380920410 -255.972778320313 1.966739773750
-99.881576538086 -75.692398071289 -257.110321044922 2.260949373245
-166.004837036133 -77.906326293945 -258.237060546875 4.114480495453
-161.393814086914 -78.521865844727 -259.187683105469 4.208782196045
-123.011466979980 -73.579910278320 -257.636352539063 0.825728714466
-149.024215698242 -77.651664733887 -259.603302001953 1.966211557388
-110.820930480957 -73.720405578613 -260.994384765625 1.854659080505
-14.370362281799 -77.421127319336 -262.252410888672 2.569012403488
-142.669677734375 -74.018806457520 -262.422607421875 0.579973399639
-125.112243652344 -74.343917846680 -262.049499511719 1.299913287163
-155.733932495117 -74.610939025879 -264.596038818359 0.726616501808
21.723056793213 -74.471122741699 -269.448883056641 0.679206669331
-150.099456787109 -73.947891235352 -281.656585693359 1.846658945084
-167.749893188477 -73.868568420410 -279.443878173828 1.495861768723
-5.745063781738 -78.052185058594 -282.464263916016 2.727044820786
-148.082839965820 -76.946846008301 -281.666046142578 1.773187994957
-6.866803169250 -72.819046020508 -280.872253417969 2.382133483887
14.457671165466 -73.348388671875 -287.081390380859 2.081144094467
-134.121688842773 -73.800437927246 -287.899139404297 2.219576120377
-70.271095275879 -76.520416259766 -284.608886718750 2.884483575821
-37.149238586426 -73.481391906738 -284.964416503906 2.623092889786
-114.648132324219 -72.826469421387 -288.914489746094 2.017297506332
-91.127532958984 -74.514755249023 -293.595855712891 2.316531896591
-90.620079040527 -73.709869384766 -294.670013427734 2.988176584244
-48.064895629883 -77.007850646973 -290.548461914063 0.784600913525
-115.203216552734 -72.155082702637 -292.968933105469 1.338040471077
-108.912361145020 -75.066909790039 -292.514953613281 1.996336579323
-31.807052612305 -75.656867980957 -292.574615478516 2.198998451233
-114.621208190918 -75.120323181152 -291.141845703125 1.144328594208
-125.295188903809 -75.944198608398 -291.575195312500 0.498131960630
-144.005371093750 -76.590957641602 -294.560821533203 2.670648574829
8.855731964111 -71.587944030762 -291.241088867188 1.838990926743
14.896773338318 -75.123115539551 -294.977966308594 0.918692708015
-156.344268798828 -75.190170288086 -295.188720703125 0.980338871479
-154.617248535156 -75.423194885254 -303.456787109375 1.714261889458
-145.251815795898 -76.703186035156 -311.917541503906 1.950418353081
-150.280578613281 -72.122871398926 -310.587402343750 1.520134568214
-151.959838867188 -78.352920532227 -313.859771728516 1.966312527657
28.511392593384 -73.496711730957 -16.854930877686 1.600079655647
26.168474197388 -72.421699523926 -20.828678131104 0.751261889935
24.208116531372 -73.482460021973 -22.438070297241 1.309422492981
29.049991607666 -73.847343444824 -41.111541748047 2.153183698654
-53.469722747803 -69.681243896484 -53.564178466797 4.626983642578
-64.081733703613 -72.751251220703 -52.389499664307 1.055003523827
