-23.287109375000 -76.941017150879 -216.825027465820 0.653994023800
-27.184288024902 -77.758964538574 -215.220169067383 0.978926777840
-89.797828674316 -77.014823913574 -221.900527954102 3.491338253021
-85.478515625000 -75.998649597168 -217.491790771484 1.922722339630
11.351502418518 -76.353179931641 -221.601959228516 2.963234663010
-146.810440063477 -74.315757751465 -220.453079223633 1.913967251778
-11.074414253235 -76.042060852051 -214.542633056641 2.226180315018
9.173800468445 -80.315025329590 -220.370971679688 1.308070421219
-141.119186401367 -76.495964050293 -220.390182495117 4.332427978516
-19.638925552368 -78.541023254395 -224.213180541992 0.959694206715
-2.444808006287 -76.436836242676 -225.330596923828 2.434334993362
-0.619944989681 -77.714599609375 -220.439834594727 1.644652485847
-151.123413085938 -74.743858337402 -226.793869018555 2.895771741867
-133.844207763672 -72.956291198730 -229.127716064453 1.553751707077
-4.085618019104 -75.916458129883 -228.434371948242 1.337041616440
-147.720413208008 -79.481971740723 -231.580841064453 0.670350372791
1.578812003136 -75.729469299316 -232.761489868164 1.850835323334
18.705167770386 -73.540817260742 -234.220382690430 1.159486770630
-1.422584056854 -73.627960205078 -238.305892944336 0.519230127335
2.867434024811 -76.417221069336 -236.001770019531 0.876758635044
9.659722328186 -81.060401916504 -236.196212768555 0.487963646650
-148.968490600586 -75.446640014648 -237.296264648438 2.551910400391
-16.818643569946 -75.655738830566 -240.309997558594 1.412806153297
-30.567888259888 -80.116622924805 -243.180007934570 1.831459879875
8.816909790039 -73.185226440430 -232.571548461914 1.355938673019
0.999825000763 -74.300201416016 -239.956314086914 1.295292735100
6.347611904144 -77.237358093262 -237.457550048828 1.055847167969
-51.862846374512 -75.348785400391 -243.227844238281 2.357297897339
-150.145462036133 -73.093429565430 -249.409164428711 3.144707918167
-150.549835205078 -74.452720642090 -252.323760986328 0.275608271360
12.431945800781 -77.492385864258 -249.848831176758 1.826781272888
22.386932373047 -77.219139099121 -249.654220581055 1.710682272911
-57.612056732178 -74.862937927246 -251.244766235352 2.117213487625
-145.731964111328 -72.505958557129 -257.138549804688 2.680216550827
-151.753494262695 -77.991333007813 -258.628814697266 3.697479009628
-147.419433593750 -76.682029724121 -260.418609619141 1.473670005798
-142.875900268555 -76.602302551270 -261.933593750000 2.089063405991
-135.088287353516 -75.106384277344 -260.389892578125 0.660788893700
-11.157555580139 -74.843070983887 -259.844512939453 2.792391538620
-143.953872680664 -73.410491943359 -269.323028564453 3.947598218918
-10.229075431824 -78.062873840332 -263.260528564453 2.989240884781
-149.020080566406 -74.055862426758 -279.336578369141 2.962380409241
-149.204177856445 -75.326736450195 -286.472351074219 1.084576845169
-151.178588867188 -76.376586914063 -285.342681884766 2.781344652176
-3.481364965439 -70.930961608887 -290.282135009766 0.563455402851
-142.906982421875 -71.253326416016 -289.076141357422 3.510294675827
-33.051219940186 -73.972541809082 -285.637207031250 1.183008074760
-30.316436767578 -70.983909606934 -291.845001220703 2.662896394730
-18.671541213989 -74.051612854004 -288.709259033203 2.851371526718
-7.917471885681 -74.454704284668 -292.474243164063 0.976225376129
17.647333145142 -74.637130737305 -294.571960449219 2.454186677933
-123.990142822266 -72.524436950684 -291.607727050781 1.269001722336
-54.683425903320 -75.655487060547 -290.019500732422 1.241077184677
-37.549179077148 -73.001365661621 -294.673400878906 3.996633529663
-32.584686279297 -74.845985412598 -292.781372070313 1.902238607407
-8.178774833679 -74.746131896973 -291.557342529297 1.400141954422
7.884318828583 -73.388412475586 -290.059814453125 1.594957232475
-139.336669921875 -75.326126098633 -295.728027343750 4.968954563141
9.360721588135 -75.945198059082 -295.165893554688 2.551825046539
-152.501693725586 -74.685180664063 -307.195281982422 2.743691921234
-147.308364868164 -72.453842163086 -304.362701416016 3.474685907364
-150.113128662109 -71.393226623535 -314.657623291016 2.183493852615
-145.254058837891 -72.192871093750 -314.853881835938 2.567097425461
-51.526893615723 -79.289421081543 -55.877342224121 2.910319805145
-53.227790832520 -80.072349548340 -59.399986267090 2.753253221512
-67.217529296875 -79.734054565430 -58.299022674561 3.186711072922
-43.893970489502 -80.719772338867 -60.717300415039 3.445496082306
-39.437248229980 -77.276443481445 -61.631824493408 1.596263885498
-23.219287872314 -77.556785583496 -65.187515258789 2.728333473206
-82.026290893555 -80.143257141113 -69.865921020508 3.321772813797
82.329559326172 -80.209091186523 -81.578002929688 3.026624917984
-90.074577331543 -79.869010925293 -85.570259094238 3.100001573563
85.178718566895 -83.271247863770 -83.214851379395 6.006730079651
86.716712951660 -81.598083496094 -84.791450500488 4.892634391785
94.308914184570 -80.339904785156 -85.835693359375 4.139726638794
-59.000652313232 -84.121948242188 -96.575866699219 2.438133239746
85.819046020508 -82.265350341797 -95.332160949707 5.819163799286
80.926681518555 -79.408523559570 -94.639076232910 3.020897388458
91.873123168945 -82.829994201660 -93.176620483398 5.849997520447
-61.126312255859 -82.345939636230 -100.243583679199 3.501172065735
55.757610321045 -79.337791442871 -98.999633789063 3.465893030167
46.626060485840 -80.614402770996 -107.434745788574 2.198535919189
40.294555664063 -80.513511657715 -108.948059082031 2.299607515335
38.596817016602 -79.446418762207 -111.391769409180 1.025386810303
-91.483139038086 -77.498695373535 -116.429328918457 2.322762012482
36.264099121094 -81.084182739258 -120.085845947266 2.520584106445
-83.079429626465 -78.874122619629 -115.137512207031 4.623806476593
43.032562255859 -80.317131042480 -127.364082336426 2.925959348679
33.918064117432 -79.748878479004 -124.133422851563 1.965164422989
33.618076324463 -81.015365600586 -125.291481018066 1.981136202812
43.084228515625 -78.467506408691 -123.476257324219 1.148965001106
40.723144531250 -82.061233520508 -129.011505126953 3.794964790344
-54.282016754150 -72.776954650879 -141.605178833008 2.188824415207
37.344932556152 -80.748527526855 -136.473770141602 2.500049591064
37.445602416992 -79.053558349609 -143.244949340820 2.406699419022
-48.418182373047 -73.803062438965 -142.060150146484 1.655469179153
-47.634784698486 -80.096611022949 -143.726501464844 2.284115791321
35.414188385010 -79.531326293945 -145.766555786133 2.548862695694
110.552291870117 -78.234626770020 -143.437316894531 2.699498653412
112.521530151367 -78.645118713379 -144.738235473633 2.885572910309
28.116716384888 -80.534484863281 -146.881988525391 1.422745227814
-41.584987640381 -77.479347229004 -150.011383056641 1.371109008789
113.444290161133 -81.220390319824 -159.569717407227 4.113651752472
-41.486091613770 -76.845291137695 -158.013610839844 1.875709056854
-63.934082031250 -79.084831237793 -163.124740600586 1.306200146675
111.954071044922 -79.377517700195 -164.148681640625 2.808578729630
25.640975952148 -79.230155944824 -168.129821777344 1.754104018211
0.680272996426 -78.521469116211 -167.165176391602 2.170894861221
113.667556762695 -80.617828369141 -156.180923461914 3.932437419891
-62.005008697510 -78.410041809082 -164.680236816406 1.779690504074
-34.870933532715 -80.203582763672 -163.709457397461 1.489439606667
112.576171875000 -77.759712219238 -166.162490844727 1.946187138557
28.235670089722 -75.382881164551 -160.631256103516 2.422585487366
-64.537948608398 -76.516296386719 -171.406997680664 2.511555194855
109.772239685059 -77.183349609375 -171.922714233398 1.695326566696
-63.512996673584 -78.977500915527 -171.853683471680 0.931552767754
-51.544250488281 -79.007339477539 -180.798721313477 1.344307065010
106.962471008301 -77.586662292480 -177.668716430664 2.874165534973
-61.193778991699 -76.514320373535 -171.807556152344 0.871256351471
113.371704101563 -77.987113952637 -175.239974975586 2.459073066711
-57.838119506836 -78.952400207520 -175.462951660156 1.337048768997
-12.571474075317 -76.889839172363 -178.775527954102 1.354531288147
-10.174652099609 -78.014465332031 -181.409622192383 3.532242774963
107.672737121582 -79.120956420898 -173.142318725586 1.992860913277
22.452419281006 -77.404907226563 -171.699447631836 1.983070254326
29.874313354492 -79.127326965332 -171.461196899414 2.520127058029
-54.061183929443 -78.806083679199 -180.166976928711 1.683753848076
19.587766647339 -76.960960388184 -186.594818115234 1.839493274689
-56.149803161621 -77.522392272949 -181.850463867188 1.959603071213
-50.412811279297 -74.194641113281 -192.458755493164 1.636770844460
14.774385452271 -77.652488708496 -183.429702758789 1.905038833618
-59.440166473389 -75.256950378418 -186.418350219727 4.847346782684
110.815032958984 -75.926879882813 -186.712463378906 2.515088796616
22.732292175293 -78.050399780273 -182.335800170898 1.571858406067
-30.619766235352 -77.263236999512 -190.626296997070 2.154246091843
-42.805141448975 -74.087989807129 -196.763061523438 1.667918086052
11.942788124084 -75.736877441406 -198.156158447266 0.645971238613
-21.964815139771 -77.584930419922 -191.364700317383 1.009942650795
-51.116355895996 -76.720329284668 -197.776641845703 3.529626607895
102.739830017090 -80.041526794434 -188.647857666016 2.821181058884
16.039785385132 -75.407798767090 -193.066436767578 1.955624103546
-134.316818237305 -75.890098571777 -198.773574829102 1.167719960213
-40.706558227539 -75.846267700195 -194.278274536133 2.057524681091
102.026054382324 -79.277664184570 -199.157623291016 2.639004468918
-147.026367187500 -76.980102539063 -204.522903442383 2.444635868073
19.212741851807 -76.694160461426 -195.499328613281 1.218412876129
-42.906139373779 -80.822319030762 -207.087921142578 4.083165168762
-31.848203659058 -77.210662841797 -206.698272705078 0.928442955017
-37.873439788818 -73.671737670898 -207.734893798828 1.640135288239
-41.715049743652 -76.646331787109 -196.432388305664 1.265206575394
102.243125915527 -79.650588989258 -202.592300415039 3.470034122467
-17.398019790649 -75.587997436523 -204.770675659180 2.398154497147
-149.982345581055 -72.661445617676 -205.512069702148 0.617548346519
14.971684455872 -75.258277893066 -210.117813110352 3.181861877441
-72.174858093262 -78.147979736328 -208.113098144531 1.047117829323
-145.644912719727 -74.004364013672 -213.418670654297 2.816474199295
98.312187194824 -75.795433044434 -210.963531494141 1.934643864632
-32.802394866943 -76.071617126465 -209.362869262695 0.880347967148
-25.439182281494 -75.050689697266 -218.427764892578 1.103719234467
7.865495204926 -77.644538879395 -213.441421508789 0.781153023243
-70.344886779785 -75.024673461914 -215.205963134766 3.751111268997
-26.708784103394 -75.514656066895 -211.680480957031 1.583728790283
-5.406754016876 -78.275276184082 -218.809143066406 1.844972252846
-76.926933288574 -78.310981750488 -219.027084350586 3.936923980713
-12.575458526611 -78.136352539063 -220.978347778320 2.622789621353
10.406044006348 -75.358123779297 -217.282653808594 2.552653789520
18.811643600464 -80.940689086914 -223.030105590820 3.209150791168
-145.341232299805 -74.685432434082 -220.110931396484 2.208041667938
-3.925745010376 -74.245697021484 -218.028427124023 0.792371571064
-91.275772094727 -71.676147460938 -224.411254882813 4.441625595093
-21.039239883423 -72.828308105469 -221.544662475586 1.884864211082
94.819145202637 -78.105941772461 -213.867446899414 2.355639219284
7.643267154694 -77.230133056641 -230.805862426758 1.359662055969
16.549629211426 -78.476150512695 -218.135940551758 1.062609195709
81.552452087402 -72.194396972656 -223.621520996094 2.084447383881
3.535151004791 -74.775764465332 -228.614730834961 0.619181871414
87.305679321289 -75.508308410645 -221.843048095703 2.643263578415
-14.936598777771 -75.217086791992 -225.106506347656 2.074962615967
14.981073379517 -77.745292663574 -224.584762573242 1.559275031090
-146.464431762695 -76.018516540527 -227.731201171875 2.212067127228
-17.141029357910 -80.970001220703 -228.574295043945 4.413760185242
2.829646110535 -79.321365356445 -229.248260498047 1.445647716522
-151.240386962891 -76.574188232422 -231.512725830078 2.958946704865
-133.285339355469 -74.334152221680 -230.354354858398 0.892966628075
11.341743469238 -74.960586547852 -229.352798461914 3.912078142166
-3.876677989960 -75.232200622559 -240.192199707031 2.002873182297
-135.846221923828 -74.489006042480 -234.667617797852 3.438180208206
-146.045761108398 -77.049148559570 -238.055679321289 2.118896484375
-144.106384277344 -72.196319580078 -240.712615966797 1.259943246841
-26.983194351196 -75.606979370117 -238.646911621094 1.946062445641
-143.796432495117 -72.576873779297 -246.740676879883 2.280072689056
21.122127532959 -74.783172607422 -242.808029174805 0.967477679253
7.594473838806 -75.992668151855 -246.104782104492 2.182897090912
-150.258941650391 -72.052062988281 -239.131347656250 3.968157529831
-149.572372436523 -73.916412353516 -245.590301513672 2.315820217133
-44.911800384521 -75.218627929688 -242.940414428711 1.610327363014
-31.057384490967 -77.818855285645 -247.155578613281 3.395385742188
7.549736022949 -77.519515991211 -250.903671264648 3.901787042618
-35.222953796387 -73.617736816406 -249.030914306641 5.720511913300
25.254091262817 -77.007843017578 -252.257568359375 5.066020011902
-1.798045039177 -76.816879272461 -248.817840576172 2.731236934662
-151.417160034180 -72.218643188477 -255.542282104492 2.929247617722
-4.509806156158 -71.528472900391 -251.072021484375 5.283094882965
-141.695953369141 -74.917541503906 -255.405181884766 1.598015308380
-65.498489379883 -75.068382263184 -252.849060058594 2.773158550262
-151.026031494141 -79.867271423340 -262.022430419922 2.583170175552
-124.531044006348 -75.165481567383 -264.259796142578 1.761963844299
-148.162185668945 -69.665794372559 -263.169738769531 2.719506740570
-10.944091796875 -72.784469604492 -268.882263183594 2.690083742142
-144.181915283203 -75.127731323242 -267.654968261719 3.428937911987
-148.125518798828 -73.536468505859 -267.274688720703 2.642519712448
-8.893451690674 -76.738899230957 -271.118896484375 1.827877640724
-146.580963134766 -74.094535827637 -271.938537597656 1.960717439651
-2.889775037766 -76.584220886230 -284.550109863281 1.956510543823
-43.382907867432 -75.088783264160 -285.578704833984 0.949573993683
-135.196563720703 -74.113372802734 -289.347412109375 1.794645905495
-131.476760864258 -70.415679931641 -285.692291259766 2.261220455170
-124.357391357422 -72.274276733398 -287.562194824219 1.799132585526
-52.902221679688 -72.636344909668 -284.689208984375 1.522376060486
-112.968536376953 -71.487174987793 -292.419433593750 1.227150321007
17.018234252930 -78.124076843262 -291.944458007813 1.755555391312
-60.148078918457 -73.007743835449 -289.879119873047 2.839751243591
-139.988403320313 -70.398864746094 -291.042297363281 3.019273042679
-60.778137207031 -70.791496276855 -290.434692382813 2.274729013443
-141.693344116211 -76.759536743164 -293.651977539063 3.299708604813
-117.191963195801 -71.816215515137 -289.512176513672 3.221944808960
-45.685001373291 -72.717567443848 -293.791473388672 3.431453704834
-36.830429077148 -73.925903320313 -293.201110839844 2.534424543381
-132.579666137695 -72.576461791992 -293.307281494141 2.094250679016
-9.870569229126 -70.909797668457 -294.438476562500 3.560964584351
0.860625982285 -76.270744323730 -294.310333251953 3.198657512665
9.077240943909 -74.056327819824 -293.711090087891 1.870077848434
15.416297912598 -73.903274536133 -295.818511962891 2.338289499283
-147.119308471680 -75.222816467285 -298.653686523438 1.270220518112
-144.873489379883 -70.851951599121 -301.759887695313 1.340243458748
-69.551109313965 -77.853706359863 -64.448440551758 1.540041327477
88.210456848145 -80.421134948730 -78.986381530762 4.014715194702
80.254112243652 -81.076278686523 -78.146080017090 4.496057987213
-25.907188415527 -82.465835571289 -77.902458190918 4.511377334595
86.216712951660 -79.357749938965 -76.811866760254 3.436957359314
-36.736049652100 -77.569938659668 -83.300842285156 2.183548688889
90.435432434082 -83.600891113281 -80.107208251953 7.098964214325
91.633903503418 -83.120521545410 -82.840072631836 6.408930301666
-67.553680419922 -74.259010314941 -95.847793579102 2.677513122559
78.703308105469 -79.811149597168 -93.441040039063 3.564222335815
81.429267883301 -78.106422424316 -99.391181945801 3.349783658981
93.124305725098 -79.473716735840 -93.260452270508 3.030525207520
55.266208648682 -79.781028747559 -96.387535095215 3.633032798767
-77.196685791016 -82.504905700684 -104.131767272949 0.994316160679
-79.443969726563 -73.807540893555 -102.840499877930 2.389840364456
50.670310974121 -79.073074340820 -110.354316711426 3.404769897461
-90.972427368164 -80.502288818359 -110.770202636719 2.850118160248
45.191745758057 -79.134841918945 -118.050331115723 2.059405088425
112.049400329590 -78.716033935547 -118.189880371094 3.520392179489
110.614982604980 -77.357917785645 -133.472473144531 2.493784427643
26.941810607910 -75.271064758301 -140.373947143555 0.868950307369
113.096504211426 -82.214218139648 -130.799392700195 6.152240276337
28.577104568481 -77.053718566895 -136.375427246094 1.621624350548
112.633033752441 -79.846832275391 -132.770706176758 3.632912397385
35.969829559326 -81.111709594727 -138.953125000000 1.749434113503
-50.910545349121 -79.631072998047 -150.946914672852 2.460524320602
36.061233520508 -77.567756652832 -143.139404296875 1.014439225197
112.320411682129 -77.592796325684 -139.359802246094 1.950172901154
-49.531482696533 -77.598747253418 -150.290618896484 1.043397307396
31.294052124023 -80.925994873047 -148.951614379883 2.058735609055
-54.489486694336 -77.115539550781 -138.857910156250 2.517814397812
-53.786506652832 -81.363220214844 -150.841094970703 4.971415042877
-50.790645599365 -74.822036743164 -153.038024902344 1.996184945107
-65.020347595215 -78.575950622559 -158.600296020508 1.952687263489
114.121551513672 -77.842002868652 -150.059936523438 2.795538425446
-49.950103759766 -76.316551208496 -155.767608642578 1.909287810326
21.090410232544 -79.194015502930 -159.857467651367 2.059744119644
110.592880249023 -81.400573730469 -159.059310913086 4.726091861725
-66.690582275391 -78.281250000000 -158.684524536133 1.156014800072
-47.423072814941 -76.075950622559 -159.153518676758 0.996912300587
8.381097793579 -76.051445007324 -158.888412475586 1.436172604561
-63.895141601563 -73.865661621094 -160.942092895508 1.169073700905
-58.931175231934 -77.231719970703 -164.812301635742 1.847740173340
-0.210951998830 -82.281578063965 -163.879318237305 3.708777189255
-42.554801940918 -78.704887390137 -172.604034423828 3.014900207520
29.472957611084 -75.112625122070 -166.579483032227 2.350347280502
-64.050971984863 -76.191787719727 -166.365066528320 0.852153778076
-51.911930084229 -73.381675720215 -170.969070434570 4.704446792603
22.674041748047 -76.951995849609 -164.304763793945 1.626146435738
-29.791336059570 -79.972885131836 -175.754638671875 3.239528894424
-30.954114913940 -73.640541076660 -169.999008178711 1.538527131081
16.390775680542 -75.392532348633 -177.840927124023 1.986366868019
-38.107925415039 -79.449684143066 -177.599044799805 2.609470367432
-8.350214958191 -76.102912902832 -176.423202514648 1.806557178497
-61.539276123047 -75.486236572266 -173.997009277344 1.142012238503
-4.688110828400 -76.688796997070 -173.291793823242 1.748020172119
-22.285306930542 -80.144378662109 -181.183975219727 1.358985781670
21.796545028687 -78.145835876465 -184.436401367188 1.888822913170
-36.439769744873 -75.226737976074 -177.218917846680 1.506715655327
18.651678085327 -77.157226562500 -180.754333496094 1.744027376175
-18.504064559937 -75.546432495117 -187.278305053711 1.635921359062
-31.870691299438 -76.664390563965 -183.497039794922 1.482771277428
-145.106475830078 -70.613578796387 -189.308029174805 2.193475723267
-22.806003570557 -76.307853698730 -188.568527221680 2.501559257507
-144.231857299805 -73.075370788574 -193.811935424805 1.475526928902
-150.343231201172 -74.336967468262 -190.861679077148 2.638113975525
-45.363906860352 -77.687355041504 -190.608718872070 1.335210204124
101.709167480469 -79.050682067871 -195.891921997070 1.828348636627
-144.265121459961 -73.671714782715 -195.224365234375 2.057759046555
-151.203704833984 -75.174613952637 -200.469848632813 3.237557172775
21.430166244507 -76.522148132324 -198.990814208984 1.619520187378
-134.056274414063 -71.712959289551 -198.763854980469 1.226315379143
22.358915328979 -72.341087341309 -199.823440551758 2.105864763260
-139.235855102539 -71.324195861816 -203.430450439453 1.794283390045
12.542226791382 -76.432113647461 -198.083160400391 0.838297545910
-135.471939086914 -72.691711425781 -204.688186645508 2.883793592453
8.761059761047 -74.722885131836 -208.368530273438 1.091287851334
-148.237472534180 -73.394752502441 -205.938415527344 1.563378810883
93.143814086914 -74.296485900879 -205.610717773438 2.334396123886
-13.125057220459 -74.510269165039 -207.490707397461 2.970324754715
-26.776090621948 -74.029525756836 -208.690734863281 2.241705417633
-8.903619766235 -78.834381103516 -206.492889404297 2.661429166794
-148.401931762695 -75.757598876953 -213.472229003906 1.686933398247
-37.738716125488 -76.962501525879 -209.389617919922 0.624247491360
-81.328765869141 -74.210418701172 -212.624282836914 0.871546447277
-27.718631744385 -75.936264038086 -214.248794555664 1.350052237511
19.356153488159 -72.515625000000 -211.075729370117 0.618929803371
-145.673080444336 -74.671913146973 -212.408218383789 1.608039259911
-87.270751953125 -73.727996826172 -216.383300781250 1.880117535591
-25.593061447144 -74.733627319336 -216.572753906250 1.710706591606
-24.283864974976 -71.581382751465 -222.347747802734 1.396062612534
-13.555302619934 -73.794486999512 -218.277557373047 1.580822110176
-24.738346099854 -74.367370605469 -217.003097534180 1.707471370697
-78.734260559082 -74.788749694824 -220.949172973633 5.284322261810
-83.502868652344 -75.374923706055 -223.671081542969 6.887672901154
-21.371482849121 -75.742652893066 -224.184875488281 1.652067065239
-3.247915029526 -73.941070556641 -223.984756469727 2.963877677917
-147.063873291016 -71.325531005859 -219.278701782227 2.201253414154
-1.110852003098 -73.745223999023 -220.210327148438 1.447035670280
84.455955505371 -74.759719848633 -226.534973144531 0.695314466953
-142.421661376953 -76.511024475098 -230.203933715820 1.413551449776
-6.215054035187 -74.495262145996 -225.927291870117 1.181869268417
-141.560058593750 -73.706459045410 -232.316207885742 1.072050809860
-147.799957275391 -80.407974243164 -229.305175781250 1.733953237534
-5.108684062958 -74.088890075684 -231.626937866211 0.852410197258
20.595399856567 -75.320190429688 -223.704635620117 2.960026979446
-139.661178588867 -73.052764892578 -231.425186157227 1.667243838310
-13.387858390808 -74.311294555664 -233.323593139648 2.637067317963
78.185653686523 -76.385955810547 -229.359390258789 1.118205308914
81.250129699707 -76.031532287598 -236.243331909180 5.552118778229
9.727231025696 -73.039344787598 -233.700881958008 1.583933591843
-24.232051849365 -73.287689208984 -243.611282348633 1.609919428825
-18.428546905518 -75.053817749023 -238.626159667969 1.667988419533
8.843466758728 -73.487113952637 -246.063171386719 2.003039836884
-45.796516418457 -71.013717651367 -244.835525512695 3.565025091171
-23.835506439209 -74.975051879883 -248.666168212891 5.974395275116
9.480162620544 -75.217636108398 -246.579742431641 2.436388015747
-62.806320190430 -73.548904418945 -251.002059936523 1.256942510605
-29.115159988403 -72.203796386719 -249.251831054688 7.327850818634
-42.087257385254 -72.505966186523 -246.534271240234 2.944146156311
-149.073638916016 -71.952949523926 -247.383651733398 3.329735040665
-47.294208526611 -74.823066711426 -250.992050170898 4.252901554108
-52.728477478027 -73.788391113281 -249.649887084961 2.946450471878
-64.189964294434 -77.253753662109 -253.299575805664 3.131234645844
-6.463634014130 -71.829818725586 -252.594604492188 4.960664272308
-81.645568847656 -71.069152832031 -255.303710937500 1.392313957214
-149.398941040039 -76.885314941406 -260.965637207031 2.551127910614
-138.040328979492 -77.919746398926 -261.242065429688 0.767584145069
-123.698127746582 -69.580596923828 -264.552093505859 1.958068132401
-152.366027832031 -69.542404174805 -265.724609375000 0.937292397022
21.635337829590 -73.616249084473 -263.965820312500 2.740166187286
-9.433890342712 -73.492233276367 -270.985595703125 3.968413114548
-150.045486450195 -72.823394775391 -270.740783691406 3.035795211792
-149.765243530273 -71.987693786621 -278.573425292969 3.515377044678
-140.977218627930 -74.658409118652 -285.062591552734 1.745421886444
-55.227115631104 -74.192207336426 -287.973724365234 2.845326185226
-35.120597839355 -71.669517517090 -289.785125732422 1.976267337799
-23.010578155518 -71.873954772949 -292.925842285156 3.422397613525
-11.644588470459 -72.943450927734 -289.256988525391 1.961156487465
-64.488700866699 -72.316635131836 -288.197784423828 1.889828920364
-75.971580505371 -70.845733642578 -289.085266113281 1.411673188210
-3.293047904968 -74.677993774414 -290.941467285156 2.029160022736
12.080741882324 -74.301589965820 -292.165252685547 2.850850820541
-132.634185791016 -72.964233398438 -292.712127685547 2.516762495041
-75.491683959961 -70.299583435059 -291.754516601563 1.675207972527
-145.794601440430 -71.365295410156 -293.855316162109 2.015849828720
-91.623779296875 -70.567306518555 -292.000183105469 1.032830357552
-70.617202758789 -70.219604492188 -292.312713623047 2.225595951080
-82.020164489746 -73.025207519531 -293.071624755859 2.996407747269
-60.638202667236 -73.887626647949 -292.659820556641 3.009029150009
-21.173391342163 -72.165214538574 -296.003295898438 4.846108436584
-0.773262023926 -71.560348510742 -293.679687500000 2.713000535965
-152.988586425781 -71.235122680664 -297.456359863281 0.937367975712
-145.719711303711 -72.328598022461 -301.244537353516 1.785395026207
-143.320602416992 -71.268150329590 -305.231842041016 1.589531660080
-152.419769287109 -70.266265869141 -310.841369628906 2.313366413116
-58.222347259521 -78.056793212891 -58.274600982666 1.111404538155
-46.400440216064 -76.564277648926 -55.723648071289 1.561204910278
-41.038261413574 -76.533409118652 -56.943973541260 1.893048286438
-75.766548156738 -81.485198974609 -61.420288085938 4.542650699615
-29.678321838379 -78.641258239746 -62.468982696533 4.148757457733
-28.619773864746 -78.295448303223 -81.084358215332 2.647181987762
75.909515380859 -82.998291015625 -85.873359680176 6.074182987213
79.243698120117 -81.171134948730 -86.702865600586 4.289650917053
78.515892028809 -78.898345947266 -87.642982482910 2.299242019653
97.083480834961 -81.949172973633 -92.286422729492 6.485240459442
73.717773437500 -80.189407348633 -93.085968017578 4.505017757416
56.317779541016 -79.846260070801 -95.772239685059 4.181158065796
46.380809783936 -79.466880798340 -102.943908691406 2.017779588699
-65.658309936523 -79.863159179688 -104.370346069336 5.064050674438
-72.088630676270 -73.754936218262 -102.325843811035 3.122072935104
45.248497009277 -77.278144836426 -105.162750244141 1.114819526672
-82.783477783203 -78.891723632813 -111.175109863281 1.808870315552
-91.859001159668 -73.514465332031 -114.307243347168 2.644253730774
50.306625366211 -76.905715942383 -105.830940246582 1.612217307091
106.663597106934 -77.508445739746 -113.662246704102 3.399507999420
34.051757812500 -79.310073852539 -122.941169738770 1.517534852028
46.034828186035 -80.809646606445 -119.529022216797 2.694459915161
44.172164916992 -79.514686584473 -126.271369934082 2.492981195450
29.917358398438 -78.193244934082 -128.398788452148 0.646491885185
110.091194152832 -78.100883483887 -119.306495666504 2.943178415298
36.085807800293 -79.672218322754 -128.437484741211 2.401780366898
31.594549179077 -76.690986633301 -132.171722412109 1.677779555321
-42.955341339111 -74.086921691895 -145.632843017578 1.573425412178
-69.724037170410 -76.721885681152 -150.149780273438 2.502137660980
-52.311950683594 -74.727310180664 -150.211166381836 2.058780670166
-69.976058959961 -75.496826171875 -145.960128784180 1.819603919983
-40.559570312500 -76.265983581543 -150.783721923828 1.536203384399
110.402465820313 -75.483261108398 -152.429992675781 1.536030650139
-70.697166442871 -75.706413269043 -156.152099609375 0.408959209919
23.777357101440 -80.654357910156 -153.570648193359 1.699495077133
33.886245727539 -74.296699523926 -153.800018310547 1.728376150131
115.666709899902 -76.092292785645 -157.191558837891 0.931011676788
9.091592788696 -74.057380676270 -159.543746948242 0.908239126205
33.733745574951 -75.255249023438 -158.371658325195 3.496143102646
-59.981437683105 -75.528671264648 -162.096679687500 1.698372364044
-45.021411895752 -77.879341125488 -172.475967407227 4.750840663910
19.948860168457 -75.665290832520 -166.283950805664 1.199592947960
-64.993064880371 -73.616233825684 -168.758071899414 0.797128617764
-64.715606689453 -72.923805236816 -164.170639038086 1.785920977592
110.844894409180 -79.444038391113 -167.197647094727 2.425312757492
-8.823644638062 -72.429870605469 -170.377639770508 2.832285881042
-57.126842498779 -77.524490356445 -179.270248413086 1.460005164146
-28.645595550537 -74.317390441895 -174.938186645508 1.167285561562
-54.115653991699 -74.557647705078 -175.382522583008 1.699772715569
30.593824386597 -80.066650390625 -171.349487304688 3.649886846542
111.290443420410 -73.090469360352 -171.170150756836 1.658700704575
107.865768432617 -79.513290405273 -183.790084838867 2.512277603149
113.186943054199 -78.674674987793 -192.492538452148 6.948662281036
108.827041625977 -77.678535461426 -176.977478027344 0.900258898735
-55.732921600342 -75.511436462402 -192.371200561523 4.393088817596
-51.135967254639 -73.616249084473 -184.006637573242 2.376707792282
25.289154052734 -76.570228576660 -185.832168579102 1.391457438469
-50.162658691406 -70.074432373047 -189.337036132813 4.037115097046
-20.632266998291 -73.858787536621 -188.415557861328 1.879526138306
-49.315071105957 -73.232849121094 -194.067230224609 2.507745742798
-145.165679931641 -74.946647644043 -198.534225463867 0.671810150146
101.781471252441 -74.589996337891 -194.207672119141 0.972458541393
-44.462265014648 -74.114089965820 -193.775802612305 1.508858323097
-14.129558563232 -76.725402832031 -198.267822265625 2.234668731689
-137.566497802734 -74.251541137695 -203.323516845703 2.756838798523
-43.667732238770 -75.616539001465 -197.928939819336 1.511217355728
106.393157958984 -81.246574401855 -196.994689941406 5.133182525635
108.512184143066 -77.254814147949 -189.951034545898 1.752750992775
-45.875926971436 -76.249252319336 -200.188583374023 2.325388431549
-22.313869476318 -74.883338928223 -197.762817382813 1.780106782913
-148.425552368164 -79.034248352051 -203.356399536133 1.553712248802
-25.179471969604 -74.071586608887 -202.682113647461 1.470473885536
-151.737518310547 -75.890998840332 -201.543731689453 2.223550081253
-151.470886230469 -74.702377319336 -205.565368652344 2.412186145782
-140.077362060547 -74.208625793457 -204.323379516602 3.552544593811
-36.526309967041 -74.292610168457 -199.648880004883 3.042783975601
103.230308532715 -77.669517517090 -201.883773803711 2.613401174545
-37.397087097168 -73.425415039063 -202.998825073242 0.700199246407
-143.006469726563 -76.277130126953 -205.857070922852 1.771870732307
-36.736148834229 -74.220352172852 -210.527786254883 1.971006512642
-17.320821762085 -76.413154602051 -212.504333496094 1.500103354454
95.883750915527 -76.660682678223 -205.720916748047 1.080860972404
95.416984558105 -76.192420959473 -210.106170654297 1.274186611176
-26.881353378296 -75.389724731445 -218.967086791992 1.615442276001
-85.917739868164 -75.961898803711 -214.930160522461 2.377702236176
-71.076736450195 -74.686103820801 -214.521102905273 3.652529716492
-16.676538467407 -75.141578674316 -220.795410156250 1.143860936165
-148.657073974609 -70.257835388184 -216.056167602539 2.921056270599
87.992858886719 -77.673690795898 -217.121292114258 1.784826993942
89.632637023926 -73.938514709473 -222.345718383789 2.344070911407
90.444778442383 -77.111846923828 -220.442321777344 2.191748857498
-99.533836364746 -68.463973999023 -225.817062377930 1.918089747429
-146.703765869141 -74.611770629883 -227.275741577148 1.889895439148
-17.374925613403 -78.210823059082 -222.177413940430 1.607737302780
81.590576171875 -74.227401733398 -225.722229003906 1.889895796776
-145.102844238281 -78.309089660645 -229.381805419922 1.074007153511
-29.163002014160 -73.933494567871 -223.989898681641 4.826011180878
-131.161849975586 -68.319473266602 -234.434600830078 1.101857781410
-10.751637458801 -75.827278137207 -229.600128173828 0.937286734581
20.477069854736 -74.314102172852 -222.571075439453 2.847119569778
18.219388961792 -73.982032775879 -236.073638916016 1.087485432625
-154.089614868164 -75.983093261719 -237.198013305664 3.723364353180
-122.123680114746 -70.035324096680 -234.812591552734 2.329700231552
-6.848746776581 -73.677108764648 -235.588241577148 1.110628962517
2.346621990204 -72.398803710938 -240.922424316406 1.720482110977
69.155563354492 -76.343154907227 -237.321411132813 2.083384752274
71.416252136230 -73.920639038086 -238.209930419922 1.139101028442
2.200849056244 -74.900154113770 -243.032943725586 1.242628574371
20.428102493286 -74.210556030273 -240.135375976563 1.291258215904
-24.192796707153 -72.262153625488 -243.403961181641 2.189508199692
-36.639595031738 -75.629081726074 -246.659454345703 2.353726148605
-44.839950561523 -74.884315490723 -240.976852416992 0.780280113220
-38.393756866455 -74.701408386230 -245.262924194336 1.569664478302
-17.599260330200 -75.934982299805 -246.232131958008 4.428912162781
-52.736518859863 -71.007575988770 -244.214233398438 2.689413547516
5.779726982117 -73.454971313477 -247.007064819336 3.866455554962
-68.713836669922 -68.772766113281 -248.919967651367 2.660861253738
18.102561950684 -72.063316345215 -247.862960815430 0.492583721876
-144.905380249023 -74.014251708984 -251.066986083984 1.540809869766
-68.607803344727 -76.249176025391 -253.471206665039 2.541682004929
13.798028945923 -75.967689514160 -250.370117187500 2.900228261948
-162.253555297852 -71.405555725098 -253.474975585938 2.641491413116
19.295751571655 -72.928375244141 -252.326400756836 1.655254721642
-80.515625000000 -73.977806091309 -255.157608032227 1.998130917549
-72.669830322266 -70.740318298340 -253.848648071289 2.241694688797
24.281261444092 -73.530426025391 -258.963195800781 2.492600202560
-86.752609252930 -70.858100891113 -258.798736572266 3.020434617996
-127.159027099609 -72.651969909668 -258.600982666016 3.706593990326
-134.671859741211 -72.544799804688 -260.831634521484 1.903918743134
-132.305831909180 -72.459213256836 -261.355468750000 2.874015569687
-142.861770629883 -69.686752319336 -262.552093505859 1.173199892044
-138.614624023438 -73.702438354492 -260.300384521484 2.781177282333
-134.335083007813 -70.051864624023 -265.614837646484 1.520238876343
-157.823638916016 -72.055778503418 -262.274017333984 2.039294242859
-125.597244262695 -68.581100463867 -266.936401367188 2.462689638138
-132.711517333984 -70.094284057617 -262.706939697266 2.582965612411
-161.772109985352 -73.150878906250 -268.770385742188 3.272669076920
-154.367050170898 -70.992523193359 -266.855590820313 2.662666559219
-148.460510253906 -70.657485961914 -269.174499511719 4.599349021912
-144.512542724609 -74.500190734863 -268.382446289063 3.442240238190
16.432992935181 -79.341522216797 -282.606842041016 4.722666263580
-162.811050415039 -72.961708068848 -271.768371582031 3.811148405075
-152.313980102539 -68.261169433594 -278.542602539063 2.199824810028
-4.249319076538 -74.203979492188 -277.748718261719 3.520951986313
-158.665176391602 -71.108253479004 -271.013397216797 2.682037591934
16.022680282593 -76.831977844238 -282.470092773438 3.610429525375
-150.633956909180 -69.938285827637 -285.850280761719 1.660185933113
-159.444625854492 -68.437286376953 -293.138641357422 2.282360076904
-151.047882080078 -68.470535278320 -285.316162109375 2.746355295181
-165.813293457031 -65.957443237305 -286.142791748047 4.254007816315
4.561594009399 -71.689582824707 -290.458709716797 1.194109916687
11.656010627747 -76.474174499512 -285.734466552734 3.279164791107
-95.171119689941 -66.716781616211 -289.608734130859 2.593454122543
-149.421188354492 -71.479393005371 -291.360839843750 2.026241064072
-146.307479858398 -71.061431884766 -288.245574951172 2.169934272766
-108.201889038086 -68.548629760742 -293.310974121094 1.759985804558
-148.237625122070 -69.434753417969 -293.897888183594 2.174577713013
-147.262680053711 -69.559173583984 -295.960052490234 1.248657941818
-66.058723449707 -70.982017517090 -293.102661132813 3.779586791992
-160.070892333984 -72.259605407715 -295.247619628906 1.773416996002
-120.122749328613 -72.017700195313 -292.399291992188 1.288069367409
-41.312858581543 -74.984436035156 -294.007965087891 3.655166149139
-152.095626831055 -68.607933044434 -294.802398681641 0.774306416512
-137.583877563477 -69.716888427734 -295.072540283203 2.891711235046
-15.541906356812 -73.829902648926 -294.592071533203 2.659600257874
-124.259902954102 -69.535636901855 -299.665313720703 5.564218521118
5.383760929108 -72.735481262207 -293.868133544922 2.583817720413
15.116908073425 -74.019058227539 -292.786682128906 0.980825543404
-131.301376342773 -70.174644470215 -297.766052246094 4.910426616669
-143.303009033203 -69.134811401367 -297.978637695313 3.642409086227
-153.771438598633 -67.550033569336 -312.853942871094 1.365561485291
-71.640228271484 -76.522590637207 -52.940082550049 3.769933462143
-24.057689666748 -76.956176757813 -63.482719421387 2.366263151169
-21.877424240112 -78.649131774902 -67.848464965820 2.697818040848
75.085868835449 -78.028244018555 -75.464622497559 3.681271314621
91.373626708984 -78.918930053711 -77.319259643555 3.307020664215
-37.104244232178 -73.833251953125 -80.740303039551 2.220388412476
78.398918151855 -80.405876159668 -77.731292724609 4.373929023743
88.081283569336 -82.214248657227 -82.119926452637 4.995501995087
72.095909118652 -78.501701354980 -82.601234436035 3.482635974884
70.554527282715 -77.108184814453 -89.518066406250 3.550485849380
-46.581729888916 -80.201484680176 -88.707069396973 2.065159559250
-92.957504272461 -75.637939453125 -92.155418395996 1.837252259254
58.593498229980 -79.396560668945 -94.329620361328 5.202619552612
49.143745422363 -79.233909606934 -98.950614929199 2.238678693771
96.624275207520 -76.030845642090 -98.576095581055 3.444026947021
-93.724876403809 -73.635894775391 -105.938117980957 2.016627788544
85.174079895020 -78.288284301758 -98.215209960938 3.347706317902
80.651321411133 -78.123260498047 -100.898193359375 4.518500804901
91.778701782227 -79.368331909180 -98.041976928711 4.119394302368
82.939247131348 -75.059165954590 -103.981575012207 4.126634120941
91.713096618652 -78.332427978516 -101.069091796875 4.593569278717
-82.006927490234 -80.385238647461 -105.052688598633 2.539153337479
41.493686676025 -80.752136230469 -112.259651184082 2.679544687271
105.200431823730 -78.795211791992 -113.639350891113 4.945219516754
112.383560180664 -75.760009765625 -111.492538452148 2.796971321106
46.748237609863 -76.958900451660 -118.883850097656 1.448858022690
109.908607482910 -75.470748901367 -125.750938415527 0.695129513741
115.798065185547 -79.094543457031 -136.521255493164 3.832761287689
-51.426845550537 -74.653739929199 -134.472671508789 1.328910827637
29.996250152588 -77.390708923340 -135.270492553711 1.442858457565
36.803218841553 -79.968299865723 -131.915130615234 1.609928727150
24.126089096069 -73.967834472656 -145.158035278320 1.039248347282
114.818511962891 -77.145019531250 -140.499084472656 0.958877444267
111.998283386230 -78.128463745117 -135.483627319336 2.751551389694
-73.234855651855 -76.220466613770 -151.636077880859 1.186268329620
-46.135540008545 -76.852905273438 -150.586532592773 1.310663938522
-71.585906982422 -73.036758422852 -151.794525146484 2.420962095261
21.704381942749 -77.891059875488 -154.347351074219 2.721235275269
113.049591064453 -76.058334350586 -154.623596191406 1.206436753273
-53.374996185303 -75.492637634277 -153.854904174805 2.333422899246
-69.297637939453 -73.973289489746 -152.147918701172 1.495297670364
-39.017589569092 -78.994110107422 -158.230743408203 1.924021005630
36.635246276855 -75.400001525879 -152.827438354492 3.206980466843
111.345687866211 -77.785682678223 -156.587509155273 1.891687512398
117.106262207031 -77.977409362793 -158.846481323242 3.397611141205
-67.835197448730 -74.107254028320 -154.969894409180 1.347159266472
-70.474723815918 -75.305458068848 -166.349975585938 3.437429189682
21.404533386230 -78.649688720703 -165.062271118164 2.019281387329
-57.148807525635 -76.645225524902 -166.564056396484 1.937663316727
-30.582988739014 -80.790832519531 -165.372344970703 3.469543695450
8.084422111511 -74.403564453125 -165.750854492188 3.353601694107
112.515464782715 -78.464797973633 -166.297531127930 2.092602014542
6.568218231201 -75.286849975586 -167.413558959961 3.390176534653
-34.863452911377 -75.807487487793 -169.028701782227 2.629389286041
0.584478974342 -73.592864990234 -167.660720825195 0.696767807007
107.184730529785 -75.397056579590 -174.720428466797 1.613435983658
-40.375816345215 -70.040679931641 -175.080062866211 2.389565706253
30.107921600342 -72.918266296387 -171.543914794922 1.689648032188
112.974601745605 -75.101730346680 -172.824966430664 1.309613704681
-52.393283843994 -73.433197021484 -181.380767822266 1.213328957558
-27.378152847290 -76.596618652344 -173.682617187500 1.958531379700
102.572486877441 -78.167243957520 -175.558715820313 4.742336750031
32.670333862305 -77.465225219727 -174.528320312500 4.686963558197
115.752426147461 -74.870590209961 -176.935729980469 3.411164760590
-36.835693359375 -76.391235351563 -175.732086181641 2.335464477539
107.783546447754 -74.846626281738 -182.252365112305 0.621281385422
-57.163806915283 -73.942375183105 -180.814346313477 0.425236344337
-23.314075469971 -75.198318481445 -180.062545776367 1.509656786919
-142.358001708984 -72.545730590820 -185.213989257813 1.762357950211
-53.352413177490 -73.990112304688 -187.200088500977 2.597990751266
-145.474960327148 -71.779235839844 -188.092559814453 0.870741546154
-31.203430175781 -73.738555908203 -189.548614501953 1.250877737999
23.250059127808 -74.474716186523 -188.985855102539 1.649928808212
111.211250305176 -73.216773986816 -183.508285522461 0.965105295181
-28.960165023804 -74.756118774414 -192.122314453125 2.293630123138
14.224191665649 -76.219429016113 -194.125778198242 2.456485986710
19.076642990112 -74.659156799316 -201.700668334961 0.851579964161
-146.850143432617 -70.652084350586 -196.391387939453 1.373995900154
103.818206787109 -78.057525634766 -198.560607910156 2.191731452942
-17.140668869019 -71.472587585449 -196.506973266602 1.476273894310
105.866378784180 -72.722145080566 -192.562423706055 1.931218862534
16.717311859131 -73.867637634277 -191.148437500000 2.649755001068
-129.613800048828 -71.536315917969 -205.020278930664 1.850495815277
-141.616989135742 -71.518180847168 -201.837631225586 0.727840185165
96.856422424316 -71.095825195313 -201.399368286133 1.607597827911
-10.360492706299 -74.109909057617 -203.058731079102 1.352093696594
-14.084308624268 -76.326652526855 -200.656555175781 2.174156188965
12.782268524170 -74.873985290527 -207.116531372070 3.082417488098
-146.456451416016 -70.638923645020 -209.450073242188 2.746813774109
-145.391113281250 -73.343750000000 -209.865463256836 0.583619058132
101.313133239746 -78.892478942871 -206.340484619141 3.605685710907
-74.484298706055 -74.002662658691 -212.857727050781 2.015521764755
-35.361835479736 -72.008697509766 -204.768585205078 2.438365221024
20.909219741821 -73.634941101074 -212.677230834961 2.412960529327
-22.983997344971 -75.876281738281 -213.003326416016 1.654409289360
-77.160865783691 -71.222518920898 -215.630813598633 3.962878942490
93.908996582031 -74.470664978027 -210.016693115234 1.283766746521
-80.528602600098 -69.910392761230 -217.060302734375 4.392937183380
-145.487792968750 -72.666236877441 -222.034057617188 0.990319728851
-77.309829711914 -74.270149230957 -218.732437133789 4.200040340424
-14.188885688782 -73.655220031738 -215.102203369141 0.744621336460
-20.067920684814 -74.277305603027 -219.914291381836 1.420469045639
23.147083282471 -72.397560119629 -213.288208007813 4.611294746399
-4.146636009216 -72.996482849121 -215.439193725586 0.985166609287
-81.918380737305 -71.801704406738 -222.059234619141 6.376929759979
92.940887451172 -74.998558044434 -215.845718383789 1.482198596001
-93.274444580078 -73.831779479980 -217.975006103516 2.304912567139
-145.519134521484 -76.650695800781 -227.863250732422 1.992401599884
-13.124364852905 -74.377899169922 -221.835464477539 1.931385278702
17.887922286987 -73.743423461914 -218.145629882813 1.801151752472
-101.534347534180 -70.785285949707 -222.436889648438 2.582523345947
10.354478836060 -75.359146118164 -222.212829589844 2.811971426010
-24.033533096313 -75.744209289551 -218.707962036133 1.234329700470
84.658500671387 -76.013641357422 -225.890136718750 1.219669342041
-144.578643798828 -71.348098754883 -224.014770507813 0.661719322205
8.384170532227 -71.029899597168 -228.085235595703 1.647728323936
-5.599791049957 -74.501747131348 -224.052627563477 2.400846004486
18.644769668579 -70.641830444336 -222.884613037109 2.779412508011
86.241058349609 -72.742294311523 -226.586532592773 2.788918256760
-11.250592231750 -73.762512207031 -229.040069580078 1.769245147705
-128.078338623047 -73.999877929688 -230.728897094727 1.473297238350
-7.352200984955 -76.610664367676 -227.541778564453 2.021570920944
18.687864303589 -73.305488586426 -236.373657226563 1.089230775833
-124.043113708496 -71.228973388672 -227.603713989258 1.170144438744
-148.032852172852 -71.731910705566 -232.379425048828 1.937261462212
-138.506088256836 -71.597023010254 -232.186355590820 2.549212932587
-130.847473144531 -70.920173645020 -232.873214721680 1.893394112587
-10.670585632324 -73.020790100098 -229.430740356445 1.839133977890
73.389884948730 -73.806236267090 -231.545013427734 1.706233739853
-139.602371215820 -71.654914855957 -237.897003173828 4.385649204254
74.660171508789 -73.466461181641 -229.658370971680 1.054290413857
-15.104513168335 -75.283508300781 -228.798995971680 0.857254564762
-140.416320800781 -76.324356079102 -235.162963867188 3.329090833664
79.260253906250 -76.689041137695 -233.297546386719 3.218410015106
14.139125823975 -76.440231323242 -238.580230712891 3.838333606720
-141.011367797852 -70.862434387207 -239.128845214844 3.735906124115
-148.009048461914 -71.210754394531 -239.768615722656 3.492609739304
15.457587242126 -69.774894714355 -236.167495727539 1.400612831116
-0.780898988247 -73.541213989258 -240.001693725586 1.603339433670
-22.197927474976 -71.071456909180 -244.187194824219 2.990060567856
-2.063683986664 -71.833068847656 -242.352737426758 1.760697484016
-159.962982177734 -71.763977050781 -240.490982055664 2.328051090240
12.193856239319 -73.292076110840 -247.515884399414 2.778333187103
-162.098541259766 -69.750869750977 -238.459701538086 2.663073301315
-14.307553291321 -72.639335632324 -236.673583984375 2.279836893082
69.138900756836 -74.898406982422 -241.051544189453 2.903227329254
-7.775499820709 -72.007637023926 -243.282073974609 0.778806567192
-23.635589599609 -72.334144592285 -241.834732055664 1.843723535538
-24.396371841431 -70.578689575195 -244.006484985352 3.968354940414
-13.493158340454 -70.406227111816 -246.772323608398 0.894995391369
-142.612792968750 -69.967422485352 -238.782394409180 2.704575300217
10.900585174561 -74.917655944824 -246.072708129883 1.272712469101
66.661628723145 -75.734687805176 -242.934967041016 2.898349523544
14.014419555664 -73.527923583984 -246.451049804688 1.450165510178
-160.235488891602 -69.671951293945 -243.003234863281 1.889728188515
-46.181442260742 -73.836006164551 -246.904220581055 2.370511531830
6.594328880310 -77.234733581543 -250.037261962891 3.583303213120
