-13.301671028137 -76.397331237793 -213.144592285156 1.052580952644
6.941802978516 -80.965797424316 -218.761398315430 2.628348112106
-143.335113525391 -76.588714599609 -219.251785278320 2.589640140533
-21.856115341187 -79.232452392578 -222.730972290039 2.920253753662
-4.651877880096 -77.236816406250 -223.890869140625 1.719563722610
-2.841782093048 -78.333328247070 -218.950851440430 1.435972332954
-153.319610595703 -75.045532226563 -225.739425659180 2.637234926224
-136.029037475586 -73.413146972656 -228.102569580078 1.745154619217
-6.284420967102 -76.829444885254 -227.015792846680 1.781428694725
-149.925079345703 -79.976013183594 -230.334274291992 1.622463107109
-0.610597014427 -76.829322814941 -231.334640502930 2.106156826019
16.526891708374 -74.762100219727 -232.839141845703 1.229975461960
-3.592750072479 -74.930290222168 -236.961853027344 2.117751359940
0.681927978992 -77.645362854004 -234.543441772461 1.362602591515
7.456821918488 -82.317932128906 -234.545440673828 2.830397129059
-151.146194458008 -76.157676696777 -236.202575683594 1.906579017639
-18.992355346680 -76.975723266602 -238.920227050781 0.992984414101
-32.752696990967 -81.491737365723 -241.647232055664 1.731429100037
6.636756896973 -74.306739807129 -231.226501464844 1.872558474541
-1.169600009918 -75.674232482910 -238.580123901367 1.128984332085
4.161880970001 -78.533592224121 -235.959259033203 2.077470541000
-54.029155731201 -76.649681091309 -241.923477172852 1.017215609550
-152.289733886719 -74.265258789063 -248.399139404297 1.257851362228
-152.693405151367 -75.733543395996 -251.260467529297 2.807749748230
10.270196914673 -79.285270690918 -248.318527221680 2.102727413177
20.225734710693 -79.041976928711 -248.112976074219 0.659335315228
-59.760269165039 -76.449447631836 -249.965545654297 1.951414704323
-147.858428955078 -73.990447998047 -256.135772705078 1.259896159172
-153.897827148438 -79.506286621094 -257.428161621094 1.393375754356
-149.555191040039 -78.282623291016 -259.257354736328 2.567461252213
-145.008346557617 -78.277900695801 -260.764434814453 2.605556011200
-137.218200683594 -76.753120422363 -259.262237548828 1.271769165993
-13.288784980774 -76.932212829590 -258.459259033203 1.635113835335
-146.059219360352 -75.367149353027 -268.272857666016 2.987146139145
-12.365707397461 -80.283805847168 -261.747589111328 2.028840303421
-151.107620239258 -76.376243591309 -278.265319824219 2.402942180634
-151.282150268555 -77.918510437012 -285.347656250000 3.172987699509
-153.262832641602 -78.916984558105 -284.182922363281 1.288198113441
-5.536294937134 -74.216247558594 -289.007568359375 2.327458858490
-144.964218139648 -73.971260070801 -288.091735839844 3.102979183197
-35.126846313477 -76.967376708984 -284.313659667969 3.176504850388
-32.368152618408 -74.228683471680 -290.625305175781 1.089134335518
-20.741409301758 -77.217658996582 -287.349334716797 1.855982184410
-9.981382369995 -77.804687500000 -291.072845458984 0.801226913929
15.586711883545 -78.162765502930 -293.106781005859 1.572747230530
-126.047309875488 -75.408973693848 -290.531890869141 1.307985186577
-56.756416320801 -78.735916137695 -288.675170898438 2.745105743408
-39.602813720703 -76.325843811035 -293.390075683594 3.020988702774
-34.649230957031 -78.115257263184 -291.418151855469 1.318689227104
-10.245646476746 -78.059844970703 -290.146057128906 1.179234862328
5.819449901581 -76.705848693848 -288.666809082031 0.769364774227
-141.396057128906 -78.308898925781 -294.575195312500 3.833984613419
7.296387195587 -79.461624145508 -293.668151855469 2.933101654053
-154.535354614258 -78.057983398438 -306.087036132813 1.377811908722
-149.339279174805 -75.739326477051 -303.330657958984 3.744719982147
-152.119186401367 -75.062904357910 -313.664672851563 1.809124946594
-147.262832641602 -75.887619018555 -313.819671630859 1.618418455124
-54.086444854736 -73.420448303223 -54.559082031250 2.757526159286
-55.783199310303 -74.331222534180 -58.052871704102 3.256309747696
-69.773735046387 -73.898780822754 -56.995918273926 2.833802461624
-46.449279785156 -75.063446044922 -59.324260711670 3.296356201172
-41.977615356445 -71.674308776855 -60.360187530518 5.394909381866
-25.753705978394 -72.151084899902 -63.867458343506 3.316730976105
-84.560562133789 -74.694908142090 -68.570701599121 2.710490942001
79.817077636719 -75.822937011719 -79.916137695313 2.832805633545
-92.576026916504 -74.991653442383 -84.291412353516 1.666594386101
82.657829284668 -78.956100463867 -81.428482055664 1.937275528908
84.205375671387 -77.350242614746 -83.064598083496 1.121847867966
91.804412841797 -76.161323547363 -84.139785766602 2.033796548843
-61.496414184570 -79.778640747070 -95.059036254883 1.586434125900
83.326446533203 -78.416961669922 -93.573982238770 2.065730094910
78.443634033203 -75.517448425293 -93.001274108887 1.674647808075
89.373962402344 -78.921333312988 -91.385337829590 2.805866479874
-63.607872009277 -78.136337280273 -98.796592712402 2.185784816742
53.283878326416 -75.519561767578 -97.415786743164 0.803484857082
44.164573669434 -77.083839416504 -105.815620422363 1.440573453903
37.836570739746 -77.017265319824 -107.345382690430 1.541101574898
36.147853851318 -76.038124084473 -109.831787109375 1.606990456581
-93.913230895996 -73.798530578613 -115.221542358398 2.219434499741
33.826457977295 -77.998603820801 -118.461875915527 2.329083442688
-85.517456054688 -75.154914855957 -113.859878540039 1.669201135635
40.612480163574 -77.535881042480 -125.749465942383 0.736539900303
31.493715286255 -76.810386657715 -122.562637329102 1.222164511681
31.191232681274 -78.119117736816 -123.672050476074 1.313730239868
40.663352966309 -75.539070129395 -121.935142517090 3.327558755875
38.299751281738 -79.333099365234 -127.333961486816 2.718999385834
-56.643627166748 -70.182533264160 -140.479049682617 1.278550028801
34.941646575928 -78.294250488281 -134.848281860352 0.718622684479
35.062454223633 -76.859985351563 -141.679092407227 1.722260832787
-50.782848358154 -71.247200012207 -140.881759643555 3.137770414352
-50.020111083984 -77.602783203125 -142.304443359375 2.392375230789
33.034328460693 -77.426292419434 -144.184967041016 0.981262087822
108.171943664551 -76.322181701660 -141.744506835938 2.701100111008
110.142219543457 -76.789505004883 -143.024505615234 1.514322638512
25.735347747803 -78.444114685059 -145.276992797852 0.556737780571
-43.947700500488 -75.250518798828 -148.671737670898 0.606542050838
111.085083007813 -79.933784484863 -157.744583129883 3.414700508118
-43.830230712891 -74.923477172852 -156.692123413086 3.396777153015
-66.276229858398 -77.273040771484 -161.762390136719 1.847665667534
109.611152648926 -78.261909484863 -162.393905639648 1.741096377373
23.307500839233 -77.944465637207 -166.564468383789 2.769671201706
-1.652201056480 -77.106124877930 -165.681655883789 2.422000646591
111.303810119629 -79.202850341797 -154.380859375000 2.357342958450
-64.341461181641 -76.665473937988 -163.338394165039 0.920794248581
-37.216457366943 -78.521926879883 -162.241012573242 1.141103148460
110.243492126465 -76.724678039551 -164.466781616211 1.382144451141
25.901718139648 -73.822830200195 -159.212966918945 3.849953413010
-66.853569030762 -75.021041870117 -170.138137817383 2.257307767868
107.453414916992 -76.358657836914 -170.250885009766 2.165735244751
-65.837120056152 -77.501342773438 -170.488113403320 2.913124799728
-53.850547790527 -77.918121337891 -179.399566650391 1.420461893082
104.653732299805 -76.971015930176 -175.983322143555 2.967629909515
-63.508617401123 -75.046882629395 -170.531234741211 1.980763792992
111.056472778320 -77.302192687988 -173.527175903320 0.889580309391
-60.154918670654 -77.635559082031 -174.083435058594 1.187063813210
-14.874154090881 -75.870407104492 -177.374557495117 1.611566305161
-12.476330757141 -77.103942871094 -179.958496093750 2.321234226227
105.348999023438 -78.333641052246 -171.400024414063 3.021080970764
20.133148193359 -76.245223999023 -170.208190917969 1.633250236511
27.547914505005 -77.984985351563 -169.888183593750 1.907360434532
-56.367965698242 -77.683441162109 -178.781417846680 1.211140513420
17.300287246704 -76.360809326172 -185.115798950195 1.970234751701
-58.448265075684 -76.457305908203 -180.517303466797 1.135005831718
-52.677215576172 -73.559341430664 -191.232681274414 2.962459564209
12.477924346924 -76.912742614746 -181.936981201172 2.919924259186
-61.720726013184 -74.356018066406 -185.175613403320 5.733315467834
108.530853271484 -75.672882080078 -185.075592041016 1.482539415359
20.432025909424 -77.298240661621 -180.811447143555 1.774972796440
-32.899772644043 -76.629516601563 -189.241378784180 1.769913196564
-45.060520172119 -73.645881652832 -195.521453857422 2.878781080246
9.683392524719 -75.551422119141 -196.732025146484 1.464546203613
-24.244644165039 -77.011558532715 -189.948211669922 1.917401909828
-53.379657745361 -76.283996582031 -196.451568603516 5.216497421265
100.443923950195 -79.828361511230 -186.869628906250 4.188533782959
13.771330833435 -75.043159484863 -191.649765014648 1.565482854843
-136.574127197266 -75.181640625000 -197.659515380859 1.362878322601
-42.973686218262 -75.315628051758 -192.966690063477 1.772334456444
99.754295349121 -79.464508056641 -197.402435302734 2.499454498291
-149.276107788086 -76.443321228027 -203.390411376953 1.567562818527
16.944259643555 -76.433509826660 -194.024810791016 2.670959234238
-45.166378021240 -80.769889831543 -205.581344604492 3.931531190872
-34.095554351807 -77.187309265137 -205.306213378906 1.382175683975
-40.105129241943 -73.668159484863 -206.490493774414 2.218361377716
-43.980873107910 -76.193748474121 -195.090805053711 1.638147234917
99.976867675781 -79.969383239746 -200.819869995117 3.039853811264
-19.643207550049 -75.546089172363 -203.410858154297 1.449521780014
-152.213577270508 -72.154663085938 -204.550445556641 0.949894607067
12.738233566284 -75.542160034180 -208.696655273438 2.664769649506
-74.422538757324 -78.027389526367 -206.771392822266 2.213531494141
-147.865356445313 -73.815299987793 -212.390487670898 2.036797523499
96.077583312988 -76.422676086426 -209.340927124023 0.330119401217
-35.040008544922 -76.147499084473 -208.014495849609 0.993018448353
-27.654672622681 -75.501670837402 -217.095855712891 0.826405167580
5.629714012146 -78.027267456055 -211.941909790039 2.615028381348
-72.566337585449 -75.184608459473 -213.974563598633 2.816415548325
-28.939653396606 -75.702392578125 -210.338531494141 1.751786947250
-7.633975982666 -78.813316345215 -217.310272216797 1.244137406349
-79.153152465820 -78.590087890625 -217.681396484375 2.611041545868
-14.797702789307 -78.730705261230 -219.498703002930 2.403068542480
8.186718940735 -75.899002075195 -215.862289428711 2.294823884964
16.582532882690 -81.728752136230 -221.373779296875 2.627982378006
-147.550765991211 -74.753059387207 -219.051132202148 2.218014955521
-6.139177799225 -74.762382507324 -216.681060791016 2.120848417282
-93.465660095215 -72.112556457520 -223.346466064453 2.121630907059
-23.239999771118 -73.416625976563 -220.285964965820 1.118316054344
92.581619262695 -78.829536437988 -212.161880493164 1.456156253815
5.444124221802 -78.276710510254 -229.309936523438 1.873753666878
14.320067405701 -79.070327758789 -216.582382202148 1.383899807930
79.357307434082 -73.245994567871 -222.163619995117 0.823230266571
1.340991020203 -75.724975585938 -227.223190307617 1.460097551346
85.094238281250 -76.510902404785 -220.247238159180 1.234593033791
-17.139343261719 -75.962722778320 -223.740615844727 1.223388433456
12.767333984375 -78.580886840820 -223.057830810547 1.732259273529
-148.663650512695 -76.372520446777 -226.617248535156 2.592748165131
-19.358711242676 -81.835830688477 -226.990554809570 4.958224773407
0.619423985481 -80.288818359375 -227.683883666992 1.683052062988
-153.434051513672 -77.054618835449 -230.385055541992 1.723938822746
-135.472976684570 -74.839012145996 -229.274398803711 1.704001307487
9.148291587830 -75.967071533203 -227.936752319336 2.025516271591
-6.049136161804 -76.596343994141 -238.790710449219 3.795642137527
-138.025711059570 -75.149208068848 -233.584106445313 3.213706254959
-148.228073120117 -77.798980712891 -236.893814086914 2.442557811737
-146.264846801758 -73.058639526367 -239.730239868164 2.549790620804
-29.159976959229 -76.825378417969 -237.282226562500 2.320497035980
-145.944183349609 -73.670707702637 -245.738632202148 3.279295444489
18.956420898438 -76.341140747070 -241.367736816406 2.202512025833
5.430937767029 -77.625328063965 -244.645065307617 1.309321284294
-152.419982910156 -72.831001281738 -238.168960571289 3.255234718323
-151.727493286133 -74.943664550781 -244.550369262695 2.007508754730
-47.078258514404 -76.534599304199 -241.626205444336 1.469778180122
-33.225391387939 -79.345947265625 -245.708831787109 2.407653570175
5.390059947968 -79.334495544434 -249.382110595703 2.603930473328
-37.371101379395 -75.204124450684 -247.752517700195 3.471349716187
23.098928451538 -78.941154479980 -250.716293334961 2.778745174408
-3.959157943726 -78.517646789551 -247.344909667969 1.460230827332
-153.545684814453 -73.621025085449 -254.563964843750 0.865494012833
-6.646159172058 -73.309265136719 -249.805603027344 2.548465251923
-143.835159301758 -76.349014282227 -254.302688598633 2.599289178848
-67.644172668457 -76.686653137207 -251.577850341797 1.695110440254
-153.170684814453 -81.513397216797 -260.745941162109 1.718939423561
-126.653488159180 -76.999694824219 -263.104187011719 2.148678302765
-150.265609741211 -71.374069213867 -262.276458740234 3.230724811554
-13.049222946167 -75.221725463867 -267.568634033203 1.905475735664
-146.297164916992 -77.018447875977 -266.540832519531 1.649895548820
-150.235427856445 -75.399070739746 -266.230255126953 1.886031985283
-11.009180068970 -79.266471862793 -269.647918701172 0.973550438881
-148.683593750000 -76.140937805176 -270.865936279297 2.340710639954
-4.977858066559 -79.648231506348 -283.062225341797 3.223120927811
-45.462810516357 -78.041946411133 -284.234863281250 4.003470420837
-137.264236450195 -76.868385314941 -288.236694335938 1.511191725731
-133.537750244141 -73.047477722168 -284.717651367188 1.092304587364
-126.421760559082 -75.002845764160 -286.499694824219 1.372820258141
-54.974468231201 -75.521720886230 -283.460418701172 3.723295688629
-115.020210266113 -74.444725036621 -291.358856201172 1.299479603767
14.939005851746 -81.544250488281 -290.349151611328 3.143804073334
-62.211200714111 -76.064346313477 -288.647979736328 1.349052667618
-142.038436889648 -73.203567504883 -290.082794189453 2.638406991959
-62.831668853760 -73.868637084961 -289.289276123047 2.469519615173
-143.762359619141 -79.653007507324 -292.450958251953 0.889144241810
-119.250724792480 -74.646507263184 -288.450286865234 0.944608628750
-47.739253997803 -75.978111267090 -292.537261962891 2.192131519318
-38.890571594238 -77.196052551270 -291.881958007813 1.535896778107
-134.633514404297 -75.493896484375 -292.246826171875 0.981161415577
-11.916964530945 -74.330253601074 -293.175476074219 1.178033709526
-1.206596016884 -79.722434997559 -292.819152832031 3.477587938309
7.017181873322 -77.517433166504 -292.287261962891 0.771804332733
13.361015319824 -77.468811035156 -294.385284423828 1.206124186516
-149.172317504883 -78.288520812988 -297.519500732422 2.537136554718
-146.903579711914 -74.048126220703 -300.785766601563 1.625341415405
-72.087699890137 -72.246383666992 -63.217800140381 5.602012157440
85.691871643066 -75.957641601563 -77.305580139160 1.619451284409
77.731414794922 -76.550422668457 -76.458045959473 1.411405086517
-28.434648513794 -77.532943725586 -76.391098022461 1.961041450500
83.697822570801 -74.804397583008 -75.177658081055 1.615668296814
-39.233821868896 -72.806755065918 -81.996223449707 3.499107599258
87.906959533691 -79.186248779297 -78.299140930176 2.655560731888
89.112770080566 -78.815269470215 -81.045783996582 2.234633922577
-70.013183593750 -69.863182067871 -94.727287292480 4.858213901520
76.216331481934 -75.865638732910 -91.793533325195 0.875116586685
78.960777282715 -74.400009155273 -97.798614501953 1.025823950768
90.638114929199 -75.575424194336 -91.594779968262 2.060205936432
52.785518646240 -75.860694885254 -94.789710998535 2.042846202850
-79.670852661133 -78.383903503418 -102.710601806641 2.752739429474
-81.887527465820 -69.635162353516 -101.757843017578 1.964576959610
48.220561981201 -75.670478820801 -108.783264160156 1.493480086327
-93.425415039063 -76.585281372070 -109.450569152832 3.511852502823
42.757350921631 -76.006187438965 -116.483108520508 2.432745933533
109.616233825684 -75.842834472656 -116.493957519531 2.200698852539
108.217864990234 -75.065093994141 -131.820373535156 2.887092828751
24.567403793335 -72.931190490723 -138.977615356445 1.502912759781
110.675430297852 -79.824806213379 -128.958129882813 4.481403827667
26.187805175781 -74.565650939941 -134.910293579102 1.725628018379
110.224975585938 -77.532867431641 -131.019561767578 2.273226499557
33.570175170898 -78.746887207031 -137.314895629883 2.062694072723
-53.279491424561 -77.401611328125 -149.544433593750 2.283979177475
33.683555603027 -75.366073608398 -141.633453369141 1.582184076309
109.934265136719 -75.531433105469 -137.690719604492 1.863029956818
-51.894012451172 -75.350830078125 -148.963378906250 1.444640398026
28.915334701538 -78.926391601563 -147.323242187500 0.265216648579
-56.873199462891 -74.412025451660 -137.568283081055 1.109337806702
-56.162250518799 -79.117675781250 -149.378662109375 4.493412494659
-53.137016296387 -72.676582336426 -151.817718505859 0.371774017811
-67.369674682617 -76.587364196777 -157.263076782227 1.479111433029
111.756034851074 -76.196578979492 -148.369567871094 1.752796769142
-52.296680450439 -74.277572631836 -154.486312866211 1.583353638649
18.740419387817 -77.574836730957 -158.309417724609 3.294600963593
108.231986999512 -80.083656311035 -157.233825683594 4.278592109680
-69.038604736328 -76.289863586426 -157.362136840820 1.857540607452
-49.761917114258 -74.176139831543 -157.873458862305 1.464722990990
6.041267871857 -74.350021362305 -157.488784790039 1.759648203850
-66.221778869629 -71.974365234375 -159.780914306641 1.685552120209
-61.262893676758 -75.504562377930 -163.508789062500 1.294084429741
-2.564400911331 -80.734405517578 -162.256286621094 3.331270933151
-44.876575469971 -77.335945129395 -171.203018188477 3.451136112213
27.152032852173 -73.784980773926 -165.164489746094 2.946398258209
-66.375541687012 -74.505676269531 -165.111251831055 2.281790494919
-54.216594696045 -71.919151306152 -169.793121337891 5.124549388885
20.341569900513 -75.510551452637 -162.835784912109 1.779717445374
-32.111713409424 -78.771247863770 -174.275192260742 2.211157083511
-33.261932373047 -72.219024658203 -168.768539428711 0.793384432793
14.091642379761 -74.446670532227 -176.435272216797 2.189015865326
-40.422504425049 -78.287925720215 -176.156234741211 2.848505735397
-10.654680252075 -75.009826660156 -175.044921875000 1.058961987495
-63.845767974854 -74.102043151855 -172.759155273438 2.301835298538
-7.001170158386 -75.489158630371 -171.885467529297 1.531191706657
-24.595451354980 -79.178390502930 -179.677749633789 1.555257439613
19.500164031982 -77.470481872559 -182.908874511719 0.759650588036
-38.739013671875 -74.059791564941 -175.934341430664 1.959190368652
16.351667404175 -76.329978942871 -179.274139404297 2.579319953918
-20.784395217896 -74.831146240234 -185.935302734375 0.448797404766
-34.162792205811 -75.753654479980 -182.142974853516 2.194735765457
-147.362640380859 -69.506538391113 -188.426101684570 3.149734735489
-25.086593627930 -75.625305175781 -187.204757690430 3.110811233521
-146.488342285156 -72.142105102539 -192.830627441406 0.740246295929
-152.610427856445 -73.267051696777 -189.847503662109 3.515368700027
-47.645423889160 -76.997550964355 -189.239486694336 1.131438851357
99.431678771973 -79.111564636230 -194.148513793945 2.912720203400
-146.521026611328 -72.791923522949 -194.219284057617 1.672044873238
-153.454681396484 -74.468482971191 -199.418441772461 2.750382900238
19.169366836548 -76.403495788574 -197.515518188477 1.606245994568
-136.297653198242 -71.008186340332 -197.809036254883 2.532057285309
20.115745544434 -72.260848999023 -198.505447387695 1.490117311478
-141.466293334961 -70.778907775879 -202.498275756836 0.924531340599
10.280024528503 -76.245590209961 -196.631195068359 1.625631451607
-137.705078125000 -72.207595825195 -203.694625854492 2.192619085312
6.526182174683 -74.917022705078 -206.982559204102 1.134222030640
-150.470657348633 -72.910255432129 -204.944656372070 1.205513119698
90.904174804688 -74.700729370117 -204.060562133789 2.892910957336
-15.360681533813 -74.589195251465 -206.160873413086 3.685407400131
-29.007326126099 -74.103713989258 -207.407928466797 1.304814815521
-11.157805442810 -78.887710571289 -204.989242553711 2.058192014694
-150.628921508789 -75.558990478516 -212.382904052734 1.990845203400
-39.979625701904 -77.020301818848 -208.017822265625 2.267288923264
-83.552223205566 -74.231132507324 -211.449676513672 1.280253887177
-29.945915222168 -76.218177795410 -212.891021728516 1.664131402969
17.135061264038 -72.854560852051 -209.749282836914 1.165112614632
-147.898101806641 -74.443595886230 -211.355316162109 1.496310472488
-89.484718322754 -73.870697021484 -215.237243652344 1.907435059547
-27.811084747314 -75.113296508789 -215.254669189453 1.048425912857
-26.478212356567 -72.189224243164 -221.143173217773 3.088324546814
-15.766418457031 -74.285057067871 -216.968109130859 1.202160358429
-26.954111099243 -74.766967773438 -215.696853637695 0.821427524090
-80.943138122559 -75.137252807617 -219.740722656250 3.258341550827
-85.708442687988 -75.809318542480 -222.448532104492 4.749227523804
-23.578033447266 -76.428588867188 -222.813461303711 2.114400863647
-5.448169231415 -74.688407897949 -222.643218994141 3.019969940186
-149.262237548828 -71.357368469238 -218.351760864258 2.985499858856
-3.317997932434 -74.356277465820 -218.874420166016 1.320614933968
82.256866455078 -75.931732177734 -224.970535278320 2.663479804993
-144.617813110352 -76.974380493164 -229.060577392578 2.044782876968
-8.413473129272 -75.305419921875 -224.569534301758 1.642928123474
-143.741256713867 -74.255920410156 -231.276718139648 2.160918235779
-150.012741088867 -80.813964843750 -228.025039672852 1.728701710701
-7.294055938721 -75.121559143066 -230.278152465820 0.624025762081
18.389083862305 -76.144882202148 -222.258956909180 1.582287073135
-141.841690063477 -73.575714111328 -230.407241821289 0.852352082729
-15.570574760437 -75.377777099609 -231.982971191406 2.654913663864
75.986122131348 -77.641403198242 -227.744216918945 2.480699539185
79.065818786621 -77.562080383301 -234.630035400391 4.754235267639
7.549905776978 -74.207572937012 -232.358627319336 1.399884223938
-26.389987945557 -74.708030700684 -242.325698852539 1.292531371117
-20.603343963623 -76.303802490234 -237.264144897461 1.859790325165
6.689395904541 -75.124710083008 -244.696624755859 1.556053757668
-47.943092346191 -72.402000427246 -243.682693481445 1.284883618355
-25.989681243896 -76.589035034180 -247.311492919922 4.228782653809
7.320525169373 -76.876098632813 -245.145248413086 1.446991682053
-64.949958801270 -75.107696533203 -249.784515380859 1.213963508606
-31.257526397705 -73.822502136230 -248.014144897461 4.910315513611
-44.236137390137 -73.972000122070 -245.315093994141 0.845909476280
-151.217651367188 -73.052131652832 -246.416427612305 0.773891866207
-49.442882537842 -76.438491821289 -249.692214965820 3.261808395386
-54.875858306885 -75.332923889160 -248.402374267578 0.468544363976
-66.343093872070 -78.892539978027 -251.941604614258 3.578537940979
-8.598044395447 -73.661338806152 -251.319763183594 2.661815404892
-83.770874023438 -72.723960876465 -254.218612670898 1.976186871529
-151.534362792969 -78.499290466309 -259.800445556641 3.606461048126
-140.179244995117 -79.585975646973 -260.012542724609 2.553929090500
-125.798675537109 -71.433227539063 -263.608123779297 1.212590456009
-154.463775634766 -71.332801818848 -264.843261718750 2.224794864655
19.516788482666 -75.986518859863 -262.553527832031 2.342871189117
-11.537491798401 -76.015083312988 -269.640075683594 1.953231334686
-152.145660400391 -74.811965942383 -269.725219726563 1.580044865608
-151.846405029297 -74.277610778809 -277.583465576172 1.740604639053
-143.055572509766 -77.227478027344 -283.946685791016 1.658642768860
-57.298648834229 -77.193412780762 -286.688049316406 3.230193138123
-37.179042816162 -74.817024230957 -288.551086425781 2.721793174744
-25.063579559326 -75.186721801758 -291.655487060547 2.314333200455
-13.709188461304 -76.157531738281 -287.923858642578 1.569887638092
-66.552536010742 -75.293197631836 -287.003692626953 1.605233192444
-78.027893066406 -73.814430236816 -287.971649169922 1.973513603210
-5.360949993134 -77.986442565918 -289.522674560547 1.261285305023
10.016596794128 -77.714591979980 -290.726715087891 0.734902024269
-134.690719604492 -75.858406066895 -291.637359619141 1.221480607986
-77.540527343750 -73.372604370117 -290.658782958984 1.215043187141
-147.842590332031 -74.255210876465 -292.869354248047 2.699489355087
-93.672996520996 -73.589248657227 -290.928924560547 0.541228055954
-72.664665222168 -73.332252502441 -291.209106445313 0.437538266182
-84.076690673828 -76.122215270996 -291.884765625000 1.879559636116
-62.699062347412 -77.048133850098 -291.394042968750 1.762229204178
-23.221311569214 -75.602378845215 -294.715576171875 4.295852184296
-2.823761940002 -74.985282897949 -292.372680664063 0.849880874157
-155.028747558594 -74.236038208008 -296.488281250000 1.910022258759
-147.756469726563 -75.500801086426 -300.216125488281 1.036103487015
-145.345275878906 -74.602661132813 -304.235870361328 1.269792199135
-154.429199218750 -73.782142639160 -309.899291992188 2.171602249146
-60.772289276123 -72.255439758301 -57.016216278076 4.214624404907
-48.949951171875 -70.710601806641 -54.498657226563 4.463510036469
-43.585239410400 -70.746475219727 -55.707664489746 4.183739662170
-78.323051452637 -75.736106872559 -60.066398620605 2.940031290054
-32.222305297852 -73.106605529785 -61.123416900635 2.817143917084
-31.124868392944 -73.477249145508 -79.736061096191 2.007925987244
73.395118713379 -78.750434875488 -84.115524291992 3.364363193512
76.737922668457 -76.968818664551 -85.007110595703 1.299728751183
76.020690917969 -74.730964660645 -86.035049438477 2.403697967529
94.585830688477 -78.026580810547 -90.518218994141 1.981281161308
71.228683471680 -76.211395263672 -91.435028076172 2.731234788895
53.835586547852 -75.906265258789 -94.170097351074 1.392589569092
43.914638519287 -75.764434814453 -101.372505187988 2.260051965714
-68.122016906738 -75.796348571777 -103.025100708008 2.744254350662
-74.533096313477 -69.590393066406 -101.229667663574 1.677728414536
42.795173645020 -73.657981872559 -103.675895690918 1.501363039017
-85.229576110840 -75.021995544434 -109.899070739746 1.252928495407
-94.278167724609 -69.734649658203 -113.254234313965 3.563562154770
47.856021881104 -73.330291748047 -104.346900939941 3.466490983963
104.225952148438 -74.442794799805 -112.027488708496 2.688403844833
31.626676559448 -76.326782226563 -121.387756347656 0.927174329758
43.597015380859 -77.739471435547 -117.894828796387 1.591938376427
41.752925872803 -76.696479797363 -124.685791015625 0.746465802193
27.507595062256 -75.404144287109 -126.893028259277 2.799810171127
107.662651062012 -75.263557434082 -117.637512207031 2.132887840271
33.670417785645 -76.906555175781 -126.861778259277 1.798946857452
29.198120117188 -74.053619384766 -130.717025756836 1.230926156044
-45.313930511475 -71.687957763672 -144.429153442383 0.328951328993
-72.083297729492 -74.393775939941 -148.899871826172 1.388018131256
-54.663650512695 -72.468086242676 -148.999862670898 1.155094265938
-72.339103698730 -73.008377075195 -144.760711669922 1.660155296326
-42.916099548340 -74.071434020996 -149.487701416016 1.489712595940
108.050773620605 -73.916358947754 -150.836151123047 1.744039297104
-73.040428161621 -73.605064392090 -154.938735961914 1.939017176628
21.409074783325 -78.803596496582 -151.965530395508 3.183569431305
31.542593002319 -72.497184753418 -152.416076660156 1.032585859299
113.322257995605 -74.726799011230 -155.559539794922 1.702763319016
6.760690212250 -72.385154724121 -158.218368530273 2.712874650955
31.395664215088 -73.629379272461 -156.948028564453 2.248729705811
-62.312129974365 -73.694946289063 -160.862579345703 2.238101243973
-47.340267181396 -76.496894836426 -171.111953735352 4.921125888824
17.625320434570 -74.290336608887 -164.868637084961 2.191082715988
-67.302963256836 -72.020065307617 -167.603073120117 3.036873579025
-67.032119750977 -71.153671264648 -163.044891357422 1.847892045975
108.507888793945 -78.440895080566 -165.440490722656 1.768023490906
-11.126291275024 -71.106430053711 -169.145339965820 5.204731941223
-59.430511474609 -76.357032775879 -177.941009521484 1.735310435295
-30.946046829224 -73.092979431152 -173.673202514648 2.951911926270
-56.415878295898 -73.254882812500 -174.163116455078 1.708459377289
28.263608932495 -78.922035217285 -169.739059448242 2.596990585327
108.985702514648 -72.245681762695 -169.652160644531 1.729243397713
105.562026977539 -79.133804321289 -182.024536132813 1.877094268799
110.903915405273 -78.648658752441 -190.741180419922 4.546741962433
106.516532897949 -77.043342590332 -175.285049438477 2.909118652344
-58.002475738525 -74.851928710938 -191.106338500977 6.205083847046
-53.415218353271 -72.655288696289 -182.810455322266 1.858494520187
23.001569747925 -75.962493896484 -184.356338500977 1.581859111786
-52.417636871338 -69.323669433594 -188.270324707031 5.402412891388
-22.903839111328 -73.180313110352 -187.140884399414 1.873360276222
-51.572566986084 -72.663902282715 -192.874404907227 3.358233690262
-147.419769287109 -74.189186096191 -197.479904174805 1.230341792107
99.517608642578 -74.590003967285 -192.635971069336 0.962862730026
-46.723762512207 -73.551475524902 -192.538970947266 1.186486482620
-16.392248153687 -76.446067810059 -196.862182617188 0.662452518940
-139.808334350586 -73.706237792969 -202.275833129883 1.793441176414
-45.926582336426 -75.214683532715 -196.629867553711 1.304445028305
104.109466552734 -81.365524291992 -195.156341552734 4.294147491455
106.229492187500 -77.115135192871 -188.265960693359 0.456845462322
-48.132610321045 -75.925132751465 -198.868423461914 2.884614944458
-24.570466995239 -74.555458068848 -196.445724487305 1.578070282936
-150.685470581055 -78.446090698242 -202.149215698242 1.746122717857
-27.423013687134 -73.921821594238 -201.398651123047 3.129062175751
-153.989059448242 -75.223434448242 -200.465286254883 2.375085353851
-153.709793090820 -74.190559387207 -204.528869628906 1.995925903320
-142.316986083984 -73.692222595215 -203.282012939453 2.665079593658
-38.776706695557 -73.984222412109 -198.383743286133 1.623791694641
100.970176696777 -77.966354370117 -200.185501098633 0.849512100220
-39.637401580811 -73.242584228516 -201.766281127930 2.043667554855
-145.250869750977 -75.806930541992 -204.741790771484 1.204549193382
-38.964305877686 -74.327468872070 -209.257888793945 2.328514337540
-19.553548812866 -76.666824340820 -211.107086181641 1.993115305901
93.635276794434 -77.077629089355 -204.074310302734 1.229646086693
93.179161071777 -76.775756835938 -208.475265502930 1.333679556847
-29.097034454346 -75.855697631836 -217.624938964844 0.731085836887
-88.143180847168 -76.052398681641 -213.696792602539 1.592458486557
-73.298278808594 -74.817352294922 -213.304733276367 1.999036908150
-18.887681961060 -75.715827941895 -219.439331054688 1.873247981071
-150.857864379883 -70.161201477051 -215.175888061523 2.058859109879
85.763618469238 -78.496597290039 -215.444625854492 2.625013828278
87.428184509277 -74.970191955566 -220.804565429688 2.441690921783
88.224365234375 -78.071395874023 -218.779403686523 2.459316015244
-101.708549499512 -68.925689697266 -224.891967773438 1.051923394203
-148.898544311523 -74.948493957520 -226.216445922852 2.769708871841
-19.594985961914 -78.833061218262 -220.704421997070 0.449986338615
79.391914367676 -75.358009338379 -224.184936523438 0.470658987761
-147.307479858398 -78.729637145996 -228.176071166992 1.114821672440
-31.362964630127 -74.584197998047 -222.704696655273 5.055460453033
-133.318313598633 -68.992828369141 -233.577133178711 1.187182426453
-12.947681427002 -76.760025024414 -228.198547363281 1.669398069382
18.272308349609 -75.095726013184 -221.164978027344 1.133592605591
16.043172836304 -75.272087097168 -234.675201416016 1.445769309998
-156.269515991211 -76.670837402344 -236.094940185547 4.202169418335
-124.286010742188 -70.755645751953 -233.869644165039 1.503595352173
-9.024534225464 -74.855148315430 -234.256057739258 1.596057176590
0.186390995979 -73.816238403320 -239.615341186523 0.736718058586
66.972358703613 -77.869529724121 -235.721557617188 3.940770626068
69.244071960449 -75.491249084473 -236.697204589844 1.908721327782
0.035333000124 -76.395942687988 -241.628936767578 1.041895508766
18.259193420410 -75.664093017578 -238.720443725586 1.193193912506
-26.347236633301 -73.675468444824 -242.157684326172 1.433712482452
-38.800193786621 -77.117950439453 -245.308929443359 1.739811778069
-47.009098052979 -76.125671386719 -239.676712036133 2.523943185806
-40.553615570068 -76.130981445313 -243.952697753906 1.449936032295
-19.762075424194 -77.478424072266 -244.829025268555 2.559652566910
-54.884258270264 -72.346160888672 -243.077102661133 1.640551924706
3.627715110779 -75.117256164551 -245.647674560547 1.749859094620
-70.843391418457 -70.233352661133 -247.899429321289 2.080961465836
15.957468986511 -73.805419921875 -246.529541015625 1.058152318001
-147.049865722656 -75.268409729004 -250.009185791016 2.408574104309
-70.756706237793 -77.878761291504 -252.161102294922 2.479430913925
11.643136978149 -77.786750793457 -248.894805908203 2.404847383499
-164.383056640625 -72.688949584961 -252.552719116211 1.476242661476
17.156354904175 -74.845069885254 -250.954025268555 2.230905294418
-82.652336120605 -75.629104614258 -253.958908081055 0.977126359940
-74.796905517578 -72.373237609863 -252.757781982422 0.517906665802
22.152917861938 -75.719245910645 -257.552124023438 0.689293205738
-88.870010375977 -72.627708435059 -257.730194091797 1.173638701439
-129.283279418945 -74.261703491211 -257.551391601563 2.366953611374
-136.791122436523 -74.211891174316 -259.800750732422 1.814990520477
-134.423736572266 -74.155250549316 -260.322326660156 1.007086753845
-144.966567993164 -71.391181945801 -261.647003173828 2.684931755066
-140.739349365234 -75.333610534668 -259.234130859375 0.383620709181
-136.435180664063 -71.905067443848 -264.675048828125 1.767406702042
-159.937896728516 -73.691909790039 -261.310852050781 1.903745889664
-127.689147949219 -70.518600463867 -266.033020019531 1.676300883293
-134.817672729492 -71.842262268066 -261.764190673828 1.635000705719
-163.877395629883 -75.020004272461 -267.769104003906 1.360210180283
-156.468032836914 -72.817657470703 -265.922271728516 1.808703780174
-150.555587768555 -72.593658447266 -268.239501953125 2.015174865723
-146.623931884766 -76.417968750000 -267.292510986328 2.455498695374
14.330274581909 -82.401344299316 -280.973083496094 4.244534969330
-164.909545898438 -74.941795349121 -270.774383544922 2.087910652161
-154.380966186523 -70.543144226074 -277.700744628906 2.772439241409
-6.342033863068 -77.004440307617 -276.359832763672 1.890653133392
-160.758163452148 -73.076316833496 -270.081878662109 4.127624511719
13.929268836975 -79.886886596680 -280.933349609375 2.301432609558
-152.692611694336 -72.504898071289 -284.935272216797 2.301870107651
-161.482742309570 -71.250946044922 -292.294738769531 1.352463245392
-153.102020263672 -71.016250610352 -284.458557128906 1.195592641830
-167.856018066406 -68.481468200684 -285.412658691406 2.428117752075
2.504046916962 -75.011123657227 -289.137573242188 1.524131178856
9.570596694946 -79.637931823730 -284.218444824219 2.604845285416
-97.210426330566 -69.636817932129 -288.694183349609 2.106441736221
-151.474609375000 -74.260231018066 -290.380187988281 1.033396124840
-148.365631103516 -73.735023498535 -287.276458740234 0.949472844601
-110.240592956543 -71.560272216797 -292.351837158203 2.545643568039
-150.278137207031 -72.318595886230 -292.991027832031 3.785149097443
-149.299514770508 -72.525474548340 -295.044799804688 4.028140068054
-68.107543945313 -74.141365051270 -291.959411621094 1.352015256882
-162.119338989258 -75.148788452148 -294.257324218750 3.476586818695
-122.176414489746 -74.947357177734 -291.333923339844 1.336393356323
-43.375370025635 -78.267921447754 -292.657440185547 2.962615489960
-154.131118774414 -71.512588500977 -293.934844970703 2.322465896606
-139.623184204102 -72.685279846191 -294.130981445313 2.703702926636
-17.599082946777 -77.232887268066 -293.229522705078 2.225119352341
-126.289390563965 -72.729667663574 -298.698516845703 3.994528532028
3.329096078873 -76.189765930176 -292.502716064453 1.255106925964
13.055066108704 -77.467384338379 -291.351928710938 1.732588291168
-133.337066650391 -73.269226074219 -296.791412353516 2.663445234299
-145.334182739258 -72.193450927734 -297.069580078125 1.045415997505
-155.766433715820 -71.139877319336 -312.017242431641 0.966740727425
-74.194953918457 -70.468124389648 -51.773326873779 1.414955854416
-26.593248367310 -71.482559204102 -62.188709259033 3.052247762680
-24.410652160645 -73.349449157715 -66.481773376465 3.068280935287
72.569442749023 -73.382728576660 -73.906341552734 1.952638626099
88.857383728027 -74.404579162598 -75.690307617188 1.602283239365
-39.592922210693 -68.973487854004 -79.581298828125 3.027610778809
75.877960205078 -75.857711791992 -76.073226928711 2.114858627319
85.562187194824 -77.868835449219 -80.368515014648 2.076201200485
69.592109680176 -74.117721557617 -81.026062011719 1.560322403908
68.070022583008 -72.984115600586 -87.994461059570 1.771186947823
-49.078536987305 -75.606414794922 -87.319114685059 1.501341700554
-95.429481506348 -71.004890441895 -91.039825439453 1.539970993996
56.110088348389 -75.410209655762 -92.740814208984 1.999342322350
46.670379638672 -75.389167785645 -97.385086059570 1.813048601151
94.161918640137 -72.351554870605 -97.030654907227 2.794966220856
-96.161384582520 -69.528800964355 -104.890647888184 2.181315660477
82.702484130859 -74.550743103027 -96.608451843262 1.483488917351
78.185813903809 -74.471588134766 -99.305557250977 1.852868556976
89.302566528320 -75.648040771484 -96.379745483398 0.729856371880
80.491638183594 -71.536285400391 -102.498939514160 1.754474997520
89.247032165527 -74.728469848633 -99.444404602051 0.368059128523
-84.471092224121 -76.283065795898 -103.722335815430 3.890965700150
39.041465759277 -77.386901855469 -110.642814636230 0.807314097881
102.757843017578 -75.722259521484 -111.958549499512 4.071120262146
109.948150634766 -72.634010314941 -109.913879394531 1.734003543854
44.323814392090 -73.869552612305 -117.395889282227 1.968443870544
107.503112792969 -72.881256103516 -124.178230285645 2.623234272003
113.400421142578 -76.936454772949 -134.789276123047 0.852588474751
-53.810043334961 -71.795700073242 -133.273803710938 1.006008028984
27.603422164917 -74.865425109863 -133.790222167969 2.384852409363
34.393711090088 -77.338157653809 -130.323989868164 2.200543880463
21.766342163086 -71.801445007324 -143.814132690430 2.624459981918
112.436347961426 -75.136901855469 -138.840881347656 1.426657557487
109.602272033691 -75.917190551758 -133.797592163086 1.346622109413
-75.589179992676 -73.936477661133 -150.411865234375 2.872668504715
-48.494655609131 -74.629547119141 -149.280273437500 2.567191362381
-73.927772521973 -70.767341613770 -150.688415527344 1.494736313820
19.348236083984 -76.064315795898 -152.851867675781 2.924734115601
110.700103759766 -74.584831237793 -153.000411987305 1.860199809074
-55.722251892090 -73.368286132813 -152.613937377930 2.612420320511
-71.642387390137 -71.725257873535 -151.000762939453 1.565794110298
-41.369518280029 -77.088241577148 -156.821563720703 1.827359795570
34.285388946533 -73.572738647461 -151.396072387695 1.260951876640
108.993591308594 -76.379684448242 -154.900512695313 3.029823064804
114.757934570313 -76.679222106934 -157.138015747070 1.833825469017
-70.174774169922 -71.972557067871 -153.812377929688 1.369692564011
-72.795875549316 -73.595428466797 -165.143981933594 4.794114589691
19.067123413086 -77.231224060059 -163.530548095703 3.271086215973
-59.474769592285 -74.992179870605 -165.277832031250 0.921853721142
-32.927436828613 -79.188392639160 -163.870941162109 1.778977632523
5.764738082886 -72.964813232422 -164.409866333008 1.855922818184
110.180366516113 -77.434173583984 -164.574890136719 1.317282557487
4.248534202576 -73.905403137207 -166.040847778320 1.722546577454
-37.181457519531 -74.332641601563 -167.724502563477 3.658860921860
-1.728183031082 -72.199760437012 -166.365554809570 1.772122621536
104.878395080566 -74.671051025391 -173.120468139648 2.167978763580
-42.659545898438 -68.781028747559 -174.003936767578 3.875644207001
27.805385589600 -71.784561157227 -170.207855224609 1.688506960869
110.665512084961 -74.325057983398 -171.225173950195 1.775536537170
-54.677124023438 -72.367202758789 -180.196243286133 2.106958866119
-29.689849853516 -75.327217102051 -172.328628540039 1.056163787842
100.257316589355 -77.454032897949 -173.862152099609 6.076985836029
30.356441497803 -76.451911926270 -173.010574340820 1.915580987930
113.452491760254 -74.261749267578 -175.335769653320 0.986446857452
-39.142375946045 -75.165061950684 -174.404891967773 1.204318165779
105.494506835938 -74.411445617676 -180.666641235352 1.172943711281
-59.450687408447 -72.836509704590 -179.621078491211 2.808429956436
-25.607595443726 -74.189239501953 -178.748565673828 1.440389275551
-144.629837036133 -71.290893554688 -184.255218505859 3.134279012680
-55.626625061035 -73.142768859863 -185.992065429688 2.806035518646
-147.738037109375 -70.623458862305 -187.167724609375 2.152929782867
-33.472152709961 -73.064018249512 -188.300582885742 1.835399508476
20.976860046387 -73.981575012207 -187.592269897461 2.924463510513
108.930938720703 -72.843658447266 -181.976577758789 1.333900690079
-31.227598190308 -74.187683105469 -190.828613281250 2.557109594345
11.954796791077 -75.887931823730 -192.681213378906 1.667756795883
16.828445434570 -74.636772155762 -200.299728393555 2.255282163620
-149.092147827148 -69.809516906738 -195.506546020508 2.839760541916
101.549873352051 -78.229125976563 -196.848648071289 0.605683445930
-19.386835098267 -71.118507385254 -195.310089111328 1.752092003822
103.606285095215 -72.675842285156 -191.054550170898 0.923474729061
14.450857162476 -73.433280944824 -189.790618896484 0.308578252792
-131.841918945313 -71.087654113770 -204.057998657227 0.639517486095
-143.851364135742 -70.902908325195 -200.904342651367 2.752221107483
94.620460510254 -71.355178833008 -199.966705322266 2.230519294739
-12.603564262390 -74.029891967773 -201.741485595703 1.962515473366
-16.340654373169 -76.139167785645 -199.264328002930 1.651402235031
10.544246673584 -75.035133361816 -205.717010498047 1.987431883812
-148.672042846680 -70.297477722168 -208.555313110352 3.559699058533
-147.616195678711 -73.020179748535 -208.864608764648 2.676404237747
99.057350158691 -79.351760864258 -204.596298217773 2.596691608429
-76.706558227539 -74.058044433594 -211.676086425781 0.786082863808
-37.593193054199 -71.902236938477 -203.584533691406 2.059921264648
18.687074661255 -74.040130615234 -211.303451538086 1.071244835854
-25.213611602783 -76.128280639648 -211.638504028320 1.038853406906
-79.366889953613 -71.376052856445 -214.559295654297 2.985606670380
91.677581787109 -75.046211242676 -208.454986572266 1.518901228905
-82.726699829102 -70.107009887695 -216.045196533203 2.899978637695
-147.685729980469 -72.808387756348 -221.050399780273 2.166767358780
-79.521217346191 -74.539543151855 -217.542358398438 1.954737663269
-16.405872344971 -74.022033691406 -213.801788330078 0.880596399307
-22.277509689331 -74.805809020996 -218.599258422852 1.620762705803
20.930870056152 -72.835403442383 -211.956466674805 2.007176160812
-6.360527038574 -73.414192199707 -214.141998291016 0.965429961681
-84.113594055176 -72.182991027832 -220.971115112305 4.199898719788
90.719230651855 -75.793121337891 -214.261627197266 1.264254212379
-95.485534667969 -74.012863159180 -216.836791992188 1.211428046227
-147.720520019531 -77.012809753418 -226.722976684570 1.885949373245
-15.330528259277 -75.005775451660 -220.500152587891 1.758094906807
15.676428794861 -74.346466064453 -216.770202636719 1.029873490334
-103.724731445313 -71.108482360840 -221.429824829102 1.461378455162
8.145103454590 -76.088470458984 -220.788925170898 1.516927957535
-26.251117706299 -76.210647583008 -217.346282958984 1.104133486748
82.453330993652 -77.160820007324 -224.277755737305 2.357847929001
-146.767578125000 -71.570411682129 -223.078109741211 2.472643136978
6.203193187714 -71.979736328125 -226.826889038086 1.071462392807
-7.802024841309 -75.242477416992 -222.694671630859 2.128201961517
16.454673767090 -71.431320190430 -221.622726440430 1.186722040176
84.049758911133 -73.924446105957 -225.095352172852 1.241784930229
-13.439881324768 -74.673500061035 -227.718948364258 0.943912148476
-130.263977050781 -74.538764953613 -229.650177001953 1.737512111664
-9.555422782898 -77.476783752441 -226.104385375977 2.183692932129
16.514831542969 -74.609275817871 -234.999877929688 1.089573979378
-126.224533081055 -71.665420532227 -226.624572753906 2.390043258667
-150.206314086914 -72.261070251465 -231.429412841797 1.687633514404
-140.679519653320 -72.154495239258 -231.221038818359 1.138410329819
-133.017013549805 -71.533042907715 -231.916732788086 1.863846421242
-12.856261253357 -73.949440002441 -228.136459350586 0.625584006310
71.204658508301 -75.129295349121 -230.037292480469 1.493647575378
-141.764480590820 -72.426734924316 -236.927658081055 3.090147256851
72.472427368164 -74.722335815430 -228.162292480469 1.211830735207
-17.300056457520 -76.169746398926 -227.428222656250 1.873730421066
-142.601776123047 -76.985076904297 -234.018768310547 1.983993530273
77.067512512207 -78.098960876465 -231.665573120117 3.375637054443
11.958627700806 -77.809127807617 -237.094757080078 2.675084829330
-143.167968750000 -71.676712036133 -238.191955566406 2.575735092163
-150.165618896484 -72.023101806641 -238.833068847656 3.938961982727
13.297644615173 -71.061332702637 -234.935913085938 1.053747534752
-2.947318077087 -74.910881042480 -238.658340454102 1.940866827965
-24.346261978149 -72.523071289063 -242.981582641602 1.805117130280
-4.218824863434 -73.289161682129 -241.075775146484 0.381747066975
-162.120086669922 -72.558891296387 -239.559600830078 1.029652476311
10.043431282043 -74.997909545898 -246.148483276367 1.800273776054
-164.252044677734 -70.461570739746 -237.611434936523 2.851951599121
-16.477115631104 -73.831794738770 -235.396438598633 1.861564159393
66.968742370605 -76.568511962891 -239.504257202148 2.881265401840
-9.929375648499 -73.477821350098 -242.010116577148 2.209288120270
-25.793478012085 -73.689445495605 -240.585647583008 1.346296668053
-26.543169021606 -72.015541076660 -242.824615478516 2.371066093445
-15.633820533752 -71.989768981934 -245.571426391602 3.280622482300
-144.766647338867 -70.763122558594 -237.883468627930 2.301395654678
8.741054534912 -76.562240600586 -244.646972656250 0.679394125938
64.492103576660 -77.466972351074 -241.359680175781 3.429444789886
11.860926628113 -75.199645996094 -245.071472167969 0.619242548943
-162.379516601563 -70.563514709473 -242.150619506836 2.609623908997
-48.334609985352 -75.299919128418 -245.642730712891 1.413806200027
4.434000015259 -79.013206481934 -248.529312133789 2.297513246536
17.019420623779 -71.356369018555 -249.492706298828 2.079438447952
-57.347957611084 -72.917091369629 -250.748260498047 2.709868431091
-3.986840009689 -73.499458312988 -244.592437744141 1.669721007347
20.688875198364 -76.841369628906 -250.431823730469 2.608525514603
-165.787109375000 -71.312980651855 -249.248382568359 2.140676021576
-71.888381958008 -75.590034484863 -252.726654052734 2.473049163818
