# This PCD file was generated using the MATLAB® pcwrite function
# from Computer Vision Toolbox®.
# .PCD v.7 - Point Cloud Data file format
VERSION .7
FIELDS x y z
SIZE 4 4 4
TYPE F F F
COUNT 1 1 1
WIDTH 1431
HEIGHT 1
VIEWPOINT 0 0 0 1 0 0 0
POINTS 1431
DATA ascii
-69.893097 9.573277 -20.770544
-71.605736 66.347015 -57.745014
-70.548004 -32.537193 -54.437748
-66.206184 -35.801754 -53.890854
-68.833885 -27.428301 -60.061752
-71.607330 -22.979776 -59.935249
-74.066277 -39.887703 -62.775032
-71.881920 143.601486 -58.464626
-74.810555 -21.262182 -65.495140
-68.580750 87.389938 -69.678703
-72.625328 -51.045452 -76.138664
-69.031151 -9.652471 -77.764114
-71.275536 -58.577915 -89.008667
-74.051674 -54.220516 -91.262833
-68.170959 -19.136471 -89.905373
-75.782608 129.605484 -85.808113
-71.977303 -1.514703 -90.088715
-68.671318 -54.073254 -92.522125
-74.626442 3.817392 -98.257393
-70.721581 -29.004637 -93.441559
-70.926590 8.993896 -96.220482
-72.563240 -57.171741 -93.961983
-69.846062 2.341032 -98.168968
-73.028534 -60.568806 -105.587036
-69.245453 -61.395580 -106.863434
-71.503983 128.597916 -102.150703
-71.157486 134.386322 -105.629585
-72.564796 5.065056 -112.066437
-71.459435 -61.310474 -109.560669
-69.969765 -64.467636 -114.756126
-73.256287 133.998871 -116.639885
-71.902954 -55.193157 -115.509048
-72.401642 109.179062 -124.252396
-70.470856 137.286011 -116.558907
-66.599976 124.810684 -118.977890
-69.399345 107.773415 -115.630791
-69.071617 20.214205 -119.501846
-69.207748 12.563860 -119.595673
-67.544250 125.333191 -127.038391
-70.552040 19.635439 -120.705322
-68.638977 -56.708809 -129.856705
-66.812416 95.509239 -136.661911
-63.708935 25.547462 -140.512146
-70.940933 -63.016357 -134.840866
-69.406113 14.694909 -134.145340
-70.427475 -63.274216 -132.632950
-70.785042 103.934631 -137.705963
-73.625725 118.819038 -137.775253
-74.759705 98.809875 -145.027756
-71.638237 91.398224 -157.788269
-71.209419 43.221539 -148.448685
-71.163300 -62.315132 -145.520020
-71.212700 -57.946827 -147.736237
-67.523415 40.471001 -149.234604
-73.980103 43.302700 -151.195770
-68.541870 32.308781 -144.877029
-69.156372 24.972052 -145.012421
-71.826622 -61.519524 -156.611282
-69.253014 -57.683659 -160.034698
-68.755798 29.086658 -160.426102
-71.153473 25.877663 -154.222900
-70.810593 -63.150871 -150.654877
-71.331482 80.734795 -163.459183
-69.178360 -60.216644 -159.222366
-70.487068 28.835905 -161.612015
-70.362122 30.301115 -155.702484
-70.594040 -60.008038 -164.315384
-68.739815 23.828896 -160.593018
-68.759232 -57.841938 -170.207657
-70.079002 90.709099 -164.886902
-71.114807 20.386395 -164.456589
-69.291138 -55.551781 -172.852539
-71.519684 23.640261 -171.609268
-69.103172 202.156601 -175.867126
-68.342606 79.815361 -176.752884
-70.739830 25.258945 -172.591324
-72.813713 161.806046 -182.613892
-71.392311 161.561081 -177.063202
-68.344818 26.948523 -180.278824
-72.350281 36.347813 -173.107864
-70.555305 77.180222 -177.104767
-70.043365 80.964394 -181.830444
-71.607414 78.295357 -175.878113
-72.938400 32.413368 -168.153870
-70.191895 202.497910 -183.338867
-72.168137 192.894547 -182.936462
-73.913773 192.856628 -188.925552
-70.888535 71.935333 -180.783569
-68.820168 37.916855 -187.284439
-71.266541 -50.810459 -183.533875
-70.070641 164.221436 -186.813553
-70.690926 27.763859 -192.081421
-67.440681 66.764786 -185.838608
-68.128235 68.209389 -189.681396
-69.127052 -48.995914 -187.606247
-71.393639 39.056759 -192.965439
-69.425583 72.094200 -185.452515
-70.343987 174.621719 -192.478149
-70.156158 183.643417 -193.915527
-69.798462 165.587082 -189.422729
-70.735031 191.847504 -195.796783
-70.986412 31.590784 -187.528275
-71.630226 -48.784786 -196.718079
-67.964439 214.600204 -190.489960
-70.434418 -50.867100 -192.578110
-73.140320 67.770164 -200.539505
-70.813965 -46.498722 -199.930634
-69.354309 -40.966553 -206.761078
-72.256889 31.130222 -202.340149
-69.170418 33.386265 -199.339264
-68.765640 38.825233 -194.883728
-70.718941 62.966663 -210.135040
-68.595505 147.380005 -209.074051
-73.331451 56.001213 -205.629578
-71.296570 -39.010086 -205.522186
-71.471970 140.456467 -211.528168
-68.523186 154.620804 -207.116745
-75.351051 141.047195 -208.321121
-68.017067 -35.821358 -213.453903
-70.427414 184.680389 -215.850830
-66.995377 186.274384 -219.811340
-69.060715 166.910919 -215.514526
-68.926979 160.105835 -214.806671
-69.609200 185.655579 -213.992233
-74.515388 160.554092 -220.791275
-69.574669 164.433929 -216.252808
-70.729843 55.477432 -218.734985
-68.846878 67.272522 -215.464981
-69.854889 50.344215 -219.599609
-69.105202 60.337570 -215.235657
-69.568687 36.136036 -223.495743
-72.201653 67.159370 -217.280945
-68.922211 214.489029 -214.221375
-70.742088 52.775818 -224.360275
-69.402969 -28.664602 -217.337616
-68.848465 40.167389 -225.760696
-68.657631 57.847183 -223.789642
-69.117439 205.672424 -226.490967
-71.245430 187.857590 -222.307938
-71.420799 -13.929339 -225.011230
-70.776482 54.410156 -225.840744
-67.993088 41.139835 -224.632111
-69.802551 -23.820644 -227.451248
-71.719391 -26.523399 -223.019913
-69.590347 -18.254662 -230.575607
-71.043648 49.604389 -229.716583
-69.300636 -9.123290 -228.553955
-71.086716 69.403877 -231.083588
-68.757080 65.922867 -229.045578
-70.812584 39.811066 -230.772964
-72.012444 -17.954918 -232.638657
-66.637863 -10.825229 -228.417465
-71.206985 -1.695153 -237.658157
-71.340538 -11.570208 -235.343781
-70.113655 64.971191 -244.798492
-70.300369 137.276749 -237.887650
-69.382935 128.108749 -240.556641
-71.197563 4.161498 -241.339813
-73.927109 193.648193 -243.446152
-71.949127 14.273237 -244.438980
-70.379387 141.741058 -245.452911
-70.638008 203.878525 -242.894806
-68.801239 189.338013 -239.615326
-73.880623 2.835021 -241.927444
-68.452141 175.341141 -245.443008
-69.853790 164.610107 -248.165924
-67.254135 143.033188 -245.470627
-69.119377 60.879356 -241.294434
-69.884232 17.145533 -248.420853
-69.263191 24.391150 -248.760864
-71.409546 208.385773 -245.247955
-71.347321 165.293076 -253.525146
-68.700584 65.133736 -252.048492
-68.862991 185.050797 -254.149094
-69.962616 63.537888 -260.054352
-66.990387 215.123154 -264.565125
-68.700363 57.797169 -271.569397
-67.663544 212.267853 -279.103271
-70.314659 212.911209 -270.362244
-68.896881 193.151337 -276.066345
-72.629562 217.747681 -276.416809
-69.250534 38.142036 -279.137573
-70.036423 153.227661 -277.622406
-70.537430 135.773865 -273.085175
-70.340538 215.766510 -273.574066
-69.881302 137.457642 -282.682037
-72.785210 201.553268 -278.396423
-71.709946 128.181442 -280.370728
-72.032791 118.536491 -278.391998
-70.425468 132.415649 -282.262970
-66.429344 52.823795 -281.249237
-73.498993 132.396729 -280.979248
-69.805115 148.059692 -283.670044
-73.317657 164.330627 -282.215729
-69.912094 166.949677 -280.106415
-67.567085 182.919174 -285.446869
-70.330978 193.699783 -289.988129
-71.729332 194.578888 -301.319153
-70.505882 24.738718 -3.798508
-68.114883 17.612989 -7.337986
-70.155075 20.112890 -10.243907
-69.907921 4.570971 -9.677470
-72.622292 22.869532 -20.795435
-67.317856 123.870506 -38.359184
-68.311745 -38.824280 -51.788200
-73.351227 63.783661 -55.641502
-65.203339 -49.450218 -63.047230
-74.026085 -47.504372 -67.337395
-72.114677 -18.698320 -67.489723
-67.965309 -18.738180 -75.883995
-71.163628 93.953423 -74.536949
-70.091675 -14.187722 -78.131462
-68.413689 146.587830 -77.341240
-65.881981 99.964241 -75.721222
-76.257027 100.964859 -82.141335
-69.314674 -47.447613 -89.632370
-70.091972 -10.909614 -86.478111
-66.801155 -14.280075 -81.446220
-65.637527 147.679077 -83.273529
-69.489532 -60.900990 -87.649818
-71.590210 3.563570 -87.930107
-68.273941 -50.114231 -87.865608
-68.658562 -55.607075 -93.746201
-71.490486 -54.684116 -96.375481
-68.565498 -26.111773 -96.115601
-71.235413 -36.065884 -95.676697
-70.648994 0.228620 -99.609634
-70.908867 -63.017559 -92.542633
-66.926720 3.888399 -100.431305
-70.754669 6.754792 -91.154594
-67.995987 -61.730213 -101.317139
-68.794197 127.530823 -98.336411
-70.388130 2.680798 -102.370201
-71.560204 14.119308 -105.981514
-67.406235 -54.097267 -98.642708
-70.221939 7.469886 -101.079414
-67.178970 136.472687 -105.872200
-68.135704 145.179764 -103.159164
-71.663940 -56.061256 -112.152130
-71.434189 144.615906 -107.610222
-67.611397 10.988750 -115.102852
-68.866096 14.945974 -109.079079
-70.655312 130.218750 -115.329826
-66.847168 17.676569 -125.364586
-68.453827 -58.876198 -121.670364
-69.393677 105.047775 -122.955742
-68.427132 140.671509 -118.506119
-69.187103 10.462495 -126.600922
-63.494747 143.203339 -122.942238
-67.657906 141.606949 -130.122894
-72.246277 97.792290 -126.569023
-69.142166 119.257042 -129.040558
-67.828293 98.902672 -125.431587
-65.691238 -64.325272 -127.733002
-66.948944 121.570641 -131.751495
-66.684563 13.648420 -124.068893
-69.468803 130.039200 -127.071945
-66.331367 123.833763 -127.432877
-71.569061 140.146652 -126.578400
-71.793419 99.436592 -136.498108
-68.002815 18.744299 -133.060593
-67.778282 21.084368 -140.652924
-66.149323 32.459877 -131.235428
-69.441994 -63.771408 -136.710464
-64.652107 145.348221 -143.178970
-73.350601 33.742489 -142.922470
-68.192734 124.417892 -140.825897
-69.059578 25.737652 -139.723221
-68.913582 98.534088 -144.935028
-67.868210 41.533192 -142.023544
-67.220200 38.209511 -149.254135
-71.444237 30.769266 -157.108475
-72.290245 97.135635 -152.742905
-68.260735 90.715179 -142.930710
-69.564056 96.309090 -150.674149
-67.798798 155.669571 -161.203049
-68.449120 29.476183 -164.467758
-66.465439 89.224617 -163.617981
-69.535904 34.474869 -171.476700
-68.020897 195.865799 -163.896057
-66.875343 82.564209 -161.556564
-70.502708 203.603806 -171.502960
-66.593063 28.082657 -168.666656
-69.954582 79.359474 -164.894302
-67.851334 156.126389 -168.303543
-68.752853 158.404205 -176.029297
-68.786743 79.807465 -171.221481
-70.729607 72.271706 -175.089874
-70.726074 33.287407 -179.366989
-70.004036 33.917404 -183.012161
-68.649673 35.794945 -177.545212
-69.208809 192.343994 -176.202454
-64.489685 31.657648 -177.922089
-72.496567 39.732128 -185.800873
-65.252823 188.584595 -184.681534
-66.573883 166.508621 -184.853149
-68.497620 38.880489 -186.346939
-72.439125 163.245026 -184.930084
-68.380989 158.475922 -177.050034
-71.560722 215.630096 -187.874313
-69.387924 73.952431 -188.836212
-71.757813 33.065151 -190.052063
-71.166267 190.451706 -194.013763
-70.534981 184.344681 -197.554184
-70.984512 68.532440 -195.128448
-70.849579 62.311905 -193.237885
-66.745590 66.032234 -197.415771
-65.735634 191.531876 -199.596497
-71.325508 65.269760 -202.046494
-66.579674 62.882446 -207.751083
-67.847519 33.473904 -198.667557
-71.752068 62.032078 -204.716812
-67.899033 37.742924 -203.138733
-69.668434 58.595589 -207.505051
-72.496292 66.888489 -199.985657
-70.308479 35.353603 -215.945709
-71.836594 49.239254 -213.952530
-68.294785 37.478634 -209.899231
-69.395370 57.371811 -217.059799
-70.408928 208.538391 -214.254150
-69.903282 -32.248394 -213.047760
-69.190125 183.863007 -213.317429
-68.867226 182.702927 -216.794968
-68.730339 58.698639 -215.890579
-72.228638 40.740849 -221.178299
-70.229362 207.581635 -216.838791
-66.737350 -36.034256 -209.214996
-67.838875 53.926685 -213.978378
-69.567810 46.938187 -215.512497
-69.832344 -21.983467 -219.270233
-69.337837 50.808632 -220.976059
-69.658058 62.705082 -220.311096
-72.042229 174.293335 -221.601257
-70.574585 54.191898 -225.138260
-67.982841 44.936234 -223.489380
-69.447319 -16.491781 -226.691727
-67.383179 207.205215 -231.657303
-71.887917 62.337921 -231.447281
-70.764763 217.874084 -230.021484
-69.348991 40.007236 -229.293396
-66.151154 215.899612 -230.785690
-67.393372 213.439041 -235.935410
-66.472420 -6.346292 -237.216675
-70.473671 -15.229092 -235.680542
-69.675667 -5.524592 -233.916534
-69.428429 -1.914883 -238.814148
-64.358963 207.410294 -237.035721
-68.803047 204.465775 -238.037552
-67.179359 64.332565 -243.040787
-67.866188 203.450241 -235.045273
-74.136681 27.592033 -240.365646
-71.568840 218.256073 -244.084244
-69.572304 218.753601 -234.635086
-68.694771 129.566727 -243.021530
-71.082359 215.207062 -251.248367
-67.962700 137.835846 -244.805054
-68.394951 8.353608 -242.346527
-72.511276 28.046947 -245.890976
-67.285004 211.905304 -250.828354
-67.990250 150.879211 -245.107971
-69.378380 9.799012 -246.787781
-73.213226 150.555283 -255.091568
-63.312386 206.592010 -253.715240
-65.867165 154.543503 -251.120361
-70.337227 215.536987 -252.211227
-70.008705 163.995041 -252.342407
-70.160629 203.769104 -255.937836
-70.944122 206.354080 -252.078110
-68.104935 216.892761 -252.948883
-69.412323 212.360001 -251.721115
-68.643234 214.007278 -257.567444
-72.973755 207.581787 -257.238098
-68.781364 25.766191 -255.427750
-66.006538 201.065842 -258.441925
-70.406891 198.964706 -273.076263
-66.678596 28.588377 -266.580109
-69.473030 60.719860 -266.786560
-69.139290 177.398697 -271.395142
-70.875412 187.039719 -274.425751
-66.188049 187.375366 -277.397400
-71.771027 175.072906 -275.473541
-66.289574 169.594635 -276.263947
-66.260185 155.135300 -275.222931
-72.137642 41.987137 -281.137695
-67.720451 137.302094 -279.729523
-68.841759 197.312881 -280.882660
-68.940620 151.350616 -281.414612
-71.812668 175.698685 -280.249878
-71.133247 39.941147 -279.302124
-66.609924 161.015686 -277.592438
-67.119690 50.288757 -282.453979
-68.333199 190.276016 -281.923096
-69.066399 202.989899 -286.365570
-71.899040 210.042282 -298.837402
-71.283737 203.503922 -300.490540
-71.735611 0.013680 -16.019321
-68.472237 30.868353 -21.838400
-73.407257 15.780040 -26.531126
-65.504059 98.015625 -39.405956
-66.274139 66.252853 -49.244106
-70.087196 -44.568977 -58.652805
-69.067848 -20.678991 -57.411819
-72.266693 72.066345 -62.823944
-74.544991 147.464462 -74.587616
-70.249954 96.003151 -67.413765
-72.670242 -18.397217 -73.757042
-65.778114 -10.511684 -79.638329
-70.921082 -6.280341 -76.072235
-68.546066 108.788193 -79.229210
-67.007187 -16.233156 -76.858406
-71.228806 5.945972 -88.918747
-67.519737 -17.011139 -86.081467
-64.818130 115.712517 -84.370232
-68.681808 -0.885300 -85.804657
-66.986992 5.223381 -90.811607
-68.658211 -50.758694 -85.502525
-66.703011 117.640388 -89.281914
-67.071327 -60.239868 -91.227135
-68.007660 129.848053 -92.562477
-71.554268 -3.309531 -93.484123
-67.118073 2.909741 -89.643303
-72.419502 -42.723244 -89.352638
-66.642105 -37.390118 -100.165405
-64.431053 -1.626152 -95.503120
-69.883347 127.102379 -99.225685
-69.769089 127.620903 -101.824669
-70.994171 128.506683 -108.614304
-71.322502 140.598801 -112.481407
-70.223892 -56.360207 -101.598907
-71.978966 134.391235 -111.469604
-65.455711 129.479965 -107.674255
-68.189430 -59.548096 -105.381630
-62.521076 112.901169 -105.218063
-69.320549 -64.220970 -124.579361
-68.612480 -59.907848 -120.696045
-70.624626 -57.379265 -114.945412
-68.879677 141.613297 -129.264389
-66.046265 99.376038 -131.539780
-71.837929 124.652252 -133.284866
-68.728844 118.417709 -139.283920
-64.582336 124.965004 -135.409164
-67.596771 105.647217 -133.046997
-67.349792 95.833519 -141.532379
-72.479866 30.976681 -134.966034
-67.916832 142.133301 -132.091858
-69.022003 93.211983 -137.541733
-66.364067 102.238747 -133.622604
-68.673080 90.476807 -144.218094
-69.896362 19.274252 -155.608765
-68.305771 99.620377 -141.540329
-71.057869 145.801117 -137.135605
-71.070862 89.195839 -147.256775
-68.342834 19.924196 -144.393021
-64.513649 153.421295 -156.323792
-68.014427 28.216661 -148.997025
-69.230194 155.081573 -158.578949
-68.997765 150.721436 -153.292664
-67.662201 29.497091 -153.720383
-66.889755 23.566975 -157.867752
-72.116295 153.727509 -166.162979
-69.401749 189.510635 -163.709793
-65.864197 74.100113 -177.823593
-68.261765 74.978844 -173.248337
-70.679314 162.271927 -178.495697
-64.897789 192.237442 -177.314194
-64.977913 155.446350 -169.995529
-70.722992 202.705795 -183.135712
-69.128914 181.720291 -187.564484
-67.790504 183.751816 -187.641769
-66.441368 67.274178 -182.057236
-66.021507 174.355972 -186.445480
-69.881752 166.450302 -184.431778
-70.559669 71.533493 -189.452377
-67.284401 200.529068 -189.973145
-71.261055 181.532730 -193.988419
-67.836098 173.540787 -193.956543
-66.651840 32.314106 -194.950089
-66.865051 208.950150 -196.656219
-66.236656 43.972919 -201.186218
-67.146141 37.718407 -205.194717
-64.922287 71.393852 -194.539948
-68.504745 55.664856 -205.645660
-70.934151 217.144684 -197.591599
-68.244743 207.538254 -200.840378
-69.085815 145.095474 -206.825287
-64.992653 149.255356 -216.663574
-66.752960 213.371292 -214.309967
-72.139320 151.999954 -207.919571
-67.064186 58.662804 -207.239365
-69.846832 174.303955 -215.158081
-70.728760 188.730927 -215.309769
-67.584312 52.843811 -213.692215
-67.703003 183.218643 -214.585083
-69.126564 171.875290 -217.750168
-67.337334 162.624664 -219.126480
-71.097290 48.240204 -212.212860
-69.320091 158.351074 -216.885681
-68.797890 207.767059 -209.713593
-65.588486 197.027512 -217.879105
-66.691750 217.098450 -214.098389
-70.774193 55.312458 -216.336945
-67.212273 60.385338 -221.830673
-68.270958 -29.382233 -218.799194
-70.074478 47.067810 -222.656586
-68.265953 195.287415 -223.396362
-69.180725 63.966301 -217.032486
-68.502220 -25.243822 -219.537506
-69.396851 -25.622301 -223.588058
-67.666855 183.798874 -222.190948
-65.252129 208.987778 -221.890945
-68.002907 164.454224 -221.416885
-67.948074 174.964142 -221.420685
-65.751221 215.522446 -223.937378
-68.779091 208.196213 -227.094772
-70.637291 192.429031 -222.274841
-73.501259 57.745041 -224.181595
-70.091270 56.403782 -226.870209
-65.997055 214.069092 -227.782074
-69.185295 42.875675 -229.842667
-70.819115 46.109875 -225.921097
-66.418343 209.071182 -231.035980
-67.089005 32.982552 -237.452286
-69.172379 0.530335 -235.641037
-70.303406 -4.199192 -238.420807
-71.148956 64.335190 -236.797684
-68.648247 1.321407 -238.379532
-65.591187 211.857361 -239.085083
-64.106140 211.194550 -239.463745
-68.853844 208.892090 -243.640579
-67.467728 -4.992716 -239.875610
-70.388329 139.624130 -242.074722
-67.897987 176.210388 -242.468094
-69.765762 153.578995 -248.240814
-71.901070 21.071339 -250.075806
-70.586998 6.868574 -239.120392
-66.731644 150.633728 -244.081558
-66.201004 140.820389 -242.543991
-68.394447 6.486145 -246.478302
-70.116974 6.545187 -244.944855
-68.561218 205.027710 -251.868271
-70.876701 18.201925 -248.340179
-71.571106 192.884384 -253.702194
-66.051544 165.186371 -252.401031
-71.691185 184.487503 -250.488113
-66.780716 21.563623 -251.532150
-67.355034 174.986023 -254.359848
-68.547508 58.520336 -249.665894
-72.211342 26.747662 -262.246246
-65.288719 56.674244 -261.659180
-70.111748 30.184000 -270.522156
-69.473778 201.476563 -274.768433
-70.203651 60.312904 -268.504486
-69.551773 202.692200 -274.987518
-64.809273 176.020859 -277.921509
-75.239235 205.724030 -279.673584
-69.068085 164.054459 -276.948334
-66.282356 157.036102 -279.342834
-67.799606 55.839733 -275.836548
-66.779427 158.038757 -282.341125
-67.528450 162.789795 -277.544403
-70.957710 167.022034 -279.347717
-69.321213 186.240265 -280.354553
-70.645615 174.048141 -279.104675
-70.915024 205.633652 -283.619690
-69.912773 194.190445 -282.001587
-72.633698 203.765106 -287.884186
-67.811905 203.339188 -300.737579
-72.312210 205.377930 -288.524078
-65.224106 194.620255 -301.769348
-65.156075 202.302094 -305.440735
-70.714760 10.612885 -0.879415
-67.651085 6.499834 -7.220938
-65.290283 21.835758 -17.127846
-68.948135 -2.459969 -19.104424
-71.940567 19.823250 -24.671518
-72.799179 12.268449 -25.806601
-66.351517 109.346039 -33.068542
-72.104477 -37.339237 -50.905735
-66.723030 -28.138443 -56.026714
-66.294434 142.017990 -52.570141
-67.773849 58.774887 -52.626678
-70.298866 144.434906 -56.890526
-68.617050 -49.109863 -62.565750
-63.666004 64.572006 -58.065754
-69.549965 -14.480960 -66.387230
-74.946945 90.789841 -66.932732
-71.101112 75.570839 -67.255516
-70.019707 -6.986156 -71.497284
-75.709167 93.867065 -76.167641
-66.493973 -14.541490 -70.836014
-70.820114 -2.157987 -79.817421
-67.832253 -0.382802 -80.353088
-70.538620 -12.879486 -85.634727
-70.618088 -8.640413 -81.803024
-69.495621 -50.716961 -84.232483
-66.290901 -53.172092 -83.422623
-68.632439 -7.613463 -89.243111
-65.342346 -54.611858 -85.805771
-69.680710 124.338814 -88.895195
-67.571510 122.891701 -90.888435
-67.494911 -51.228176 -86.649117
-68.122276 -3.461238 -91.104828
-68.819016 -23.366741 -91.789970
-66.047623 126.232262 -94.768867
-68.044525 135.224915 -94.860023
-72.083069 -45.059826 -98.532616
-69.413597 4.953276 -98.325691
-65.236565 -51.103264 -91.264488
-65.807678 5.692976 -105.053688
-66.287903 -61.635784 -96.598007
-64.967339 131.521271 -99.813583
-68.968353 -57.081768 -95.789505
-64.981972 136.450333 -108.736816
-68.682617 107.935837 -119.755051
-67.779732 102.473038 -116.617561
-65.402245 125.039207 -120.310822
-67.871132 101.931801 -120.490379
-68.372063 136.068100 -121.047607
-67.303146 125.322510 -122.006065
-64.415405 135.255493 -118.954475
-71.454338 109.769249 -131.937912
-64.866959 124.204247 -130.006210
-67.167152 106.030655 -132.112656
-66.403488 112.254814 -129.166931
-72.743103 29.655336 -128.690277
-67.319382 138.181351 -135.134384
-68.785728 99.768906 -136.535294
-62.930035 149.501694 -139.049072
-68.424049 146.874603 -139.656647
-66.364632 33.909096 -143.549057
-67.407486 38.295498 -147.021790
-65.882339 148.347443 -150.051392
-67.464905 148.627213 -148.809570
-65.821999 150.383362 -158.546219
-67.634705 27.980078 -158.972656
-69.324318 159.314758 -161.501297
-65.049026 28.022842 -158.234634
-67.364708 197.640686 -166.354446
-67.530495 32.044399 -166.230133
-66.222343 27.354567 -176.332748
-65.883759 202.355148 -176.551132
-67.013466 25.731661 -170.432983
-66.535957 32.232822 -164.663116
-71.235527 188.201157 -179.585007
-67.400513 202.262787 -176.337051
-66.714630 28.853231 -180.377167
-66.084518 32.421925 -181.959213
-66.806976 193.924667 -184.296936
-68.431496 158.069473 -187.938919
-64.746834 30.982134 -186.931580
-66.672066 173.760361 -186.347931
-69.173080 39.328556 -190.280441
-64.260338 181.708069 -181.175964
-70.169754 201.728073 -183.259628
-66.568245 212.566833 -185.749451
-62.778267 208.796997 -190.493866
-68.054947 72.634407 -191.559570
-70.132568 214.732971 -191.700684
-69.338860 74.665367 -179.643784
-68.461502 61.482002 -190.153992
-71.461792 35.990898 -181.627411
-64.337051 213.328003 -191.306427
-64.846046 161.245209 -190.466614
-65.189041 65.431786 -193.148514
-69.433182 207.220551 -188.528381
-65.478409 35.620991 -191.400055
-69.710213 216.779114 -192.703995
-67.245392 171.564621 -194.303375
-66.643829 167.055115 -193.835205
-65.047409 172.397354 -196.277695
-69.208015 61.446774 -194.458130
-69.346085 62.994492 -197.259521
-65.908707 215.978912 -199.810074
-66.191772 209.090134 -202.676331
-66.717316 214.658844 -210.712921
-64.376793 193.495316 -206.876129
-69.554245 195.456833 -211.155075
-63.714104 54.257782 -210.906876
-65.550659 60.836342 -210.969559
-69.129242 147.734451 -209.871857
-68.606323 60.156906 -216.357697
-69.770256 216.612198 -214.752258
-63.000397 162.331833 -219.170380
-65.314453 49.797710 -217.664474
-67.168686 45.109718 -221.266739
-68.916763 162.764633 -221.147293
-66.966904 48.842361 -222.639633
-68.103172 165.704086 -222.966064
-67.367676 54.628643 -223.657486
-66.042320 53.048473 -224.434677
-69.705521 52.044464 -224.618286
-66.021103 -19.980753 -223.568344
-67.092659 62.754440 -228.754547
-63.238174 44.886150 -229.767609
-66.393822 36.888840 -231.248993
-67.064240 43.778969 -230.640945
-64.879265 50.896656 -231.602356
-68.728935 -14.200565 -223.498703
-68.449883 -18.486412 -226.010300
-70.985435 41.548332 -233.241959
-70.314674 -7.113505 -233.351822
-68.985466 -6.699482 -233.781067
-67.436836 5.613989 -233.756729
-66.714020 10.891416 -237.757904
-67.023994 13.064276 -241.981003
-65.028671 187.804352 -240.531601
-65.515610 59.008625 -242.791473
-65.011261 24.146616 -246.760147
-70.165565 -1.223669 -240.665436
-64.765839 24.005981 -247.398605
-68.698433 152.302185 -249.491486
-69.182076 16.387831 -247.615036
-65.245575 201.834412 -250.145844
-66.480240 164.521149 -250.888458
-69.990952 156.508728 -247.379486
-63.901196 56.081665 -251.886475
-70.780472 197.434189 -248.126816
-63.362640 19.453682 -250.888611
-63.698742 160.994705 -247.778503
-67.844116 22.343735 -253.427811
-65.284111 188.443588 -252.875595
-66.259529 169.884750 -250.793045
-68.749138 159.043823 -249.723053
-63.958218 166.068100 -257.737976
-69.941216 182.888153 -253.745010
-66.198830 20.196541 -252.595520
-66.623169 167.156601 -252.636536
-69.085579 193.699677 -253.852661
-66.718498 54.923416 -259.644958
-67.290108 200.561890 -273.681946
-68.125816 62.016575 -272.497986
-66.256744 52.546547 -274.732239
-67.713104 186.986328 -274.452393
-70.254738 177.535263 -277.936737
-68.193451 187.671188 -281.111694
-69.276382 173.389557 -281.952972
-70.553810 202.935226 -283.727570
-69.828583 202.846451 -291.410309
-69.284691 198.004303 -292.032623
-64.936836 202.935928 -293.362640
-67.757813 193.542770 -290.234650
-68.250740 200.396011 -291.715149
-65.957275 200.038498 -300.410950
-71.164909 27.091946 -19.835114
-68.071457 2.969661 -25.473753
-72.805626 20.276426 -31.844429
-71.422340 18.180067 -28.749239
-64.863472 94.489418 -32.836395
-65.660240 128.314728 -37.786846
-65.928719 -31.611889 -52.774708
-68.467392 -27.578526 -54.263668
-65.325325 -22.985523 -60.793072
-69.069138 144.696075 -64.636208
-68.954536 -51.665180 -69.321617
-62.023998 87.943237 -70.811760
-69.516335 -18.241581 -67.583305
-64.386032 96.150124 -69.025024
-68.003036 98.527321 -74.503296
-67.968399 -0.161238 -79.708427
-68.926369 -52.448513 -78.065735
-66.835556 -18.011662 -85.621826
-67.228569 -10.668870 -84.986595
-67.923889 0.723638 -88.546425
-65.754768 -5.046301 -86.545029
-66.716652 -54.837696 -87.911499
-67.701164 -19.130922 -94.130096
-63.331253 2.564185 -96.208450
-69.771667 -27.496120 -99.321159
-60.095108 -41.744049 -97.457535
-64.999275 122.617332 -93.869637
-67.843063 136.682236 -99.571106
-67.543739 131.197845 -103.525742
-65.346779 109.580627 -109.495171
-69.002441 107.284698 -116.744095
-67.077087 143.631271 -111.731056
-64.036552 125.751961 -112.557487
-69.044769 126.895523 -122.912971
-66.224991 110.167694 -117.088005
-63.816772 139.454758 -118.828659
-67.331520 140.595139 -117.777657
-70.811035 96.925232 -125.758247
-64.341599 103.611092 -127.313820
-65.752060 126.056183 -132.012039
-68.012474 102.223289 -133.444550
-65.062958 127.277618 -135.193939
-67.976295 26.985804 -127.167076
-69.000458 105.430145 -138.086716
-66.736565 104.443298 -133.197617
-67.756958 40.292564 -147.491531
-64.215263 33.503983 -141.682709
-64.559174 192.038681 -166.705246
-66.952858 159.906982 -167.314163
-67.911293 157.914230 -177.055542
-67.877480 199.526123 -184.707306
-66.292603 163.146820 -175.145370
-64.425842 203.674591 -183.069489
-65.053658 164.578522 -188.256317
-67.236534 200.194382 -187.401047
-66.236526 202.320374 -194.838455
-68.972992 197.554565 -204.377167
-68.138580 196.748611 -213.138779
-66.416039 203.440872 -214.899750
-67.052292 158.009583 -210.562027
-63.206955 151.984665 -215.501404
-64.545158 176.343445 -215.390320
-63.606369 158.382202 -218.161880
-69.749420 205.212814 -219.701630
-67.005119 50.018848 -218.125381
-64.067070 183.564911 -225.192993
-69.041817 203.513382 -223.724686
-69.421463 182.572174 -226.993469
-66.262222 59.225777 -227.662811
-67.344414 42.804470 -230.928284
-66.349922 -13.930306 -228.244431
-67.699165 32.387894 -239.791412
-68.931511 -11.056641 -235.968262
-67.234947 7.736254 -241.622131
-62.810711 -2.991199 -237.280441
-67.781830 198.730438 -242.733185
-65.819687 203.307999 -244.715881
-64.578705 7.863688 -246.986374
-68.192337 15.790429 -248.590256
-65.909103 4.907753 -238.592575
-69.284439 198.970688 -245.325516
-67.347015 182.932373 -246.439468
-64.007187 178.168808 -245.024673
-66.404915 184.729523 -245.692032
-65.000198 192.337296 -248.617645
-65.204872 175.211060 -248.548386
-66.616447 191.795990 -249.600800
-67.902718 172.314026 -253.729187
-61.702568 176.880997 -254.882324
-69.757362 175.840134 -253.873138
-68.286049 167.762665 -252.040665
-66.753128 56.112267 -255.410278
-65.138245 22.933462 -250.256134
-66.428802 197.764847 -252.010681
-64.954506 26.901655 -257.973816
-67.958885 55.981228 -257.836426
-69.251030 32.903122 -276.206787
-66.077217 192.936172 -278.881134
-63.955612 176.278427 -280.218597
-63.165359 185.100983 -277.321411
-66.255264 208.136230 -278.791260
-66.024048 175.198822 -276.457214
-64.617004 167.771744 -279.528229
-64.339813 180.146667 -285.097046
-69.786942 195.941132 -287.905579
-69.266090 20.982233 -4.152329
-74.154793 15.173508 -7.442984
-71.892906 12.564001 -4.929350
-63.624077 -0.039093 -13.637029
-68.818832 24.260336 -19.326586
-73.069931 25.393803 -25.785988
-63.845131 83.634445 -39.932636
-63.986103 134.861725 -44.237236
-66.981155 66.163834 -47.926575
-63.534687 -21.337748 -54.428265
-62.583824 -48.727184 -58.527508
-67.293755 -13.962332 -69.616737
-64.390305 -10.411477 -69.473770
-68.402328 -53.979313 -75.835609
-65.191551 113.955513 -79.102180
-66.367325 111.575974 -84.596771
-63.751659 0.021696 -83.996788
-65.494919 115.864693 -89.145645
-68.237068 120.531616 -89.269112
-60.642994 152.580734 -88.087090
-65.875099 123.699203 -89.087997
-65.363235 3.872469 -88.519241
-63.320995 120.331902 -95.084908
-67.333160 -0.308271 -90.484436
-67.875397 -47.140701 -93.393875
-66.862686 -39.132706 -98.356056
-63.827087 126.478340 -102.523560
-68.470711 130.438507 -104.752930
-66.047836 111.241280 -109.417137
-64.573311 145.757523 -107.508614
-65.234070 127.212898 -119.017487
-64.244843 144.570404 -109.741432
-64.907303 110.257629 -110.192711
-62.638187 111.856277 -106.512749
-66.037827 137.923706 -120.486153
-69.195404 110.997086 -119.308159
-64.465553 135.934570 -120.999489
-72.705818 124.871857 -122.308372
-64.108337 116.911423 -124.678360
-61.833103 110.630417 -125.151360
-65.869408 101.186966 -124.268089
-69.359657 139.953552 -122.660416
-67.257599 147.202225 -129.863602
-69.862137 136.585876 -123.000862
-68.737350 30.377369 -136.631516
-66.461235 97.010681 -134.574081
-61.523800 36.544426 -139.576736
-65.309402 149.894608 -153.695862
-66.757378 151.300644 -165.832962
-64.342476 152.150345 -159.857468
-66.475151 161.155060 -152.672791
-68.547348 153.784195 -170.994339
-65.251350 161.503662 -167.411682
-66.791954 190.579697 -175.912384
-64.052788 161.288681 -177.425980
-64.269226 186.164810 -185.742432
-68.306976 196.962433 -189.889893
-69.045616 173.465622 -187.779373
-68.539185 202.731445 -189.328247
-66.398743 197.718033 -193.742416
-66.580849 170.141556 -188.475235
-66.958298 181.625031 -191.948120
-63.691578 194.615891 -199.833755
-66.000641 182.774017 -214.633682
-62.683056 164.677444 -219.901428
-63.998127 195.318436 -219.639496
-66.718819 168.145340 -219.071838
-66.768173 163.606628 -218.081741
-63.345444 173.344208 -225.670013
-70.638718 175.903305 -224.191513
-63.758247 169.580994 -221.765488
-63.883709 48.190548 -224.020538
-67.601089 202.894409 -226.550537
-68.584686 45.057762 -221.496155
-67.245399 45.738590 -226.111481
-65.321625 50.750748 -230.699417
-64.659973 34.969730 -229.485321
-65.084335 195.381683 -223.406815
-65.982010 55.638405 -237.262955
-65.161789 27.600643 -234.236832
-62.404812 4.411614 -237.065704
-64.791306 1.424162 -237.399094
-66.650604 196.681747 -243.306671
-64.157196 55.949142 -243.638779
-68.377625 22.268925 -248.536865
-62.474327 183.366745 -245.966614
-61.178913 174.315750 -251.435150
-62.419537 176.545776 -250.385895
-64.909653 22.963787 -249.783127
-65.781662 186.500061 -250.987717
-60.995449 21.624598 -250.943665
-63.849564 19.617994 -253.128967
-69.044373 203.108276 -255.826782
-68.085724 197.198349 -279.425049
-64.034157 200.449615 -276.005035
-63.500832 196.335144 -282.166077
-63.957417 41.994766 -282.978577
-64.234200 210.611740 -283.543976
-69.074677 5.459449 -16.367371
-70.032387 14.524035 -32.169750
-62.199501 115.865364 -32.834621
-62.927963 124.643387 -34.815857
-64.762314 78.456047 -38.089657
-67.850273 71.291245 -46.212116
-59.788139 64.921417 -55.773083
-66.564339 75.005096 -57.063911
-65.114799 -14.085990 -63.358391
-61.901402 149.574966 -64.858620
-63.916367 100.164421 -74.548538
-65.502167 -4.589505 -77.147896
-61.284534 -6.735992 -79.000870
-68.087555 -15.634422 -80.324707
-62.977409 -54.802082 -81.165810
-61.943268 -4.615587 -84.388687
-67.238113 -50.628128 -86.169540
-68.423637 131.182388 -93.058136
-62.648354 146.601135 -92.368454
-64.975380 -23.769726 -97.940674
-64.736099 126.400948 -95.162064
-66.747124 124.791031 -110.383675
-65.342117 134.482834 -112.967819
-65.717712 105.229759 -117.673019
-65.028732 130.412491 -116.744026
-66.776085 109.323288 -118.744812
-69.649940 131.791931 -124.591217
-65.109283 125.372551 -122.879860
-60.037880 130.438263 -117.346672
-65.216019 136.012283 -121.763550
-66.310867 114.980408 -121.647797
-63.388020 138.930603 -126.300575
-66.068527 98.242523 -126.478203
-64.730217 106.765884 -132.875977
-64.762039 25.988577 -126.492867
-61.192703 107.136940 -125.928436
-65.468994 33.284019 -139.173294
-69.206047 29.209513 -137.779129
-64.022675 33.315510 -140.495544
-65.279961 147.177979 -134.805771
-63.222466 141.698883 -142.160248
-63.060013 144.160782 -142.451523
-66.828407 156.523346 -148.446609
-66.085472 147.611588 -147.392960
-70.292580 201.723267 -160.973587
-65.989082 202.696426 -166.599609
-68.442299 156.717911 -170.415543
-61.628746 192.126495 -169.113266
-63.304821 161.732086 -168.610931
-61.680405 202.228149 -172.621933
-63.714596 159.454498 -183.057144
-64.304649 155.612854 -179.831879
-68.016678 193.500488 -186.420532
-61.775589 183.817703 -187.932480
-62.645042 159.402496 -188.321518
-64.148964 164.775421 -186.653366
-64.583488 161.868820 -192.719574
-65.344048 164.930145 -189.957489
-63.741924 182.569763 -188.368484
-68.741600 184.899979 -192.569550
-62.807812 185.687622 -193.372101
-64.830521 173.618317 -191.042786
-62.466633 177.281006 -193.531204
-60.550282 167.511047 -194.580154
-67.145744 193.932388 -205.398300
-67.256577 197.544556 -212.280136
-62.677612 201.029922 -215.828110
-65.908134 191.589600 -217.672989
-63.450024 183.439545 -213.897095
-63.275562 170.529526 -215.868240
-64.675209 192.817795 -219.141129
-68.368645 197.264709 -218.825668
-64.385788 184.137619 -217.936874
-63.410625 182.856155 -218.086151
-66.781189 196.969894 -218.788849
-65.687775 180.816254 -218.119034
-65.062996 177.611740 -219.348480
-70.577835 57.597012 -226.634323
-63.634636 47.611359 -228.256256
-63.309448 38.084778 -228.808716
-66.376289 40.015079 -235.179718
-63.905460 56.060875 -235.640564
-66.574371 60.238964 -237.725891
-67.684975 6.528242 -241.607346
-66.886444 2.117392 -240.663925
-64.628616 193.643753 -245.486038
-63.758305 7.911143 -244.563278
-62.129539 14.384522 -244.363968
-66.658058 204.407364 -252.966293
-62.074577 200.020889 -250.564224
-71.209129 196.827011 -250.184448
-63.805882 47.240376 -255.885437
-63.668377 202.315140 -257.134583
-65.412613 49.348793 -265.244446
-63.953091 198.026184 -266.470551
-63.904690 196.629593 -274.117981
-63.941711 204.079163 -273.036682
-64.413193 198.823029 -269.265320
-65.121605 198.933105 -274.060333
-63.155441 205.174576 -276.457092
-63.099937 201.109665 -278.011414
-66.622192 200.533722 -274.746155
-64.746635 198.300613 -276.297180
-63.585403 193.089401 -278.953278
-66.913200 33.030182 -280.058716
-63.704514 201.261597 -279.657013
-65.487167 207.180466 -277.563934
-66.314224 201.590897 -276.576416
-62.215038 201.434402 -283.224365
-61.567020 198.235672 -277.767181
-64.047874 196.674545 -284.004700
-61.246738 49.696220 -283.914673
-64.004272 195.448364 -281.889465
-63.620369 196.413849 -283.032288
-59.663208 18.205564 -8.971294
-67.500443 9.828604 -10.507907
-62.754078 6.550746 -11.906703
-73.669655 29.686501 -20.342022
-63.713135 20.001207 -21.969481
-72.230087 11.263331 -21.643442
-60.713840 109.539497 -33.644749
-63.287952 99.365753 -34.480621
-63.830509 -35.812225 -51.364925
-62.011406 146.465088 -55.297260
-65.542458 -47.551334 -60.685585
-62.660889 -14.654699 -59.734264
-68.165260 -51.450947 -67.184547
-65.984039 -14.382000 -69.389862
-66.602997 91.012741 -67.409348
-61.818935 -10.579426 -72.271324
-57.157803 106.012444 -70.432060
-68.118019 -15.316261 -76.389755
-62.940426 -9.345622 -71.489021
-64.901634 149.315613 -71.847305
-64.076660 -4.884348 -78.821327
-65.493721 -1.902431 -86.005852
-64.571930 -14.264204 -82.697273
-62.694031 -2.028169 -86.626465
-62.227196 132.227295 -95.881546
-66.548859 -32.758835 -97.309891
-67.359047 131.222641 -106.701118
-63.530220 123.416107 -98.805695
-64.788704 131.807480 -110.846703
-62.863308 139.665848 -101.719902
-68.832260 141.125549 -105.818619
-66.039902 125.855888 -116.519730
-58.350410 103.746758 -118.452431
-64.126961 128.998505 -121.884941
-61.281582 103.924896 -121.718071
-63.897968 138.324677 -124.717369
-63.085842 21.064478 -127.707001
-64.864853 30.742397 -129.993500
-64.381172 144.391434 -123.180313
-61.726479 31.111811 -140.254303
-63.384247 142.168564 -136.957458
-62.812405 143.801498 -135.114563
-64.692261 36.103374 -143.140152
-63.095200 147.764252 -134.861145
-63.742935 145.024414 -138.634537
-64.185822 149.885910 -148.598022
-59.851109 150.514709 -149.934509
-61.224094 158.988434 -167.140274
-66.018082 157.734268 -162.220016
-59.017052 152.858246 -156.640808
-61.472290 154.074051 -163.347427
-64.378059 192.677109 -166.596542
-65.078255 157.021637 -169.253952
-61.187935 193.498978 -177.855087
-63.404922 200.314865 -176.064728
-67.269905 196.620682 -179.299927
-61.528736 174.677597 -184.711395
-59.872215 179.326218 -192.130875
-63.628101 174.102783 -187.177185
-67.141762 190.359680 -193.259583
-63.263084 173.716003 -196.475998
-66.397957 193.525772 -195.357239
-65.898277 199.248367 -195.477188
-62.126842 203.903625 -218.420975
-66.693520 191.492844 -224.224808
-65.177902 175.016922 -221.062912
-60.580578 203.376953 -222.219894
-66.195152 54.623676 -228.976990
-63.755531 35.208828 -228.873016
-63.170513 54.712589 -234.758789
-65.661484 196.954178 -234.291489
-64.326454 53.254238 -235.515518
-67.100128 197.374237 -246.925049
-63.423908 56.820591 -242.407562
-61.710861 202.047729 -244.329361
-69.218094 24.681646 -242.408722
-62.127224 202.933670 -242.464035
-64.093872 198.387665 -244.966415
-61.489285 203.759995 -244.548279
-62.011810 200.553940 -246.602966
-65.413597 16.169273 -246.610870
-61.200443 22.688532 -251.995956
-61.489868 194.365234 -249.336319
-63.856861 199.064453 -248.544006
-61.883347 204.664352 -253.214859
-61.322529 196.142181 -250.727997
-62.228966 24.037081 -251.753479
-63.512394 23.689577 -252.849228
-67.008141 199.375259 -254.686615
-63.354710 193.548538 -252.495728
-60.226913 200.594391 -252.457321
-61.626328 196.767319 -252.562134
-61.492260 195.081055 -257.302216
-59.093281 200.806427 -259.686859
-61.820862 199.460464 -254.298401
-62.831417 201.675095 -271.290558
-60.264702 200.520477 -272.517578
-62.302326 197.074905 -271.616333
-66.535812 30.482798 -271.834839
-63.594170 205.102478 -271.099213
-62.469788 200.838120 -273.836426
-66.446587 52.030880 -282.603912
-64.961662 44.208996 -281.630890
-66.501778 199.077927 -285.188721
-70.587479 22.704252 -12.249931
-62.107441 5.426230 -20.120354
-69.450546 1.240707 -22.421959
-64.008194 10.324645 -20.371843
-69.527000 25.354870 -28.266760
-70.012978 7.458258 -26.375725
-65.528587 -29.621944 -48.024921
-63.403584 -24.419640 -50.590546
-69.085236 65.269943 -55.613354
-59.768349 -14.784233 -60.012680
-66.813965 76.255791 -64.867027
-68.841492 83.337303 -70.026192
-63.013500 103.237129 -69.084671
-64.587051 101.628197 -68.328674
-66.477715 -15.686052 -75.455269
-64.439430 -51.224854 -77.812836
-61.497078 110.715851 -75.652023
-62.167046 -4.044725 -84.715141
-58.701141 -8.404555 -81.433365
-65.319160 -54.299194 -83.658363
-62.135864 115.292099 -88.094421
-62.202152 -5.230422 -83.812096
-60.205944 120.136330 -97.235527
-65.852882 -19.009439 -86.435722
-64.066956 -18.063061 -92.732689
-65.417694 123.393280 -96.469719
-59.740417 150.308884 -100.582092
-60.671223 122.294838 -95.873863
-63.364559 133.330139 -102.569946
-60.387630 116.929260 -105.337631
-60.908432 131.868744 -101.493240
-59.948563 128.083298 -107.625839
-63.314423 123.744301 -110.756813
-66.411949 115.157059 -112.490120
-65.727707 134.773880 -115.860596
-61.772160 17.516331 -116.939842
-60.582500 104.488136 -117.230469
-60.630352 24.173782 -120.587654
-63.723293 18.588007 -123.416321
-63.193520 15.677098 -127.871880
-64.100197 97.613724 -125.522575
-60.644920 31.058479 -136.460144
-64.947205 25.766186 -133.867599
-61.518803 195.627441 -169.415085
-62.219769 198.551819 -164.192413
-63.448349 204.411484 -168.621460
-60.320080 197.159622 -175.918015
-64.312721 200.777939 -178.880951
-66.189400 197.043945 -183.939194
-61.444588 193.979919 -183.390350
-58.132988 197.784729 -188.454300
-59.290741 174.462051 -193.199127
-63.868370 184.752640 -192.849228
-64.096397 199.010056 -201.881119
-60.627884 196.193024 -210.432114
-60.879974 203.543701 -215.776932
-60.207054 197.198792 -219.901291
-59.120548 206.344482 -216.741104
-61.487267 197.089661 -219.425064
-59.158463 202.471420 -219.892685
-59.921150 197.707581 -223.311646
-61.214161 196.121368 -222.710373
-61.348454 194.008316 -225.318893
-63.227856 203.394547 -223.792206
-61.586739 42.503708 -228.007477
-64.936714 61.064476 -231.420334
-61.560818 201.306290 -223.882919
-63.723339 201.365479 -226.752136
-64.214035 202.658447 -228.680771
-64.028877 39.023556 -235.750580
-61.648235 198.256851 -229.823288
-62.499725 197.427567 -247.324295
-63.773190 50.274082 -242.383591
-59.667957 199.168442 -242.679733
-57.179184 199.940216 -243.149933
-59.541142 195.121353 -246.673904
-62.043530 191.195145 -247.643723
-60.595131 26.350990 -252.529495
-61.793308 198.243607 -259.261841
-62.732117 27.157024 -258.681702
-67.121750 35.269398 -273.864044
-61.558956 46.959312 -280.584778
-59.226048 44.464836 -281.176392
-60.463673 20.525126 -9.648795
-72.231285 4.892367 -29.354237
-68.171997 15.845297 -30.225100
-61.850346 93.797897 -36.928040
-61.758049 142.023285 -44.881863
-61.238594 145.302689 -50.288357
-63.108173 71.181099 -55.630470
-63.299786 -53.213646 -61.521252
-57.566669 -55.509960 -67.934074
-63.642311 -55.162224 -68.115585
-62.373611 101.131302 -73.746658
-61.060112 112.476578 -74.267532
-60.041473 -7.764741 -79.651939
-60.853420 -2.788575 -83.343918
-59.207253 115.456573 -89.668274
-57.468971 151.446548 -93.690117
-67.738602 -30.250374 -96.496140
-64.476837 125.258629 -101.093170
-60.908466 113.933022 -104.938316
-60.175400 133.257202 -105.937233
-60.273804 137.146179 -99.404472
-63.079731 131.430038 -107.720306
-62.870026 121.781250 -99.654198
-64.270439 111.905197 -108.805885
-62.258141 130.336914 -105.137566
-58.640011 129.325912 -107.880066
-59.016438 114.464668 -110.581238
-61.543129 133.728592 -108.365501
-60.785484 124.989929 -112.188141
-62.033890 127.017761 -115.430923
-63.259800 128.300934 -119.065178
-61.583195 16.696321 -118.864281
-63.974102 106.065002 -120.168465
-61.597321 24.487898 -123.640198
-62.589367 29.538490 -129.851166
-59.704311 194.768082 -185.719803
-60.563023 189.118958 -189.434708
-58.065201 206.899216 -192.100037
-61.276287 198.216614 -190.351227
-65.718315 202.930832 -195.680344
-59.456364 198.582230 -191.420853
-60.866047 191.185013 -193.320221
-61.049381 200.403244 -194.547150
-60.064789 200.597244 -214.735336
-59.919884 195.544083 -214.667007
-59.223633 197.614304 -211.824600
-61.095459 194.777298 -212.719696
-62.390938 198.562927 -217.735703
-63.958843 192.497421 -213.665833
-63.741058 195.119232 -215.936646
-58.190468 194.965057 -214.984177
-61.560989 190.529541 -222.252411
-60.675842 194.994537 -221.861755
-62.072849 197.705124 -223.065094
-59.502350 197.938843 -223.511734
-62.052326 47.855450 -229.839828
-62.862469 33.715717 -230.114548
-60.384338 27.868858 -240.162979
-61.055656 23.396551 -249.625763
-59.309364 42.784195 -256.299866
-64.883163 29.274668 -267.617645
-59.979115 47.478970 -271.326385
-58.499092 46.085041 -281.245453
-63.179478 36.645596 -282.045807
-68.765854 2.259540 -9.831002
-60.836567 17.106293 -27.926512
-62.833817 80.444611 -37.263966
-58.832428 69.686584 -41.396767
-63.914753 62.624138 -43.235226
-61.802845 -45.448357 -52.560154
-57.904995 151.223785 -57.286545
-64.535194 -52.836735 -64.732651
-61.789845 -5.639598 -76.404526
-59.327133 -15.762021 -79.098877
-61.897400 116.612038 -77.816750
-64.006310 -4.044969 -83.183868
-61.369263 -14.509256 -79.925270
-61.052341 -53.433708 -87.227463
-62.260075 114.004257 -87.284431
-61.148464 116.305588 -88.604347
-57.924191 -24.144508 -98.689583
-58.703342 128.553421 -97.996490
-62.635120 109.115448 -101.054657
-61.362549 12.586593 -106.817726
-61.740379 133.813004 -114.399872
-60.791855 10.496816 -110.569160
-63.661911 140.193207 -107.395386
-63.965439 150.187408 -109.264229
-63.335407 116.617851 -110.554092
-63.760857 12.157489 -114.719711
-61.383823 112.682991 -120.425819
-59.221874 109.311539 -123.377167
-63.545666 105.326897 -129.337021
-60.643314 193.800079 -186.944626
-61.249546 194.955368 -182.005310
-59.240219 198.597214 -184.843826
-60.951958 204.043839 -186.180893
-58.640884 196.813477 -189.931473
-62.286091 192.474609 -184.620529
-58.110081 190.699173 -189.045975
-61.261505 196.872879 -190.781219
-58.631199 193.890121 -194.478439
-60.745373 203.673294 -192.476395
-58.202663 193.260696 -195.711670
-61.335712 195.317764 -198.152740
-58.515759 197.804596 -193.783844
-61.088196 199.249374 -193.937134
-58.568798 197.415329 -214.314880
-62.976555 52.884087 -228.719238
-59.091293 46.510277 -230.890472
-62.743931 34.798248 -232.046463
-61.764492 43.475010 -234.533005
-62.309601 29.266052 -237.449173
-63.376514 49.602356 -248.211823
-57.783478 42.905720 -262.614441
-59.636055 23.543482 -263.462708
-62.121277 30.620800 -272.354584
-66.832832 19.418413 0.064687
-61.817696 114.150284 -34.494328
-59.863052 87.583595 -35.015579
-61.084629 -19.165327 -51.250362
-63.747250 76.494301 -60.466255
-59.903900 86.780510 -69.702736
-60.586411 93.200218 -68.541985
-55.999123 -11.826634 -77.076637
-58.478031 -56.755394 -79.294815
-64.566635 -20.359177 -83.853600
-59.407932 120.313431 -87.250877
-62.526955 -54.680046 -90.038513
-61.312550 -48.242352 -94.817215
-58.356361 118.954208 -96.422958
-60.943573 -31.209314 -98.134499
-61.590286 -44.804802 -98.344353
-57.726238 110.281960 -103.729347
-58.436012 4.908931 -104.684402
-61.451832 114.639885 -111.679054
-63.662479 128.347092 -103.317932
-62.727345 108.247810 -108.776619
-60.258778 127.052727 -104.981377
-60.260212 14.764532 -114.659500
-64.235268 147.449570 -115.337387
-62.439445 100.970886 -118.450615
-59.784775 28.811148 -127.209366
-59.494701 40.164780 -229.924942
-57.962395 50.232922 -235.800049
-61.030964 44.818153 -276.423370
-66.172974 27.728456 -5.875621
-62.163544 13.143384 -7.057044
-62.617935 31.127298 -13.589321
-60.588215 3.667540 -15.397832
-61.942013 97.909409 -27.615967
-61.877380 63.369091 -50.855522
-60.988220 149.544098 -76.778862
-60.618938 -19.325047 -86.843277
-59.221863 -35.626003 -99.615677
-59.330460 120.037300 -106.179535
-59.916664 5.487721 -105.834068
-59.110172 127.469406 -109.252464
-62.497200 109.374428 -111.941483
-62.275505 111.834885 -122.880432
-60.714211 22.465185 -125.809723
-60.127975 54.516239 -229.915375
-62.262436 29.366213 -238.860809
-63.778622 26.022673 -260.368469
-59.417850 29.612526 -266.490692
-62.106297 32.686588 -281.204529
-65.874771 3.935434 -9.540752
-71.876770 10.679475 -34.133671
-58.132263 101.266098 -32.294979
-65.267746 133.720322 -37.933678
-63.618782 -35.016617 -49.370491
-62.104084 60.776569 -54.134357
-61.227921 -13.362610 -71.857826
-59.069996 -52.494499 -83.103256
-64.935570 123.316963 -92.408302
-60.812611 -38.817116 -98.335495
-61.151688 144.562759 -108.742714
-59.078129 116.446350 -112.027580
-63.371925 29.218693 -234.146484
-63.842609 45.095795 -248.804047
-62.220356 11.594044 -1.112690
-65.001221 7.426776 -5.661486
-58.050198 7.093692 -6.663952
-66.049294 2.155837 -22.654085
