# This PCD file was generated using the MATLAB® pcwrite function
# from Computer Vision Toolbox®.
# .PCD v.7 - Point Cloud Data file format
VERSION .7
FIELDS x y z
SIZE 8 8 8
TYPE F F F
COUNT 1 1 1
WIDTH 787
HEIGHT 1
VIEWPOINT 0 0 0 1 0 0 0
POINTS 787
DATA ascii
75.506691257181060 -71.441489777699672 -105.041683388986428
-151.240856933329809 -67.955117536941813 -258.733101880278298
-84.795986720422832 -65.216171781503164 -49.662071614885846
-145.984125916531212 -64.136174009624312 -258.569322642101099
98.660109427468598 -52.432994099956993 -65.259927238404998
88.880597988339517 -53.760450791144493 -73.339907702275667
63.410624183911423 -53.402682466395568 -99.061951225577786
28.317063799844917 -72.759752590175793 -154.876763618223265
-152.223542926308710 -80.904365800390920 -266.430380370998762
-148.615509958061239 -80.528049721572643 -271.071114522042990
-145.739536278128185 -72.574434215912575 -249.864393340831640
19.204414053070522 -73.811318478470596 -160.685352637363536
30.328611030887629 -70.870811856132335 -149.226247323523609
-163.222099744330734 -70.425980909620506 -270.509884294602216
-161.702922426025168 -70.973465877624079 -268.651747451278993
97.648439742761056 -46.688310299159511 -83.534779483809885
80.046947758456312 -47.803034260935213 -100.200395474502017
75.330231875095350 -49.646354214420334 -103.393057661462365
-124.037750504582306 -75.174435445252044 -257.828988591489349
51.585450122437116 -72.975696129500321 -104.443276873234453
-70.646340615775912 -54.281314136906417 -97.030649854020936
-91.472588184284376 -33.382342345614155 -58.734369024660040
86.946641740182770 -46.893080920554958 -91.139144778800357
72.874745389411203 -49.304530919007959 -106.593876184671089
-156.488521009680909 -75.294747492714919 -305.305437538189040
30.818437559216839 -77.641381557995089 -122.194130022082234
-33.757406538836214 -81.743708007967271 -178.193167450773728
-91.268974394595659 -79.865059686636116 -102.958043774632273
-149.379903511903223 -79.927858901577665 -294.674244832587590
-31.516345496102801 -82.257692051685524 -175.684019889349884
-141.182182480872768 -83.268934722447540 -286.127340951064980
-68.248376273208933 -82.646706828778164 -211.631239237323854
-144.837917640379857 -82.675280793695819 -291.301726563254363
-58.892814665160557 -80.593596724405842 -204.902842453444407
-55.455346745404619 -82.444290767521508 -200.729950664633805
-46.871459075564388 -80.956836371875951 -191.594488384443622
-153.267400761606979 -81.599736558244629 -298.961912186324696
-63.449819219529012 -83.911024159297540 -209.783565726979845
-151.922855259718432 -67.619070411329147 -307.441888478561793
-61.237501608829980 -35.539534226976073 -92.154323797226965
-81.606002435381043 -69.886078488199317 -102.470317237357989
-62.096553373946875 -85.065905077408530 -75.087011827673038
-45.527628536126826 -80.037225524281652 -60.436685178068757
22.071890051499324 -54.265721616480654 -33.874808512368645
-87.667879526026113 -81.979993571059651 -109.334661185133584
12.637137229270314 -82.308365891525128 -251.357350632542477
-50.330743420617260 -85.043485065581578 -75.867439858539100
-47.549870783264709 -85.020930112327761 -76.269259295063236
-136.051983278721792 -83.994880002815194 -258.838946805264300
-99.170251796177809 -41.101267132737966 -68.801180654946464
-94.782574751458583 -55.886243193934845 -55.399270522504366
-35.683268117092076 -76.949175070221585 -162.167763733711212
-17.258869461321044 -79.205923614580229 -178.558638293615104
-12.529038983310068 -78.426726788775611 -176.149120570795873
88.883015809696644 -77.290164800556113 -73.170392217690249
-132.905122253256593 -76.850824200408212 -261.179566430263719
28.063422803969225 -82.169296538806165 -138.140075399112902
-151.705224184521057 -85.674482451765655 -300.559887411369289
-10.120009707181723 -77.518185984654849 -171.774221125585200
-150.950889648424550 -78.408274047349892 -311.746796031594442
28.893373811453394 -78.662148341919362 -133.953270791405856
25.324129024224753 -77.092780377279524 -137.143645389158280
84.081844107670548 -78.388144051601671 -77.771613495574172
-5.664070060795948 -77.729885219394404 -166.113757117221354
67.994853370745588 -69.637897849005839 -71.279156375500847
92.838791269850034 -77.533896934593628 -78.700958140738450
-50.202918598575707 -81.684333370984660 -65.292592143466280
-37.664741227918590 -84.293494037566603 -77.117722060823112
-165.814036939390832 -76.158268634897567 -284.848508986282013
-137.871603594060645 -75.795388880566605 -257.199509524835889
-99.394685936076087 -75.960772573910873 -218.870919939235279
-44.139415474388137 -84.100575000399346 -74.032867494558900
-90.824177103569298 -57.263073267028844 -50.852369501655915
-57.308387843201551 -57.580704997667290 -84.175265069887232
-38.841378653075253 -77.296659786986467 -207.570331423964063
75.926821205241254 -73.679509613788696 -228.479025108325857
-6.347613944535895 -81.826678423336105 -251.188889549941337
109.190588026500166 -70.879497954655946 -124.301492867849376
-68.161802021274923 -64.271862638646667 -94.168173842805288
64.730051899187146 -62.385076116089266 -71.338041754765996
94.323917265093385 -77.068639341290819 -80.396661811659939
-38.763372292622520 -82.545019225377871 -83.673236737198252
-39.938531832827998 -77.679775713298838 -244.755101500465457
-73.737655866665179 -56.994329061311873 -102.570903327065977
-137.193378216931336 -81.484701677077865 -287.128031869823474
-73.694935708788066 -79.334447589986766 -208.292588697681850
-133.057526551557544 -77.064236631856829 -285.301368430391392
68.950761247505000 -61.676817107073610 -102.303958463316107
95.129228053009442 -51.198773073711180 -71.070906881480681
-73.337838998785543 -84.385201317691383 -77.614824823473910
22.889904159662549 -64.641270518262459 -143.999214163779214
-76.497166225975164 -84.940727349495447 -82.845132835526357
-84.614201358346435 -69.550683544190875 -106.016440471283374
56.238393067876970 -66.809393913683294 -97.710888905397454
-3.601852484669564 -52.172190308344128 -252.517163207051283
-22.253520016592411 -73.992464712656783 -290.866405918537794
-74.004683209098033 -85.453349632570379 -82.795640137442462
-74.436789806426560 -69.318724772284469 -99.467674354820218
-86.775467255037555 -69.161471368714999 -109.694811347622277
50.739977598323584 -67.031811289898897 -100.392291187193550
21.980103297548908 -53.835930476246610 -21.095093355466364
-146.095468322577432 -71.590438961562981 -267.880855094652020
-128.517204027803331 -72.717450010323518 -283.471357693467610
-157.993904221076491 -74.915420440590950 -254.507653824962574
-161.650751560190571 -75.040383239468767 -251.462703903909528
-48.235838864267940 -81.605672692832670 -86.532067582770424
-154.712354608206454 -76.114969809797074 -254.232528815398837
-125.192586324495494 -69.522960010432527 -286.683801636377780
-128.062136369534130 -66.715692145251026 -289.024965811346988
-149.126564276289827 -64.428738568400689 -272.680076995647994
-152.033998047078200 -65.364125302761778 -267.457876318454623
-91.267209884767993 -28.586154418275054 -96.287215191352104
95.033978669871658 -46.059466588566892 -61.895144973103669
-147.613465977760569 -82.816017610174939 -258.163353683133721
91.978098863275747 -78.633457719280941 -95.002266352962806
-65.997520199883809 -83.671269653971848 -99.414980827438512
-59.906139242555120 -46.091538825264770 -88.314906253410882
-47.899031190630637 -82.575027343814128 -68.729876049746906
-81.824156746698918 -32.351075029726474 -53.955245074679425
-94.039917405283404 -46.480012224927428 -54.837025611744053
-79.349050551429968 -81.603375935242980 -104.192146229438180
46.339780578776129 -71.556942126200425 -99.470198339626478
53.210129158920410 -70.060443756613054 -89.986157026194419
-33.242569608208811 -72.369016587474363 -175.258957585624557
-156.730174306858203 -75.437313348595012 -294.506771059949870
-149.703089938990047 -79.641531039367919 -305.770993917557462
-150.497147404615163 -79.278472732542042 -300.071788731133950
74.173856653905503 -72.429892016440164 -67.758881371860568
66.983343785852540 -71.251757821249612 -77.669577567672164
58.489968039209515 -72.050480555549825 -87.966243234772904
39.783095159103418 -71.408222400315594 -108.115267656230102
-34.520161994552979 -71.233167662110787 -179.356213803005005
-120.800531369652930 -70.755610276019723 -262.869922786975906
-153.748682949039335 -70.681856258627803 -296.938887904054525
79.930659863230190 -71.627712449499072 -65.311893910630687
-31.228426236196363 -70.393829142036680 -176.025645931952511
-112.599081410592476 -70.771156553297104 -256.333177065772645
-115.466857054646880 -67.995168188303992 -259.758815255721913
50.261728961118649 -69.671042324398968 -94.428199249475625
62.143408233070701 -69.219760898630653 -82.438635821338295
83.431871477054074 -68.619547118277467 -62.732620772544408
-153.376670035931397 -65.217577628470124 -285.559795131376291
-151.103417038785523 -66.029937704719998 -290.819038402805177
-147.145891673487199 -64.905349265016255 -293.273631757066823
-97.622205386236956 -58.400106628870837 -61.973009214017750
94.924323982146518 -61.288281607536959 -61.248559010027904
-15.497768305747510 -84.835512540688953 -176.454017634299305
-38.241792119768981 -82.533802902293942 -164.230536383970559
-17.767634852088925 -83.827687887844888 -182.176923947226442
45.866392105544115 -56.642975701859214 -36.525809484973436
14.778131496042528 -81.807928332142154 -217.560323692849096
-149.783003350639603 -82.672734982527160 -187.745576916396459
-38.402954516784966 -77.709524007360685 -157.835596727173424
44.758938274022597 -53.019010151244444 -31.778877871657230
-56.916484812064077 -75.852734539799172 -173.433001952590786
-12.755355503922409 -81.889194579701112 -210.470310734100678
19.369455538587822 -82.849019076326101 -244.418224420235219
-30.364629850848580 -84.471671648939903 -191.255242857043953
-2.238280201791027 -69.413712105104693 -235.260935614546923
-91.518771746931847 -69.504224247574427 -144.491458580335035
-41.759139217143158 -75.845504968397876 -200.253199814962244
-48.376658201899289 -83.190815467700588 -187.079781305770950
-42.221405223597877 -82.111655922455995 -193.237323101964648
28.402215875229565 -55.527143877841084 -19.326466451551898
25.134880226924530 -56.892931470666291 -15.149939409312562
94.139605189154778 -47.418903248524074 -90.575438870656924
-92.078750982614451 -75.537250389670604 -219.523756503037390
-40.612859909189716 -78.215085756019434 -57.427756158503385
14.413900140809629 -81.250250288931412 -251.715645353906041
-124.756262821184819 -74.233060695204330 -226.121451768757822
-148.150896523723219 -74.205930151443027 -200.585711859076270
-30.754329864831838 -81.472490804413965 -72.000478781020803
-150.194536452868732 -81.173336620826007 -192.770035534370123
-155.087421703670969 -69.152371998590709 -199.422621381344555
-129.740799047748652 -68.940973549095148 -224.046533292341564
-140.759507501470125 -65.708420212211436 -198.789509437008149
-145.797200901762551 -61.691839459651902 -198.246035961803926
-69.568336055201073 -74.154672865734170 -151.740581245709961
13.080248151457768 -85.054781018969962 -245.473805224084742
-69.392955334371919 -71.227246815493615 -150.900321669524601
-6.390598953785259 -71.259982748116443 -214.041133394874350
-72.515058824160477 -74.396315420137370 -252.060247960772955
-9.933003869820338 -82.040974445608683 -214.208372909534859
-86.212585284306556 -61.751966634604642 -116.409897682985985
-40.291470950687675 -74.124913016081891 -286.632974361664537
-21.747710640048027 -76.199979534295082 -63.632167197184856
-141.858622403469923 -71.320818522779163 -185.305209802847145
-148.196818348973267 -63.505585036535940 -183.409569526037473
-19.650309115561356 -81.130741926061930 -203.288020246983621
-149.470756826118702 -73.744232084965759 -190.586693366590168
-151.478225562561022 -83.560376225110090 -201.154577509360450
-154.507026196460572 -69.638696083061305 -192.648104405302263
-162.214336752351272 -67.838306658685966 -199.741390545966254
-147.328088143603082 -61.202109430255931 -193.827516958477048
-116.025721016958556 -73.353392145830597 -227.491307205891701
35.974912444676576 -74.395436454787315 -141.979159444994934
-50.519306495339656 -81.778952107048354 -191.994101246483638
-47.554433624216045 -82.160395960478070 -195.643301931436042
-146.359577267325562 -84.302320052003552 -202.257988893869225
-147.601982188809728 -84.697729174758663 -205.170518991991202
-33.343775547401471 -60.737262490350979 -69.693175079864091
-146.930503928887390 -84.516673075049539 -209.273850195977161
-13.563880736198190 -66.597976023309428 -56.605700458897147
-69.877035706432125 -22.847048196392571 -86.102472462538614
-49.011269036871312 -73.718728385148395 -286.375759134607108
-82.923566869528827 -71.789930899861503 -249.826828614776247
-106.754373972809930 -73.614908177523375 -226.230674490176341
-141.870343731294582 -82.630443660266039 -200.850125119120094
-144.696030575926272 -67.364868207352401 -190.713865554304675
-30.461730804655893 -66.703885001486157 -73.418867818542225
-150.275534673768277 -66.127394149888161 -191.557794385615210
-34.079752113163856 -61.849571155688324 -71.986499736363200
96.066945075115839 -45.830085690331337 -94.936036542754323
-38.322999767905110 -78.419910241630987 -197.788681516089440
-52.010363081379943 -78.599601890915594 -183.855608059542334
79.813324623357929 -78.388144408275522 -75.864009512163292
97.416943928748566 -70.129297745405196 -69.920666479089547
48.457464886393609 -73.691805955499476 -247.119433402723132
-67.111062258883464 -83.032942072248261 -69.771741133027945
5.971990236752019 -82.250029770675624 -279.728418992974184
11.636801010362257 -79.205976491608084 -280.556688782215588
-68.758174430455483 -84.764393379563643 -207.462767018307886
-47.912944209844575 -48.331984243680274 -80.949216500015652
-85.427057408278301 -82.419227735075708 -86.262595812789314
-81.150681116898298 -83.400666855714022 -82.480562228441542
-101.958426172924348 -71.049756473482333 -224.944561064958975
-79.789067122640816 -47.330206018145432 -45.956503816493509
-55.048095355516921 -72.706489738806553 -48.233802167182304
98.529600336580557 -72.223964655742122 -199.984370632921070
-115.314302830643427 -65.751604901086964 -201.366049676842295
-141.524784128422482 -81.838991850043968 -226.091958212856156
-74.706640198090270 -20.764165601728269 -82.609943485482589
-83.965145671220043 -23.794978041014151 -93.051525681162943
-149.348400852593613 -80.941548007866757 -215.584049084385384
19.427248635161718 -78.992854964011187 -188.299290814536732
-162.825073158462118 -68.518413443680430 -215.601491532431339
-9.236904481034651 -65.639851709745656 -247.575805751980795
-69.165350258929521 -61.533656887760550 -114.831152929600464
-145.862511701916702 -82.642432975781901 -220.612075894516892
-67.640361470122002 -48.722238156210942 -44.671022679328551
21.021619421460521 -74.028207154890865 -199.526778266938948
-30.162745692795859 -81.894739900033613 -241.359870493649424
102.575656856137527 -69.506709334662844 -83.136111743061164
99.772732222074637 -53.113062890794353 -66.411848386310965
-5.305749745104714 -75.505035241847082 -245.968221646455163
-145.830747609073143 -80.052076041592457 -218.332821016439595
-113.912246071455428 -67.284431292764978 -202.079556674540811
-164.071669484692421 -74.126496131181085 -226.224764892710908
-153.674577839589034 -81.990671627635010 -226.289773390588977
-103.101684670348959 -73.194491222280320 -291.797695282245741
-151.394246216845261 -75.399654852968226 -247.660105862218160
-141.021157066659441 -83.400516959197375 -230.651460659406609
-152.792435740706679 -70.310691234369671 -246.294206005878664
2.475675468148475 -81.678732604795215 -247.420412162986139
12.684637943988902 -82.614586773204394 -238.093138322138628
6.431565320386442 -78.720069442362458 -238.830401594991571
-30.830870590212804 -69.323896494959072 -49.661462164380268
-30.623497434122420 -82.105953563873300 -212.163423837266834
-60.435696677515395 -81.210249382848332 -166.627612117507311
11.421122356406750 -84.714751102331164 -239.286396423712659
-10.442648869970192 -74.531863427680833 -204.812109663966055
37.927840866034764 -82.998265410493843 -119.172343643066213
37.526685698797316 -79.231499228303193 -114.906332996376221
-79.233827430916790 -56.741926881169803 -44.320196216739816
14.517192858723716 -85.164612243873890 -245.620953693912071
14.192748064455385 -84.728385640572554 -239.310932026457607
-95.640375518049950 -70.637821941839462 -146.678570171190501
0.409369466288760 -68.316630400745296 -238.575649387826218
-61.802031038369584 -56.043690459198857 -122.695986343852255
-149.796051585228895 -77.392331091218381 -207.185614736653775
-160.224825051969361 -69.032219995456302 -209.975414008382131
47.401317550442172 -78.869819122575578 -115.682515456007167
-133.750003741142649 -67.955659282920408 -233.664737649838997
38.400800735084374 -82.832554922968583 -127.270932155637993
-135.951731641105226 -81.937512220804308 -226.934058522772546
16.169102230064006 -84.704458044933787 -243.335003311819492
-90.169312789405780 -70.189695293162558 -140.879308902963601
3.392376656772791 -69.686887281870227 -233.458019380162227
-2.126753696748495 -81.842972359567796 -226.944582084520533
-68.139828490393754 -76.531727857547367 -158.285048640404881
-15.494907057915974 -77.658473676605425 -213.139332832654844
100.687007510323326 -79.567920101393554 -192.080687466500848
21.074725696034697 -79.079021260886066 -248.016010241429626
35.861802572474559 -71.946674041558936 -135.425073502842594
-77.118046764655105 -63.962439860400828 -118.838807754848077
17.335854405024570 -82.972646746732465 -247.374771511037835
-85.367040070569061 -66.428724154966432 -127.118709803762329
23.977561366905299 -52.260037795946829 -252.964084689377898
29.131004262645796 -53.442014909255342 -255.528493054434136
9.512037968416573 -73.896919855270895 -289.713913294451970
-4.160555764169946 -84.690186898262567 -254.127353381612807
63.445837112536168 -59.667358593552095 -76.626609871173116
86.581639681543578 -60.035675917361694 -101.115012370068499
-72.458661002188663 -31.330868457937754 -103.632226522362345
-58.089126900045706 -38.819808956595899 -54.945823403528834
-48.217320389244769 -40.437811252606743 -69.294229157975010
-166.330677898710917 -75.858620418330716 -276.038338255679776
96.079195012752436 -77.142316376463512 -83.263477514587350
-148.199621230388402 -76.529247372071836 -259.098848319373076
80.648388525066963 -77.667682887659026 -98.069637193109742
82.663742396605585 -70.692418908383360 -104.591801210968910
-158.529886485433167 -70.962597902990439 -259.279278870831661
-99.988447871663581 -56.526905006243688 -103.563672655608215
68.059387097450283 -53.813037922790002 -71.008906168091016
-39.454436879751164 -46.838689789892769 -53.606802619369262
24.500902020885938 -81.495554756061225 -150.460394403372874
-140.294767381219856 -84.038015853520605 -256.141645009108970
31.026979808242537 -79.251374774444614 -151.764339459702427
89.130757068228618 -79.916559971269692 -92.187575334061094
-64.415751795864026 -75.839507863866459 -244.821280145112269
20.748305162404911 -78.947600043763387 -158.023681635479761
-62.159809021872249 -57.636980238741700 -67.932053565088083
-152.021169964326845 -83.741395979685905 -263.234021028176414
-162.295844665859931 -70.185739695674101 -264.054839424613363
-47.524864052700089 -45.546775868344142 -51.692579177505891
-146.676860005987550 -82.038331937440219 -263.876026996784674
-88.834936516263596 -26.123010168318448 -94.354173575886577
-39.172825350458275 -42.050509417320860 -60.346451636803778
-116.253325073511689 -75.919623340517575 -289.623256984208240
-156.760665588816039 -66.345052554920628 -257.658129842645963
-158.451509899460518 -74.890499544646673 -251.189964255545760
87.325145309023014 -78.213012191831140 -220.719841929731984
-154.351463288244730 -82.523056998583669 -255.525806964135825
-45.930195930106017 -80.352703296564556 -85.148331422896504
-83.680706954802844 -28.097176050982906 -101.874650460525928
-50.202340410149738 -44.436677322919337 -51.701477038807141
-8.910804821603158 -83.445681052840300 -258.551133119553299
12.811467826849844 -51.739193870990498 -267.882795676908643
22.104000383969648 -67.364963282408397 -34.840824831683122
-9.995610381437402 -69.965373059265019 -272.025473009516645
-6.574120548944611 -68.923262512924538 -267.894636354414445
12.103630981129450 -57.136165540165614 -276.272312412087956
27.274908593405733 -55.711167239205921 -260.489913878399364
12.215790571102035 -52.227739562615263 -280.045370364222890
-9.810680865366008 -74.057045741323137 -280.676020148680436
-4.863780467129744 -67.731081482763230 -280.342932914503251
-65.537623072239811 -78.769595333551678 -246.527336211096156
27.283465153435067 -54.248063855661201 -264.608601090503669
-7.205301775817068 -84.927980000780707 -262.712297299552120
-9.312132452260792 -83.236002121605978 -263.556415994816518
79.095733001770370 -48.055992914125596 -102.502697474970915
75.860453288222871 -49.475093061291325 -99.830805045465411
47.148747432414481 -75.373944515566080 -95.044657232891822
10.855285030622680 -84.090289532881883 -272.002907390756320
-51.261378712737368 -61.239236465997990 -77.605233282169436
-71.430096669362783 -62.495669803900768 -99.799994972421331
7.029703274474999 -60.492638548912382 -256.274394072988287
-4.223696355864723 -51.293038561304400 -260.080621139016444
47.348633757675408 -81.428372857489521 -105.157319999853513
-90.442231895532501 -80.383551122272138 -97.420142952816178
106.327353131228875 -79.283972599186683 -175.584521182443751
-64.831510278175116 -70.159059983511639 -46.092776070014693
-69.571810182422141 -82.647135817383557 -206.847513695626844
-53.716098865926504 -83.019522543657089 -184.793942174106547
8.138697921080537 -83.515544890466316 -277.014194675039334
13.819136123177513 -79.729930550592357 -278.279092786586489
64.374894803142027 -70.541627862012888 -235.743257252975866
-100.891726799015075 -51.118741276715575 -78.439704345561623
83.152282143378201 -46.925722551302194 -81.379349605195500
68.465310692623277 -49.247935136457023 -99.745117874679778
22.714804758026830 -69.436724884484434 -272.277928411341918
-44.199801632205137 -42.708791633315762 -72.610254242928306
-137.310861846905567 -83.253702729352753 -289.934032532483741
-147.055334778407058 -81.669806443974807 -279.121184996530076
18.763970793764244 -78.594356984576748 -179.084354044234686
5.342418422966503 -78.519216124346684 -161.530006848721911
23.130188021357512 -81.857269356156394 -171.078912635758229
28.851581394072021 -77.989184055702211 -170.016023276894629
-160.238331850175740 -72.077205877056898 -278.058465131510047
-153.650759493176622 -75.570755747281908 -275.659908904975680
-64.830908278209236 -78.204397212188724 -94.393457843218826
-152.388181691586425 -82.987583700606166 -280.562705102691723
-160.795016574438961 -72.169014452846042 -280.176250125419699
-60.092657306294463 -81.772428398363019 -64.599201113257593
28.028309948720015 -71.010302329815133 -140.798426093870148
-100.731131453186080 -48.625694409389574 -74.811559281069464
79.737854745181153 -52.025749138429269 -107.859918590995250
48.391870829967317 -71.984415014713207 -92.462789636374254
-66.935100159167959 -83.698039610692732 -72.267181677820616
54.550249448075277 -70.011895584340110 -98.753846358398803
-85.303820430628662 -66.461149310548905 -108.987678508108004
98.948764838830556 -53.965135775446406 -91.584997458756419
25.415747887934565 -71.049270082797378 -146.539406055151375
90.016485440317382 -70.480777775160561 -64.282692085676331
71.746966539155011 -54.727563685173308 -98.099331550615759
-34.896340656473690 -78.122982654802783 -208.055533800825003
-48.185733477125325 -77.632566833766091 -160.766959408493364
-19.502352063683894 -78.425675846308295 -192.834472217837657
-50.938620050047994 -65.192937146667560 -43.644071040146692
32.744049568058642 -81.606441120163865 -146.216945101949563
-78.723155501312107 -77.240899810165104 -250.678081180026084
33.672471701073782 -78.903842023110045 -142.969464879974481
-33.741079815828016 -83.311749707142468 -76.482257086181406
-144.849202402338193 -81.531206489901464 -188.437042479676251
-78.345756228684749 -83.179662568295115 -77.720234685943197
89.970148471404812 -78.759622992053664 -95.364308298931618
-1.584504034866395 -51.833153229546397 -268.645061569639211
-43.411642308173327 -83.961970016994925 -84.584512283685129
-69.308702037973760 -31.416309664639506 -54.259466811704911
-51.232051084673593 -83.966872167311848 -89.660396489518334
109.282966562253321 -72.519375998084186 -162.512182895947944
-86.754750136183006 -83.094495857338671 -93.173391121981922
-49.529377685672763 -80.839465650240854 -62.754133467526643
50.390960486576191 -66.646685827441303 -248.500581478502170
-43.983312570236997 -78.645994869398251 -201.959875306865769
-59.176134685789492 -48.657111678095369 -87.011200521803062
55.999168502885709 -63.541521045401410 -94.459688058357244
-76.633163343261472 -81.468185521226957 -101.446518873619979
-30.585476030786324 -80.885730718542021 -188.981973928685505
-21.750148687211819 -81.816062849550590 -198.397104720445213
-36.055376826913651 -82.533753855821118 -189.271116762474918
-86.909285225743588 -21.043097049307352 -77.775620718799090
-24.890798291005318 -81.280693091954319 -195.373288953014082
7.802227132705974 -82.331913631099354 -230.786026355675432
-1.650282646112736 -81.100569072836748 -223.003128340384620
-76.741924101216483 -19.792071348124008 -77.079565573761755
7.608366718817296 -81.587427986504267 -220.466556415843030
13.669391984880177 -80.397141162408289 -221.774565168126202
103.572809517875086 -56.115045366114096 -87.998779055577558
-0.111173091258317 -81.292234198681427 -230.950380793005678
1.446736507353680 -78.508118237015651 -230.615319318941090
33.168818419369138 -53.464752005896223 -13.041834772843382
-51.053511450363111 -81.051865066227293 -179.967529180373873
-26.409460159924180 -83.107396384770169 -188.534191969022686
-41.560442022078128 -80.466570485719387 -169.004813619306418
-93.246014400270766 -73.566508009696022 -220.137295222825543
-41.046301913959113 -75.855663853235413 -200.230083482498941
-47.707318439820753 -76.682060552145970 -53.177399195580350
-49.229561754293947 -82.488725999310788 -184.006740253173064
-39.709783568725193 -82.084772819084080 -192.337877951296150
-146.903589909948209 -73.966512372620940 -199.900135565907021
-58.047839442185015 -73.022474063443454 -290.232778284166386
-146.381241360694048 -84.239682807534379 -191.438045066671179
-141.730358843801582 -67.072187870785797 -201.979689630210856
-126.612448271362823 -65.170979353629846 -227.091320916586170
-155.061931351442183 -63.590718446241802 -199.885534804805843
-150.677837990520317 -62.159080988894374 -201.266863771634235
-86.169501794843086 -76.159615842973139 -252.502952857928818
33.336295244397874 -83.266094326263811 -135.817244027785989
-146.808950028344526 -81.386892299631398 -197.130054432903819
31.306117138010940 -80.293872415699610 -130.813731177659463
41.704142390567895 -74.235382305245523 -119.158598019248814
-22.506727054463536 -80.663061058440405 -219.497220641394222
-136.481045028542781 -80.863483285371018 -196.724789798878447
36.692022041544760 -69.787297131131083 -36.328512881296078
109.868192493665745 -70.825775561370577 -107.364850344808687
-54.089573803691088 -81.306627057956106 -187.355018906626299
-41.667010629257824 -83.701494716135940 -198.568888731017353
72.139953463090038 -57.841015018015852 -87.266555572751727
4.051639029436410 -63.109174855017542 -279.404159896435601
-135.246632711228528 -82.472720657734769 -200.135214649840606
16.096356636210501 -83.339018488546657 -235.742148048120697
41.056481826818029 -76.773935381883689 -129.701988794356026
-107.383620453345529 -72.721125644316231 -222.501274883990192
103.159173167514737 -47.411741402718100 -83.376612994675497
-16.741206799147992 -73.315159787447129 -193.148622848885395
-46.368077012846982 -72.881185718929800 -162.750875070863515
-18.824423869398608 -81.636795913296240 -202.179895471565146
-81.088276976015521 -71.365920093751910 -122.890658335360087
-68.055303951872077 -68.610027223215923 -45.387095052746623
-34.211843994718308 -75.367516092687140 -211.092730295036546
-46.651955084577189 -71.505070931106772 -159.873504273614742
42.345403003982675 -81.000658159586990 -124.308188418102390
-149.253078383539332 -84.035048159957782 -204.615202222173394
-162.525205398116128 -68.076071464433994 -206.525873807835154
31.641367127165488 -72.991127582156153 -140.964286369439577
37.647094326381804 -80.296418476325101 -129.882892602791827
-6.649113611417656 -51.698694918640129 -246.715239194768230
-26.802240819289608 -74.982151297063453 -213.322841921660938
44.444060055495868 -81.708811283398973 -117.077708370407620
45.008493564214447 -79.307526643354862 -119.843867651537707
-95.659094068488315 -69.584010969046133 -142.281413214853075
4.524777914531860 -69.354558438000197 -239.246282702080578
-60.514509547975379 -57.757913713796071 -127.381970477780527
-136.442013896444706 -78.869548472312502 -226.943382227902958
35.860288919327672 -83.301414746075920 -123.846973211422835
-69.143294361505653 -57.347448222256368 -119.487158005464266
-138.356172702730476 -70.566252157525454 -232.863383795718846
-150.129155114146670 -83.188893547836358 -206.940561893665091
-162.729488940879861 -68.135363436087658 -208.448211535547415
-67.991357873161945 -22.714680914190204 -82.235695015902493
31.459124843635003 -73.220145986017911 -133.188844772911665
-86.647516781743221 -74.644531277759029 -250.569117711092900
108.769529082909017 -76.695222228178054 -186.614963740249408
-148.555149192926052 -81.871686310332990 -211.508723315187154
-107.789869374885470 -73.113834663380842 -227.930355461005973
-161.692585556244353 -68.485635979665020 -212.630454031824399
-71.554610092638640 -60.700326557573689 -115.581238599741184
41.069003885997340 -82.863398945401727 -115.769822144345326
42.421635931123497 -79.703275175570226 -120.560164023574217
-117.524654017123552 -66.319280370941470 -229.316232919947680
-23.692444853992125 -73.963875244265509 -198.805736196393525
-22.010762524926612 -82.242432294961986 -193.112818858854666
10.956098379813396 -83.369796064291236 -225.789659168527663
7.516348109564616 -78.595021273644051 -227.546274817644928
-24.482406169455977 -70.629174486915886 -198.631818661632309
-145.603186074302442 -81.725672514340459 -210.075006163843341
11.015327810778524 -83.722860735416745 -229.038036238946631
7.428996607510483 -77.989461559305965 -230.781552518749493
-26.949919967820904 -78.653360678319999 -195.894732358984754
2.641868352082069 -64.736434291190520 -238.810378122196681
-95.109130795330046 -65.998475413157180 -140.867835113553554
-2.899206260917545 -78.625342751842709 -221.860685103324840
14.225283298383159 -81.669673169056438 -206.036643797329532
-5.405506446101344 -79.125236672414346 -247.460397282609307
38.743153022495115 -58.095017131211826 -123.482270527083301
-88.801549552581832 -22.641861623450904 -83.291589860119061
-151.294036817611186 -80.352867393484843 -234.514932549482353
-111.900886485823804 -70.188400816607171 -182.937638660794136
12.043473016779755 -84.516694421283589 -235.193244347691461
8.161050827239523 -77.729422914109364 -234.536657420759667
34.533162598145232 -74.607318643841680 -121.018581156121741
-21.996794606379872 -78.043485128855792 -68.030395692267518
-63.718329527821652 -81.395168895421676 -165.003286459264842
11.859936755366546 -82.684084143688821 -241.478212666193855
7.000438198450711 -78.425271516988388 -242.997331412937200
-55.873584657143148 -73.881590570186532 -148.407408868730698
-48.067283481309005 -81.231436408615281 -149.191214736093684
-61.811145465174789 -80.590783133794218 -174.955342588391034
12.369414755573333 -82.754043362075748 -245.862477960989565
7.987966785903518 -80.271520388843456 -245.655793665288741
-86.878934965198042 -66.225377054912485 -132.550219777816125
33.586745158067586 -71.728736135190275 -259.685997125974779
-38.720786031961552 -83.729748548033839 -74.966149047694785
4.849705846586467 -84.281276636093054 -251.103482475582325
3.368323043889228 -64.709050606166642 -270.149422459029438
-89.907629225627886 -25.533116073932682 -65.742647668514309
-84.859391809940419 -77.193783910487241 -110.290037553721760
-23.559420121457322 -77.139083048735145 -286.586936952746612
9.356877378461531 -82.967993280744281 -250.401581188678819
-27.263857820285992 -79.716340789456027 -288.819773308953188
-38.156384575665690 -79.834965074955988 -62.804656783009705
8.852056214163413 -60.348756392853183 -273.789353804642587
-66.122114081233434 -76.514194677386342 -53.192617888417558
91.771278348946709 -79.471276933106267 -209.392813831599767
-137.765547058584730 -82.283804549974818 -256.288404141763749
93.821391441624669 -58.367192190674317 -103.827463474333925
-99.555584866330335 -61.946819314064307 -101.855887411454660
114.573251005642732 -75.675501912125441 -125.150604473338802
21.782579073818674 -75.211687726542650 -29.799238833493504
-8.762733293408752 -82.401736842570372 -254.323241953154394
97.988535821451123 -45.432486503994312 -82.744346330002628
-67.091513936998780 -73.295185566284573 -49.235477523303217
95.468895763472247 -75.186801318109545 -212.201447298069496
50.413644814062337 -71.185478089352856 -103.710994824158647
-71.935151494150190 -63.281547833076964 -102.730174654182122
76.569879371470449 -52.537281468463902 -110.165126683668760
-163.060367515852278 -73.824438193708843 -291.882212335199256
-28.993287386472154 -82.187681112318032 -178.777078931193302
-35.654735767341506 -82.099971900291337 -173.772019355776138
-153.302133132642581 -82.354046965472989 -293.571493422631022
-140.514543004456726 -81.040727042649777 -290.812099275334276
-144.579294911000545 -80.865671167092813 -284.498920836601599
-149.892566562260612 -80.020665135667983 -296.359622955796567
-154.530496527200228 -68.545069986119998 -306.728751625289874
-95.563106724314125 -73.124670697851130 -88.217779097945737
-82.844689363204097 -74.393667804165972 -103.801072008796453
58.742220434393829 -60.902348852164586 -101.940766038117673
-54.752060712918500 -82.817313860488085 -68.548917664225996
-80.795320286259795 -82.883105173565895 -106.393622216642044
-49.000762105216587 -83.838742618183460 -72.665066659234753
-94.023212531361963 -75.992082338593505 -112.540500531057774
-72.905215154943932 -82.924754101911716 -72.008527547161179
-44.275809400565450 -77.609693533101151 -240.809626760595421
76.057772524593062 -62.629405134777791 -107.483135872410585
-39.830591770111702 -49.627915024797296 -73.748916162010957
-0.231395447155661 -78.459978679543013 -285.025365263018955
70.628495675299902 -61.942392279494889 -103.948895594577422
-83.075480517504658 -37.882244164034532 -51.285330498079517
-90.387109419246258 -46.689010268017931 -51.230373394459434
-144.098982518791502 -73.377386518668573 -293.413818410856777
-129.420193163176833 -76.745608980356437 -256.413801823281688
-156.484468231664124 -78.091443441397203 -285.529567644262670
-155.424760327316335 -72.015731412386174 -283.994679429037319
-143.217496463355104 -70.445979709011880 -291.527080607024232
-147.467556844585204 -65.231885805686460 -285.759717985216469
-154.716700185482921 -64.722176603349169 -292.388616539475208
56.912503791543131 -61.205206758860854 -89.833027274798297
62.633156212480515 -62.385868038567693 -83.296275371120771
57.782449444606243 -61.698353969468450 -85.607897409071740
85.194738918787408 -60.398260015258678 -59.475470943031823
-37.698822853352169 -82.279890003199611 -70.389810034480817
-73.958691473569914 -80.869122822568826 -101.553243221556045
-91.141738476187669 -78.732566352616047 -215.830839238580211
-107.152836363943280 -68.119738666130090 -258.516473544664223
-41.530381314039921 -77.466650026532463 -204.296319199671359
-46.649847513249902 -81.732769609098085 -154.454368544888951
-55.185002812467872 -70.525081145149016 -147.559381683467223
-62.543472133617250 -81.619188279911029 -170.191777871646366
-150.277524033408099 -75.113868932539603 -212.989818346661679
33.964492666068544 -83.333792884731594 -131.908394104501099
34.884476458216056 -79.562996928542717 -138.654970676512420
-52.491215253318607 -76.661630388247616 -290.704667234632950
-154.300787556929663 -69.702654111377967 -214.118359443714127
-125.142069021645696 -66.325381361000368 -231.658797359782227
41.445181117739381 -73.722441633897290 -118.031758033766650
-102.825127947890493 -72.856900502785223 -259.503877799676218
-91.698910032974482 -74.502326683823895 -117.768806012373432
32.318808857395837 -78.846285312334771 -147.424116163887646
16.045411456981910 -73.351076324964907 -233.282480560593939
-35.820386915220844 -80.727570703434793 -210.507528360800933
-14.519459053108502 -69.894854443220481 -202.080156394230471
-18.473509760205140 -80.857446685604003 -194.216526652578125
-145.728767580410704 -78.805011731025871 -186.477876391865266
-42.825359357944514 -79.124254648499161 -288.333051947678996
-17.341329005150250 -69.066504259813371 -69.374813995371625
40.721948499014069 -75.411593960503822 -123.546229958077760
-33.413921286950902 -77.422346313915000 -78.792215957726498
-154.638049781843563 -69.460076172922001 -205.050127172138559
-143.861359685871520 -62.387414095219540 -203.402640232327514
34.023790238305949 -81.861778200550035 -141.591770788839341
79.464059683527807 -49.102733932703792 -90.080465458022573
97.602071598830832 -49.187558400163560 -108.263425678740830
26.643776805276417 -82.378477895524256 -146.314179979648799
27.043919483003755 -79.984796024147570 -143.515833071442074
-95.389387038931972 -33.884037450030227 -63.770355966049905
26.734190576607659 -77.526681037655749 -139.774699986883292
29.697925712386379 -83.139600089561057 -142.406591218432624
-14.056366196037745 -80.822760614613756 -172.501209768550325
-11.135435845813790 -84.070808576920740 -175.236160742008281
-96.086879968491402 -72.890148373718972 -99.203238363205458
-36.589033800288547 -81.563719373101208 -68.862740455450506
-65.115402173651546 -73.432839629751683 -157.701318292852676
-29.872880456974116 -74.210586318296706 -191.873539940072931
-57.652488481046433 -82.705137406976547 -176.790077206746673
37.085864808459881 -67.147178424720650 -252.090803799384474
3.677727414924531 -75.106393697944227 -226.130676255561724
-17.858461668409181 -72.809449104691680 -209.830890476348202
-64.175492643460828 -73.568685562502182 -162.846142052557184
37.372750118765516 -70.633287514422634 -258.982206219455406
0.156490353210796 -81.043657436783477 -234.551386019913650
-34.627875721650710 -81.657614625557443 -202.618673936453405
-56.606421855975142 -82.673185146040296 -180.275901064957367
-13.798062844993160 -68.578851443393219 -208.314496770991809
-38.170862777473928 -81.816435380595578 -170.988809031780477
-26.456241665732279 -82.236375531387637 -181.711741202775158
-90.169853832652507 -65.192904975690183 -138.018009576773778
-75.113718525199786 -19.940775950404326 -74.020984636880328
-20.747906104392627 -66.123843238260974 -67.549171946237493
-37.314442996082605 -81.124449993118290 -174.279754736062102
-30.195465953103934 -81.828840638741070 -185.038519482276286
46.431734115501818 -53.096522096704341 -19.979576937611402
-30.644083559922720 -62.805622785988490 -69.021616384352086
-44.432567891168873 -80.702856632497387 -195.651352280092681
-51.849374572864875 -82.060765944645055 -189.588414125369667
-60.973922096181553 -70.456475721582962 -46.103623911912351
61.463549155678578 -69.371048478363122 -238.437677259149154
-26.720767488473200 -81.678547738922006 -179.677579469314622
-34.960931728346587 -82.231069906316776 -172.839654266115417
90.293850795073254 -47.533942794524101 -82.021588576856800
72.864541682003036 -49.805442707736518 -100.027068202577922
45.868786672926753 -81.956966536862510 -108.257176144259788
54.122017876867346 -70.463072547778395 -246.739227135547736
79.546323629454804 -49.235794116130769 -107.262076675179884
29.503463399831944 -79.825151411397599 -127.687070817117217
31.402525015703432 -78.872444412321698 -127.794900086697737
-57.569615959105747 -75.326268832653227 -178.030831277828383
-36.669513291731853 -81.712509843629334 -191.769958750580031
-16.309091700898289 -81.021029245548050 -210.027270211260316
-63.006165197936788 -80.612309504820146 -161.739264372307758
-164.720924168484032 -73.352478914196311 -206.129510601085940
-34.847474820499627 -79.083451790658799 -62.514263428037637
34.702921105259634 -83.198664173441728 -124.976773611968284
-144.947327821261155 -73.054217356781891 -192.431664612247289
-47.931067401189203 -73.751120032090100 -290.440150881169643
-147.014400276413568 -82.618219428649994 -200.164060485545434
-142.861204635832280 -70.011556374341808 -193.076261749841279
-82.663267491903270 -70.717549022018744 -251.337662785283129
-106.274690394868244 -67.923004810505333 -225.516227204911047
-152.183275472149234 -65.728446374524609 -193.666415670953285
-50.471611499623002 -82.474421290243782 -203.109643435491733
-145.062566395216777 -80.267327574764678 -204.753412856317055
-78.646385229268319 -68.109263909439804 -48.052565458780606
79.627286991469234 -67.786587151955459 -108.183419346746987
-76.838312131744885 -82.422079949909715 -213.275260879419875
-85.103637612328981 -70.515846061422621 -55.036359413133781
11.750187633576390 -82.882235331845024 -218.987983302515460
8.200635874430708 -78.964255691809001 -218.058321243518350
-25.695265145700333 -65.590147821938274 -68.402790503509578
-21.917777206820432 -82.480920406144506 -185.167714527342469
-40.393186681667260 -82.158803121310072 -165.670177029342000
11.992966552621082 -83.037847736555804 -222.431169044297036
7.676101179198755 -78.378161855509688 -220.027758495463445
-1.803566339819236 -79.640792023159833 -229.835021666235065
-44.425394328368931 -81.187121890416094 -162.333423541058693
-87.794089061605234 -76.912261885188002 -114.078446553479040
40.488792683978566 -73.016863359884624 -255.245806881274973
-88.810112206992258 -72.796408000046839 -250.696778620039510
16.369245802977112 -80.699185582057424 -222.087962265456696
-138.058392966009848 -81.485791301708772 -230.793576357694434
23.483853806139912 -76.955338956733399 -190.306867192245505
40.050200541333417 -62.398152022523853 -19.194811732214699
11.808201863116311 -82.239966088707661 -210.436825113100809
7.621616381414166 -79.380806331439402 -208.155707427761968
-154.210074101370282 -74.629161463648245 -247.244216597283355
-146.920394517456998 -81.388700703621950 -229.055890621595324
-145.328475209995190 -82.352241299909380 -232.679194935867571
-111.091850481811917 -65.781087254741024 -181.666620177073867
22.493208332067539 -73.646426418445344 -187.547173013342245
-20.150861921957429 -78.686501338726799 -207.659867785587579
-64.267958177045600 -78.408259099143550 -164.881258644587604
7.864069966136077 -81.846479787767308 -241.161215678330109
10.054356007840303 -78.709478109813958 -243.686768408916180
-79.306032266230773 -23.834912885070281 -61.555093398740794
-49.061154960747608 -79.305919976792694 -150.051034036815736
38.136142388544151 -53.628884954947189 -40.534157301300752
-141.661566790736146 -75.041870695312397 -227.906812545842911
-150.983498165681453 -81.652332549479794 -245.724892754644031
-113.321852459095467 -71.261065349005449 -193.997781502654590
-88.008748434838722 -70.697277413668189 -290.171451727138503
-161.276015329338236 -69.588030376295009 -245.963934527071387
-149.395282278718440 -65.382635233939695 -230.832212075209441
-147.358197461329468 -67.712644875901319 -228.932606861403514
-96.348307588144934 -56.017172642011019 -118.765130229222422
23.026516944011561 -54.869331357013557 -244.065617717232840
-91.469933407951672 -49.330717886623596 -118.024904988646156
-4.117930115919049 -77.131674450970436 -234.376392156791866
-5.244713553170841 -74.465763424925299 -217.897185345808396
-72.068032213024708 -74.698340481223156 -148.486274552832157
-155.729241056405158 -74.352819490196481 -227.897965101310120
-146.651144099484043 -84.083718178258621 -247.097522534244746
-8.693596559610718 -70.883438367134801 -218.417519213704423
-147.731822341256162 -67.462742270513090 -228.277691626234343
-112.884143708296449 -66.102033665878196 -195.748772008763979
-145.607942076054400 -62.935592777346621 -228.078683995083082
3.226102252640496 -77.478873836327892 -240.215493348871632
-24.099248377999579 -77.430947836406006 -213.392941717882366
7.230298666170102 -82.070971890766401 -248.338670997723142
-59.382701942318342 -78.127991850738809 -174.148240985048830
11.588003535795680 -80.222679248937155 -248.017908709553609
-30.505221209595447 -80.013531618105830 -206.680133050115700
32.622182542800019 -65.667654690841118 -255.344660519566332
37.485159548550534 -71.867807363586579 -130.134126047659407
-71.083688499820468 -35.055592706150406 -103.202485051784990
-126.441811510392853 -73.338791989466870 -283.954058323756101
-146.162821025903469 -72.977671106895812 -272.911827182526736
-86.834730398085284 -73.656086396812341 -213.950626973181386
-151.721948123582592 -83.516670713366651 -252.560033503792056
-150.103517771335930 -77.939293801029052 -256.848784519729975
85.816465871601707 -79.100030355973630 -219.401880256717220
-73.942037821011255 -78.709504439919129 -59.757626888905378
-159.680536244088302 -70.139117467642038 -254.096530200576922
-163.165262887260468 -68.876535997634406 -249.511922084947457
-146.975211078626813 -70.286257287717504 -270.169936221449916
-129.056000153180776 -70.424093435325929 -283.887256430362697
-125.070234149510057 -69.010138138273902 -287.341239777224587
-152.187574343822860 -66.214526077129605 -270.574079720555517
-150.481504731596374 -63.732846138738815 -267.834102300982693
93.302613317252167 -48.499569081877652 -59.066848205831462
-140.147334732040150 -83.444221654062332 -260.646380928497308
-51.808006210463049 -46.453350862445703 -49.684025926116689
-141.727783617167091 -78.583309082670866 -258.305424597192371
83.999919727927434 -60.295876010153918 -104.009440418607483
-148.327220323113323 -82.412348951546448 -256.788424919903321
-151.515922089304922 -77.620280399293705 -252.038702717601723
-159.111332876729506 -70.200170568997905 -249.640830602184110
93.548600908748668 -71.655470599905428 -105.072068325317574
-164.736008561572675 -69.864812777865353 -257.171889398855399
-42.558921842141942 -78.675419244089071 -192.308750943829040
-46.662544397538198 -77.996707106596091 -187.207236673434096
30.218063815205980 -56.456267867699445 -12.673814316045071
76.899384362951324 -59.830500065990513 -58.396628168387792
-89.261569013023163 -32.688139840559053 -57.400394489216509
59.895858179507243 -73.269337094314508 -238.200619372724248
-93.729582262502277 -74.973016559592779 -84.883613744592466
16.769471524152578 -81.908000694410333 -256.297293860045045
17.346674735224546 -78.260687092711251 -251.271679161799113
54.531550208406344 -60.076946573549471 -103.475991205695721
-129.357838114452932 -72.820469463096217 -294.363061578543523
21.581588070778231 -80.734383107932658 -161.930402366238667
28.903576850046562 -82.413678792741578 -154.055523335880338
25.311667532035941 -80.102140701498968 -155.050696473006667
86.178427294419421 -79.245851932642822 -95.033502496403514
-154.288536455642429 -71.487346525913694 -266.679453636057872
-147.839491860674286 -68.147759432023690 -266.745302046405641
-54.747263409942320 -66.644985176840947 -84.996167025338153
-56.243699620598271 -38.291635630148349 -60.853638596937841
-163.751550292814898 -75.250099252789695 -258.813573636206968
-154.380758234810202 -82.940245538168512 -260.804595922311705
-158.720940393851862 -75.051530515734271 -261.299033235925037
-106.145252827094950 -75.756624174229501 -290.273325412505358
-164.285830913805711 -75.679135187109580 -268.128944300631588
-147.397081637851528 -77.931642842433746 -250.795237410499880
-144.592100337527597 -81.467094390615756 -254.417336179597214
26.685608164425425 -82.597320481222013 -152.426589960812663
28.208089878656963 -80.543233473303346 -153.465141835080630
19.859732055768561 -79.222878201193822 -163.114206113752658
