# This PCD file was generated using the MATLAB® pcwrite function
# from Computer Vision Toolbox®.
# .PCD v.7 - Point Cloud Data file format
VERSION .7
FIELDS x y z
SIZE 8 8 8
TYPE F F F
COUNT 1 1 1
WIDTH 794
HEIGHT 1
VIEWPOINT 0 0 0 1 0 0 0
POINTS 794
DATA ascii
-104.299871500402148 -54.753101348876953 -52.989277154431910
-104.471792997748409 -54.053199768066406 -88.255122721037395
-104.908651198225570 -54.753101348876953 -41.962357475222063
-104.874822762992125 -54.293800354003906 -84.442942455683678
-104.874063782322438 -54.042598724365234 -85.396044265301754
-104.873304801652736 -53.916000366210938 -86.349146074919815
-105.400550292688990 -54.753101348876953 73.439287829824082
-105.430386903468900 -54.753101348876953 -51.083976400998509
-105.643346474454404 -54.753101348876953 -82.537258071043908
-105.809345047059765 -54.753101348876953 84.481362342142432
-105.673307599755049 -54.154499053955078 -86.349783138718593
-106.228849524464536 -54.753101348876953 108.972338535065063
-106.380864263466762 -54.753101348876953 -80.631640548315474
-106.510206922454842 -54.753101348876953 -40.017034167045381
-106.475587418847823 -54.403999328613281 -83.491015591565727
-107.245666886614984 -54.753101348876953 -48.226019347888489
-106.880135139355446 -54.250999450683594 -77.772639336367973
-106.879376158685744 -54.176300048828125 -78.725741145986049
-106.877099143770778 -54.439300537109375 -81.585138127545605
-106.874063148186096 -54.412101745605469 -85.397636918723222
-107.275582587558034 -54.254299163818359 -83.491652649289009
-107.679378956788057 -54.069999694824219 -78.726378209784826
-107.677860922542777 -54.266601562500000 -80.632673381726306
-107.674824926958109 -54.645000457763672 -84.445172172903924
-108.111670212555737 -54.753101348876953 -38.178205722591521
-108.075585385660347 -54.403999328613281 -83.492289713087800
-109.010171870861839 -54.753101348876953 85.522217393756478
-108.905369699644027 -54.753101348876953 -46.084743136153534
-109.312619982271954 -54.753101348876953 -36.982163095552949
-109.807264332752638 -54.753101348876953 81.866880255836961
-109.706192555323554 -54.753101348876953 -45.055580111430181
-110.113250445388999 -54.753101348876953 -36.194600030847013
-111.007169962569918 -54.753101348876953 81.751727925078697
-110.997409781007647 -54.753101348876953 69.495227752388061
-111.307702748212279 -54.753101348876953 -43.157852759870046
-111.811006115801050 -54.753101348876953 86.564886332048445
-111.714384531991172 -54.753101348876953 -34.769174012689419
-112.353443105039275 -54.753101348876953 87.113656514314599
-112.208888250051999 -54.753101348876953 83.903267984783085
-112.199300873670353 -54.323501586914063 71.863770611940083
-112.909164920422896 -54.753101348876953 -41.320428123564831
-113.406240296468852 -54.753101348876953 80.581413484733147
-113.856807800058647 -54.753101348876953 -32.981279142364471
-114.212405069832542 -54.753101348876953 88.318772929863584
-114.196647996240898 -54.753101348876953 68.531582090716753
-114.627633829558647 -54.753101348876953 107.440449982935419
-114.605373632792265 -54.226200103759766 79.486860823670526
-114.910856717491015 -54.753101348876953 -39.196723904463774
-115.413462345355853 -54.753101348876953 89.649817650327734
-115.407118093223914 -54.753101348876953 81.682924119247943
-115.405094705741703 -54.753101348876953 79.142023740804788
-115.316938710606280 -54.753101348876953 -31.561241634777041
-115.796447516264493 -54.753101348876953 68.281105319937438
-116.198514746175562 -54.753101348876953 70.874986099777118
-116.111992893987264 -54.753101348876953 -37.776178791206746
-117.015350075309186 -54.753101348876953 92.021643057132835
-116.917896009543711 -54.753101348876953 -30.357819482996632
-117.734851382815052 -54.753101348876953 77.578163908127692
-117.317324292372945 -53.998798370361328 -31.077837646321250
-117.826958858901961 -54.753101348876953 106.595403227723949
-117.796106454160466 -54.753101348876953 67.852014938292413
-117.714289695839426 -53.830398559570313 -34.890654969398263
-117.713530718207480 -54.341999053955078 -35.843752964320281
-118.404511348477442 -54.753101348876953 94.733840303161585
-118.205802015454708 -54.753101348876953 80.025291789696311
-118.199298971261356 -54.249401092529297 71.858992651675692
-118.118617378877957 -54.753101348876953 -29.458174930896924
-118.118086150126331 -54.166000366210938 -30.125273718404507
-118.598606452072218 -54.753101348876953 70.987275470287912
-118.514292493941738 -54.183300018310547 -34.891292033197040
-119.418670567297610 -54.753101348876953 96.188530904022002
-119.318841698557378 -54.285800933837891 -29.173127498409123
-119.318082717887691 -53.934101104736328 -30.126229308027192
-119.317323658236617 -53.801700592041016 -31.079430299742718
-119.315805702972710 -53.867599487304688 -32.985626289586740
-119.802446013728300 -54.753101348876953 75.812219382019777
-119.798736884156853 -54.753101348876953 71.154422091769646
-119.795928318489246 -54.753101348876953 67.627521964920561
-119.715048042372800 -54.538501739501953 -33.939145813201655
-120.226264508704830 -54.753101348876953 105.720590402668577
-120.220021067189293 -54.753101348876953 97.880291374906733
-120.116567478706969 -53.884300231933594 -32.033165358463513
-120.626219484931909 -54.753101348876953 105.661975685639774
-120.601576754128914 -54.600498199462891 74.716482262610427
-120.600058716845879 -54.381099700927734 72.810183275972904
-120.515809900126186 -54.486198425292969 -32.986581885284913
-121.003847538702928 -54.022399902343750 77.575560718346082
-121.319600042052997 -54.182800292968750 -28.221622156908580
-121.318841064421051 -53.982101440429688 -29.174720151830591
-121.823584271652649 -54.005401611328125 102.356120020849161
-121.822825290982962 -54.379600524902344 101.403018211231100
-121.800055284607240 -54.639400482177734 72.809227686350226
-121.799296303937538 -54.694900512695313 71.856125876732150
-122.356581234003883 -54.753101348876953 102.355695580996723
-122.222654206854500 -54.753101348876953 101.186101237266001
-122.196261707404034 -54.303501129150391 68.043308553655137
-122.120361817787270 -54.658500671386719 -27.269161225785354
-122.117325822202588 -54.403400421142578 -31.081660016962971
-122.888090102665018 -54.753101348876953 76.620965460569252
-122.518086280904825 -54.173900604248047 -30.128777557146833
-122.996256876114231 -54.261398315429688 68.042671495931842
-122.919598008865520 -54.143299102783203 -28.222896278430653
-123.402330269372470 -54.147098541259766 75.667354361083753
-123.720359784599779 -54.325298309326172 -27.270435347307426
-124.196261073267692 -54.367000579833984 68.041715900233669
-124.601575485856245 -54.335300445556641 74.713296955767504
-125.000810277883332 -54.233798980712891 73.759880435021586
-124.997774282298664 -53.861000061035156 69.947381643843983
-125.800054016334570 -54.172698974609375 72.806042379507289
-126.197019498782439 -54.351799011230469 68.993324238527734
-126.599297833767196 -54.441799163818359 71.852303506090436
-126.997773648162337 -54.359699249267578 69.945788990422514
-237.920651711904640 -54.753101348876953 6.951156456525355
-237.798890558095849 -54.753101348876953 5.998133122801264
-237.901128356511720 -54.753101348876953 5.044931174253128
-238.158267394305909 -54.054901123046875 20.294751269962084
-238.560553439183025 -54.514801025390625 23.153831620894781
-238.559794381050835 -54.590698242187500 22.200632536527284
-238.548409417353668 -54.270500183105469 7.903786865135574
-238.545029281296792 -54.753101348876953 3.659128310316818
-238.960547208842058 -54.634799957275391 23.153513095070878
-238.949005417080770 -54.753101348876953 8.659728136947871
-239.359038200002317 -53.907901763916016 21.246895570458459
-239.349930213248314 -53.851100921630859 9.809399196925600
-239.345017801236622 -54.753101348876953 3.640561221380324
-239.762067965246018 -54.270401000976563 25.059075835812180
-239.751441980699695 -53.889598846435547 11.715330066690509
-239.749329982091382 -54.753101348876953 9.063154885081493
-239.746128992223703 -54.000701904296875 5.043461950499746
-239.927376767759256 -54.753101348876953 4.090187547430277
-240.149917752566381 -53.927600860595703 9.808762145277800
-240.562829742499162 -53.832298278808594 26.011538674283432
-240.559793746914494 -54.004199981689453 22.199039883105819
-240.549487146544976 -54.753101348876953 9.256365773697546
-240.549167782113500 -53.812198638916016 8.855318909508512
-240.546459439258541 -54.753101348876953 5.454275142290506
-240.962064533007378 -54.351001739501953 25.058120246189496
-240.961305553856562 -54.036300659179688 24.105020343919456
-240.955992541838043 -53.847301483154297 17.433122663834254
-241.359037565865975 -53.968601226806641 21.245302917036994
-241.357519568073656 -53.958900451660156 19.339053521448182
-241.345375585734956 -54.641601562500000 4.089058356737705
-241.712259340545671 -54.753101348876953 -7.348687838076732
-241.581495440821385 -54.753101348876953 -8.301783396083522
-241.762826310260522 -54.231399536132813 26.010583084660752
-241.792742009684702 -54.753101348876953 -9.255052124087801
-242.137197073256488 -54.753101348876953 -6.166225559453796
-242.548080524260541 -54.753101348876953 7.489181581853043
-242.864883214525662 -54.753101348876953 5.994098936253458
-242.545774242757801 -54.753101348876953 4.593032626396449
-242.533551121457606 -54.753101348876953 -10.756342523130694
-243.362831906465146 -54.371898651123047 26.009308957063183
-243.763584655275025 -54.495498657226563 26.962090333509323
-243.738833626572841 -54.753101348876953 -4.119399864942237
-243.732769996038058 -54.753101348876953 -11.733898450077060
-244.562828474226507 -54.165798187255859 26.008353367440499
-244.932511501031996 -54.753101348876953 -12.055153086702649
-245.416584009091054 -54.753101348876953 26.960774005553688
-246.139752969126562 -54.753101348876953 -2.958212124028933
-246.562827840090165 -53.831798553466797 26.006760714019034
-246.886855098012148 -54.753101348876953 2.178394922774548
-246.601806252391668 -54.753101348876953 -1.633879293966613
-246.532467884243459 -54.575401306152344 -12.118227197757157
-247.332596820163815 -54.753101348876953 -11.960464729870228
-247.744689197739348 -54.753101348876953 3.232232270863303
-248.564681611257953 -54.753101348876953 28.333866434179694
-248.529431254522478 -53.952499389648438 -15.932318642356243
-249.363588983206967 -54.403701782226563 26.957630899068825
-249.362830004056150 -53.996700286865234 26.004530996798785
-249.344222508463474 -54.753101348876953 2.637878287519814
-249.330193110756994 -53.883899688720703 -14.979756621787530
-249.761305815413550 -53.990600585937500 24.098012666434805
-250.127144575509021 -53.955600738525391 -18.792991646710409
-250.562826571817510 -54.159301757812500 26.003575407176100
-250.543092624059682 -54.418998718261719 1.222362828416010
-250.942983468831585 -54.753101348876953 1.092794770819129
-250.942327391025373 -54.145500183105469 0.268914836427635
-250.927906431743537 -54.288799285888672 -17.840429626141692
-250.927147373611319 -54.144599914550781 -18.793628710509193
-251.360552432467358 -53.809799194335938 23.143638636567196
-251.765299476153416 -54.753101348876953 29.112318080834360
-251.763582118729687 -54.459899902343750 26.955719719823456
-252.140805960994385 -53.802600860595703 -1.638290148783859
-252.961301749038569 -54.712600708007813 24.095464423390656
-252.928664776758012 -54.006599426269531 -16.888922377293117
-253.341474040016550 -54.753101348876953 -0.815146471142803
-253.340817787539976 -54.125301361083984 -1.639245750557524
-253.327914826050460 -54.205101013183594 -17.842340817538041
-254.127143307236366 -53.858299255371094 -18.796176953553342
-254.564343340827861 -54.075599670410156 27.906689086970708
-254.562825303544855 -54.311599731445313 26.000390100333167
-254.961020171304085 -54.753101348876953 23.741072466242272
-254.940815928928117 -54.753101348876953 -1.630719911835971
-254.928664142621699 -54.134899139404297 -16.890515030714585
-255.365105118081004 -54.313201904296875 28.859151925441967
-256.165558907259310 -54.753101348876953 29.444015405313611
-256.130937726816910 -53.949401855468750 -14.032071731429692
-256.127901731232214 -53.974700927734375 -17.844570522607309
-256.564327447907317 -54.399799346923828 27.905096445700224
-256.597813061635122 -54.753101348876953 25.998769584711571
-256.961099696621432 -54.753101348876953 23.820979828234513
-257.362500097291388 -54.753101348876953 25.587060125886524
-257.765330861357711 -54.753101348876953 29.149341559952770
-258.128660076246717 -54.080299377441406 -16.893063273758735
-258.561045390387619 -54.753101348876953 23.782805216314184
-259.339297847847945 -54.156898498535156 -3.550322697459460
-259.729725105879140 -54.753101348876953 -15.563937356264990
-259.729424651602187 -54.100498199462891 -15.941237499086260
-260.162213066194056 -54.753101348876953 25.240830667217764
-260.539279156825103 -54.333999633789063 -3.551278274931164
-260.928677498996933 -54.210201263427734 -16.895293003129964
-261.329101922216466 -54.753101348876953 -16.354811605819869
-261.762246533712016 -54.753101348876953 25.274556375934971
-262.939343104089119 -54.753101348876953 -3.502589442642277
-263.728929102674272 -54.753101348876953 -16.565123445306359
-263.728664404178687 -54.218601226806641 -16.897522708199233
-264.929084587234058 -54.753101348876953 -16.385678255890717
-265.729422749193191 -54.578098297119141 -15.946015459350662
-266.128657539701408 -54.168998718261719 -16.899433887444602
-266.960894736112152 -54.753101348876953 23.559615838860203
-266.927916617437120 -53.835998535156250 -17.853170865664406
-267.700543589465326 -54.753101348876953 23.130626661030053
-267.329773393776122 -54.753101348876953 -15.513989706023320
-267.329428345397787 -53.951400756835938 -15.947289586948227
-268.161498215582128 -54.753101348876953 24.339960558401742
-268.138523871469886 -53.945301055908203 -4.510430265063171
-268.129415884715911 -54.021701812744141 -15.947926638596027
-268.128656905565094 -54.178901672363281 -16.901026540866066
-268.930320252405181 -54.753101348876953 -14.835565105039986
-269.760093994940405 -54.753101348876953 22.568286944839425
-270.130933287862604 -54.460800170898438 -14.043220305379958
-270.538517006992606 -53.815700531005859 -4.512341444308538
-270.528650041087758 -54.115501403808594 -16.902937720111435
-270.939320818401995 -54.753101348876953 -3.533760349062902
-271.329427077125160 -54.119800567626953 -15.950474893791160
-272.159249792671631 -54.753101348876953 21.514875778556764
-272.139457650067129 -54.753101348876953 -3.339415886224161
-272.558912211146037 -54.753101348876953 21.098457836324940
-272.528649406951445 -53.827999114990234 -16.904530373532900
-272.931965788402181 -54.753101348876953 -12.770750274123106
-273.339629378970074 -54.753101348876953 -3.139571609648495
-274.558032909933559 -54.753101348876953 19.993465302348845
-274.530166810098137 -54.183700561523438 -14.999824040316831
-274.932791422513390 -54.753101348876953 -11.734743692935730
-275.329425808852477 -53.880798339843750 -15.953660200634094
-275.730937615794574 -54.034900665283203 -14.047679739820456
-275.730178636643700 -54.174198150634766 -15.000779642090496
-277.360789696234576 -54.753101348876953 23.431234062646560
-277.333609313486477 -54.753101348876953 -10.700955356208194
-277.757566369805261 -54.753101348876953 19.390996964542186
-277.731695960809020 -53.836700439453125 -13.096172490971881
-277.730178002507387 -54.061199188232422 -15.002372295511961
-278.134725726052750 -53.977298736572266 -9.283992225618164
-278.130930751317237 -54.233798980712891 -14.049590919065825
-278.559766439539999 -54.453098297119141 22.168779480248933
-278.539273449598113 -53.809600830078125 -3.565612155724363
-278.960326495429513 -54.753101348876953 22.841260780886500
-278.959031747616677 -54.638401031494141 21.215361027853028
-279.356825824370844 -54.753101348876953 18.452743840207685
-279.732454305823524 -53.817298889160156 -12.144665242123306
-279.730936347521890 -54.110500335693359 -14.050865046663390
-280.134990587820141 -54.753101348876953 -8.952184258432027
-280.559006826252812 -54.343101501464844 21.214086924557428
-280.557741821763898 -54.753101348876953 19.625537814283302
-280.556176657279650 -54.753101348876953 17.660058109868341
-280.540031873593989 -54.352901458740234 -2.614005724778330
-280.532441845141648 -54.078300476074219 -12.145302293771106
-280.531682865990774 -54.207500457763672 -13.098402196041150
-280.930948174067453 -53.810100555419922 -14.051820648437054
-281.355670420587103 -54.753101348876953 17.001031197507086
-281.758259673647615 -54.099601745605469 20.260031420513720
-281.740043700139552 -54.182098388671875 -2.614961326551995
-281.732453671687210 -54.180000305175781 -12.146257895544771
-282.555024773483296 -54.753101348876953 16.212765746222757
-282.531682231854461 -53.848098754882813 -13.099994849462618
-283.158253126238492 -54.753101348876953 20.258916567979085
-282.957512481551646 -53.825099945068359 19.305926325421289
-282.936958293192447 -54.753101348876953 -6.505316177298319
-282.933224477383590 -54.151500701904297 -11.194113595048396
-283.333977305174869 -53.912101745605469 -10.241233036504799
-283.753195070588106 -54.753101348876953 13.899280836937782
-283.737766049569416 -53.942798614501953 -5.475952868881041
-283.732453037550897 -54.076698303222656 -12.147850548966240
-284.498234267002488 -54.753101348876953 16.445328268876729
-284.154242858514124 -54.753101348876953 15.222562183648176
-284.140036835662272 -54.188499450683594 -2.616872505797364
-284.538512568038300 -53.988201141357422 -4.523490018258803
-285.223751051080967 -54.753101348876953 18.350991587964490
-284.952501351733247 -54.753101348876953 13.012325598102477
-284.934741880530282 -53.936199188232422 -9.289407261832327
-285.684456089127082 -54.753101348876953 15.491253577876622
-285.340048662207835 -54.449100494384766 -2.617828107571029
-285.339289604075645 -54.323699951171875 -3.571027191938526
-285.333217612906310 -53.923500061035156 -11.196024774293765
-285.733970440697590 -54.242500305175781 -10.243144215750167
-286.556727923358153 -53.948299407958984 18.349930102539744
-286.552932932674480 -54.330898284912109 13.584311381937788
-286.534716959166474 -54.182498931884766 -9.290681365127931
-286.951628970884428 -54.753101348876953 11.916023418579199
-287.355227990046728 -54.611900329589844 16.443053167741308
-287.352950989561009 -54.753101348876953 13.583674305988024
-287.351202256120189 -54.753101348876953 11.387675022296870
-287.336253053336009 -53.966400146484375 -7.385019454440151
-287.752944759220100 -54.560901641845703 13.583355780164123
-287.735487764862853 -54.239898681640625 -8.338537064631556
-288.150985043903916 -54.753101348876953 11.129918038936639
-288.555209299023829 -54.295600891113281 16.442097590269604
-288.552173303629047 -54.442798614501953 12.629599037510490
-288.536234362313166 -54.227699279785156 -7.385975031911855
-289.350388734055230 -54.753101348876953 10.365285678301190
-289.335493361067506 -53.799999237060547 -8.339811192229121
-289.752185130174610 -53.944400787353516 12.628643435736825
-290.151419896950472 -54.093799591064453 11.675195205329945
-290.138516895970270 -53.992198944091797 -4.527949452699302
-290.537751686478487 -54.313201904296875 -5.481367880793243
-290.949169584535070 -54.753101348876953 8.826018011214812
-291.337010764214199 -53.831100463867188 -6.435104859013045
-291.747630494687201 -53.883300781250000 6.908292581971782
-291.737763513024049 -54.152400970458984 -5.482323482566908
-292.151919308160700 -54.753101348876953 12.301542292307616
-292.146865269437114 -54.136398315429688 5.954854365142050
-292.141552257418596 -54.194698333740234 -0.717043314943147
-292.140793278267779 -54.364299774169922 -1.670143217213189
-292.139275240984773 -54.358100891113281 -3.576442203850727
-292.544582038610486 -53.820098876953125 3.095156977564865
-292.543064048412532 -54.034400939941406 1.188917118716194
-293.350368486139587 -54.753101348876953 10.338266388918210
-293.345359098190386 -54.720298767089844 4.047649367779576
-293.343082105299061 -54.584499359130859 1.188280042766431
-293.341564083964158 -54.649700164794922 -0.717998916716812
-293.339287067530336 -54.050800323486328 -3.577397805624392
-294.533392276643781 -54.753101348876953 7.859204513749133
-294.542304411582847 -54.461299896240234 0.234194999130253
-294.945364694394982 -54.690799713134766 4.046375240182010
-294.942328698810343 -54.145599365234375 0.233876449004390
-12.122671805890150 -53.709201812744141 -24.322164489830215
-14.529215749867593 -53.799999237060547 -16.106178957516125
-15.314874561132061 -53.799999237060547 -34.115908361903436
-15.972622736143343 -53.799999237060547 -34.809635336714983
-16.130792671211005 -53.799999237060547 -14.125853900360596
-16.530999367522821 -53.799999237060547 -13.865972012754128
-17.128171012262229 -53.799999237060547 -24.326150503812642
-17.686148154625222 -53.799999237060547 -21.467194133898801
-18.112802939095197 -53.482299804687500 -36.717536818549483
-18.518653043239290 -53.799999237060547 -29.370857556359539
-18.512436437165960 -53.799999237060547 -37.177457559161752
-18.917997551127918 -53.799999237060547 -30.196077407519439
-18.912212077059980 -53.799999237060547 -37.461276672558824
-19.635843371517296 -53.799999237060547 -37.671852070726743
-20.592797230947358 -53.799999237060547 -31.953911896733594
-21.479684404492303 -53.799999237060547 -38.626521967232385
-25.729762748159192 -53.799999237060547 -15.423497236248501
-26.134472671048123 -53.799999237060547 -9.508618362365247
-27.714954578865200 -53.799999237060547 -34.019883035599193
-28.534377802020632 -53.799999237060547 -9.628228178282328
-30.929155220045729 -53.799999237060547 -16.189438660200302
-32.611392988338338 -53.799999237060547 -10.994775571150257
-33.333195599152454 -53.799999237060547 -11.113750973302906
-33.501476957678555 -53.799999237060547 -17.667287097834148
-33.727662926419981 -53.799999237060547 -18.063566431986384
-35.732072986100391 -53.799999237060547 -12.526361555696106
-36.017474352427115 -53.799999237060547 -12.903688938910623
-36.406082550039351 -53.799999237060547 -22.435201829073236
-39.687092400507183 -53.799999237060547 -31.969117198820854
-42.461296964502232 -53.799999237060547 74.778707474320711
-43.634707408020617 -53.799999237060547 86.215276682413915
-43.397801680939388 -53.010898590087891 70.012361902224711
-44.409990175839248 -53.799999237060547 63.339652050905194
-44.983270619271643 -53.799999237060547 61.432994518899399
-45.158300181203927 -53.799999237060547 90.979667027245270
-45.555459566829192 -53.799999237060547 91.932552354692987
-45.788694459100199 -53.720600128173828 58.572954343370995
-46.985658845972942 -53.251899719238281 54.759499959532945
-47.578895837728716 -53.799999237060547 95.743335435097549
-48.219310165166647 -53.799999237060547 97.016232842079802
-48.184141188109585 -52.988700866699219 52.852241565538918
-48.263822853095952 -53.799999237060547 50.945980914247890
-49.806594467331166 -53.799999237060547 37.600946634304293
-50.442963213727083 -53.799999237060547 29.022336952401851
-51.822847485754536 -52.894500732421875 101.458761080982427
-52.623296231658266 -53.799999237060547 102.022920288896316
-53.217904577803345 -53.799999237060547 102.410752573419629
-52.957898537875813 -53.799999237060547 19.896671261183940
-53.757073346800496 -53.799999237060547 18.861064245070729
-54.471463142967522 -53.799999237060547 103.362849115552095
-54.156887218997753 -53.799999237060547 18.625255942561793
-54.956518450676533 -53.799999237060547 18.162808916226528
-55.825118851968085 -53.799999237060547 104.309471963986127
-57.579326554455108 -53.799999237060547 -70.108377355537584
-57.756265909522241 -53.799999237060547 17.845519640074180
-57.965106975318662 -53.799999237060547 -72.014988573078639
-58.226370645465018 -53.799999237060547 105.878559426059269
-58.322537371335656 -53.799999237060547 -79.640275622185982
-58.305276021602737 -53.799999237060547 -80.593356661125668
-58.489045834468989 -53.799999237060547 -66.566498127219887
-58.956531707383149 -53.799999237060547 18.177863578575867
-59.757019317441149 -53.799999237060547 18.790827054157567
-59.675164170372987 -53.799999237060547 -84.000050121268131
-60.562883000072880 -53.147300720214844 26.154877485253166
-60.494203006348108 -53.799999237060547 -60.091095458802741
-61.025030405778729 -53.799999237060547 20.435807242659052
-61.367153797655064 -53.799999237060547 31.518637679910825
-62.170643471729804 -53.799999237060547 35.896699484113242
-62.571802976964491 -53.799999237060547 37.355481215883806
-62.796803159807361 -53.799999237060547 -88.221935802937381
-63.000074691154573 -52.921001434326172 72.856051696333793
-63.373467398170227 -53.799999237060547 39.446243638490735
-63.696554467741734 -53.799999237060547 -57.140443347305435
-63.670777527890877 -53.799999237060547 -89.510237466195164
-64.200075073611984 -53.662799835205078 72.855096103673361
-64.601594509946167 -53.234901428222656 74.761076558411489
-64.870041877518858 -53.799999237060547 -90.430687393181628
-65.399127039275498 -53.799999237060547 71.667941701924249
-65.375783676695974 -53.083698272705078 42.354150184629709
-65.669878243630251 -53.799999237060547 -90.640324024502348
-66.598863510820166 -53.799999237060547 71.330785498713283
-66.598557880225172 -52.906398773193359 70.946985113812417
-66.579528843841729 -53.799999237060547 -91.084049337720927
-67.002447600793218 -53.799999237060547 75.839067685689173
-68.199179292624166 -53.799999237060547 71.728612507973139
-68.177376981286258 -53.799999237060547 44.350020114637196
-68.468774309843624 -53.799999237060547 -92.031553240279763
-68.898145446246232 -53.799999237060547 -55.140785440635497
-69.399520668781989 -53.799999237060547 72.160655438286923
-69.378026457726023 -53.799999237060547 45.168964777745472
-69.268536155410828 -53.799999237060547 -92.325189472680449
-69.698365959556071 -52.972301483154297 -54.868023238093173
-70.200073171203002 -52.866298675537109 72.850318143408956
-70.629259468491611 -53.799999237060547 109.499390609558915
-71.003090717285573 -53.799999237060547 76.645078594443760
-70.898792222469268 -53.799999237060547 -54.329382441187562
-71.400013358411101 -53.799999237060547 72.778561794984938
-71.267527366506698 -53.799999237060547 -93.592788194418134
-71.803036739927734 -53.799999237060547 76.573144861356354
-72.450449757116402 -53.799999237060547 75.707928717362591
-72.474528409351223 -53.799999237060547 73.801708529551377
-72.179579627625046 -53.408500671386719 47.114434943459678
-73.698661242057611 -53.799999237060547 -54.498810286546927
-73.667051132499452 -53.799999237060547 -94.193698213252958
-74.580339370171828 -52.951999664306641 48.065621753060832
-74.467195677874173 -53.799999237060547 -94.016333929681736
-75.379969742121318 -53.799999237060547 47.606885475351895
-75.780335937933174 -53.433399200439453 48.064666163438147
-76.229529940791224 -53.799999237060547 109.838726848554401
-76.580338736035486 -53.687301635742188 48.064029099639370
-76.899404846826485 -53.799999237060547 -53.562458833389904
-77.829560794234624 -53.799999237060547 109.878750626535734
-78.158565080620619 -53.799999237060547 56.640873332409001
-78.586866468737554 -53.799999237060547 56.260534890562212
-78.987921821029190 -53.611598968505859 57.593315307289323
-78.987162840359488 -52.959999084472656 56.640213497671255
-78.899251000966899 -53.799999237060547 -53.756449497097123
-78.866299480789948 -53.799999237060547 -95.135834722954485
-79.285458426814870 -53.204799652099609 -71.078764947629665
-79.283181411899903 -53.195400238037109 -73.938161929189206
-79.787924619131502 -53.104499816894531 57.592678243490539
-80.086220205586883 -53.419799804687500 -70.126300201810380
-80.083943190671903 -53.541599273681641 -72.985697183369936
-80.082425229332515 -53.416801452636719 -74.891900802606074
-80.488498619553013 -53.306301116943359 -67.267221752150206
-80.537079634934031 -53.799999237060547 -73.939160442153351
-80.480149613468697 -53.147098541259766 -77.751616316064997
-80.466077325076498 -53.799999237060547 -95.423111872662517
-80.881803723590565 -53.799999237060547 -75.666936418503084
-81.299394388024780 -53.799999237060547 -53.579260702583809
-81.290011749602613 -53.321300506591797 -65.361655190637364
-82.092291562619891 -53.183898925781250 -62.502895272876614
-82.090014547704925 -53.684501647949219 -65.362292254436156
-82.078629539960446 -53.262599945068359 -79.659193238920679
-82.982579264054692 -53.799999237060547 63.308935658172921
-82.499244972472596 -53.799999237060547 -53.773117848447150
-82.479711556156403 -53.799999237060547 -78.302509942781498
-82.865999590000754 -53.799999237060547 -95.514019910896835
-83.392892064652685 -53.799999237060547 63.831108165166981
-83.299452762091406 -53.799999237060547 -53.506752885115418
-83.291529149711550 -53.769699096679688 -63.456952672117353
-83.972996139764902 -53.799999237060547 65.214347975841164
-83.693048510102102 -53.330299377441406 -61.551067584780611
-83.677868532178749 -53.392898559570313 -80.613561540668712
-84.078225408187947 -53.799999237060547 -80.167484340082581
-84.066167831477330 -53.799999237060547 -95.308974290173182
-84.595190081528273 -53.799999237060547 66.710652449610734
-84.499123296336009 -53.290100097656250 -53.926710880920211
-84.493810367855488 -53.399700164794922 -60.598503656863869
-84.492647567548630 -53.799999237060547 -62.058708272004324
-84.866479934232871 -53.305801391601563 -94.911616478970828
-85.396716826752410 -53.799999237060547 68.633316478847050
-85.296841447093499 -52.981601715087891 -56.786748734899106
-85.829944719649674 -53.799999237060547 110.357685645107651
-85.699119864097369 -53.656700134277344 -53.927666470542896
-85.698360886465423 -53.056301116943359 -54.880764465464907
-86.097603304846885 -53.018699645996094 -55.834184806982364
-86.076997160410485 -53.799999237060547 -81.710671963697578
-86.867238201784858 -53.463600158691406 -93.960206504871692
-87.295322857693264 -53.393600463867188 -58.694537378164611
-87.294467282797683 -53.799999237060547 -59.768938892974731
-87.274829869270263 -52.878398895263672 -84.428927106789871
-87.675590327972486 -53.255401611328125 -83.476044646973733
-88.098361651380245 -53.374099731445313 -54.882675650785757
-88.600068863027175 -53.490200042724609 72.835665730716357
-89.430034424085733 -53.799999237060547 110.470816147838178
-89.400823091388446 -53.377899169921875 73.788229664708609
-89.297599238471904 -53.168201446533203 -55.836733050026524
-90.096084002328936 -53.408199310302734 -57.743665285766781
-90.095191081392329 -53.799999237060547 -58.864964673890668
-90.066732116193165 -53.799999237060547 -94.602753940716340
-90.875060282069811 -53.799999237060547 -84.139099882740524
-91.674071019379056 -53.121799468994141 -85.385532755150265
-92.466885776905741 -53.799999237060547 -94.412663844141278
-93.030043701176538 -53.799999237060547 110.482948757787241
-93.003550072146410 -53.799999237060547 77.213161027772557
-93.839893421607258 -53.799999237060547 -72.043556632825684
-93.778298176786265 -53.799999237060547 -76.809103576312083
-93.896123046426240 -53.799999237060547 -79.668603827637583
-94.216193546721740 -53.799999237060547 -67.278153485763625
-94.080143775463227 -53.012798309326172 -77.762446358115881
-94.232949701704129 -53.799999237060547 -82.528171664432691
-94.532309491808192 -53.799999237060547 -65.372200389384517
-94.489253161268394 -53.158298492431641 -66.325268516482410
-94.476350198260022 -53.299499511718750 -82.528365490810955
-94.473314202675354 -53.157398223876953 -86.340864281988573
-94.467736416217605 -53.799999237060547 -93.345256592368045
-94.874066953004089 -53.406600952148438 -85.388080998194411
-95.273309371385551 -53.519298553466797 -86.341501339711868
-95.272550311734477 -52.895500183105469 -87.294702331427402
-95.898172838177757 -53.799999237060547 79.501757872069703
-95.694044415119919 -53.799999237060547 -60.305222292029171
-95.674069751106401 -52.932098388671875 -85.388718061993202
-96.094787030106104 -53.799999237060547 -59.374747356846612
-96.473313568539012 -53.451000213623047 -86.342456935410041
-96.472554508887939 -53.330600738525391 -87.295657927125575
-97.372838816145958 -53.799999237060547 80.453678340407592
-96.897005943829242 -53.799999237060547 -56.582881943050211
-97.510853740223084 -53.799999237060547 -87.296484752799387
-97.671792102055093 -52.969600677490234 -88.249707696974212
-98.099590079861585 -53.799999237060547 -53.344039066473954
-98.074829496690924 -52.891201019287109 -84.437527437695977
-98.068272857556778 -53.799999237060547 -92.671129258234473
-98.479384925572020 -52.853500366210938 -78.719052006476275
-99.006883820672030 -53.799999237060547 81.397178736444303
-98.999575306941452 -53.799999237060547 -73.953862625265359
-98.905940280024268 -53.799999237060547 -77.766289269991489
-99.022304270995718 -53.799999237060547 -81.578883142597817
-98.874065684731420 -53.568901062011719 -85.391266305037348
-98.868351643244822 -53.799999237060547 -92.566762992317393
-99.301792311975703 -53.799999237060547 -50.575197255502907
-99.687951464098020 -53.799999237060547 -66.329408380114629
-99.287527710002408 -53.799999237060547 -68.488193590020373
-100.025006419681901 -53.799999237060547 -65.376574372048992
-99.671791467918766 -53.468200683593750 -88.251300350395681
-100.102687314106731 -53.799999237060547 -49.455435199447038
-100.488281823585169 -53.799999237060547 -62.517544495936605
-100.468995099137516 -53.799999237060547 -91.767034871445958
-100.869511257709277 -53.381999969482422 -91.111355375285541
-101.544559358802204 -53.799999237060547 -59.658986843410617
-101.271030454061574 -53.328201293945313 -89.205676281535830
-101.704825408954335 -53.799999237060547 -46.769210173089810
-102.090075865918649 -53.799999237060547 -57.753216424884442
-101.671913224541612 -53.799999237060547 -88.099198899716626
-102.208080998884611 -53.799999237060547 82.893531379258249
-102.070274350475572 -53.717998504638672 -90.159315972855211
-102.658835453874914 -53.799999237060547 -56.800574558862024
-102.471034651215049 -53.508998870849609 -89.206631877234003
-102.906154313589198 -53.799999237060547 -45.097062960680766
-103.298325109946902 -53.799999237060547 -54.930782915736245
-103.698723560538639 -53.799999237060547 -54.432497784926241
-103.671790199646097 -53.695999145507813 -88.254485657238604
-104.507887062427343 -53.799999237060547 -42.929438239834511
-104.500204261232724 -53.799999237060547 -52.577235626380762
-105.398441140542985 -53.799999237060547 70.790687137628879
-105.301321056649627 -53.799999237060547 -51.169372459308065
-105.800451036048770 -53.799999237060547 73.312569344105626
-105.708941391337675 -53.799999237060547 -41.602093774544770
-106.464909294979819 -53.799999237060547 -49.178599205741719
-106.609490072398245 -53.799999237060547 84.659329347690530
-106.598203016751796 -53.799999237060547 70.485433237535148
-106.619742923385019 -53.799999237060547 -40.600518490114112
-107.000419492514879 -53.799999237060547 73.276312557179736
-107.679424384183406 -53.799999237060547 -47.273266161362933
-108.210086955003732 -53.799999237060547 85.410153071198181
-108.110499292355613 -53.095401763916016 -39.648607020289951
-108.105186278818223 -53.281501770019531 -46.320506607723175
-108.606134509795467 -53.589698791503906 80.444732964160892
-109.055941985497697 -53.799999237060547 -45.368062123952654
-109.428471900471337 -53.799999237060547 108.500689488609467
-109.408582846196595 -53.799999237060547 83.524699482898612
-109.398014235546228 -53.799999237060547 70.253001878188627
-109.806398089295485 -53.799999237060547 80.779081528477803
-109.800059089425218 -53.594200134277344 72.818783606879009
-109.712015296451156 -53.452400207519531 -37.743582155174494
-110.210660314997725 -53.799999237060547 86.129362496362162
-110.107462662634617 -53.217300415039063 -43.462698464889037
-110.512947328697706 -53.799999237060547 -36.577318954194695
-111.008885887696707 -53.799999237060547 83.906527656899144
-110.912011864212516 -52.940399169921875 -37.744537744797178
-111.312772243933367 -53.076900482177734 -36.791754467078498
-111.308977188697625 -53.014701843261719 -41.557454249971642
-111.811100717265987 -53.799999237060547 86.683683596627688
-111.806130443420486 -53.658199310302734 80.442184721116732
-113.011709980033118 -53.799999237060547 87.452129313345239
-112.997332064083679 -53.799999237060547 69.396837186542911
-112.914288166009783 -53.457401275634766 -34.886832598756541
-112.912011230076175 -52.853900909423828 -37.746130398218639
-113.470199040239379 -53.799999237060547 88.065861996069955
-113.407972388476267 -53.799999237060547 82.756515028964188
-113.405622425145040 -53.799999237060547 79.805511936313309
-113.310494591844318 -53.340099334716797 -39.652747916755573
-113.714290964112095 -53.144901275634766 -34.887469662555326
-113.711254968527413 -53.089199066162109 -38.699968453732950
-114.212546817104950 -53.799999237060547 88.496774277233598
-114.199420883589639 -53.799999237060547 72.013678612386869
-114.115051343832945 -53.502601623535156 -33.934686384836652
-114.627384661536027 -53.213500976562500 107.127553353629395
-114.597177996393967 -53.799999237060547 69.195062634236422
-115.260612674106881 -53.799999237060547 78.533236625139736
-114.914287531873441 -53.016601562500000 -34.888425252178010
-114.912010595939847 -53.309799194335938 -37.747723051640108
-115.427283630927249 -53.799999237060547 107.006112501201329
-115.315806971245379 -53.600498199462891 -32.982440982743810
-115.806129175147831 -52.890899658203125 80.438999414273809
-115.803852239214237 -53.473400115966797 77.579701614811711
-115.713531352343807 -53.117099761962891 -35.842160310898812
-116.214668072380775 -53.799999237060547 91.159777336570571
-116.200817645718459 -53.236801147460938 73.766888106430756
-116.112757287919138 -53.799999237060547 -36.816279193216694
-116.627077439914927 -53.799999237060547 106.740958686049368
-116.599566342389835 -53.799999237060547 72.193469029610441
-116.596842745496744 -53.799999237060547 68.773269766146711
-116.515052108747767 -53.125999450683594 -33.936597570157510
-117.006005739817823 -53.799999237060547 80.287348071650712
-117.001571792060616 -53.280601501464844 74.719349043629464
-117.658757486834489 -53.799999237060547 93.781331753054701
-117.314288296788277 -53.446498870849609 -34.890336437498867
-117.826621535509986 -53.336299896240234 106.171804118869716
-117.802333570832616 -53.647098541259766 75.671813789448763
-117.716566713792147 -53.400501251220703 -32.031254173142656
-118.226622934561135 -53.540100097656250 106.171485586970320
-118.217309177014243 -53.799999237060547 94.475589331988957
-118.201575989214078 -53.578399658203125 74.718393447931291
-118.200057951931058 -53.745601654052734 72.812094461293754
-118.605113001823668 -53.799999237060547 79.157976767557258
-119.026434149565375 -53.799999237060547 105.939845794873477
-119.019028150762608 -53.204299926757813 96.639647327655652
-118.916563281553508 -53.493400573730469 -32.032209762765341
-119.397018603089123 -53.399898529052734 68.998739262590917
-119.804397807628675 -53.799999237060547 78.263215003812633
-120.220528012204781 -53.799999237060547 98.516895482141791
-120.620690982854327 -53.799999237060547 98.719473004074558
-120.597022800242584 -53.437198638916016 68.997783666892744
-121.025370019016904 -53.799999237060547 104.602750940385661
-121.403089963159871 -53.516399383544922 76.622148006220741
-121.797778348673646 -53.084098815917969 69.949929886888128
-122.202333701611110 -53.289798736572266 75.668309950706430
-123.400812311070823 -53.216201782226563 73.761154556543673
-124.197779113588467 -53.538398742675781 69.948018701567264
-124.599298467903523 -53.426200866699219 71.853896159511891
-237.719039330345481 -53.799999237060547 21.248201545778024
-238.127554919246563 -53.799999237060547 23.154176429291240
-237.756755603312001 -53.414001464843750 18.388790836302739
-237.739298593006652 -53.173400878906250 -3.533122035647230
-237.737780634704990 -53.059898376464844 -5.439321840187311
-238.151436384495071 -53.082801818847656 11.716604194288076
-238.141569379099536 -53.225101470947266 -0.674041672563552
-238.138533383514869 -53.543098449707031 -4.486540463741173
-238.555999406315323 -52.941101074218750 17.435033843079623
-238.549168416249813 -53.368999481201172 8.856911562929978
-238.547650414470439 -53.437999725341797 6.950657160552595
-238.546132424462343 -53.373699188232422 5.044417540122430
-238.536265474505655 -53.530399322509766 -7.346158708526172
-238.961754998157204 -53.799999237060547 24.670213358802265
-238.946885189220353 -52.859901428222656 5.997218943722864
-238.943090198536709 -52.961299896240234 1.231600223120909
-238.940813198051018 -53.609401702880859 -1.627778638632376
-238.937018223315533 -53.684700012207031 -6.393377332080032
-239.355243209318672 -52.867401123046875 16.481276849856506
-239.352966208832981 -53.016101837158203 13.621897988103221
-239.579166868966865 -53.799999237060547 8.856091347390002
-239.753718973590992 -53.029899597167969 14.574699391703653
-239.740815996153344 -53.478401184082031 -1.628415702431159
-239.738538979719493 -53.435199737548828 -4.487814591338738
-239.733985025833164 -53.359500885009766 -10.206513187056437
-240.155989743735745 -53.431701660156250 17.433759727633038
-240.146122761882737 -53.230300903320313 5.043143424675845
-240.145363759189394 -53.092399597167969 4.090013958511370
-240.143845761397046 -53.258598327636719 2.183764562922560
-240.140050786661561 -53.234500885009766 -2.581834130525099
-240.137773770227710 -53.297698974609375 -5.441233019432678
-240.552962776594342 -53.455398559570313 13.620942398480537
-240.551444778801994 -53.695999145507813 11.714693002891726
-240.546330903900014 -53.799999237060547 5.292864861742510
-240.546131790326001 -53.151901245117188 5.042824886700963
-240.537023819520158 -53.162200927734375 -6.394651459677601
-240.534746803086307 -53.613201141357422 -9.254050348585181
-240.954474544045723 -53.448398590087891 15.526873268245446
-240.943848559499372 -53.271701812744141 2.183127499123778
-240.942330561707024 -53.038799285888672 0.276878103534967
-240.933222535462335 -53.507701873779297 -11.160667861046619
-241.351447576904320 -53.429100036621094 11.714055939092944
-241.349929579111972 -53.240001678466797 9.807806543504134
-241.348702622762971 -53.799999237060547 8.267036978169743
-241.335508580339450 -53.393600463867188 -8.301587510113922
-241.761308351958888 -53.499801635742188 24.104383280120672
-241.753718339454679 -53.309200286865234 14.573106738282188
-241.751441346563354 -53.020198822021484 11.713737413269044
-241.746187453625510 -53.799999237060547 5.116079440479750
-241.745369355394018 -53.243999481201172 4.088739830913804
-241.743092362502694 -52.967700958251953 1.229370505900659
-242.136255177789735 -53.799999237060547 -7.349025477394225
-241.734743370847667 -53.632301330566406 -9.255005938207862
-241.733225333564633 -53.496498107910156 -11.161304924845400
-242.160543142467105 -53.305801391601563 23.150964852026732
-242.159025105184071 -53.465801239013672 21.244665865389194
-242.155989109599403 -53.259498596191406 17.432167074211570
-242.154471111807055 -53.218700408935547 15.525917678622761
-242.148082867427036 -53.799999237060547 7.503780196095454
-242.476882849267014 -53.799999237060547 5.994407911406054
-242.146122127746395 -53.195301055908203 5.041550771254379
-242.133394294553256 -53.799999237060547 -10.941624207069591
-242.132460124072850 -53.472801208496094 -12.114723352939343
-242.563529715718346 -53.799999237060547 26.889744631065906
-242.562070129212003 -53.441600799560547 25.056846118591928
-242.545372153496317 -52.944301605224609 4.088102767115021
-242.924775450034474 -53.799999237060547 -5.443452384016858
-242.933147523650575 -53.799999237060547 -11.255661440053810
-243.332641886648588 -53.799999237060547 -11.902279135290360
-244.162060466632425 -53.231098175048828 25.055572003145343
-245.364197449685264 -53.799999237060547 27.723314819738466
-245.332180259470334 -53.799999237060547 -12.482770988706182
-245.330953358180466 -52.997398376464844 -14.023471412674557
-245.761307083686205 -53.129299163818359 24.101197973277738
-246.164318294381474 -53.799999237060547 27.890078075120762
-246.160541874194422 -52.888301849365234 23.147779545183795
-246.562068860939348 -53.323398590087891 25.053660811748998
-246.930184716450043 -53.356498718261719 -14.977845430391181
-247.342755774908824 -53.799999237060547 0.796801084519588
-247.331711703194969 -53.743400573730469 -13.071964163825985
-247.764342445134560 -53.489200592041016 27.912104111033891
-248.143084229752731 -53.799999237060547 1.224274019812359
-247.732464452004820 -53.535198211669922 -12.119182787379842
-247.728669477269335 -53.158100128173828 -16.884781480827503
-248.142325227059388 -53.125801086425781 0.271144553647884
-248.533036543326574 -53.799999237060547 -11.404921014740008
-248.527913296220817 -53.448398590087891 -17.838518446896323
-248.961303017311252 -53.626701354980469 24.098649730233589
-249.364687117510215 -53.799999237060547 28.336630171914926
-249.342873666000742 -53.799999237060547 0.944048334467235
-249.331711069058628 -53.282798767089844 -13.073556817247450
-249.763582752866029 -53.181999206542969 26.957312373244925
-249.760546836262733 -53.482299804687500 23.144912764164765
-250.131698608376723 -53.437500000000000 -13.074193868895250
-250.130939629225878 -53.118099212646484 -14.027293771165290
-250.564344609100544 -53.377300262451172 27.909874393813642
-250.541574602724808 -53.283500671386719 -0.683916131067233
-250.530948657669171 -52.888301849365234 -14.027612309140174
-250.962061362325727 -53.063899993896484 25.050156979082161
-250.930183448177388 -53.122600555419922 -14.981030737234114
-251.364713478297716 -53.799999237060547 28.368936814996047
-251.340059442525472 -52.857398986816406 -2.590752999406098
-251.330951455771469 -53.676601409912109 -14.028249372938955
-251.329122532594056 -53.799999237060547 -16.324948168654430
-252.140046981843568 -53.121700286865234 -2.591390051053899
-252.130180015938748 -53.087001800537109 -14.981986326856799
-252.530436941108206 -53.799999237060547 -14.671004685825125
-252.529429986249795 -53.261699676513672 -15.935503949199177
-252.526773520490678 -53.799999237060547 -19.271402244519034
-252.963578686491047 -53.497398376464844 26.954764130200775
-252.962060728189414 -53.460098266601563 25.048564325660696
-253.387822624343102 -53.799999237060547 26.001325786648476
-253.360612159849524 -53.799999237060547 23.217845901128584
-253.764340542725563 -53.736499786376953 27.907326150769492
-253.730185612143373 -53.654499053955078 -14.983260454454363
-254.162098307031528 -53.799999237060547 25.099109040143468
-254.139287289575037 -53.111198425292969 -3.546181788842864
-254.939735632265439 -53.799999237060547 -2.987319289440617
-254.930182179904733 -53.685398101806641 -14.984216044077048
-254.929423121772516 -53.612598419189453 -15.937415128444545
-255.761904024909768 -53.799999237060547 24.846834587772232
-256.130178747666093 -53.557701110839844 -14.985171633699732
-256.931428882160503 -53.799999237060547 -13.438608043601516
-256.929437746420433 -53.734298706054688 -15.939007794016995
-257.362003030264304 -53.799999237060547 24.962860456551894
-257.339148134854895 -53.799999237060547 -3.737530795942847
-257.330190574211656 -53.298400878906250 -14.986127235473397
-258.139070295818044 -53.799999237060547 -3.820267736110159
-258.562075757908701 -53.799999237060547 25.076705295866660
-258.530960486432036 -53.799999237060547 -13.996781994735912
-258.528106211810496 -53.799999237060547 -17.581081853141217
-259.330189940075343 -53.123600006103516 -14.987719888894862
-259.737773659205345 -52.864299774169922 -5.456841027823444
-261.762060989746374 -53.119201660156250 25.041556648176048
-261.727906059164184 -53.683799743652344 -17.849029957047808
-262.138452034129955 -53.799999237060547 -4.598252144212713
-262.561161978279813 -53.799999237060547 23.927619626034009
-264.561959662096285 -53.799999237060547 24.928527188809156
