-61.168853759766 -79.756744384766 -64.012039184570 1.948942542076
-47.222919464111 -79.744728088379 -67.011894226074 1.295350551605
-44.983070373535 -74.496871948242 -68.202346801758 4.880748271942
-45.639755249023 -77.026321411133 -67.407638549805 2.839935779572
-66.934066772461 -87.676559448242 -68.721527099609 6.735755443573
-76.435180664063 -78.351356506348 -71.640060424805 3.743406534195
-43.242160797119 -80.728103637695 -77.410209655762 0.076871477067
-43.199401855469 -85.580741882324 -87.935012817383 5.538872241974
-49.608417510986 -88.562950134277 -89.398490905762 4.253143310547
-85.723587036133 -78.242462158203 -89.792350769043 3.143155097961
-72.310249328613 -85.540870666504 -110.670799255371 9.594566345215
43.182209014893 -79.251106262207 -108.491325378418 1.696190118790
-85.985122680664 -80.001144409180 -110.734916687012 2.195253372192
43.910652160645 -81.432693481445 -122.785865783691 3.361927747726
40.359073638916 -78.370620727539 -124.770957946777 1.812832593918
32.909709930420 -78.859092712402 -123.035385131836 2.079402923584
27.498237609863 -86.143516540527 -128.579254150391 5.284804821014
28.248128890991 -78.924636840820 -133.528305053711 2.870153903961
22.447223663330 -76.428527832031 -147.096679687500 1.846273064613
-49.606479644775 -85.522201538086 -159.191467285156 6.597745418549
29.385284423828 -80.292984008789 -142.354141235352 1.111924648285
23.886699676514 -84.958335876465 -157.083541870117 5.519576072693
-42.299396514893 -84.284080505371 -151.938262939453 3.663460731506
24.987426757813 -81.040534973145 -156.013504028320 2.268749952316
-50.552890777588 -77.518951416016 -160.283325195313 2.446021556854
24.609972000122 -80.992904663086 -167.261184692383 2.261273622513
-62.819267272949 -82.993736267090 -172.033355712891 1.986313343048
-3.382523059845 -84.905105590820 -174.431655883789 5.279492378235
-32.715061187744 -80.298149108887 -174.874298095703 2.501975774765
-7.639871120453 -82.762260437012 -172.385147094727 2.205836534500
-59.046871185303 -81.199165344238 -177.617431640625 2.587069749832
23.479785919189 -84.791168212891 -173.334625244141 6.000300884247
-13.880958557129 -78.811065673828 -187.037506103516 3.316500663757
-25.277847290039 -74.416580200195 -188.665878295898 1.028182744980
-52.149063110352 -76.848632812500 -184.065078735352 1.751323103905
-30.501333236694 -82.522926330566 -189.269668579102 1.450771093369
15.491135597229 -85.342109680176 -193.832122802734 5.834086894989
-149.262527465820 -85.219451904297 -190.479797363281 3.066902160645
-31.178567886353 -81.983688354492 -190.742187500000 1.478997230530
-50.724510192871 -77.498313903809 -191.131546020508 1.400583505630
-151.542373657227 -86.318519592285 -190.243835449219 4.415707111359
-143.154556274414 -82.577941894531 -198.339126586914 2.057068109512
-25.616331100464 -81.193145751953 -199.454895019531 4.146084308624
-25.103519439697 -81.955680847168 -196.211456298828 2.320645570755
-45.918338775635 -79.666404724121 -196.057083129883 1.232884883881
-18.423654556274 -84.415451049805 -195.598312377930 4.354794979095
-48.676979064941 -81.507911682129 -198.860565185547 1.912836313248
-48.612117767334 -82.294967651367 -197.873153686523 2.213343858719
-53.937118530273 -84.894012451172 -201.127304077148 1.403417825699
-20.724054336548 -76.655281066895 -208.011734008789 3.236531972885
-144.622985839844 -81.654884338379 -219.807571411133 2.113105773926
-59.238079071045 -79.189788818359 -212.408248901367 3.040891170502
-61.299186706543 -77.045150756836 -212.753814697266 3.219241619110
-34.452819824219 -72.777870178223 -210.619277954102 3.255633115768
-11.650958061218 -76.782989501953 -208.902801513672 0.997002542019
-34.381778717041 -78.390861511230 -212.097045898438 3.353531837463
-81.612960815430 -80.657310485840 -211.076065063477 2.992735385895
-144.492889404297 -89.343498229980 -211.582809448242 5.226416587830
-34.357055664063 -82.781333923340 -211.394195556641 2.024054050446
4.134091854095 -85.751220703125 -209.813385009766 8.328869819641
-69.294494628906 -84.422119140625 -214.309921264648 3.866764545441
-63.472003936768 -80.235641479492 -217.026275634766 5.773261547089
-25.908683776855 -74.941299438477 -215.922607421875 2.005271911621
-9.823347091675 -90.534439086914 -214.975433349609 8.695161819458
-28.624002456665 -84.615127563477 -217.615005493164 5.247532367706
19.393026351929 -80.284873962402 -216.148361206055 3.994026184082
-151.924850463867 -75.193458557129 -219.632843017578 3.151415586472
-13.087426185608 -89.254951477051 -220.848907470703 7.882242679596
-159.318298339844 -84.217956542969 -228.354995727539 5.082263469696
6.379745006561 -82.537086486816 -232.581420898438 3.541508197784
12.211049079895 -75.618858337402 -227.642959594727 3.134280443192
-1.071390032768 -80.682319641113 -223.832031250000 2.097279310226
14.888192176819 -82.579132080078 -230.723632812500 1.986977458000
-141.105606079102 -88.707092285156 -237.603317260742 6.182362556458
11.501979827881 -82.858840942383 -229.425567626953 1.843639016151
-154.871398925781 -78.698738098145 -230.352371215820 2.212054252625
-145.864364624023 -82.164543151855 -236.655136108398 1.873016595840
-0.579433977604 -82.903190612793 -222.628799438477 2.553356170654
18.105039596558 -86.198501586914 -234.581939697266 4.597460269928
-31.233764648438 -76.819839477539 -239.496078491211 3.238394498825
-146.486022949219 -82.330001831055 -241.330764770508 2.567207574844
-36.467254638672 -79.531707763672 -247.189971923828 4.541283130646
-47.366577148438 -79.030784606934 -242.313186645508 1.382319927216
-39.437828063965 -78.039703369141 -241.565673828125 1.835057020187
19.157464981079 -81.874435424805 -245.891632080078 1.819777727127
-50.736362457275 -73.820075988770 -248.949279785156 1.690173745155
18.337995529175 -81.586456298828 -246.759307861328 1.290657758713
14.056726455688 -77.782623291016 -241.701843261719 1.825338244438
8.587306022644 -82.897705078125 -251.910079956055 2.177338600159
-38.866756439209 -86.383705139160 -248.992355346680 7.172809600830
24.689634323120 -84.457855224609 -248.024810791016 5.598814964294
-142.798141479492 -82.478462219238 -249.094284057617 3.211135387421
20.175409317017 -78.313362121582 -253.341583251953 2.649712085724
-0.426070988178 -86.761199951172 -250.895309448242 4.071923255920
9.498061180115 -80.968086242676 -241.073287963867 1.698684930801
-150.327255249023 -75.825233459473 -257.082977294922 0.761793792248
-146.662826538086 -86.554550170898 -259.734375000000 0.627082705498
-141.970901489258 -82.845825195313 -258.645324707031 1.569036960602
-152.052459716797 -81.601028442383 -261.558959960938 0.969377100468
14.479684829712 -75.011589050293 -264.057220458984 5.087504863739
-155.964096069336 -75.994613647461 -275.113311767578 4.090325355530
-7.489615917206 -81.841117858887 -275.586791992188 3.038603067398
-152.825073242188 -85.050834655762 -268.032714843750 2.000961542130
-143.989135742188 -79.209243774414 -285.278259277344 1.741606235504
-154.937194824219 -76.924339294434 -277.625946044922 4.146376132965
-153.648757934570 -85.423484802246 -286.273223876953 1.894913434982
-129.822341918945 -85.836753845215 -291.676269531250 6.773773670197
-154.382339477539 -82.487213134766 -292.040100097656 2.401221513748
-145.992233276367 -85.442794799805 -293.591796875000 2.444890737534
-147.313125610352 -82.190734863281 -291.015350341797 1.941183090210
-153.769317626953 -84.909095764160 -299.328918457031 1.999754905701
-144.743286132813 -78.586509704590 -293.791259765625 2.508090734482
-152.779327392578 -82.073394775391 -303.984100341797 3.851574897766
-147.596343994141 -83.590934753418 -306.547821044922 2.524668216705
-146.828033447266 -76.344100952148 -309.260803222656 1.381207346916
-57.816955566406 -70.437934875488 -63.877689361572 7.255881786346
-66.103355407715 -79.559608459473 -67.160629272461 0.933732450008
-47.849571228027 -80.094985961914 -63.383327484131 0.986433506012
-24.523361206055 -82.227035522461 -78.691719055176 5.393303871155
-52.735652923584 -84.579147338867 -89.221168518066 1.494025468826
-89.445205688477 -90.026000976563 -99.095947265625 8.140689849854
39.298004150391 -81.209640502930 -108.920104980469 2.853946447372
-74.113311767578 -82.825202941895 -100.830444335938 2.116481304169
44.639865875244 -83.862922668457 -115.796096801758 2.171033620834
41.425827026367 -80.403785705566 -125.381416320801 0.804714858532
41.087745666504 -81.375778198242 -125.157424926758 1.539998292923
34.377010345459 -81.522987365723 -136.646789550781 1.814494609833
31.298847198486 -78.351371765137 -135.826461791992 2.141410827637
33.002506256104 -89.900573730469 -136.170608520508 7.483342170715
32.356750488281 -76.776626586914 -152.601226806641 0.778326809406
-46.460456848145 -75.413032531738 -152.319061279297 2.770849704742
29.168201446533 -83.125099182129 -141.099609375000 2.987015724182
-66.924461364746 -75.753921508789 -154.931900024414 1.242411971092
-35.432498931885 -83.817085266113 -153.855728149414 5.777581691742
-61.378093719482 -83.100585937500 -164.921875000000 3.171780824661
-39.125988006592 -82.953933715820 -160.265823364258 1.291790127754
31.497091293335 -81.923332214355 -159.346588134766 4.642511367798
-36.665069580078 -88.397872924805 -158.304321289063 5.247885704041
-0.818724989891 -81.322288513184 -177.253585815430 7.512313365936
34.934352874756 -73.131401062012 -167.601577758789 4.829978942871
-11.339298248291 -81.397201538086 -173.440994262695 0.800531148911
-58.596477508545 -80.639625549316 -164.555160522461 3.541085958481
-38.572463989258 -76.476409912109 -172.678298950195 1.771934270859
-33.626373291016 -76.644737243652 -176.583038330078 2.543797731400
23.064933776855 -82.818664550781 -179.836105346680 2.828642606735
-53.469352722168 -82.591308593750 -178.022262573242 2.711538791656
-27.259801864624 -74.896705627441 -176.678436279297 1.351454377174
21.885248184204 -79.870407104492 -188.095626831055 2.200852870941
-52.486007690430 -82.341102600098 -187.945434570313 2.612416505814
-25.065465927124 -73.690017700195 -181.292938232422 0.783406794071
-55.383239746094 -76.779335021973 -186.974899291992 3.249642372131
-41.753273010254 -79.295196533203 -197.500610351563 1.450238585472
-29.496917724609 -78.679161071777 -192.060791015625 2.702333927155
-41.056594848633 -83.057975769043 -197.762451171875 1.742473125458
-22.951126098633 -79.905220031738 -194.706420898438 1.327865600586
-138.928634643555 -82.201469421387 -199.293167114258 0.909628391266
21.386735916138 -80.020446777344 -203.434402465820 3.633305311203
-133.874572753906 -79.490264892578 -201.644866943359 2.890679121017
-20.771549224854 -77.063201904297 -198.194732666016 1.119292616844
-21.401960372925 -77.209793090820 -198.697952270508 1.402003526688
-42.818012237549 -81.552803039551 -195.765441894531 1.981050372124
10.416434288025 -76.893966674805 -201.405502319336 2.354479551315
-16.901828765869 -84.383117675781 -200.479980468750 5.330026626587
-54.448951721191 -82.805335998535 -207.188812255859 0.480888664722
-34.912097930908 -80.968597412109 -205.322875976563 1.688318967819
-59.598972320557 -77.388587951660 -208.875671386719 1.840430498123
-68.671585083008 -79.420425415039 -213.415908813477 1.394796133041
16.382991790771 -77.952903747559 -211.510025024414 0.996809959412
-87.139228820801 -79.322097778320 -213.410751342773 1.476779699326
-28.282421112061 -81.040328979492 -217.198867797852 2.968426704407
-80.907249450684 -81.821571350098 -210.859420776367 3.187510490417
-150.481994628906 -81.998062133789 -215.376144409180 2.622992753983
-7.226451873779 -80.947143554688 -216.332839965820 1.996034383774
-5.480957984924 -78.294113159180 -220.000747680664 1.008141636848
12.435612678528 -81.551315307617 -219.578720092773 0.905975759029
12.089144706726 -72.573280334473 -229.262207031250 0.353139787912
-0.983223974705 -82.619277954102 -229.727325439453 4.140059947968
-144.290313720703 -80.028587341309 -220.478988647461 3.377357959747
-150.111663818359 -86.223930358887 -237.966918945313 1.872208476067
-155.421325683594 -77.521034240723 -235.892471313477 4.049265384674
-0.725432991982 -83.963066101074 -238.954345703125 5.659411907196
2.707192897797 -78.303237915039 -239.600418090820 1.531649112701
-24.197391510010 -86.665924072266 -245.082580566406 8.286700248718
-150.803558349609 -78.727592468262 -240.684539794922 1.123148918152
9.726792335510 -82.350242614746 -244.779052734375 2.842674493790
-22.956178665161 -73.625663757324 -243.164291381836 2.132422208786
19.005775451660 -80.431243896484 -237.063522338867 2.438596725464
-52.469154357910 -79.257606506348 -245.291915893555 0.700085341930
-50.439010620117 -80.836990356445 -252.332809448242 5.513957500458
-147.173629760742 -87.328369140625 -247.858413696289 3.121262073517
-61.738574981689 -82.439323425293 -250.740463256836 4.133448123932
-2.451600074768 -80.548728942871 -247.945602416992 2.627230882645
-10.498917579651 -76.979690551758 -255.477218627930 1.760509252548
-147.020355224609 -85.998664855957 -261.932189941406 1.384076237679
-131.425308227539 -79.098083496094 -258.064331054688 2.154163360596
-135.280593872070 -78.960746765137 -259.133148193359 0.635024487972
16.537771224976 -79.022377014160 -259.162261962891 2.935898065567
-145.781570434570 -83.106582641602 -274.665130615234 1.692879796028
17.985359191895 -81.368560791016 -267.286071777344 2.330025672913
-143.247619628906 -79.104446411133 -277.836425781250 3.306552171707
3.065669059753 -82.675163269043 -279.023864746094 1.967202663422
-141.123947143555 -82.013870239258 -284.106658935547 3.337745666504
-2.071270942688 -83.886306762695 -285.069793701172 4.883193016052
-153.470993041992 -78.354339599609 -287.078857421875 1.072187781334
-144.102142333984 -77.641067504883 -284.723541259766 1.314130783081
-135.935943603516 -86.731117248535 -288.384735107422 1.048483729362
-149.589218139648 -83.474418640137 -297.281524658203 1.499819278717
-21.239608764648 -77.962562561035 -292.278442382813 1.700715065002
-150.555175781250 -80.052444458008 -294.217254638672 2.191066503525
-146.304153442383 -86.001586914063 -297.487579345703 2.009889841080
-152.175720214844 -80.264846801758 -309.144958496094 1.513230681419
-56.450820922852 -76.751571655273 -58.678783416748 2.754741668701
-40.138786315918 -86.093948364258 -65.242538452148 5.623476028442
-76.165618896484 -83.666358947754 -70.795822143555 3.377942800522
-32.406719207764 -77.412925720215 -68.349372863770 0.779982626438
-28.171003341675 -81.111450195313 -72.106704711914 2.907465219498
-87.911041259766 -80.729232788086 -80.863098144531 2.263454198837
83.757667541504 -81.930053710938 -85.933563232422 2.636811733246
-35.177875518799 -76.793395996094 -87.879837036133 5.287534236908
81.721794128418 -84.322387695313 -87.653556823730 4.535568237305
78.925971984863 -80.283111572266 -90.629806518555 2.654893159866
84.431663513184 -79.169166564941 -86.730033874512 0.687418162823
86.301582336426 -76.491676330566 -92.184783935547 2.216638565063
89.140777587891 -78.067481994629 -96.436241149902 3.062739849091
-91.364326477051 -76.214401245117 -95.230590820313 2.181627273560
56.431995391846 -79.688346862793 -106.925827026367 4.303586959839
-98.354187011719 -67.299720764160 -113.167739868164 3.642428636551
47.489067077637 -82.694953918457 -108.279403686523 5.602983474731
50.001117706299 -80.689834594727 -114.592391967773 5.102376461029
37.175704956055 -78.070205688477 -115.880294799805 1.209889292717
34.431606292725 -79.906784057617 -140.126998901367 2.207108497620
26.718971252441 -78.342468261719 -142.606384277344 0.657957792282
21.283655166626 -71.410339355469 -145.053070068359 2.571666717529
32.316001892090 -74.398651123047 -143.990997314453 3.154075622559
-46.112476348877 -82.683708190918 -155.668319702148 2.934827566147
-50.139419555664 -81.137153625488 -152.848434448242 3.589563608170
-40.887573242188 -78.328849792480 -160.483856201172 1.941768884659
22.136110305786 -76.345558166504 -156.694381713867 2.120432615280
30.991420745850 -77.641433715820 -169.688049316406 3.313884735107
-33.143974304199 -75.118751525879 -171.290512084961 3.757660865784
-35.790462493896 -73.173545837402 -160.296340942383 1.827991962433
-46.164993286133 -82.367362976074 -161.344635009766 4.583009243011
1.307422041893 -75.729721069336 -164.767990112305 2.848395347595
24.871391296387 -79.900619506836 -151.690673828125 1.088537812233
33.327064514160 -74.338470458984 -160.570037841797 1.372963905334
29.400770187378 -76.655929565430 -172.421585083008 2.200451135635
-5.354247093201 -78.383384704590 -174.630279541016 2.884033441544
-5.775823116302 -80.399337768555 -172.223709106445 2.799807786942
-58.797920227051 -76.953964233398 -167.713073730469 1.107418179512
-61.072135925293 -78.828140258789 -173.238830566406 1.075316905975
-45.025104522705 -80.850090026855 -170.934906005859 3.049648761749
-37.873371124268 -77.004112243652 -169.269241333008 1.327063918114
21.080434799194 -72.945327758789 -172.188827514648 3.071113348007
-23.890182495117 -84.176376342773 -180.056304931641 2.043667316437
-29.638427734375 -75.294967651367 -183.521926879883 3.092538356781
-63.359985351563 -83.681625366211 -181.076156616211 7.562456607819
96.215438842773 -80.312919616699 -183.505050659180 7.857882022858
21.161336898804 -83.099662780762 -177.702957153320 3.944398641586
-25.713010787964 -78.867851257324 -181.343978881836 0.501134276390
-52.249477386475 -79.462364196777 -179.252868652344 1.069744110107
-22.412218093872 -74.989227294922 -182.481460571289 1.338159203529
113.356300354004 -78.530189514160 -184.103561401367 4.724292278290
-57.165813446045 -81.700317382813 -187.472198486328 3.514584779739
11.321841239929 -81.229042053223 -193.037841796875 5.345677852631
15.789635658264 -78.781402587891 -179.850830078125 2.981165409088
-56.163311004639 -86.085121154785 -178.063125610352 5.508275985718
-25.252952575684 -77.354743957520 -184.364440917969 2.404386520386
-56.108417510986 -83.537078857422 -179.257476806641 4.127219200134
-36.886428833008 -81.739830017090 -177.927917480469 3.951696157455
-29.215747833252 -79.102203369141 -189.224105834961 0.828622043133
18.909406661987 -79.353233337402 -190.409606933594 1.983779311180
-47.674812316895 -81.344482421875 -190.433181762695 3.165883064270
103.139068603516 -77.129486083984 -191.685775756836 1.215817928314
-50.696197509766 -75.110504150391 -190.879364013672 1.534833312035
5.851130962372 -78.041442871094 -204.835052490234 3.498934507370
21.148391723633 -77.287025451660 -199.574295043945 2.171143054962
-50.110889434814 -79.518341064453 -193.426177978516 1.288839221001
-15.458466529846 -80.082984924316 -190.599472045898 4.585984706879
98.803405761719 -78.129539489746 -196.018005371094 3.660806894302
95.001266479492 -83.298027038574 -196.263229370117 7.325155258179
-50.869880676270 -77.709793090820 -187.904998779297 1.208781123161
-150.305099487305 -87.120925903320 -202.132339477539 4.057410240173
-45.642257690430 -78.866989135742 -197.239807128906 1.229688405991
-145.069091796875 -80.936767578125 -198.439636230469 0.982192695141
-134.958648681641 -75.056274414063 -198.297607421875 1.502200603485
-47.632690429688 -82.952049255371 -197.182968139648 1.788762569427
9.269770622253 -81.094512939453 -208.231109619141 3.205837249756
-15.949251174927 -75.752510070801 -206.697128295898 1.157172441483
15.963564872742 -75.675903320313 -202.302444458008 1.965475320816
91.284027099609 -83.312248229980 -215.152893066406 6.172235012054
-34.587726593018 -77.033721923828 -204.288848876953 1.007921695709
-15.432249069214 -76.369796752930 -204.421920776367 1.699231147766
-17.489320755005 -76.063163757324 -216.295867919922 2.242548942566
-34.866931915283 -77.607803344727 -204.991226196289 0.996018290520
4.893085002899 -79.315567016602 -207.969100952148 2.766628026962
-80.544868469238 -81.344787597656 -212.549118041992 2.474399566650
16.394044876099 -80.044883728027 -216.776138305664 2.097569227219
-35.281311035156 -77.962684631348 -206.910675048828 1.531983852386
-145.597518920898 -84.979995727539 -208.223983764648 2.297612667084
-141.046081542969 -75.654464721680 -211.559783935547 3.148526430130
-88.953552246094 -80.296478271484 -214.386444091797 2.060031414032
-35.111225128174 -76.569404602051 -210.271636962891 2.263371467590
-12.554054260254 -84.952003479004 -213.694351196289 5.208724975586
-34.575115203857 -80.493057250977 -206.056671142578 0.955068826675
-90.847557067871 -82.900634765625 -218.729553222656 6.164287567139
-86.841873168945 -81.837471008301 -214.620925903320 2.569847822189
5.391348838806 -85.798118591309 -222.132095336914 4.722268104553
-149.757614135742 -73.292701721191 -213.833221435547 1.035082697868
-15.470001220703 -83.800010681152 -213.852630615234 5.153714656830
9.100909233093 -86.725875854492 -220.649505615234 4.571972846985
-144.489593505859 -78.238288879395 -222.244979858398 1.746506810188
-24.138196945190 -80.980728149414 -216.581283569336 0.847463846207
1.768237948418 -73.564605712891 -220.787994384766 2.308588743210
-9.735381126404 -80.013160705566 -221.434265136719 1.412932276726
-152.894638061523 -74.869445800781 -224.770935058594 2.791228771210
-140.945632934570 -67.814933776855 -227.895385742188 2.330992698669
-3.833647012711 -79.244773864746 -228.048477172852 0.884476363659
-148.360214233398 -85.543281555176 -228.269775390625 1.168067932129
0.518208980560 -73.281402587891 -230.549163818359 2.697433233261
17.613901138306 -77.639839172363 -237.716430664063 1.298646211624
-2.802268028259 -82.229148864746 -230.401321411133 4.355377674103
-2.947005033493 -72.162864685059 -233.075256347656 0.735443532467
8.572052955627 -76.763626098633 -233.167541503906 0.985405087471
-153.051330566406 -80.689430236816 -242.137069702148 2.566989898682
-20.108760833740 -76.079399108887 -234.062103271484 4.290258884430
-34.704757690430 -81.688926696777 -240.092163085938 2.796521186829
0.347965002060 -77.320457458496 -236.777557373047 1.541354179382
3.725889921188 -85.126464843750 -245.550277709961 4.928559780121
0.745105028152 -76.621513366699 -234.220947265625 2.286970376968
-59.711956024170 -78.578422546387 -243.681716918945 2.980193138123
-149.052871704102 -75.154067993164 -251.497116088867 1.534863233566
-153.991561889648 -79.426376342773 -249.021667480469 3.005802392960
12.147086143494 -80.760566711426 -248.694656372070 0.584800958633
25.957817077637 -81.325325012207 -247.173767089844 4.464183807373
-61.930301666260 -75.343162536621 -248.582473754883 1.149997830391
-141.889785766602 -84.917892456055 -253.765060424805 4.188721179962
-153.696289062500 -83.604850769043 -256.338958740234 2.343234777451
-155.214675903320 -83.611946105957 -258.522430419922 2.427899360657
-143.546340942383 -76.054054260254 -264.144348144531 2.330618619919
-143.010025024414 -80.754188537598 -258.161926269531 1.391674160957
-6.060449123383 -80.930923461914 -257.445312500000 0.922896623611
-146.139465332031 -80.999107360840 -263.522918701172 2.615393161774
-15.189209938049 -79.767692565918 -270.510772705078 2.710697174072
-147.897430419922 -77.799324035645 -272.382415771484 1.761445999146
-148.416305541992 -78.657356262207 -283.976928710938 1.199562430382
-147.917144775391 -77.055511474609 -286.230346679688 1.615143299103
-3.955677986145 -73.310333251953 -286.692077636719 0.814565300941
-149.928985595703 -74.806594848633 -283.981323242188 1.863318800926
-24.560527801514 -80.692810058594 -287.460845947266 4.057028770447
-25.043149948120 -75.130859375000 -285.926086425781 1.621833562851
-13.008791923523 -75.211914062500 -296.210815429688 3.615453243256
-15.419942855835 -74.805633544922 -295.447906494141 2.894476413727
11.173821449280 -81.359580993652 -292.451416015625 3.225558996201
-125.065528869629 -81.596923828125 -291.998382568359 4.251257419586
-63.022258758545 -79.467094421387 -288.231262207031 4.602246284485
-42.762615203857 -74.878601074219 -292.089324951172 2.579692602158
-33.787284851074 -79.397529602051 -288.663146972656 1.066064476967
-8.599487304688 -75.899856567383 -296.118652343750 3.899735450745
5.569619178772 -79.851882934570 -289.062866210938 2.825480222702
-141.442932128906 -79.488876342773 -300.667572021484 4.714241981506
11.172578811646 -78.913085937500 -298.335205078125 5.211015701294
-154.295135498047 -75.965881347656 -304.857330322266 0.830907642841
-155.261016845703 -84.476325988770 -303.077880859375 3.904446601868
-153.792816162109 -74.063621520996 -314.346893310547 2.779216051102
-142.273117065430 -77.960166931152 -310.881164550781 3.685135364532
-51.949817657471 -78.980201721191 -50.655437469482 6.619048595428
-54.023422241211 -83.879013061523 -57.696514129639 4.838032722473
-69.189720153809 -76.788055419922 -55.830112457275 2.428408145905
-40.478149414063 -76.306655883789 -64.619956970215 2.303139925003
-36.012691497803 -79.343917846680 -60.801544189453 2.658215999603
-19.205478668213 -77.937347412109 -72.307167053223 1.961391210556
-81.935508728027 -75.560470581055 -71.002662658691 4.245769977570
85.357566833496 -78.952629089355 -79.522201538086 2.223653554916
-91.857284545898 -76.916229248047 -73.572341918945 3.738450527191
79.063751220703 -75.574897766113 -77.351837158203 1.647082209587
88.122619628906 -72.575599670410 -85.624946594238 4.863471508026
98.271858215332 -74.667274475098 -91.761695861816 2.185769796371
-62.197799682617 -81.513359069824 -98.187904357910 1.041143178940
81.201972961426 -80.208137512207 -98.080955505371 4.617662429810
75.492523193359 -83.891242980957 -91.622131347656 6.494574546814
85.641838073730 -77.912536621094 -91.562530517578 0.719940543175
-58.762798309326 -78.475273132324 -98.937492370605 4.162371635437
47.172042846680 -75.822341918945 -99.501541137695 2.120321035385
45.123966217041 -77.314392089844 -107.738594055176 2.839861392975
38.564208984375 -79.252738952637 -104.502593994141 1.980945706367
34.886951446533 -78.851455688477 -101.494644165039 6.468456745148
-92.832244873047 -73.592254638672 -103.518638610840 2.009687900543
34.642784118652 -75.966606140137 -118.493354797363 1.652403116226
-85.491119384766 -79.014350891113 -107.916633605957 3.182224273682
39.203632354736 -79.425140380859 -129.521896362305 2.831817865372
31.726673126221 -79.287857055664 -121.577346801758 1.528809428215
33.704643249512 -69.037338256836 -122.490776062012 1.404855966568
44.389415740967 -75.418586730957 -117.997901916504 1.851561188698
41.425472259521 -81.441329956055 -129.775314331055 4.319486618042
-51.284843444824 -71.190567016602 -136.290252685547 1.125181555748
37.517238616943 -83.358367919922 -134.976181030273 0.966433465481
35.074642181396 -77.707252502441 -145.807373046875 2.239515304565
-57.140556335449 -76.294105529785 -146.167755126953 1.709405541420
-44.680999755859 -78.709358215332 -141.341476440430 3.513245344162
34.629791259766 -75.846084594727 -143.365341186523 2.574913024902
109.726814270020 -71.754310607910 -141.207565307617 1.474990010262
111.569313049316 -73.063568115234 -148.416610717773 2.156002759933
26.028812408447 -79.760314941406 -141.995407104492 2.173534870148
-40.173736572266 -81.613349914551 -151.189620971680 1.913691282272
117.564697265625 -85.882865905762 -153.022979736328 8.809694290161
-36.895629882813 -75.734130859375 -153.574493408203 2.034099578857
-68.118713378906 -76.964424133301 -164.673202514648 2.747677326202
110.227478027344 -82.864936828613 -155.349563598633 6.143857955933
22.291938781738 -79.236503601074 -168.211944580078 1.905138373375
0.801612019539 -78.708473205566 -163.870437622070 1.075606465340
110.406570434570 -77.572471618652 -152.581344604492 1.980812072754
-64.540901184082 -77.710464477539 -168.055786132813 1.862534880638
-39.458908081055 -79.804473876953 -167.967163085938 1.712623834610
110.694137573242 -78.651206970215 -165.909133911133 2.370258092880
26.779193878174 -71.528511047363 -159.626770019531 1.921517968178
-61.712169647217 -70.548019409180 -165.248550415039 0.729907512665
112.770721435547 -77.723526000977 -166.490295410156 1.581436395645
-65.937492370605 -79.750473022461 -170.373580932617 2.905651330948
-48.529621124268 -81.499557495117 -184.596130371094 1.551261901855
105.802513122559 -76.813598632813 -172.028030395508 2.097571849823
-59.811443328857 -76.401290893555 -174.291076660156 2.591072797775
112.609283447266 -76.014045715332 -179.580383300781 2.481414794922
-61.968444824219 -76.841964721680 -178.244598388672 2.078529596329
-16.666095733643 -74.787605285645 -178.673049926758 2.933117866516
-9.515698432922 -84.125656127930 -184.440994262695 7.343249797821
107.338897705078 -79.689407348633 -166.300430297852 4.066332340240
21.375215530396 -79.401481628418 -172.212646484375 1.232417821884
30.866048812866 -71.701835632324 -169.799575805664 3.032627105713
-58.759933471680 -76.979278564453 -178.983657836914 1.191154599190
16.695304870605 -75.313789367676 -182.762817382813 1.032791972160
-57.737316131592 -79.101821899414 -175.577575683594 1.886132121086
-52.965480804443 -76.115348815918 -196.872604370117 4.800955295563
9.730883598328 -74.900009155273 -186.380798339844 2.758385419846
-55.730648040771 -72.077560424805 -180.333816528320 2.897987604141
105.630439758301 -74.041633605957 -190.183166503906 1.534047722816
26.259519577026 -81.211837768555 -183.321670532227 2.999409437180
-36.108829498291 -74.963928222656 -189.418594360352 3.462809562683
-43.498222351074 -81.065383911133 -190.540924072266 2.580474615097
11.055076599121 -80.568771362305 -192.075256347656 4.974756240845
-20.438768386841 -79.167182922363 -188.471740722656 2.103865623474
-47.117774963379 -79.588630676270 -197.280822753906 0.597431361675
101.213432312012 -82.253334045410 -183.034225463867 5.031352043152
8.052319526672 -82.072769165039 -191.261123657227 7.600544452667
-132.115310668945 -85.884811401367 -202.264480590820 5.535371780396
-50.354782104492 -80.481117248535 -197.398544311523 2.397902250290
93.737564086914 -76.114250183105 -199.574859619141 2.673032522202
-150.288330078125 -84.870841979980 -204.403884887695 3.279100418091
18.109375000000 -78.229461669922 -202.740158081055 2.221477508545
-44.011375427246 -74.129928588867 -207.560867309570 5.522206783295
-29.897964477539 -81.520378112793 -209.102706909180 3.018910884857
-37.498737335205 -79.385887145996 -201.873977661133 1.288271784782
-46.427253723145 -85.770210266113 -199.621902465820 1.459902167320
100.728401184082 -76.917465209961 -206.146362304688 1.380011677742
-21.722957611084 -82.843856811523 -200.843322753906 3.031576156616
-150.510955810547 -78.585189819336 -201.803588867188 1.748862028122
15.500964164734 -80.885650634766 -201.766433715820 2.486114025116
-77.673126220703 -83.061233520508 -206.412475585938 3.879492282867
-142.755905151367 -75.735595703125 -216.357070922852 3.681421995163
93.114898681641 -80.402381896973 -215.447753906250 3.402513742447
-33.341606140137 -76.190986633301 -208.228836059570 2.418904304504
-29.081600189209 -78.747344970703 -211.503295898438 1.063243031502
10.188854217529 -78.247489929199 -210.777130126953 1.429500460625
-72.121803283691 -83.230537414551 -208.054443359375 2.724189043045
-26.828083038330 -87.515289306641 -206.132080078125 7.719103336334
-9.172718048096 -79.759002685547 -218.727981567383 1.802710533142
-69.417808532715 -79.106422424316 -215.331024169922 2.735753774643
-14.074688911438 -78.500999450684 -218.802978515625 1.017107844353
7.322675228119 -67.960571289063 -211.950210571289 2.877582311630
11.550719261169 -81.173965454102 -222.807159423828 3.309298753738
-152.528762817383 -80.963546752930 -219.917800903320 3.410099983215
-9.658125877380 -77.854759216309 -215.247970581055 1.865064978600
-103.393959045410 -74.360939025879 -221.475799560547 1.903454184532
-22.237773895264 -77.591247558594 -220.514251708984 2.427234172821
87.793594360352 -84.227088928223 -213.118133544922 7.139403820038
9.708600997925 -75.362426757813 -225.148620605469 2.279537916183
22.179498672485 -77.566139221191 -217.335464477539 4.924408912659
79.389526367188 -79.434730529785 -213.356597900391 4.917540073395
1.306764006615 -83.215881347656 -231.794570922852 4.207254886627
84.907348632813 -77.981964111328 -217.431213378906 1.851138472557
-22.206258773804 -72.757438659668 -226.298843383789 1.155000567436
16.607048034668 -73.634963989258 -219.064407348633 2.456599950790
-149.406799316406 -80.294456481934 -219.560501098633 2.490400552750
-27.558691024780 -79.622871398926 -227.914520263672 5.289426803589
1.918552041054 -74.294509887695 -232.861160278320 2.186854124069
-156.863174438477 -85.016540527344 -226.584396362305 4.404611587524
-137.893875122070 -82.608261108398 -229.486434936523 1.374712347984
1.979866027832 -77.428482055664 -223.938400268555 2.010909318924
-3.807394027710 -73.479057312012 -224.746704101563 2.699619293213
-137.643051147461 -74.353569030762 -230.371337890625 1.969366788864
-147.692810058594 -78.913925170898 -245.218734741211 1.475932002068
-149.482055664063 -79.579101562500 -237.328536987305 2.083728551865
-31.433610916138 -79.593551635742 -237.647979736328 1.568212389946
-141.308914184570 -82.810516357422 -245.312347412109 4.131525993347
14.243958473206 -79.676841735840 -242.384765625000 1.678199529648
5.911706924438 -77.289840698242 -246.311813354492 1.756076455116
-151.076538085938 -72.099822998047 -240.466232299805 2.312449693680
-149.883651733398 -78.022239685059 -247.078292846680 1.929744839668
-45.134384155273 -80.520103454590 -248.062271118164 3.577527999878
-31.659610748291 -78.732101440430 -248.953613281250 6.245843887329
3.788687944412 -77.331428527832 -242.903411865234 1.222908139229
-35.548240661621 -80.483139038086 -246.694534301758 4.844554424286
21.712188720703 -77.895523071289 -247.285705566406 2.093068599701
-6.152120113373 -80.383552551270 -254.807098388672 1.444346785545
-143.105438232422 -80.032630920410 -254.848953247070 0.845842480659
-10.443029403687 -83.916030883789 -254.644180297852 1.805287599564
-148.792098999023 -75.946578979492 -247.594955444336 2.610950469971
-64.707588195801 -80.739555358887 -251.851486206055 1.875231862068
-146.122268676758 -86.377494812012 -260.622100830078 1.107234477997
-127.806610107422 -78.808761596680 -259.652923583984 1.878447175026
-153.731903076172 -79.069747924805 -258.117340087891 2.512237787247
-9.833250045776 -75.038993835449 -268.942230224609 4.248061656952
-145.333358764648 -86.025260925293 -275.720214843750 2.444458961487
-148.822174072266 -79.185058593750 -271.970092773438 1.484049916267
-12.080061912537 -78.069541931152 -272.262023925781 1.296945214272
-143.522903442383 -78.951919555664 -271.546356201172 3.430784225464
-6.838858127594 -76.067497253418 -277.098266601563 0.883876979351
-45.225063323975 -77.166046142578 -284.568420410156 2.683584690094
-134.889541625977 -75.401718139648 -290.102203369141 2.287289142609
-135.964096069336 -78.122993469238 -287.485137939453 1.793727755547
-122.224365234375 -74.473922729492 -282.271362304688 3.053253173828
-51.177536010742 -77.137687683105 -287.526397705078 1.700987577438
-110.925987243652 -77.166671752930 -284.325469970703 4.524932384491
17.011095046997 -76.787376403809 -294.250762939453 2.125614166260
-55.863288879395 -75.641456604004 -289.824615478516 1.838690161705
-140.208511352539 -78.440780639648 -295.708251953125 4.054820060730
-63.227344512939 -76.619491577148 -291.985809326172 2.483293294907
-144.791397094727 -84.770042419434 -295.963287353516 3.178995609283
-115.852775573730 -75.300415039063 -292.824676513672 1.982900023460
-45.139190673828 -81.291786193848 -291.612365722656 5.284806251526
-32.628368377686 -77.798980712891 -293.021850585938 2.646774768829
-138.453598022461 -73.078933715820 -299.114593505859 5.933062553406
-14.580969810486 -71.060089111328 -281.653533935547 4.604162216187
6.111556053162 -77.011398315430 -287.539123535156 2.369741916656
7.227013111115 -75.462677001953 -291.150787353516 2.429873943329
15.859342575073 -78.644783020020 -297.068664550781 3.059430360794
-149.262390136719 -84.024330139160 -300.467468261719 2.060307741165
-143.746734619141 -75.735229492188 -293.409942626953 2.495661020279
-66.275276184082 -75.876281738281 -64.158622741699 3.601345300674
88.813018798828 -79.579925537109 -72.644851684570 4.129811286926
78.345817565918 -78.886589050293 -78.488937377930 3.768799304962
-28.774265289307 -80.997840881348 -77.591796875000 1.669563174248
82.876083374023 -75.592582702637 -74.828300476074 1.955960035324
-39.113952636719 -81.201454162598 -81.010444641113 1.160442590714
80.987152099609 -72.501388549805 -83.534088134766 3.880799293518
96.445533752441 -72.489288330078 -80.025154113770 2.554383754730
-64.873153686523 -71.622627258301 -97.988479614258 2.530391693115
71.618942260742 -78.145904541016 -95.241912841797 3.582448005676
79.328384399414 -74.695899963379 -98.584518432617 1.845546722412
97.398117065430 -80.741157531738 -96.127372741699 5.764805793762
54.920951843262 -79.784980773926 -97.541648864746 3.787644863129
-65.368858337402 -74.357559204102 -102.699234008789 2.895033359528
-74.188575744629 -74.267677307129 -102.362228393555 2.133902788162
50.645240783691 -79.906173706055 -103.908653259277 1.840644121170
-87.334800720215 -79.519264221191 -103.023284912109 0.871206581593
47.458915710449 -73.556129455566 -119.161178588867 1.136290073395
110.372192382813 -76.271591186523 -120.860931396484 1.663779377937
112.928413391113 -79.559097290039 -130.518341064453 3.562125444412
18.964838027954 -74.936386108398 -137.620285034180 5.419765472412
110.012351989746 -79.291389465332 -127.413597106934 2.593638420105
28.910310745239 -74.058052062988 -133.986312866211 1.945173144341
112.343536376953 -69.993942260742 -133.550949096680 0.590967953205
36.465557098389 -74.322998046875 -135.532791137695 2.630806446075
-57.777313232422 -76.792678833008 -141.094268798828 2.509700059891
36.399559020996 -82.240486145020 -147.065917968750 4.341955661774
108.332221984863 -74.713768005371 -134.485153198242 2.791185140610
-45.201225280762 -75.416694641113 -144.909072875977 2.145490407944
31.822425842285 -75.423034667969 -151.662719726563 0.961439907551
-57.149749755859 -71.022026062012 -143.037185668945 1.495270609856
-60.791191101074 -77.100868225098 -145.234558105469 5.081057071686
-53.286560058594 -81.347770690918 -151.504043579102 5.015490055084
-64.392684936523 -80.970062255859 -157.017196655273 1.911820173264
111.044654846191 -81.988769531250 -147.344558715820 4.008401870728
-49.782012939453 -85.345726013184 -156.617919921875 6.171051502228
23.312612533569 -83.172599792480 -157.808807373047 4.905911922455
107.157829284668 -77.773551940918 -163.972991943359 2.466003656387
-65.184501647949 -77.771514892578 -155.635116577148 1.752602815628
-42.703189849854 -78.875915527344 -158.881347656250 3.361996412277
9.056064605713 -74.717536926270 -155.261215209961 1.074384212494
-68.764793395996 -78.418594360352 -155.262680053711 2.300639152527
-64.805908203125 -80.944435119629 -159.256011962891 1.307489156723
0.611167013645 -77.469970703125 -163.468139648438 1.564491033554
-44.652717590332 -72.892501831055 -169.284835815430 1.621824502945
28.405696868896 -74.654960632324 -169.057342529297 0.840475201607
-63.634517669678 -72.716018676758 -170.218414306641 1.955940127373
-55.749526977539 -80.091079711914 -167.493148803711 1.994327187538
13.671216011047 -81.198684692383 -160.616012573242 6.329319000244
-30.093082427979 -76.005935668945 -169.418182373047 1.825663208961
-28.302282333374 -80.467292785645 -167.553054809570 3.224004745483
14.558335304260 -78.951889038086 -175.652008056641 3.883293151855
-44.331241607666 -80.986816406250 -174.244323730469 3.948135375977
-10.227585792542 -79.212226867676 -173.254989624023 2.555712938309
-66.970359802246 -73.797393798828 -172.635650634766 1.972928404808
-8.031890869141 -74.593360900879 -175.749526977539 0.955591738224
-21.382333755493 -77.484199523926 -180.988418579102 2.004867315292
21.992410659790 -73.711944580078 -185.599960327148 2.291494369507
-38.868572235107 -79.771476745605 -173.632766723633 2.931617021561
21.492395401001 -72.482650756836 -176.073348999023 2.258252143860
-22.807523727417 -73.273429870605 -187.310287475586 1.300032615662
-32.051395416260 -80.509056091309 -178.195098876953 2.045156002045
-148.475509643555 -74.591331481934 -195.299087524414 1.864241242409
-17.033126831055 -82.688858032227 -184.505416870117 3.840800523758
-139.887908935547 -76.188339233398 -191.620300292969 2.878698587418
-154.668121337891 -78.775505065918 -189.081436157227 4.624160289764
-50.165916442871 -75.516395568848 -190.343704223633 1.611063838005
98.433593750000 -76.058647155762 -195.479598999023 2.452564239502
-144.987930297852 -79.629882812500 -191.800750732422 1.695608854294
-144.767562866211 -75.504264831543 -197.385406494141 2.022359132767
22.971971511841 -74.962059020996 -196.893142700195 2.581822395325
-139.051986694336 -78.793174743652 -197.465866088867 3.124604225159
12.557435035706 -72.622611999512 -200.281295776367 2.361019372940
-137.576187133789 -81.751525878906 -201.699462890625 1.484452009201
13.251846313477 -72.545578002930 -198.893615722656 1.403105139732
-132.528533935547 -74.099029541016 -196.537216186523 1.543810248375
4.723413944244 -72.961700439453 -202.454040527344 3.375858306885
-152.326812744141 -78.208435058594 -203.577545166016 1.735381722450
95.814033508301 -76.750190734863 -207.549865722656 0.626222789288
-17.112714767456 -80.233261108398 -210.577972412109 1.460615873337
-30.426889419556 -76.100677490234 -210.366287231445 0.854344606400
-12.471510887146 -71.213897705078 -206.232070922852 1.293250441551
-144.535873413086 -83.485069274902 -212.206207275391 1.932295680046
-35.428951263428 -77.395599365234 -203.906890869141 0.757923364639
-84.477363586426 -79.987991333008 -203.659027099609 8.093957901001
-26.737077713013 -79.021392822266 -209.202789306641 1.503778934479
14.004022598267 -77.798362731934 -215.423873901367 1.518341779709
-146.000900268555 -75.206398010254 -217.337142944336 1.722727417946
-88.538780212402 -80.572036743164 -221.298980712891 5.238315582275
-28.947225570679 -75.971359252930 -221.878067016602 1.954459428787
-27.471408843994 -77.402801513672 -222.253570556641 1.365273118019
-7.138617992401 -79.256980895996 -209.499374389648 3.392512559891
-27.196105957031 -76.433799743652 -208.221298217773 2.218662023544
-84.480911254883 -78.094528198242 -224.091537475586 6.390434741974
-90.314086914063 -84.050163269043 -221.511398315430 8.453053474426
-22.467370986938 -76.378974914551 -223.291061401367 1.657642126083
-1.613744974136 -87.111679077148 -226.689224243164 6.888116359711
-157.247711181641 -80.809715270996 -219.101776123047 6.561196327209
-2.225068092346 -78.923439025879 -223.142593383789 1.056049823761
88.636352539063 -81.907974243164 -228.869934082031 7.917500019073
-138.532287597656 -80.858489990234 -224.451370239258 2.934472084045
-2.673065900803 -77.764770507813 -221.757263183594 1.221787810326
-138.648178100586 -79.846603393555 -227.237579345703 2.161427259445
-146.869155883789 -86.800918579102 -226.475234985352 2.607833147049
-5.298501014709 -76.097999572754 -228.960296630859 0.757658958435
22.908271789551 -78.444046020508 -213.839691162109 6.000885963440
-138.268371582031 -75.739807128906 -230.990615844727 1.682350516319
-18.084651947021 -79.380302429199 -228.554153442383 2.557645559311
71.140289306641 -78.027931213379 -225.584838867188 6.376874446869
74.747535705566 -77.287017822266 -235.080337524414 4.199566841125
11.302617073059 -79.646713256836 -230.643341064453 0.683598399162
-35.075275421143 -78.663696289063 -236.599502563477 2.488548040390
-24.440496444702 -86.410102844238 -243.845947265625 7.841387271881
2.450282096863 -75.311668395996 -244.189941406250 2.073243141174
-46.164356231689 -72.098365783691 -245.111190795898 3.154146432877
-20.076015472412 -74.742767333984 -244.003341674805 2.083553075790
11.051849365234 -73.316528320313 -238.822265625000 0.940726697445
-62.691108703613 -78.137329101563 -246.876937866211 2.273287057877
-36.822898864746 -83.314811706543 -245.127716064453 3.771707296371
-37.209732055664 -76.080421447754 -246.690048217773 2.242694377899
-147.064849853516 -75.192527770996 -247.512313842773 1.493415474892
-44.003124237061 -80.947677612305 -249.942337036133 4.737648963928
-51.987636566162 -68.380798339844 -248.281341552734 4.698881626129
-65.046852111816 -77.177864074707 -249.782775878906 1.933444738388
-9.980140686035 -82.537376403809 -245.899322509766 7.151932716370
-77.989677429199 -79.423957824707 -257.058929443359 3.883627653122
-156.416152954102 -84.980026245117 -254.523605346680 1.115957140923
-139.708404541016 -76.138168334961 -254.554992675781 2.473013162613
-120.076011657715 -79.915298461914 -259.513641357422 6.203931808472
-159.062484741211 -74.307907104492 -258.859283447266 3.330420494080
19.212047576904 -84.867286682129 -268.072082519531 4.506907939911
-14.418068885803 -79.930747985840 -270.045715332031 2.400469779968
-155.168655395508 -81.142677307129 -276.508880615234 4.218926906586
-152.481674194336 -85.628326416016 -280.507995605469 3.340370655060
-145.524093627930 -80.193611145020 -287.523376464844 2.258629798889
-58.243423461914 -71.957656860352 -279.878082275391 5.292511940002
-38.163349151611 -70.940658569336 -286.411468505859 2.350012063980
-16.418552398682 -74.465194702148 -291.043975830078 1.930010914803
-7.912790775299 -72.262039184570 -278.283538818359 2.578038454056
-65.600173950195 -81.217658996582 -285.933898925781 4.515362739563
-80.652786254883 -82.877670288086 -287.141632080078 6.106562614441
-0.953006029129 -78.175811767578 -282.427398681641 2.796207189560
2.781251907349 -78.833290100098 -293.898925781250 2.499066352844
-139.920639038086 -76.136535644531 -286.805389404297 2.201197385788
-80.461334228516 -73.456207275391 -286.720001220703 2.682024717331
-146.201675415039 -76.433532714844 -288.857360839844 2.844825744629
-93.914176940918 -88.223121643066 -286.130157470703 12.631390571594
-78.091453552246 -76.786186218262 -286.193542480469 1.449695944786
-85.696022033691 -74.249023437500 -298.019836425781 6.522673606873
-62.942604064941 -76.858268737793 -293.273834228516 3.386036872864
-30.724481582642 -69.477218627930 -296.988250732422 5.063869953156
-8.666972160339 -76.504302978516 -291.128082275391 1.679833054543
-149.717987060547 -69.728324890137 -301.832611083984 2.429346084595
-147.311065673828 -74.975486755371 -302.626678466797 2.170681476593
-142.580383300781 -75.872726440430 -307.588104248047 3.319608211517
-157.579284667969 -77.240890502930 -306.001312255859 2.811727762222
-56.921730041504 -72.748817443848 -57.633953094482 2.822608470917
-49.624748229980 -76.525299072266 -54.028194427490 2.190893411636
-40.434143066406 -79.057029724121 -54.436920166016 5.218604564667
-78.282257080078 -80.494689941406 -64.541107177734 3.494677543640
-30.087640762329 -75.174247741699 -66.434005737305 2.840603351593
-36.051929473877 -75.925910949707 -81.033988952637 0.860429108143
73.636840820313 -81.142044067383 -84.173934936523 5.661913871765
74.526603698730 -76.412467956543 -79.507034301758 1.853827953339
71.430702209473 -73.152702331543 -83.818550109863 1.606884479523
100.555335998535 -71.993980407715 -90.850044250488 3.477195262909
66.893035888672 -79.131790161133 -89.557975769043 5.978938579559
46.446567535400 -80.138839721680 -88.704986572266 7.858895778656
52.422458648682 -82.983108520508 -102.475524902344 4.629776000977
-66.629806518555 -74.904319763184 -103.964202880859 2.160146713257
-75.024223327637 -72.208213806152 -104.025070190430 3.362526893616
44.477367401123 -77.971656799316 -103.729644775391 1.254594564438
-82.297073364258 -83.237358093262 -111.867752075195 3.448904752731
-93.053115844727 -74.979270935059 -111.500801086426 2.622797012329
50.981384277344 -76.431022644043 -109.779602050781 1.752648234367
107.048522949219 -74.911689758301 -117.296958923340 2.820787668228
33.085582733154 -78.657798767090 -127.546287536621 1.728612065315
41.739921569824 -78.339263916016 -119.279029846191 2.391721963882
39.264331817627 -74.432357788086 -123.116622924805 2.010251760483
29.914924621582 -78.414634704590 -122.265380859375 1.607783079147
109.106376647949 -76.210456848145 -121.938018798828 2.237520456314
38.989570617676 -79.973983764648 -132.927169799805 3.321453571320
