86.875396728516 -77.857284545898 -209.148300170898 5.263857364655
8.187044143677 -77.383613586426 -202.647064208984 0.967408299446
19.920976638794 -72.259147644043 -214.587753295898 3.164776563644
12.298761367798 -68.816825866699 -209.727096557617 1.529217123985
-12.290753364563 -73.913650512695 -225.546646118164 0.256328016520
-94.874359130859 -77.292785644531 -221.675094604492 1.341520309448
-14.717557907104 -77.263298034668 -211.658493041992 1.421211600304
85.812263488770 -75.790634155273 -219.025314331055 1.100813865662
-96.345092773438 -77.083663940430 -217.056610107422 3.437372446060
-100.478065490723 -68.066055297852 -223.924880981445 1.526093363762
-98.620651245117 -71.701065063477 -220.079330444336 1.038026571274
88.333641052246 -78.500434875488 -223.640701293945 3.231278181076
-137.533020019531 -73.941886901855 -226.610702514648 2.380194664001
-131.873016357422 -81.430931091309 -229.614456176758 3.477799177170
-117.764503479004 -73.330879211426 -225.990661621094 1.061568737030
-114.894256591797 -69.176116943359 -221.853805541992 3.610152244568
-133.695190429688 -69.375053405762 -229.793304443359 2.004186153412
-115.668548583984 -83.987197875977 -229.883850097656 8.441456794739
-112.065666198730 -71.650856018066 -229.982360839844 1.310004591942
-8.606723785400 -79.901679992676 -224.476867675781 2.504622220993
-16.124813079834 -78.261642456055 -224.218429565430 2.612658023834
-2.028445959091 -70.172943115234 -230.588836669922 1.289524078369
-11.157534599304 -69.044143676758 -227.930953979492 1.016256570816
14.578459739685 -75.765182495117 -235.432495117188 2.707652330399
-22.514490127563 -70.804023742676 -230.838775634766 5.762613296509
-168.199523925781 -70.261932373047 -221.234252929688 2.869166135788
-7.481894016266 -75.419937133789 -235.134277343750 1.411822676659
79.945762634277 -69.720962524414 -233.837387084961 2.524469852448
11.277665138245 -77.334953308105 -234.024826049805 1.962331175804
-6.362877845764 -73.297798156738 -236.874176025391 1.889571547508
-158.550842285156 -69.512962341309 -236.978240966797 1.997463941574
-145.204803466797 -70.192550659180 -228.833801269531 2.697019577026
58.770675659180 -73.526176452637 -237.967590332031 2.807568788528
-6.853306770325 -75.098716735840 -233.698135375977 0.787222087383
10.775543212891 -77.486839294434 -229.246932983398 2.247426748276
68.253013610840 -79.149208068848 -226.484054565430 7.081839561462
75.519691467285 -74.285232543945 -235.725402832031 2.825804710388
70.742530822754 -76.767219543457 -243.955093383789 4.410329341888
-3.485318899155 -79.252075195313 -235.171981811523 2.730341672897
57.635303497314 -71.475517272949 -236.919357299805 3.278591394424
-20.847349166870 -78.571891784668 -241.529190063477 1.158839344978
-15.038927078247 -69.407142639160 -240.582534790039 1.930036902428
6.259168148041 -74.050178527832 -239.007659912109 2.531791448593
62.166240692139 -80.456069946289 -236.762313842773 6.372363567352
67.441925048828 -72.289932250977 -242.883605957031 2.714986085892
46.840682983398 -75.639122009277 -246.387893676758 4.696022510529
59.525997161865 -80.071159362793 -243.347915649414 5.024739742279
-16.485317230225 -82.535308837891 -249.542068481445 7.562635421753
-85.276763916016 -68.792976379395 -259.437500000000 3.193971633911
-78.191200256348 -70.493629455566 -255.380645751953 1.703575372696
42.591934204102 -79.546882629395 -247.354537963867 8.412341117859
-154.804321289063 -75.542495727539 -250.685287475586 2.861711263657
33.640254974365 -74.144187927246 -258.509277343750 3.731862545013
-93.861465454102 -80.508628845215 -253.048812866211 5.111238002777
-158.986755371094 -66.481216430664 -255.093399047852 3.760971307755
-140.690185546875 -61.385646820068 -252.808425903320 4.382314682007
40.936389923096 -73.784515380859 -255.380233764648 4.472930431366
-127.091690063477 -68.168403625488 -260.288116455078 1.557755470276
-119.465599060059 -75.225387573242 -255.442794799805 1.432221293449
-92.378990173340 -67.361831665039 -257.680755615234 2.212438344955
-13.896194458008 -67.886672973633 -247.570175170898 0.522508025169
31.014434814453 -74.026016235352 -256.708709716797 2.942756652832
23.835393905640 -70.469009399414 -259.629302978516 2.422113656998
-162.000808715820 -64.726348876953 -262.849487304688 3.799219369888
-115.718940734863 -76.945358276367 -263.919158935547 4.164311408997
-14.419285774231 -74.389091491699 -263.320159912109 0.874386250973
-132.630767822266 -72.551727294922 -267.327209472656 3.394827365875
-15.999922752380 -72.777053833008 -271.268218994141 2.916072607040
-164.073974609375 -72.342453002930 -271.797210693359 3.061134338379
-6.483606815338 -75.803779602051 -278.717285156250 1.385540723801
-160.670730590820 -74.632789611816 -288.753601074219 1.947837948799
-166.741378784180 -77.830635070801 -279.532196044922 4.698591232300
-143.321228027344 -74.268882751465 -286.212890625000 1.441165208817
-173.886795043945 -76.589752197266 -285.670349121094 4.500072956085
13.490576744080 -79.418502807617 -290.129272460938 2.995394468307
-104.341117858887 -75.581344604492 -287.436584472656 1.198118209839
-89.105278015137 -66.020301818848 -286.351776123047 4.575059413910
-170.387695312500 -68.552085876465 -285.064208984375 3.146975040436
-94.513061523438 -82.573875427246 -281.372100830078 8.905814170837
-158.310150146484 -74.614891052246 -290.640991210938 2.147208213806
-79.335731506348 -76.839988708496 -299.768218994141 9.159134864807
-74.270141601563 -73.081245422363 -289.901519775391 3.058989286423
-85.095245361328 -76.849807739258 -293.323181152344 3.098294973373
-4.550427913666 -72.866615295410 -288.449890136719 1.686332702637
-92.857070922852 -73.808242797852 -287.475433349609 2.131206750870
-100.628829956055 -77.072845458984 -291.173309326172 3.996462106705
-120.881622314453 -73.897575378418 -294.200469970703 2.670774459839
-117.971557617188 -68.644851684570 -294.319915771484 2.644473314285
-135.420639038086 -74.585479736328 -291.824554443359 1.297814965248
-143.266906738281 -72.810440063477 -301.818481445313 2.044435977936
-145.956573486328 -75.245605468750 -313.423034667969 1.687088370323
22.738159179688 -66.157325744629 -14.824336051941 3.860339641571
32.207015991211 -70.010047912598 -16.260282516479 1.819828271866
28.385347366333 -74.043060302734 -18.412925720215 1.894089102745
43.570938110352 -66.363357543945 -19.767644882202 3.317875146866
21.634553909302 -69.909149169922 -32.541450500488 1.850527405739
-76.160964965820 -68.845375061035 -47.274555206299 2.648888826370
88.105064392090 -65.489501953125 -67.821136474609 1.802950620651
-21.435121536255 -66.117019653320 -67.522895812988 3.689614534378
103.727699279785 -72.298202514648 -74.650413513184 3.439023733139
91.611480712891 -77.508491516113 -76.240669250488 2.493854522705
66.730186462402 -72.815849304199 -79.811019897461 2.988503456116
71.608673095703 -77.544509887695 -82.375915527344 2.516128778458
-45.579654693604 -75.261764526367 -82.450355529785 2.476765632629
58.993900299072 -78.886779785156 -81.116882324219 8.677479743958
-94.285110473633 -70.868095397949 -90.347862243652 1.637811779976
-48.051879882813 -67.683250427246 -84.839508056641 1.915350317955
-58.035743713379 -78.021568298340 -84.539634704590 6.931014060974
101.953811645508 -81.391914367676 -99.601135253906 7.245195865631
59.221042633057 -76.485618591309 -90.172897338867 3.191141843796
66.826728820801 -71.422256469727 -91.399604797363 3.083564519882
-95.149978637695 -62.092071533203 -98.518882751465 3.462628841400
106.853538513184 -75.306358337402 -90.600921630859 6.202777862549
40.381778717041 -69.994270324707 -100.135528564453 2.438970088959
101.471092224121 -72.214668273926 -99.004722595215 1.042129039764
106.320915222168 -68.963348388672 -107.292182922363 1.503391265869
98.322891235352 -73.213256835938 -103.717681884766 3.666964054108
73.141090393066 -77.240852355957 -98.762763977051 3.965681076050
85.515579223633 -75.646835327148 -109.171798706055 7.219804763794
49.433097839355 -70.207771301270 -111.810188293457 2.719712495804
109.403602600098 -67.322563171387 -102.200981140137 1.502017140388
47.044933319092 -77.790443420410 -104.282585144043 1.151799559593
36.284191131592 -70.265663146973 -102.975646972656 4.514785289764
112.618850708008 -74.269973754883 -111.098449707031 1.990121126175
-79.175773620605 -65.479103088379 -109.381759643555 1.361469507217
44.184104919434 -70.532325744629 -113.360832214355 1.150046944618
31.207586288452 -76.279983520508 -117.165222167969 2.312305688858
105.155624389648 -69.705772399902 -111.483650207520 1.994874238968
35.325935363770 -68.803077697754 -112.317955017090 1.689958691597
-87.912040710449 -70.507827758789 -111.098922729492 2.279533863068
-96.022613525391 -65.227233886719 -114.997322082520 2.375608205795
99.887405395508 -80.012199401855 -120.768798828125 9.629169464111
-96.088638305664 -71.116569519043 -119.765457153320 1.892671704292
38.562507629395 -77.329902648926 -121.273658752441 1.696811437607
35.243568420410 -72.823684692383 -124.164947509766 0.904206395149
-86.889862060547 -70.851211547852 -124.462532043457 1.056316852570
32.683780670166 -70.025428771973 -134.318191528320 1.550695419312
111.759117126465 -74.934226989746 -131.904815673828 2.032370805740
-54.608058929443 -71.428321838379 -140.383575439453 1.469600796700
-88.817718505859 -68.694122314453 -134.692962646484 1.850933909416
37.322822570801 -78.395088195801 -130.297286987305 2.225025415421
-86.731559753418 -64.712867736816 -137.774246215820 1.233795166016
-88.838890075684 -75.216148376465 -142.151367187500 7.356370449066
-51.522808074951 -71.305625915527 -136.720886230469 1.487790226936
-72.240913391113 -67.722953796387 -139.371856689453 1.361450433731
-51.784320831299 -70.632308959961 -132.696350097656 1.697119474411
117.030181884766 -69.332626342773 -136.793899536133 2.391322374344
-72.371650695801 -73.911911010742 -134.175765991211 3.427249908447
36.938392639160 -74.113761901855 -130.788848876953 2.680063724518
-79.500991821289 -68.190818786621 -142.362152099609 2.730839729309
-72.911376953125 -71.555015563965 -135.801513671875 2.703228950500
-96.222221374512 -68.041831970215 -143.845581054688 2.112462759018
-56.876140594482 -66.411018371582 -145.701858520508 1.459822654724
30.584255218506 -66.002700805664 -146.825775146484 2.640406131744
26.176694869995 -70.800537109375 -149.369613647461 1.336711406708
19.832506179810 -64.615707397461 -145.309066772461 1.460208654404
111.244819641113 -72.709800720215 -146.641540527344 2.033462047577
-91.079811096191 -68.758422851563 -151.984451293945 1.836817979813
8.986021995544 -73.978698730469 -152.994369506836 1.569408655167
-72.564567565918 -70.447105407715 -156.477539062500 1.724342823029
22.853734970093 -70.182960510254 -149.507827758789 2.313948154449
-50.501972198486 -69.804321289063 -156.161544799805 0.676370203495
8.948204994202 -70.407653808594 -154.913269042969 1.809339523315
16.523262023926 -76.410087585449 -160.076583862305 3.817506551743
15.571133613586 -79.496559143066 -164.391250610352 6.360149860382
-52.873455047607 -74.910598754883 -164.660888671875 4.728468418121
-39.278541564941 -69.465629577637 -156.497680664063 0.939863145351
-48.996009826660 -73.192916870117 -163.549087524414 1.682222485542
-104.066886901855 -72.343460083008 -174.359191894531 4.036421775818
20.868339538574 -75.112442016602 -175.971023559570 2.438542604446
-34.234889984131 -72.384399414063 -179.866592407227 0.830161631107
14.450768470764 -79.172660827637 -178.951995849609 4.575408458710
-142.865783691406 -69.470054626465 -177.362731933594 1.901800990105
-32.182373046875 -67.109352111816 -173.181015014648 0.289017468691
-158.116516113281 -79.401222229004 -179.432205200195 9.378321647644
24.447378158569 -64.989494323730 -182.389083862305 5.122406482697
-35.721359252930 -74.454910278320 -170.612380981445 3.136184692383
-107.434608459473 -67.401947021484 -176.055740356445 2.921725988388
-107.942672729492 -78.834327697754 -185.515060424805 9.007498741150
-31.829433441162 -64.567428588867 -187.019866943359 5.787411689758
-25.642238616943 -78.885528564453 -182.225967407227 0.486126452684
10.767850875854 -71.217315673828 -189.698928833008 1.788286447525
14.618295669556 -68.499710083008 -200.483886718750 1.670887112617
11.930763244629 -73.624053955078 -188.430740356445 2.234120845795
-143.386901855469 -67.697067260742 -187.669158935547 1.837455868721
24.303083419800 -66.923576354980 -190.470535278320 3.636223554611
3.920840024948 -71.417892456055 -197.607406616211 3.946633577347
-135.066894531250 -68.387985229492 -194.056793212891 2.273742198944
-112.974678039551 -70.274467468262 -196.319168090820 1.381240129471
14.049353599548 -70.034637451172 -205.795700073242 2.172796726227
-120.594917297363 -68.510353088379 -198.074905395508 2.008423089981
-108.432838439941 -62.099357604980 -193.844268798828 4.691839218140
-168.423049926758 -72.320411682129 -203.627670288086 2.942817926407
-25.398448944092 -69.868133544922 -200.772583007813 1.749423861504
8.857599258423 -70.024780273438 -200.251327514648 2.290956497192
-146.927612304688 -71.821090698242 -205.486663818359 1.592206120491
-139.651489257813 -75.628913879395 -208.803634643555 5.163008689880
-23.485437393188 -69.450637817383 -209.144866943359 3.473018169403
-13.658140182495 -73.374526977539 -206.634750366211 2.089107275009
-14.345312118530 -74.340080261230 -206.670288085938 2.061885356903
-138.788665771484 -77.121353149414 -203.095596313477 2.508970499039
-18.692943572998 -71.875419616699 -213.784561157227 1.644971251488
-9.512477874756 -80.053947448730 -215.502380371094 1.899360775948
17.372682571411 -68.325096130371 -212.245239257813 1.810408592224
-19.131584167480 -79.364120483398 -212.744613647461 3.349175691605
9.203235626221 -74.588317871094 -209.463256835938 2.091870069504
-12.499282836914 -74.703254699707 -215.846252441406 2.861322164536
-25.434316635132 -67.323318481445 -212.437347412109 5.305262088776
10.156015396118 -81.646881103516 -221.285140991211 1.799215912819
-3.958034992218 -80.644332885742 -219.615921020508 2.781789779663
10.188862800598 -67.096336364746 -221.009216308594 1.463710069656
-7.783446788788 -77.063934326172 -229.873153686523 2.330630302429
-162.228591918945 -73.039520263672 -228.719619750977 0.838130533695
79.350677490234 -77.803581237793 -219.950027465820 3.640416622162
-136.929840087891 -67.963287353516 -224.968246459961 1.413161039352
-136.461059570313 -74.831481933594 -222.409042358398 3.736859083176
-8.810607910156 -73.907485961914 -225.931594848633 1.662374019623
4.768747806549 -72.425651550293 -236.966918945313 2.628514051437
-159.913269042969 -71.079200744629 -233.559875488281 1.527580499649
89.240516662598 -71.496353149414 -220.754989624023 0.978841543198
-2.259881019592 -70.934906005859 -227.711608886719 2.097906112671
-0.228082001209 -73.493041992188 -221.413177490234 2.614434242249
72.902099609375 -78.348060607910 -232.329483032227 4.568916320801
-0.878423988819 -69.074668884277 -237.961578369141 1.905471444130
-14.353672027588 -74.397872924805 -224.780166625977 0.665655553341
-128.985336303711 -66.829498291016 -234.985748291016 1.694948792458
-6.761591911316 -72.502044677734 -239.404846191406 0.848726391792
1.624286055565 -69.705604553223 -230.347534179688 2.257805824280
65.243110656738 -69.758369445801 -238.675750732422 1.506206750870
-159.037261962891 -74.833045959473 -238.276184082031 2.254582881927
-14.690794944763 -70.405914306641 -246.912704467773 2.436280965805
-171.917602539063 -75.376380920410 -240.721206665039 5.368104934692
9.946993827820 -66.718040466309 -242.074630737305 2.088152885437
-164.165817260742 -73.871688842773 -240.217224121094 2.719140768051
-160.775436401367 -74.442924499512 -249.096679687500 1.232577919960
57.542427062988 -74.866134643555 -245.379699707031 2.519902706146
59.369823455811 -77.002929687500 -242.518325805664 2.505784511566
54.191333770752 -75.313117980957 -247.049331665039 2.512063026428
50.225578308105 -73.929588317871 -250.290115356445 1.992729902267
-153.081726074219 -73.923423767090 -243.949325561523 3.628038406372
-157.133117675781 -66.509155273438 -247.535568237305 3.156498193741
-13.309138298035 -79.426506042480 -250.307723999023 4.462424278259
-151.488372802734 -70.761573791504 -249.297943115234 2.411806821823
16.340057373047 -73.548675537109 -251.814514160156 3.880244016647
-173.054962158203 -79.753936767578 -253.136459350586 8.519723892212
-170.575393676758 -69.317420959473 -252.912994384766 2.865537643433
-83.311462402344 -75.422561645508 -247.663940429688 3.573124647141
-172.316497802734 -70.231040954590 -258.886077880859 4.692443370819
-86.087425231934 -72.295921325684 -260.112243652344 3.218861818314
42.097290039063 -72.345878601074 -254.586654663086 3.139287948608
20.395069122314 -77.537963867188 -258.392791748047 1.891783714294
-158.750717163086 -73.778968811035 -265.498809814453 2.216315269470
-102.390830993652 -63.127826690674 -261.735382080078 1.741665840149
39.052253723145 -73.174293518066 -255.025054931641 2.693586111069
-109.262603759766 -83.322486877441 -259.194061279297 8.096444129944
-154.343826293945 -68.228668212891 -268.127349853516 2.562443971634
-104.463729858398 -71.391464233398 -257.389831542969 1.578676223755
-171.194564819336 -75.973060607910 -260.970520019531 5.809043407440
-114.339141845703 -73.329101562500 -265.707153320313 3.129239082336
-154.917114257813 -75.117034912109 -268.149261474609 1.524263381958
-160.900894165039 -67.818252563477 -264.145263671875 1.207438111305
-166.635910034180 -70.642730712891 -265.600830078125 0.846817970276
-167.044113159180 -69.648452758789 -264.013183593750 1.837320804596
-166.959945678711 -72.030456542969 -265.631286621094 2.174304485321
-171.168426513672 -72.954635620117 -260.379119873047 4.212997913361
25.982389450073 -75.408958435059 -266.597259521484 4.008385658264
-148.482757568359 -78.592117309570 -263.722961425781 1.294089674950
-153.435043334961 -72.365066528320 -287.380920410156 2.951205730438
28.395633697510 -73.500213623047 -276.081573486328 6.951375484467
-13.828395843506 -77.528999328613 -275.667053222656 1.640802264214
-126.057685852051 -68.997161865234 -286.619598388672 0.395885437727
-137.550735473633 -72.456054687500 -288.281005859375 2.646116733551
-134.277770996094 -71.998832702637 -291.561431884766 2.052718162537
-129.824935913086 -72.658126831055 -287.384216308594 3.829291105270
-113.363479614258 -71.095802307129 -294.439086914063 2.460833549500
-104.545631408691 -66.996192932129 -284.961059570313 2.171870231628
5.949042797089 -78.930191040039 -296.987060546875 4.619891166687
-85.106170654297 -74.736877441406 -292.501495361328 2.002556800842
-149.651077270508 -73.018898010254 -287.359527587891 2.195970296860
-103.852462768555 -74.285415649414 -292.691864013672 1.968470215797
-135.002304077148 -69.520622253418 -294.433013916016 1.634774446487
9.159093856812 -76.331901550293 -288.083526611328 1.695185661316
-111.475952148438 -63.540615081787 -287.958862304688 5.076005935669
4.008646965027 -74.451965332031 -295.241943359375 1.393378615379
-144.347213745117 -72.059974670410 -287.302795410156 2.270497560501
-153.197875976563 -72.385360717773 -296.485565185547 1.594699144363
-161.114898681641 -70.891517639160 -319.602691650391 8.600687026978
-157.305603027344 -69.631614685059 -312.533782958984 1.255594849586
44.530448913574 -74.189262390137 -25.768512725830 3.079425096512
24.300287246704 -69.281211853027 -38.743385314941 2.003000736237
26.805313110352 -71.124626159668 -37.235675811768 1.465852022171
-42.363456726074 -73.383758544922 -48.093330383301 3.624622821808
-11.252350807190 -66.727577209473 -64.445640563965 1.091753959656
93.951965332031 -71.887634277344 -68.324020385742 2.438577413559
66.996704101563 -63.669765472412 -69.311233520508 2.475920438766
-27.068670272827 -68.363006591797 -75.189193725586 1.689043283463
-102.671875000000 -74.715492248535 -90.439704895020 8.184611320496
-44.122760772705 -69.274070739746 -87.711921691895 4.347411155701
55.571834564209 -70.786224365234 -80.409629821777 4.159427642822
64.677337646484 -75.452011108398 -84.904106140137 3.913393974304
49.520023345947 -67.586593627930 -88.644744873047 1.945100426674
-60.912921905518 -68.765762329102 -92.213516235352 2.089629650116
66.621673583984 -64.975677490234 -90.007736206055 0.925733029842
41.202293395996 -76.326240539551 -99.670379638672 3.645534276962
68.347534179688 -74.878456115723 -95.960556030273 2.096150159836
-60.840175628662 -67.689445495605 -98.060890197754 4.778213977814
50.528896331787 -73.384613037109 -91.793785095215 2.584540128708
45.953598022461 -74.758567810059 -98.739860534668 1.760412931442
102.028923034668 -66.945655822754 -104.247962951660 1.724102020264
-65.700553894043 -69.679664611816 -99.178115844727 0.730532586575
110.876358032227 -71.127288818359 -100.122894287109 2.259940624237
-80.319831848145 -74.431167602539 -103.088325500488 3.111011266708
52.094779968262 -74.889076232910 -108.266975402832 3.098481893539
47.053428649902 -69.256179809570 -102.392723083496 1.825237393379
89.337379455566 -66.053932189941 -105.256088256836 1.640561819077
81.454574584961 -72.706153869629 -106.468078613281 2.603133916855
56.126674652100 -72.976310729980 -106.115478515625 2.639797449112
-78.614212036133 -70.890296936035 -114.119140625000 2.241774797440
-80.316246032715 -69.513786315918 -119.199928283691 1.697535872459
-82.762306213379 -70.992042541504 -118.764350891113 0.514518439770
-95.748779296875 -77.427536010742 -118.216743469238 6.411324024200
100.906387329102 -63.633495330811 -118.894454956055 6.735213279724
-92.788452148438 -74.037422180176 -119.264747619629 2.445410490036
-75.733207702637 -63.996013641357 -123.173820495605 1.065782427788
107.459465026855 -71.123046875000 -117.792732238770 2.220401287079
-60.184238433838 -59.209735870361 -118.106323242188 1.785585045815
111.857780456543 -78.819198608398 -132.271697998047 2.078402519226
108.627922058105 -75.224205017090 -130.555740356445 2.501524448395
103.116493225098 -75.182144165039 -129.467147827148 6.886992454529
-95.220855712891 -71.041198730469 -137.642395019531 4.631853580475
-46.070014953613 -70.785186767578 -143.051254272461 1.379188656807
-83.409278869629 -66.000694274902 -144.297073364258 5.678791999817
-70.567443847656 -70.202056884766 -149.234527587891 1.643934011459
-69.148513793945 -69.336952209473 -151.475448608398 0.439903110266
-56.155780792236 -69.898620605469 -145.013168334961 1.595068335533
-46.729801177979 -77.483528137207 -144.379760742188 2.296792507172
11.042107582092 -71.691024780273 -148.902221679688 2.940451383591
-94.774810791016 -64.170303344727 -141.589523315430 1.184321284294
-47.994548797607 -68.439765930176 -146.991668701172 1.556195259094
-51.668537139893 -59.634372711182 -147.407608032227 8.133871078491
-43.866542816162 -67.687347412109 -154.947311401367 1.069095969200
25.259361267090 -75.467918395996 -160.628982543945 1.216439366341
-52.717018127441 -72.902496337891 -153.083450317383 1.582219600677
-104.475395202637 -62.454204559326 -149.035751342773 4.632829666138
-49.779251098633 -65.846313476563 -155.123413085938 4.444976806641
23.708114624023 -76.107505798340 -145.459686279297 1.743593692780
-96.051559448242 -79.849258422852 -165.154525756836 11.980107307434
21.924003601074 -75.579498291016 -159.069290161133 2.477124214172
-109.667671203613 -65.054435729980 -169.396041870117 2.961358308792
-103.149559020996 -71.059516906738 -165.362457275391 2.939047813416
20.684391021729 -72.504882812500 -167.918167114258 1.883233428001
25.511039733887 -69.554649353027 -168.115829467773 0.873686850071
-113.294128417969 -74.387733459473 -173.954559326172 6.244114875793
-143.863876342773 -65.519607543945 -173.972244262695 1.113203525543
-18.601238250732 -72.528259277344 -192.308868408203 2.637163639069
-28.946525573730 -70.257011413574 -180.698516845703 2.329415082932
-119.170654296875 -73.036956787109 -187.781723022461 6.532523632050
-144.821624755859 -64.898857116699 -186.770904541016 1.088807106018
-101.758148193359 -65.917366027832 -182.178665161133 3.510738611221
-161.731826782227 -70.344970703125 -189.103988647461 6.159163951874
-132.251831054688 -77.350868225098 -196.719345092773 2.185071468353
-133.979797363281 -74.152725219727 -197.559082031250 0.455251514912
-20.238534927368 -69.398567199707 -187.239303588867 2.534644603729
-119.291099548340 -71.763580322266 -201.112350463867 2.001999616623
-120.581130981445 -65.107902526855 -202.304977416992 2.831289291382
-30.759063720703 -75.703758239746 -192.877212524414 1.929463028908
-155.472946166992 -66.484199523926 -195.535903930664 2.204514026642
-134.156829833984 -71.823104858398 -206.248275756836 0.942443251610
-126.061203002930 -66.888893127441 -204.530426025391 2.044208526611
17.650148391724 -77.066116333008 -202.514755249023 1.826500415802
-164.003067016602 -71.184196472168 -202.382904052734 1.557970285416
13.077768325806 -69.684501647949 -218.603134155273 1.222891688347
13.526291847229 -74.873184204102 -216.601623535156 1.994869947433
-15.618316650391 -66.145431518555 -212.132995605469 0.741324305534
-5.986439228058 -72.122467041016 -217.918991088867 1.703951120377
-174.721450805664 -65.910736083984 -212.550170898438 9.098114967346
-160.551757812500 -64.053192138672 -213.287750244141 3.476798057556
-96.091629028320 -70.145233154297 -220.426727294922 3.022743701935
-96.863723754883 -74.431098937988 -221.733291625977 1.508064746857
-162.038192749023 -72.709243774414 -228.917816162109 0.971477925777
-111.296188354492 -67.217300415039 -219.915649414063 3.834310054779
-12.586407661438 -69.567581176758 -211.333129882813 1.854706883430
-129.880294799805 -73.514533996582 -221.793746948242 3.492118597031
-144.783309936523 -70.862388610840 -223.607727050781 2.108702898026
-4.331527233124 -75.863151550293 -222.123992919922 0.874105870724
-135.249511718750 -67.961761474609 -224.967437744141 1.169200181961
-124.754302978516 -77.293014526367 -222.416229248047 4.464732170105
-115.436660766602 -75.673393249512 -224.233245849609 2.433240175247
-3.606137037277 -63.411334991455 -230.859329223633 3.986639738083
-108.884277343750 -67.699516296387 -233.704299926758 2.370272159576
-163.380111694336 -61.579174041748 -223.736358642578 4.190026283264
-146.333114624023 -69.946815490723 -227.114761352539 2.523197889328
-165.753677368164 -69.911262512207 -227.525833129883 1.897832393646
-9.556690216064 -69.293807983398 -225.734741210938 2.129314422607
-9.036241531372 -73.284729003906 -235.144256591797 1.651621818542
77.266738891602 -77.685752868652 -225.442367553711 2.430816411972
-3.233125925064 -76.292778015137 -229.440231323242 1.439220666885
-144.590164184570 -70.820137023926 -240.414810180664 1.663459181786
-15.875950813293 -68.860420227051 -230.630065917969 1.532227158546
72.731887817383 -73.989448547363 -228.033294677734 1.897729277611
72.640937805176 -74.091758728027 -233.999633789063 2.589390993118
-135.415695190430 -68.294853210449 -232.860626220703 1.981407880783
-156.842391967773 -76.451354980469 -229.650756835938 2.175639867783
-114.720245361328 -68.079284667969 -234.034469604492 2.060378074646
-126.799545288086 -64.131996154785 -238.422485351563 4.028139591217
-163.270568847656 -68.822006225586 -236.658950805664 1.876353621483
-162.522033691406 -71.843811035156 -236.542434692383 1.651151776314
-149.770828247070 -63.083065032959 -233.409805297852 0.869131565094
-17.264059066772 -68.569419860840 -234.934356689453 2.729572057724
-7.385898113251 -70.584266662598 -243.900497436523 2.702222824097
-161.237518310547 -69.226478576660 -244.928329467773 1.098472476006
4.619118213654 -73.119049072266 -237.318862915039 3.279886960983
-1.445407986641 -74.618568420410 -239.823898315430 1.435865402222
-159.829681396484 -70.232460021973 -237.894515991211 2.374512672424
18.029590606689 -78.981750488281 -240.528244018555 1.868715047836
49.836421966553 -76.848388671875 -247.381347656250 4.465802669525
47.128467559814 -78.021240234375 -243.966262817383 6.639886379242
-19.011880874634 -73.581108093262 -248.279144287109 4.299346446991
45.785640716553 -72.107353210449 -250.978317260742 1.244929075241
-160.273040771484 -64.801101684570 -249.646469116211 2.702372550964
-156.901855468750 -71.701034545898 -247.514282226563 1.573854088783
-162.814178466797 -77.698097229004 -250.292190551758 3.073459148407
55.289257049561 -72.172256469727 -247.656433105469 1.058838605881
-95.854942321777 -69.607307434082 -253.901443481445 2.387195110321
-125.145767211914 -68.958831787109 -256.083740234375 2.159574508667
-107.840156555176 -78.291900634766 -253.169448852539 4.887005329132
22.665807723999 -79.464004516602 -258.527404785156 2.366446256638
37.747566223145 -69.638397216797 -252.656814575195 2.183207988739
-101.612861633301 -67.634017944336 -255.599716186523 1.175137281418
-94.053947448730 -64.860923767090 -249.263092041016 3.767456531525
44.466354370117 -80.375236511230 -256.814819335938 9.596997261047
39.095684051514 -70.482971191406 -258.269256591797 1.593940258026
-155.304275512695 -78.535636901855 -258.252044677734 2.879771471024
26.529109954834 -73.383476257324 -261.401489257813 2.458925008774
-145.315597534180 -74.407402038574 -266.532135009766 2.361913204193
-113.613372802734 -71.510681152344 -264.067596435547 2.243589639664
-140.087661743164 -67.240692138672 -262.988708496094 1.252792358398
32.474178314209 -71.828544616699 -263.872161865234 3.919409036636
-127.612136840820 -69.802673339844 -263.543457031250 2.187500953674
-12.944527626038 -70.449203491211 -256.659179687500 2.966096639633
18.148567199707 -77.580886840820 -272.068511962891 2.800544738770
-4.554212093353 -81.384460449219 -264.393432617188 3.496171951294
17.321374893188 -76.684020996094 -281.549468994141 3.036770582199
-156.602584838867 -75.393615722656 -283.563781738281 2.026732921600
-13.445890426636 -69.934440612793 -281.955596923828 4.174032688141
-153.704849243164 -75.761390686035 -282.212585449219 2.231997728348
-123.078498840332 -76.243484497070 -285.962005615234 0.901829838753
-166.628234863281 -80.071052551270 -287.074523925781 5.014041900635
-116.675514221191 -71.331718444824 -287.840942382813 1.352835774422
-104.517379760742 -73.208190917969 -291.648223876953 1.342831969261
-8.388380050659 -70.895317077637 -284.922241210938 1.460095882416
-108.811027526855 -74.994476318359 -288.812225341797 1.307514309883
-118.655174255371 -68.894340515137 -283.207214355469 4.965993881226
-125.514183044434 -67.153480529785 -293.208496093750 1.695177793503
-141.931228637695 -72.423141479492 -291.378112792969 0.636916518211
-129.085189819336 -66.271820068359 -291.788146972656 1.539656639099
-160.636642456055 -78.689254760742 -290.143157958984 3.255489110947
-148.876358032227 -66.829170227051 -291.779205322266 0.552352786064
-162.644561767578 -67.337356567383 -304.807525634766 8.209490776062
-156.197952270508 -69.524223327637 -311.788024902344 1.345613479614
-163.081863403320 -67.864341735840 -302.488433837891 7.159012317657
-139.801406860352 -73.395446777344 -310.913360595703 2.453843593597
-149.956329345703 -76.293945312500 -316.316955566406 3.543554782867
33.794132232666 -69.525863647461 -6.605970859528 4.535915374756
48.224014282227 -75.934135437012 -18.109722137451 3.226791620255
21.959743499756 -67.994743347168 -21.653635025024 2.734838008881
50.031677246094 -70.407226562500 -25.672060012817 1.609263539314
25.993015289307 -72.335533142090 -34.396892547607 2.809013366699
29.629972457886 -70.338157653809 -32.887649536133 1.890163064003
-58.601707458496 -63.125732421875 -50.224262237549 5.602757930756
74.476516723633 -64.364768981934 -59.157516479492 2.183094024658
82.296485900879 -72.467163085938 -68.557708740234 1.821288228035
-90.632331848145 -71.546134948730 -64.416351318359 2.382795333862
-14.437490463257 -65.985237121582 -59.576515197754 3.007664442062
-93.830192565918 -70.544105529785 -73.595809936523 2.140798807144
95.525543212891 -74.571418762207 -66.740409851074 4.968817234039
-12.375946044922 -66.135467529297 -67.623565673828 1.779086947441
66.325119018555 -75.027053833008 -83.095069885254 3.871161699295
-46.577388763428 -74.391105651855 -82.761657714844 2.757529735565
-26.994056701660 -72.421325683594 -73.956581115723 3.484694957733
54.297779083252 -63.726627349854 -87.475379943848 1.575088500977
-43.930175781250 -80.457862854004 -83.899864196777 1.472070693970
63.988712310791 -58.616344451904 -88.386634826660 1.231200337410
50.660625457764 -77.376358032227 -92.449554443359 3.888625144958
55.085792541504 -69.171104431152 -95.479370117188 2.355387687683
55.972530364990 -79.840187072754 -90.772926330566 6.107170581818
54.605865478516 -64.231834411621 -96.224845886230 1.805685877800
97.252403259277 -66.251289367676 -99.154655456543 2.345244407654
106.525009155273 -64.304901123047 -100.824447631836 2.036069154739
59.946750640869 -74.343177795410 -101.712959289551 3.952305078506
107.005912780762 -65.762969970703 -101.632858276367 1.751993060112
-79.581123352051 -68.339332580566 -99.415435791016 1.179128289223
-75.073196411133 -70.134330749512 -104.677673339844 2.243182897568
99.038322448730 -66.484001159668 -98.728759765625 1.941331028938
52.040035247803 -72.262481689453 -101.611297607422 2.644377231598
68.933525085449 -73.555175781250 -96.966339111328 2.203683137894
-71.955619812012 -69.920707702637 -110.607147216797 3.660134553909
-87.298927307129 -67.645149230957 -109.542648315430 1.859767198563
84.385704040527 -76.526893615723 -102.864555358887 4.883579254150
36.948020935059 -73.822143554688 -102.433708190918 4.755898475647
105.517417907715 -66.347694396973 -108.754547119141 2.292138099670
47.768531799316 -75.154701232910 -114.209999084473 1.321653962135
110.105316162109 -72.624893188477 -101.669013977051 0.330527305603
-78.562294006348 -70.060668945313 -113.743560791016 1.562594056129
101.028640747070 -65.168235778809 -109.371269226074 4.461817264557
-83.846778869629 -66.096160888672 -122.988357543945 1.934260964394
-59.431171417236 -73.077239990234 -128.580551147461 2.832797288895
-58.837783813477 -69.641761779785 -124.274078369141 2.556107044220
-71.903724670410 -72.942314147949 -131.752334594727 0.873739540577
-51.451927185059 -71.790710449219 -132.204223632813 0.621109664440
-85.013519287109 -71.845893859863 -135.759429931641 2.067740678787
-78.775619506836 -64.356018066406 -132.130065917969 1.024127840996
-79.773925781250 -71.123664855957 -134.652816772461 0.454726785421
-63.052162170410 -76.530616760254 -143.575439453125 4.768089771271
-71.398361206055 -70.834716796875 -142.844894409180 1.841593861580
-62.093414306641 -77.446769714355 -132.803894042969 6.048979282379
-57.558265686035 -69.741485595703 -144.268386840820 2.389259338379
9.691085815430 -65.242195129395 -147.073196411133 3.931968927383
-92.695823669434 -71.257293701172 -140.886459350586 4.911033153534
-50.137699127197 -77.551643371582 -150.795623779297 1.337073683739
-94.986709594727 -68.198158264160 -151.087417602539 0.574869811535
-103.491477966309 -65.768501281738 -147.713653564453 3.670353174210
19.497180938721 -74.582099914551 -155.924575805664 2.322238206863
13.996934890747 -72.823097229004 -160.027008056641 1.416268706322
-96.087577819824 -73.824050903320 -162.121063232422 5.958291530609
-105.749275207520 -71.011154174805 -151.302886962891 5.258882522583
-100.515625000000 -68.335197448730 -168.270385742188 2.356816053391
20.031375885010 -70.895324707031 -171.388244628906 2.228134155273
-114.123703002930 -69.947013854980 -174.862167358398 4.455142974854
24.643548965454 -70.999526977539 -164.627105712891 1.768418908119
-149.419815063477 -70.421195983887 -178.136230468750 3.092496633530
17.014554977417 -70.641494750977 -176.521347045898 0.411731928587
24.138948440552 -73.205856323242 -186.726959228516 2.027700662613
-152.733963012695 -67.785972595215 -186.843734741211 2.316770792007
19.566122055054 -74.097152709961 -174.695693969727 0.900624811649
17.992746353149 -61.902507781982 -182.506042480469 4.935477256775
-147.477416992188 -75.123359680176 -182.735504150391 2.685104370117
-153.176818847656 -65.235023498535 -190.810928344727 2.421555757523
18.444707870483 -72.794586181641 -187.891708374023 2.359491586685
17.418432235718 -76.183364868164 -191.001327514648 1.398197412491
-142.618637084961 -73.401390075684 -195.643966674805 0.548454940319
-111.205184936523 -71.016296386719 -198.549804687500 1.652789950371
26.007081985474 -72.375717163086 -200.525070190430 4.782310485840
-127.132156372070 -71.505844116211 -195.670974731445 2.731521844864
7.574635982513 -75.941978454590 -202.234741210938 2.403031587601
-129.259536743164 -61.671180725098 -194.889968872070 3.108150005341
-165.000823974609 -66.746368408203 -188.409759521484 8.759794235229
-161.132461547852 -67.681976318359 -197.288406372070 2.546870946884
-157.021575927734 -73.079536437988 -193.013244628906 2.332753181458
-23.313776016235 -72.702697753906 -209.527221679688 1.810752153397
-171.006393432617 -73.145301818848 -199.819030761719 4.818700313568
-29.939933776855 -65.599624633789 -193.913619995117 4.141469478607
-17.300695419312 -73.316902160645 -193.064025878906 2.491483211517
3.746278047562 -63.827346801758 -197.004989624023 5.815182685852
-157.675521850586 -71.461677551270 -209.004379272461 3.152354478836
-107.163948059082 -68.392387390137 -204.057800292969 3.151853561401
-17.582366943359 -66.719749450684 -199.138671875000 2.320849895477
-163.327682495117 -61.600105285645 -201.891754150391 3.255364418030
16.421270370483 -73.190704345703 -203.433807373047 2.451603889465
-173.769699096680 -67.056671142578 -207.806121826172 6.112820148468
-120.605331420898 -73.326866149902 -203.054275512695 1.587205052376
-117.685333251953 -67.011520385742 -210.940048217773 6.305424690247
-124.021377563477 -70.440208435059 -204.356109619141 1.513914585114
-17.936103820801 -69.816436767578 -202.737747192383 2.243421792984
-21.599784851074 -72.846740722656 -203.668563842773 1.007102847099
-165.397781372070 -69.637413024902 -213.281402587891 3.174189805984
-160.993881225586 -66.792541503906 -212.175872802734 2.619546413422
-166.185150146484 -71.223884582520 -220.439987182617 2.512661218643
-139.824020385742 -73.957939147949 -214.351898193359 5.508259773254
-147.033172607422 -69.151130676270 -226.559600830078 1.722870945930
-1.475687026978 -69.523300170898 -219.102752685547 1.449083924294
-9.935530662537 -79.221107482910 -217.716140747070 0.639935553074
-102.906272888184 -67.391304016113 -221.178955078125 1.617439031601
-9.494587898254 -69.410888671875 -237.600173950195 2.637686252594
-171.380035400391 -65.867202758789 -232.736618041992 4.448379039764
-105.223922729492 -68.221717834473 -235.979339599609 6.304432868958
1.392449975014 -72.739776611328 -227.136734008789 1.071693181992
0.141238003969 -71.478340148926 -229.801422119141 1.338083267212
-113.406875610352 -70.490905761719 -235.263031005859 2.602120876312
-3.048482894897 -73.872184753418 -226.974288940430 2.684126138687
-120.562240600586 -66.048515319824 -234.858596801758 3.008599281311
-9.740366935730 -67.101737976074 -231.464950561523 1.773995518684
-2.819744110107 -70.485641479492 -235.689239501953 0.687179923058
-4.488708972931 -70.517166137695 -240.395126342773 1.380768895149
71.627128601074 -67.549011230469 -237.360015869141 1.460324645042
-10.238517761230 -75.864631652832 -238.321044921875 2.896955251694
10.279564857483 -73.117012023926 -235.800903320313 2.326442718506
10.000256538391 -71.134117126465 -237.610992431641 1.571262359619
3.522192001343 -74.199653625488 -239.228927612305 2.004259824753
3.785321950912 -74.814292907715 -242.612106323242 1.588792443275
61.201332092285 -65.418304443359 -240.821594238281 2.643221616745
67.436843872070 -66.455421447754 -241.508163452148 2.704905033112
4.171939849854 -70.991149902344 -250.325469970703 5.332441806793
49.012702941895 -75.240570068359 -243.290557861328 3.216550827026
53.589138031006 -78.667098999023 -240.542663574219 4.861642360687
45.552925109863 -66.764060974121 -252.718124389648 1.138745188713
41.660423278809 -67.592567443848 -252.454528808594 1.744946002960
39.452449798584 -70.905723571777 -260.684814453125 2.492114067078
-130.360473632813 -62.893066406250 -262.151550292969 2.215701580048
-9.361015319824 -70.476364135742 -246.972686767578 1.434092402458
30.404094696045 -69.233833312988 -257.799133300781 1.252569556236
41.470432281494 -70.228836059570 -244.685867309570 4.288944244385
29.202550888062 -76.391113281250 -252.524627685547 6.099613666534
-106.277999877930 -74.635330200195 -261.030059814453 2.712754249573
27.908542633057 -74.185562133789 -256.363098144531 4.493588447571
-145.407196044922 -73.213272094727 -263.496978759766 0.766978502274
-118.254730224609 -74.779632568359 -256.337127685547 1.164374113083
-113.560058593750 -71.158958435059 -259.838348388672 1.319844365120
-2.105380058289 -76.557594299316 -259.226043701172 5.906667709351
-154.474563598633 -72.021995544434 -257.986419677734 1.995094537735
36.711326599121 -73.339927673340 -264.231842041016 6.756643772125
-108.325447082520 -69.145896911621 -256.017639160156 2.207752227783
24.020896911621 -79.021026611328 -258.838867187500 3.708774805069
-135.991607666016 -75.452919006348 -266.791046142578 3.635582685471
-118.260658264160 -70.465164184570 -268.714141845703 5.380618095398
-113.442375183105 -70.590263366699 -264.215148925781 2.695290565491
-114.806724548340 -80.452964782715 -261.629974365234 6.826179027557
-144.192337036133 -73.306884765625 -254.434753417969 2.055551290512
28.759851455688 -73.271141052246 -258.692840576172 4.202576637268
-118.074829101563 -68.211990356445 -263.057769775391 1.601864814758
-146.468734741211 -72.385749816895 -264.541748046875 1.567157864571
-6.250928878784 -68.751174926758 -271.004486083984 2.439965248108
-150.764099121094 -73.805740356445 -280.427185058594 2.853178262711
-10.645124435425 -73.781677246094 -291.320800781250 1.369858741760
-7.007685184479 -69.310905456543 -280.886444091797 1.993884325027
-135.816009521484 -70.130256652832 -291.393524169922 0.915856361389
-131.869705200195 -71.694595336914 -294.231628417969 1.354339241982
-136.852508544922 -69.779762268066 -296.668243408203 2.718544960022
-128.252838134766 -67.047637939453 -289.812194824219 2.428154945374
-157.941894531250 -70.218299865723 -295.204742431641 2.241003274918
-160.374191284180 -71.810180664063 -300.641479492188 3.061059474945
-150.270889282227 -76.117752075195 -302.935211181641 2.423670768738
-150.396957397461 -74.040061950684 -306.568664550781 4.383048057556
-146.299987792969 -70.168106079102 -298.281402587891 1.273171067238
-152.927932739258 -70.604347229004 -308.125488281250 1.754895567894
-146.573806762695 -67.381614685059 -318.545166015625 5.770408153534
17.673597335815 -71.848579406738 -25.344593048096 3.179837465286
49.857929229736 -73.007728576660 -37.145317077637 2.347375869751
22.322425842285 -76.873519897461 -36.044342041016 4.601185798645
30.314456939697 -68.781814575195 -44.973106384277 3.584451913834
-42.550506591797 -59.461547851563 -49.787586212158 3.198994398117
-75.067924499512 -62.836395263672 -50.811046600342 3.578036308289
78.619468688965 -69.891395568848 -61.531101226807 2.320490121841
71.815887451172 -71.115776062012 -61.518577575684 5.323147773743
71.701309204102 -73.467399597168 -64.134819030762 5.704633712769
-103.118820190430 -67.974388122559 -71.819122314453 6.591835975647
96.623725891113 -76.277763366699 -75.388664245605 3.582182884216
-28.125036239624 -72.331947326660 -87.307113647461 7.855330944061
59.331748962402 -67.058372497559 -74.656677246094 5.653700351715
-42.952220916748 -63.967010498047 -85.173225402832 2.534281015396
-58.418621063232 -66.290809631348 -81.433227539063 3.478812694550
50.566505432129 -70.022262573242 -90.814506530762 2.955893754959
101.097969055176 -67.641494750977 -90.955955505371 1.799769282341
61.100986480713 -67.799011230469 -92.285690307617 2.191557168961
54.399608612061 -68.001403808594 -90.863929748535 1.340498805046
46.238990783691 -65.516059875488 -102.823036193848 2.182045936584
54.668460845947 -65.383796691895 -103.453758239746 3.784947156906
100.879280090332 -68.131904602051 -97.742279052734 2.246644258499
67.148254394531 -69.649734497070 -108.994216918945 6.256148815155
51.605079650879 -70.462478637695 -106.453987121582 3.063379049301
73.798362731934 -77.845680236816 -108.099403381348 9.023980140686
99.307739257813 -66.024787902832 -107.498367309570 3.843315362930
-74.749412536621 -64.770835876465 -98.251754760742 2.582535505295
-87.864425659180 -68.331382751465 -110.866340637207 1.149983763695
-83.220329284668 -69.020362854004 -112.471725463867 2.609672784805
-62.207225799561 -69.200141906738 -119.749366760254 3.149494171143
-58.841369628906 -73.739036560059 -127.290779113770 3.766899108887
-96.203498840332 -67.620101928711 -122.074279785156 2.606913566589
-74.742950439453 -72.321510314941 -119.315093994141 3.929531097412
-78.634941101074 -73.733230590820 -133.986831665039 1.862178564072
-61.641304016113 -64.526771545410 -128.101989746094 0.735349178314
-89.120971679688 -64.176864624023 -131.619461059570 2.064993381500
-91.241806030273 -66.969009399414 -132.099899291992 1.722458720207
-50.128803253174 -72.691917419434 -135.544281005859 1.610431551933
-51.758865356445 -71.827278137207 -138.598892211914 1.664198994637
-79.375526428223 -73.764419555664 -138.894531250000 4.212327480316
-56.548721313477 -72.496192932129 -141.894790649414 1.473295569420
-74.663856506348 -75.290946960449 -146.476654052734 2.012284517288
17.215053558350 -67.213363647461 -140.287734985352 3.296105146408
-59.688957214355 -75.297134399414 -144.473449707031 3.692628383636
-57.572025299072 -65.053092956543 -147.263366699219 1.825838327408
7.351356029510 -75.583717346191 -155.753265380859 2.471040725708
16.435506820679 -68.575286865234 -151.054946899414 1.758419275284
-142.414688110352 -70.438117980957 -173.746643066406 1.615746021271
-111.283851623535 -67.034591674805 -178.422836303711 2.201696872711
-113.371345520020 -64.571968078613 -191.542602539063 1.802738904953
-154.719421386719 -71.872421264648 -190.388946533203 2.441752910614
-114.731803894043 -68.760910034180 -187.313476562500 1.022290468216
-152.246612548828 -63.077896118164 -198.034225463867 2.047768831253
-115.563072204590 -68.707702636719 -200.228668212891 3.349282264709
-152.651565551758 -65.106277465820 -202.610702514648 2.535622596741
-150.497375488281 -68.556419372559 -207.893539428711 2.713950634003
-155.584640502930 -75.309417724609 -204.982543945313 3.189532995224
-151.090942382813 -69.643501281738 -225.988739013672 2.755918264389
-149.958526611328 -73.546607971191 -227.888504028320 1.113718271255
-106.669242858887 -66.063255310059 -230.504379272461 1.317001581192
-100.297340393066 -70.226646423340 -220.708206176758 1.424196839333
-123.972320556641 -63.441890716553 -234.222549438477 1.422439455986
-107.877044677734 -70.448524475098 -226.043869018555 2.485303640366
-158.912689208984 -69.780555725098 -231.744812011719 2.694692611694
-4.751101016998 -70.476699829102 -224.485931396484 1.414887309074
-134.028503417969 -74.642494201660 -230.419082641602 1.769911766052
-155.003784179688 -70.048995971680 -236.778228759766 2.093717336655
-141.194915771484 -74.495368957520 -232.902755737305 0.956278502941
-11.302170753479 -68.829093933105 -233.697219848633 1.144926905632
7.781053066254 -71.174041748047 -245.298583984375 2.289892435074
61.662055969238 -64.627113342285 -240.432388305664 2.752257108688
16.368778228760 -77.047058105469 -250.478652954102 0.644518196583
52.028514862061 -71.443534851074 -241.952331542969 1.831065297127
38.875965118408 -75.531005859375 -250.299697875977 5.038424491882
62.095779418945 -67.018241882324 -253.654052734375 5.901318550110
-155.076034545898 -70.035369873047 -249.063018798828 2.689662694931
-147.310623168945 -74.390167236328 -255.895065307617 2.803381681442
43.022346496582 -70.231819152832 -256.638000488281 2.364696979523
25.713071823120 -71.967864990234 -254.009002685547 2.161095857620
47.703769683838 -67.193672180176 -254.854553222656 2.010007143021
-146.773315429688 -73.694839477539 -265.530364990234 1.832356810570
-139.716171264648 -68.433097839355 -255.082000732422 1.880195975304
