-46.844818115234 -85.065658569336 -79.967613220215 2.104578971863
-63.995571136475 -80.451751708984 -92.159599304199 2.901823282242
-62.343841552734 -74.059555053711 -93.480918884277 1.831050157547
-77.523269653320 -73.129829406738 -97.227897644043 2.906927347183
-81.545219421387 -82.493583679199 -102.086669921875 3.327885627747
-19.329500198364 -83.483154296875 -184.988372802734 2.767894029617
-36.792129516602 -91.805320739746 -185.899017333984 5.900221347809
-30.629478454590 -92.297584533691 -189.741226196289 4.997499465942
-28.404838562012 -83.231040954590 -188.575866699219 1.686286330223
-32.151931762695 -80.411621093750 -181.700164794922 1.191408395767
-45.194263458252 -82.284912109375 -192.576385498047 1.900350570679
-141.416534423828 -67.792152404785 -198.863586425781 2.287335634232
-60.219341278076 -81.218742370605 -215.113723754883 4.858306884766
-150.701385498047 -74.291236877441 -217.947555541992 2.798667907715
-143.316833496094 -76.344406127930 -228.384414672852 2.469269752502
-151.547027587891 -80.186798095703 -224.767990112305 1.538750648499
-146.830154418945 -76.995254516602 -224.310775756836 1.536990165710
-136.222106933594 -78.418914794922 -224.950485229492 2.136144638062
-149.724319458008 -83.842308044434 -230.314224243164 1.273291945457
-153.305572509766 -76.209167480469 -236.309112548828 1.732716917992
11.419778823853 -86.471954345703 -239.938446044922 4.151700973511
-4.336651802063 -82.885627746582 -248.369842529297 2.453184843063
-139.823379516602 -85.496353149414 -250.012039184570 6.507676601410
-11.689545631409 -88.665962219238 -261.170532226563 6.117164134979
6.548608779907 -81.960067749023 -269.297607421875 3.822864770889
-13.837225914001 -86.479003906250 -266.635955810547 7.795439243317
-154.846389770508 -80.560409545898 -268.422241210938 3.363096952438
-138.468444824219 -81.324905395508 -281.826507568359 5.953330993652
-145.735000610352 -72.969703674316 -284.420043945313 1.940700888634
-144.548934936523 -78.283119201660 -285.214111328125 1.604743957520
-157.110595703125 -80.943794250488 -295.615570068359 3.433522939682
-65.027275085449 -75.331855773926 -73.411300659180 6.269774913788
-64.262153625488 -77.683135986328 -70.980499267578 3.514669179916
-51.087184906006 -76.304840087891 -79.006584167480 4.344653606415
-27.779117584229 -76.755317687988 -77.342506408691 2.795099973679
-71.627754211426 -79.207839965820 -73.668403625488 1.358128666878
-50.614265441895 -80.174148559570 -83.864723205566 3.055854797363
-54.486881256104 -79.755561828613 -92.709220886230 0.762255370617
-60.790676116943 -79.714996337891 -105.075065612793 7.569194316864
-13.800563812256 -83.790206909180 -178.031906127930 2.283636569977
-14.565191268921 -82.756805419922 -185.599700927734 5.197945117950
-51.829582214355 -77.124458312988 -177.192932128906 1.636859774590
-150.267639160156 -75.277084350586 -193.232299804688 1.547389864922
-40.000518798828 -79.757118225098 -195.294082641602 0.771859705448
-154.535675048828 -76.501434326172 -195.367568969727 1.457675457001
-135.267333984375 -76.560203552246 -190.742782592773 5.689980506897
-33.908061981201 -89.471549987793 -200.240966796875 7.044412612915
-145.102554321289 -71.694381713867 -192.642807006836 2.019725084305
-140.284866333008 -69.398262023926 -204.829193115234 1.836622595787
-47.908672332764 -76.267906188965 -197.019592285156 1.613839864731
-152.035644531250 -76.493415832520 -198.622055053711 2.975901842117
-60.623920440674 -77.003723144531 -198.792694091797 6.109331607819
-149.255142211914 -75.816795349121 -200.814926147461 2.703610658646
-66.344978332520 -76.057556152344 -206.387664794922 2.441347599030
22.576734542847 -86.106483459473 -233.507339477539 7.009233951569
10.223146438599 -83.160072326660 -241.110366821289 2.557134628296
-146.348052978516 -74.815093994141 -234.418518066406 0.833780050278
15.973594665527 -93.451057434082 -246.122573852539 9.039063453674
13.307029724121 -84.046661376953 -245.110000610352 1.053754568100
8.513584136963 -88.912124633789 -253.041091918945 3.509975671768
12.614075660706 -84.607437133789 -253.745513916016 1.077555179596
-158.260360717773 -80.155944824219 -252.832916259766 4.360610485077
-134.080368041992 -71.434829711914 -251.411956787109 2.868975877762
14.252987861633 -84.046943664551 -262.839782714844 1.208205342293
-151.406387329102 -81.699974060059 -269.720794677734 2.746627330780
-147.430877685547 -77.196296691895 -270.483367919922 1.065585255623
1.007779955864 -83.499961853027 -271.593170166016 2.469687938690
-145.763961791992 -74.621398925781 -271.706726074219 3.515613794327
-146.190185546875 -81.928169250488 -285.161895751953 0.866144895554
-149.766662597656 -80.750259399414 -283.636230468750 2.268053770065
-153.110382080078 -82.114967346191 -283.199035644531 1.879469513893
-156.288284301758 -76.639320373535 -293.293334960938 2.418006420135
-133.858337402344 -76.784507751465 -293.686492919922 2.284875392914
-155.286560058594 -72.350502014160 -292.021636962891 1.439094543457
-52.647144317627 -71.318565368652 -66.311309814453 7.997116565704
-55.789531707764 -80.124969482422 -72.275642395020 2.824481010437
-41.848560333252 -79.833999633789 -74.583091735840 2.792464733124
-79.745353698730 -76.633010864258 -80.249794006348 2.648741006851
-36.671939849854 -81.063468933105 -77.475143432617 0.933592975140
-46.670562744141 -74.087783813477 -84.874519348145 2.880248069763
-83.844154357910 -81.775382995605 -106.091056823730 2.990573883057
-73.998916625977 -72.334281921387 -99.232185363770 1.216524839401
28.295778274536 -83.123481750488 -124.776008605957 6.163064002991
34.349250793457 -80.569000244141 -142.064849853516 2.860183954239
-14.583610534668 -82.406188964844 -185.162719726563 4.648814201355
-20.300228118896 -79.492584228516 -182.808395385742 2.356149435043
-23.251695632935 -84.362342834473 -178.789886474609 2.623514652252
-38.505142211914 -83.467773437500 -188.994750976563 3.179626464844
-54.255390167236 -80.428848266602 -191.265441894531 2.951597690582
-34.524955749512 -81.283279418945 -196.019226074219 2.681822776794
-138.896408081055 -69.740348815918 -185.405792236328 3.479821920395
-154.580703735352 -72.347526550293 -195.575851440430 1.815356969833
-154.022766113281 -73.142822265625 -198.567794799805 0.750827670097
-149.906814575195 -72.212783813477 -198.481430053711 2.731934785843
-73.270156860352 -84.496055603027 -210.254379272461 1.190177917480
-61.385814666748 -77.306449890137 -203.231445312500 3.881762981415
-151.402801513672 -73.635070800781 -213.416824340820 1.516143083572
-74.003273010254 -80.736763000488 -211.506500244141 1.386811614037
-73.197540283203 -81.938377380371 -212.962661743164 2.197171688080
-76.865692138672 -75.281829833984 -209.224014282227 1.300868511200
-143.910202026367 -76.687667846680 -223.463867187500 2.054239988327
-147.720199584961 -76.444839477539 -230.348007202148 1.436513543129
-152.864074707031 -77.972602844238 -252.806350708008 2.407781600952
12.743868827820 -80.649978637695 -245.930770874023 2.469842910767
10.072791099548 -80.584342956543 -246.726882934570 0.827539324760
-137.144241333008 -78.601379394531 -259.069549560547 1.112721800804
11.350441932678 -89.838607788086 -252.880172729492 6.036442279816
7.215762138367 -85.086540222168 -254.346694946289 2.398459672928
-152.581619262695 -78.977981567383 -263.578308105469 2.660962104797
-157.579772949219 -72.046920776367 -273.749114990234 1.615524649620
-10.331257820129 -82.192947387695 -273.320465087891 2.680283308029
9.314267158508 -87.544334411621 -280.360839843750 4.954208850861
-156.681442260742 -81.057891845703 -281.116058349609 4.663053512573
-141.532546997070 -81.207092285156 -272.041107177734 5.038055419922
-144.792007446289 -76.767395019531 -304.006317138672 1.603276371956
-41.697952270508 -81.170349121094 -71.482254028320 1.674658656120
-68.734519958496 -72.069465637207 -70.529441833496 7.904200077057
-41.514610290527 -81.149856567383 -71.698867797852 1.527740836143
-28.695533752441 -81.045570373535 -76.373085021973 1.541918754578
-70.077316284180 -72.816001892090 -68.366180419922 6.250497341156
-33.458267211914 -81.192878723145 -73.066566467285 3.347133636475
-44.995323181152 -70.276062011719 -83.495338439941 1.605915784836
-53.878433227539 -71.146263122559 -89.274887084961 1.658872127533
-65.051078796387 -81.970207214355 -88.115501403809 3.846901893616
-60.344051361084 -77.140525817871 -100.181251525879 5.044792175293
-93.229110717773 -74.772575378418 -111.787620544434 2.544910430908
40.130031585693 -81.009773254395 -122.159606933594 1.258314967155
37.796928405762 -88.211349487305 -119.567001342773 7.173846244812
-42.806941986084 -83.678062438965 -167.942871093750 5.064946651459
-43.634006500244 -78.287811279297 -158.584548950195 2.908003807068
-4.364287853241 -81.561851501465 -172.816146850586 3.119186878204
-63.187961578369 -85.668525695801 -166.416717529297 4.426530838013
-61.768177032471 -79.066490173340 -180.514526367188 3.297073364258
-58.003578186035 -78.508308410645 -173.637207031250 0.488547295332
-34.050170898438 -80.319976806641 -171.901062011719 1.938604235649
-59.705585479736 -77.224250793457 -180.014175415039 1.903689384460
-33.512046813965 -77.724517822266 -180.117462158203 1.420119404793
-146.631698608398 -71.022666931152 -181.968368530273 3.375284194946
-52.976394653320 -78.665870666504 -181.295379638672 1.635032415390
-48.309513092041 -77.300415039063 -194.927459716797 0.982023239136
-30.367053985596 -81.344314575195 -181.012863159180 2.265913248062
-33.814395904541 -84.476966857910 -187.285797119141 0.935359954834
-35.229389190674 -76.442008972168 -192.549438476563 3.730631351471
-22.156953811646 -83.730377197266 -188.211181640625 1.150608897209
-49.238513946533 -79.366073608398 -201.289443969727 1.910501003265
-144.918151855469 -65.639793395996 -190.670852661133 1.775899171829
-40.875965118408 -72.575744628906 -193.343612670898 4.344002246857
-39.652549743652 -76.207801818848 -203.934753417969 2.085739135742
-39.869152069092 -83.357902526855 -203.244628906250 2.962782382965
-45.186054229736 -76.025550842285 -201.071426391602 3.058521986008
-133.295654296875 -72.959693908691 -191.991668701172 3.178109645844
-136.437637329102 -71.654678344727 -198.270324707031 2.438334465027
-50.960983276367 -77.456733703613 -203.884414672852 4.054406642914
-61.914710998535 -84.435798645020 -205.276199340820 2.153425455093
-43.327499389648 -79.696784973145 -202.784439086914 2.893727540970
-142.184814453125 -75.214210510254 -203.848831176758 1.319486141205
-70.253471374512 -70.764183044434 -207.771362304688 4.258108139038
-39.845466613770 -84.262954711914 -209.188430786133 6.332330226898
15.141650199890 -85.568016052246 -206.556640625000 4.265208721161
-74.135841369629 -79.657142639160 -212.482376098633 2.041768074036
-29.668197631836 -77.106788635254 -214.340377807617 1.010638594627
11.084715843201 -81.867813110352 -221.012786865234 2.650911569595
-155.168807983398 -72.981178283691 -215.222564697266 2.967128992081
4.232310771942 -81.167442321777 -228.267776489258 2.958674669266
10.624120712280 -84.589935302734 -225.884887695313 3.163211107254
17.145616531372 -80.140296936035 -225.089950561523 1.784653782845
-140.870620727539 -79.190834045410 -224.230422973633 1.682579994202
-145.696838378906 -72.210807800293 -227.274078369141 1.494077801704
10.637345314026 -84.668983459473 -236.496170043945 2.239260196686
15.847674369812 -81.262184143066 -237.250442504883 1.693926930428
14.360309600830 -82.778785705566 -237.680450439453 0.758531987667
-150.147430419922 -77.048980712891 -239.896194458008 2.823549509048
-147.908096313477 -85.697410583496 -236.124877929688 2.058849096298
8.806389808655 -84.670265197754 -234.132598876953 2.842469453812
-45.401382446289 -80.858879089355 -244.249694824219 1.948978781700
15.960931777954 -83.559951782227 -248.623703002930 0.661869525909
-46.723022460938 -82.950920104980 -242.362136840820 3.269510507584
-146.505050659180 -79.184257507324 -257.058441162109 2.865272521973
17.246942520142 -86.265274047852 -253.205795288086 3.721448898315
-146.247970581055 -76.610427856445 -254.002197265625 2.658440589905
-157.157989501953 -74.946067810059 -258.049072265625 2.139405012131
9.953519821167 -82.775726318359 -255.474105834961 3.492270469666
-10.651861190796 -77.296348571777 -251.697052001953 2.089594125748
-11.224822998047 -80.781646728516 -264.726135253906 2.814094305038
-146.037841796875 -81.860427856445 -258.579040527344 1.485443115234
-157.847702026367 -67.300636291504 -260.924591064453 3.121515750885
-145.555236816406 -77.392379760742 -262.305511474609 2.699090242386
-151.984619140625 -70.756584167480 -271.272186279297 3.599298238754
-148.707031250000 -76.084510803223 -265.896453857422 2.074962139130
-9.652659416199 -86.118888854980 -270.490997314453 5.926405906677
-9.334735870361 -82.376976013184 -271.994567871094 2.049527883530
11.707031250000 -83.175399780273 -266.380462646484 2.364748001099
-0.875227987766 -86.889312744141 -277.685607910156 4.792424201965
-0.465692013502 -80.728775024414 -289.011566162109 4.543799877167
-141.726242065430 -72.125892639160 -287.940582275391 2.581971883774
-149.334960937500 -74.484123229980 -292.206054687500 1.240512728691
-58.250656127930 -72.806381225586 -62.031505584717 4.308053970337
-44.400596618652 -73.715522766113 -65.323570251465 3.544624090195
-41.870780944824 -68.641075134277 -66.674171447754 9.089303016663
-42.663192749023 -71.108535766602 -65.811271667480 6.634082794189
-64.593635559082 -80.449523925781 -66.446182250977 1.479266524315
-73.568771362305 -70.617248535156 -69.365379333496 7.319673538208
-40.720630645752 -75.153541564941 -75.779586791992 4.188780307770
-41.210018157959 -80.212333679199 -86.195465087891 2.014278888702
-47.820663452148 -82.822647094727 -87.458938598633 2.592151165009
-83.235977172852 -70.304336547852 -87.316390991211 7.148130416870
-70.764076232910 -78.838722229004 -108.309478759766 6.260590553284
44.916622161865 -79.641647338867 -108.696235656738 2.106951475143
-84.072135925293 -72.468521118164 -108.205848693848 1.119122743607
45.190845489502 -82.153877258301 -122.952362060547 4.114795684814
41.789981842041 -78.919525146484 -124.928131103516 1.106660604477
34.365287780762 -78.912231445313 -123.026092529297 1.438256263733
28.395570755005 -85.960090637207 -128.295959472656 5.015125751495
29.475366592407 -78.903221130371 -133.414779663086 2.820220947266
23.536729812622 -76.330146789551 -146.908966064453 1.828807473183
-49.190563201904 -81.205932617188 -157.285949707031 2.797103643417
30.329307556152 -80.518074035645 -142.230880737305 0.716746330261
24.227966308594 -85.133567810059 -156.736953735352 5.442913532257
-41.661293029785 -80.273818969727 -150.216552734375 1.674538254738
25.590108871460 -81.270195007324 -155.775344848633 2.325083017349
-49.669330596924 -73.183380126953 -158.530624389648 2.071069478989
24.965288162231 -81.427825927734 -167.010986328125 2.807984590530
-62.507129669189 -78.128646850586 -169.898803710938 1.083517551422
-3.367295980453 -83.750801086426 -173.504760742188 4.239227294922
-32.365299224854 -77.353302001953 -173.429977416992 2.432428836823
-7.438713073730 -81.308319091797 -171.416015625000 1.643200039864
-58.757534027100 -76.683967590332 -175.598541259766 1.967863917351
23.469375610352 -85.271713256836 -172.975677490234 6.356000900269
-13.751707077026 -77.278091430664 -186.015960693359 2.400481700897
-24.891664505005 -72.222991943359 -187.498992919922 2.172073602676
-51.751956939697 -72.899024963379 -182.282470703125 2.032997608185
-30.613842010498 -80.002296447754 -187.817184448242 1.439745068550
15.006404876709 -85.745048522949 -193.283889770508 6.427319049835
-149.314682006836 -75.392417907715 -186.470535278320 2.653156280518
-31.289491653442 -79.452331542969 -189.286468505859 1.402826189995
-50.527957916260 -73.778724670410 -189.361618041992 2.784025907516
-151.651718139648 -76.343750000000 -186.162948608398 4.312030315399
-143.233413696289 -73.292854309082 -194.511932373047 1.794308423996
-25.885173797607 -79.183502197266 -198.129302978516 2.926955699921
-25.347734451294 -79.910179138184 -194.881622314453 1.402840375900
-45.974697113037 -76.338729858398 -194.339065551758 0.999266505241
-18.818983078003 -82.764320373535 -194.356018066406 3.465935945511
-48.902801513672 -78.063125610352 -197.043411254883 2.316374063492
-48.864227294922 -78.832473754883 -196.040771484375 1.996735334396
-54.409679412842 -81.163665771484 -199.125183105469 2.949346065521
-20.916479110718 -75.130760192871 -206.883346557617 2.314188718796
-145.121459960938 -72.717185974121 -215.959686279297 2.525899887085
-59.601955413818 -75.373634338379 -210.412948608398 3.145622730255
-61.535087585449 -73.113410949707 -210.761428833008 4.992689132690
-34.436870574951 -70.467697143555 -209.284881591797 2.955456495285
-11.890379905701 -75.835929870605 -207.962081909180 1.818185806274
-34.742630004883 -76.103233337402 -210.641983032227 2.883900165558
-81.989379882813 -75.430892944336 -208.579010009766 2.593195438385
-145.278778076172 -80.230552673340 -207.575012207031 2.579903125763
-34.971080780029 -80.471687316895 -209.844955444336 3.124232530594
3.291702032089 -85.777359008789 -209.010147094727 8.832519531250
-69.999794006348 -80.013252258301 -211.989013671875 1.120976209641
-63.993999481201 -76.249923706055 -214.917190551758 4.537876605988
-26.161745071411 -73.261276245117 -214.718673706055 2.286626338959
-11.044156074524 -89.794418334961 -213.772750854492 8.466846466064
-29.501356124878 -82.781570434570 -216.143814086914 3.888614416122
18.711462020874 -81.392402648926 -215.781478881836 4.676210880280
-152.008285522461 -65.815475463867 -215.771301269531 3.099557161331
-14.354072570801 -88.435585021973 -219.602584838867 7.495503425598
-160.133255004883 -74.542030334473 -224.138656616211 3.103905439377
5.221113204956 -83.170936584473 -231.884597778320 4.737199306488
11.573836326599 -76.526702880859 -227.220764160156 2.557376623154
-1.905308961868 -80.682800292969 -223.022613525391 1.717936277390
13.750370979309 -83.699974060059 -230.205703735352 1.923727393150
-142.440597534180 -80.332893371582 -233.668670654297 1.766019940376
10.383208274841 -83.743865966797 -228.830947875977 2.693393468857
-155.402481079102 -69.349319458008 -226.348098754883 2.278774023056
-146.767486572266 -73.491378784180 -232.762435913086 1.654432415962
-1.523512959480 -82.904884338379 -221.782226562500 2.027203559875
16.652652740479 -87.588485717773 -234.051574707031 5.868759632111
-32.116756439209 -75.286170959473 -238.128738403320 1.207180619240
-147.502334594727 -73.713104248047 -237.419281005859 2.144355058670
-37.676910400391 -77.825767517090 -245.650360107422 2.503888607025
-48.413528442383 -76.554580688477 -240.557388305664 1.628911495209
-40.424263000488 -76.039451599121 -239.998443603516 2.098302602768
17.715114593506 -83.568161010742 -245.471832275391 2.614261865616
-51.605258941650 -71.281791687012 -247.232360839844 2.717811584473
16.895648956299 -83.247863769531 -246.328109741211 1.939995527267
12.969272613525 -79.085273742676 -241.265243530273 1.497343301773
6.970424175262 -84.059524536133 -251.243087768555 2.527618169785
-40.531063079834 -84.551902770996 -247.253143310547 4.685762405396
23.029733657837 -86.530677795410 -247.664489746094 6.377861499786
-144.004699707031 -74.246391296387 -245.253601074219 2.324484109879
18.782617568970 -80.228698730469 -253.016876220703 2.395890235901
-2.237684011459 -87.338302612305 -249.955566406250 3.654342174530
8.239296913147 -81.970069885254 -240.472137451172 2.488749265671
-151.288772583008 -67.305061340332 -253.224288940430 2.484224319458
-148.348251342773 -78.291595458984 -255.719329833984 1.333000063896
-143.414901733398 -74.857986450195 -254.809753417969 1.181835174561
-153.463867187500 -73.053161621094 -257.536956787109 2.325006484985
13.061945915222 -76.800216674805 -263.679321289063 4.581171035767
-157.326507568359 -67.492599487305 -271.124176025391 1.533641695976
-9.536172866821 -82.494407653809 -274.593719482422 3.010683536530
-154.590576171875 -76.579505920410 -263.916839599609 2.847362756729
-145.800735473633 -71.645507812500 -281.466796875000 0.918441116810
-156.414810180664 -68.534729003906 -273.637145996094 2.440124273300
-155.842498779297 -77.271026611328 -282.123626708984 2.304833173752
-132.212661743164 -79.262794494629 -288.016387939453 3.002364635468
-156.523483276367 -74.412834167480 -287.936004638672 1.829200148582
-148.366821289063 -77.911193847656 -289.599517822266 2.100689411163
-149.428268432617 -74.532203674316 -287.066833496094 2.124128818512
-156.222763061523 -77.015449523926 -295.182006835938 3.046494960785
-146.705184936523 -71.150474548340 -289.973510742188 2.970928668976
-155.165176391602 -74.341346740723 -299.917236328125 2.357855319977
-150.143356323242 -76.227439880371 -302.555938720703 2.077612876892
-148.993545532227 -69.098396301270 -305.440704345703 3.198358774185
-54.332332611084 -63.711265563965 -62.169410705566 11.423037528992
-63.232879638672 -72.369247436523 -65.079139709473 6.482357978821
-44.966358184814 -73.952690124512 -61.675903320313 3.479013204575
-22.162002563477 -77.829933166504 -77.421783447266 3.477863788605
-50.693386077881 -78.650772094727 -87.302139282227 2.571034431458
-87.878822326660 -82.022399902344 -96.282440185547 3.552037954330
40.911186218262 -81.365173339844 -109.000740051270 1.906896114349
-72.177375793457 -75.817718505859 -98.494468688965 3.500573158264
45.925750732422 -84.481994628906 -115.928527832031 3.402589082718
42.716358184814 -81.026588439941 -125.516746520996 1.943585395813
42.324485778809 -81.971130371094 -125.264709472656 2.350499629974
35.362522125244 -81.937454223633 -136.604492187500 2.112610101700
32.503398895264 -78.566009521484 -135.788452148438 1.428383588791
33.488647460938 -90.202896118164 -135.918304443359 7.492262840271
33.281002044678 -77.400535583496 -152.611907958984 1.892092466354
-45.278873443604 -71.172576904297 -150.701644897461 2.488862514496
29.967292785645 -83.305335998535 -140.911071777344 3.102589607239
-65.778579711914 -70.303581237793 -152.875503540039 2.519889116287
-34.823204040527 -80.270309448242 -152.287658691406 3.503082513809
-60.916812896729 -78.179725646973 -162.818572998047 0.816426694393
-38.599090576172 -79.311347961426 -158.635848999023 2.754962444305
31.957479476929 -82.620346069336 -159.224716186523 5.226201534271
-36.432926177979 -84.855758666992 -156.609161376953 4.850529193878
-0.652583003044 -80.390998840332 -176.456878662109 6.656797885895
35.741451263428 -74.226646423340 -167.738525390625 4.794321537018
-11.070268630981 -79.739395141602 -172.423126220703 1.622968792915
-57.982250213623 -75.888092041016 -162.563796997070 3.096588373184
-37.927238464355 -73.133743286133 -171.194503784180 2.630333423615
-33.089138031006 -73.686096191406 -175.197845458984 2.145901203156
23.031038284302 -83.409835815430 -179.508163452148 3.243402004242
-53.286144256592 -78.425415039063 -176.090347290039 0.988843977451
-26.631204605103 -72.336395263672 -175.464935302734 1.510102510452
21.849990844727 -80.562782287598 -187.802917480469 2.671967029572
-52.511089324951 -78.437927246094 -186.035095214844 0.813606679440
-24.470663070679 -71.361312866211 -180.149597167969 0.868316471577
-55.039974212646 -72.689483642578 -185.124450683594 3.260607719421
-41.827983856201 -76.254524230957 -195.877578735352 1.488024353981
-29.438529968262 -76.285285949707 -190.711364746094 2.601432323456
-41.369007110596 -80.057647705078 -196.072525024414 1.842442989349
-23.040779113770 -77.966239929199 -193.466918945313 1.946151137352
-139.014724731445 -73.197212219238 -195.562561035156 3.184249401093
21.000940322876 -80.993286132813 -203.120971679688 3.738137483597
-133.857910156250 -70.851226806641 -198.078170776367 1.301490306854
-20.769701004028 -75.335502624512 -197.061004638672 1.389713764191
-21.418981552124 -75.453125000000 -197.547546386719 1.032413601875
-42.989948272705 -78.406448364258 -194.071945190430 2.229441642761
10.290670394897 -77.155540466309 -200.929931640625 2.587003707886
-17.407386779785 -82.925071716309 -199.268173217773 3.419396877289
-54.927852630615 -79.170944213867 -205.218368530273 2.417369604111
-35.278423309326 -78.505233764648 -203.803955078125 1.169726014137
-59.772941589355 -73.482223510742 -206.913391113281 5.034727096558
-69.052017211914 -75.042381286621 -211.216751098633 3.246821165085
15.954145431519 -78.785484313965 -211.132415771484 1.305061817169
-87.474273681641 -73.805061340332 -210.825317382813 1.386255860329
-28.932342529297 -79.226936340332 -215.812408447266 1.655093550682
-81.351615905762 -76.631835937500 -208.352111816406 2.492734909058
-150.890090942383 -72.608253479004 -211.399627685547 1.089241862297
-7.896094799042 -80.415107727051 -215.391662597656 1.644814848900
-6.073757171631 -77.949836730957 -219.152023315430 1.270504713058
11.614724159241 -82.296699523926 -219.036529541016 1.683177471161
11.602510452271 -73.512924194336 -228.902633666992 1.062943339348
-2.067523956299 -82.740837097168 -228.875167846680 4.153340816498
-144.704910278320 -71.128486633301 -216.672988891602 2.225645303726
-151.283584594727 -77.306861877441 -233.896438598633 2.267452239990
-156.002807617188 -68.252693176270 -231.899612426758 0.924858272076
-2.098531961441 -84.285087585449 -238.074310302734 6.037976741791
1.658900976181 -78.862060546875 -238.914794921875 1.025282979012
-25.822881698608 -85.658943176270 -243.647583007813 6.691467761993
-151.575714111328 -69.838867187500 -236.760498046875 1.237326860428
8.300193786621 -83.438674926758 -244.151107788086 4.017383575439
-23.743087768555 -72.683807373047 -242.038513183594 0.492016345263
17.849180221558 -81.939361572266 -236.675796508789 1.674171209335
-53.585639953613 -76.526687622070 -243.422531127930 1.326844334602
-51.813686370850 -78.370956420898 -250.468734741211 2.675256013870
-148.640228271484 -78.791076660156 -243.821304321289 1.245964407921
-63.151786804199 -79.240600585938 -248.604766845703 2.429905176163
-3.812700033188 -80.954109191895 -247.099075317383 3.435944080353
-11.792523384094 -77.049201965332 -254.535232543945 1.944342613220
-148.720046997070 -77.759475708008 -257.920684814453 1.435542702675
-132.649307250977 -71.756820678711 -254.531921386719 1.588500499725
-136.511856079102 -71.403686523438 -255.522125244141 2.188844680786
14.979366302490 -80.830062866211 -258.743041992188 2.222611188889
-147.591064453125 -75.208511352539 -270.736450195313 2.355594158173
16.098880767822 -83.425575256348 -266.842803955078 3.092224597931
-144.888259887695 -71.435531616211 -274.046203613281 2.472091197968
0.868883013725 -84.047554016113 -278.233184814453 3.278970003128
-143.087203979492 -74.597152709961 -280.295288085938 3.249053716660
-4.466255187988 -85.062080383301 -284.142089843750 6.092063903809
-155.250289916992 -70.244132995605 -283.085662841797 3.119959592819
-145.805099487305 -70.062408447266 -280.943878173828 2.104649543762
-138.294540405273 -79.711326599121 -284.578430175781 3.368788242340
-151.917999267578 -75.800048828125 -293.254486083984 1.231140494347
-23.392080307007 -78.114929199219 -291.072509765625 1.273233175278
-152.603988647461 -72.263481140137 -290.245361328125 3.229454994202
-148.799240112305 -78.528694152832 -293.474853515625 3.368022918701
-154.567337036133 -72.678657531738 -305.127563476563 2.149600982666
-53.239601135254 -69.990249633789 -56.864959716797 4.920673370361
-37.680759429932 -80.452354431152 -63.566600799561 3.348330259323
-73.606346130371 -75.920509338379 -68.412162780762 2.147846937180
-29.502983093262 -72.329681396484 -67.022537231445 4.912909030914
-25.586589813232 -76.357963562012 -70.787193298340 2.220358848572
-85.371704101563 -72.469581604004 -78.291374206543 5.817408084869
85.745361328125 -84.359519958496 -86.944183349609 3.797095537186
-32.666301727295 -71.937187194824 -86.499221801758 7.675295829773
83.528953552246 -86.656158447266 -88.568801879883 5.118659973145
80.919944763184 -82.513412475586 -91.572311401367 3.123870134354
86.569190979004 -81.662208557129 -87.814224243164 2.494055509567
88.477287292480 -79.216499328613 -93.363769531250 2.305868864059
91.119064331055 -81.050445556641 -97.638893127441 5.767629146576
-88.861953735352 -68.043083190918 -92.677413940430 6.313026428223
58.146419525146 -80.863426208496 -107.400665283203 6.226640224457
-95.691566467285 -59.080387115479 -110.652313232422 3.437416553497
49.008201599121 -83.339569091797 -108.500457763672 5.641672611237
51.496749877930 -81.621849060059 -114.906806945801 6.007079601288
38.830242156982 -78.242820739746 -115.981071472168 1.127365589142
35.438262939453 -80.398712158203 -140.119262695313 2.077035188675
27.782451629639 -78.412338256836 -142.469146728516 1.384951710701
22.728496551514 -71.209281921387 -144.950439453125 2.052481889725
33.578136444092 -74.850189208984 -144.056213378906 3.292984724045
-45.451553344727 -78.517395019531 -153.899322509766 1.745424985886
-49.312294006348 -76.668441772461 -151.029510498047 0.832289397717
-40.078624725342 -74.591804504395 -158.916824340820 0.965604662895
23.017107009888 -76.423095703125 -156.497558593750 1.447605252266
31.484191894531 -78.526336669922 -169.643508911133 3.515646696091
-32.396186828613 -72.085594177246 -169.950897216797 2.995170831680
-34.672527313232 -69.757972717285 -158.948181152344 3.404592990875
-45.611301422119 -78.313758850098 -159.578796386719 1.816564321518
2.090172052383 -74.687797546387 -164.142730712891 1.834614038467
25.640609741211 -80.037734985352 -151.476715087891 1.596643447876
34.220638275146 -75.189224243164 -160.650268554688 2.406267404556
29.896238327026 -77.500320434570 -172.363662719727 1.605180025101
-4.939967155457 -77.125267028809 -173.802978515625 3.326017618179
-5.430353164673 -79.062080383301 -171.345016479492 1.696941018105
-58.028099060059 -72.261924743652 -165.795806884766 2.977585077286
-60.535579681396 -74.104095458984 -171.230636596680 1.576319932938
-44.595024108887 -77.064773559570 -169.221527099609 3.327213525772
-37.185840606689 -73.634216308594 -167.790283203125 3.096644639969
21.825969696045 -73.279617309570 -172.036331176758 3.787969112396
-23.912305831909 -81.872917175293 -178.711303710938 3.459028244019
-29.181924819946 -72.726089477539 -182.246658325195 3.759595155716
-63.290679931641 -78.965385437012 -178.911239624023 3.641739368439
96.097557067871 -85.495872497559 -184.768218994141 10.989065170288
21.161903381348 -83.529495239258 -177.329864501953 4.189667224884
-25.434986114502 -76.489318847656 -180.074935913086 1.712913870811
-51.904758453369 -75.403312683105 -177.413787841797 1.303101181984
-21.929132461548 -72.845581054688 -181.365280151367 1.904948949814
113.297767639160 -84.786331176758 -185.765563964844 9.643854141235
-57.131149291992 -77.500228881836 -185.477523803711 1.704983353615
11.115529060364 -81.367362976074 -192.491302490234 5.651638507843
16.018060684204 -78.932647705078 -179.457244873047 3.062853813171
-56.189197540283 -81.746513366699 -175.998916625977 2.815832138062
-24.950691223145 -75.069129943848 -183.136444091797 1.924277424812
-56.005081176758 -79.231491088867 -177.249038696289 2.122378826141
-36.684234619141 -78.596664428711 -176.363265991211 1.452370643616
-29.120534896851 -76.667167663574 -187.872726440430 0.474189817905
18.860483169556 -79.910140991211 -190.064453125000 1.507704973221
-47.704635620117 -77.790695190430 -188.644485473633 1.897897005081
103.018753051758 -82.912368774414 -193.159729003906 5.749091625214
-50.347881317139 -71.392585754395 -189.161834716797 4.186154842377
5.588259220123 -78.088653564453 -204.237060546875 3.402843713760
21.016628265381 -78.172538757324 -199.316772460938 2.658064365387
-50.090538024902 -75.878944396973 -191.624389648438 0.490658402443
-15.483250617981 -78.522369384766 -189.515579223633 3.571123838425
98.534370422363 -83.730873107910 -197.377166748047 6.848315238953
94.418395996094 -88.658905029297 -197.430435180664 12.036828041077
-50.613937377930 -73.915260314941 -186.128906250000 1.126556873322
-150.731597900391 -77.462226867676 -198.054702758789 2.445388555527
-45.676658630371 -75.582046508789 -195.544372558594 1.553834557533
-145.045654296875 -71.539093017578 -194.607650756836 1.453175902367
-134.593490600586 -66.291755676270 -194.805603027344 1.905642271042
-47.911705017090 -79.534553527832 -195.357284545898 1.646077156067
8.736893653870 -81.415122985840 -207.637390136719 3.357637166977
-16.067207336426 -74.497711181641 -205.689300537109 1.878041625023
15.880564689636 -76.300422668457 -201.969497680664 1.874782562256
90.286514282227 -88.827461242676 -216.233001708984 11.683107376099
-34.690742492676 -74.577667236328 -202.862380981445 2.559084653854
-15.538307189941 -75.099372863770 -203.412658691406 1.907992482185
-17.837297439575 -74.907661437988 -215.244567871094 1.452430248260
-35.020183563232 -75.147583007813 -203.546157836914 2.224584341049
4.484279155731 -79.364646911621 -207.321960449219 3.386597871780
-80.998535156250 -76.212722778320 -210.058990478516 0.744204223156
15.719536781311 -80.980690002441 -216.351089477539 2.406913757324
-35.498256683350 -75.515136718750 -205.448318481445 0.252479702234
-146.038909912109 -75.739906311035 -204.288925170898 2.194678306580
-141.000656127930 -66.782546997070 -207.920761108398 3.004197835922
-89.366180419922 -74.685287475586 -211.741302490234 1.643423438072
-35.318256378174 -74.203552246094 -208.841476440430 2.050110101700
-13.398672103882 -84.029312133789 -212.555633544922 3.995129346848
-34.929424285889 -78.066383361816 -204.554794311523 0.882106125355
-91.512542724609 -77.255325317383 -215.986236572266 0.476268291473
-87.358566284180 -76.358039855957 -211.986740112305 1.885786294937
4.268422126770 -86.151901245117 -221.348663330078 5.791050434113
-149.599822998047 -63.934616088867 -210.061050415039 1.195535898209
-16.241422653198 -82.703109741211 -212.677459716797 3.612848758698
7.946391105652 -87.276397705078 -219.924697875977 5.338386058807
-144.833572387695 -69.365539550781 -218.472732543945 1.769091844559
-24.779491424561 -79.410537719727 -215.283569335938 1.484594583511
1.432021021843 -73.693443298340 -220.193740844727 2.935792684555
-10.456388473511 -79.431945800781 -220.458221435547 1.684790968895
-153.070877075195 -65.536682128906 -220.893676757813 3.410054683685
-140.785110473633 -59.297546386719 -224.420715332031 3.625328779221
-4.667805194855 -79.163543701172 -227.210174560547 0.946703791618
-149.277725219727 -76.538734436035 -224.255264282227 0.734797596931
-0.015912000090 -73.531974792480 -229.930313110352 2.938679933548
16.616594314575 -79.081253051758 -237.359542846680 1.856244802475
-3.873861074448 -82.253021240234 -229.519027709961 4.163843631744
-3.461668014526 -72.253372192383 -232.406585693359 1.417094588280
7.749158859253 -77.556800842285 -232.641525268555 1.584588646889
-153.971252441406 -71.687416076660 -238.122619628906 2.636058330536
-20.848762512207 -75.123130798340 -232.947250366211 4.180911540985
-35.891792297363 -79.942993164063 -238.546157836914 2.354548931122
-0.572125971317 -77.678504943848 -236.064865112305 2.216785430908
2.124855995178 -85.854560852051 -244.735687255859 5.999130249023
-0.075965002179 -76.953605651855 -233.532913208008 3.277605772018
-60.735519409180 -75.369491577148 -241.675430297852 3.137592077255
-149.851318359375 -66.600471496582 -247.682312011719 0.620793581009
-154.985824584961 -70.508865356445 -245.011657714844 0.973417997360
10.725262641907 -82.081169128418 -248.150253295898 2.400153398514
24.506008148193 -83.465698242188 -246.908294677734 4.916901588440
-62.860466003418 -72.103767395020 -246.597320556641 2.116566896439
-143.351882934570 -76.831573486328 -249.888565063477 2.079476118088
-155.110351562500 -74.845344543457 -252.241394042969 2.496902942657
-156.674697875977 -74.803108215332 -254.391754150391 2.636003255844
-144.693923950195 -68.095069885254 -260.420104980469 2.609633922577
-144.312973022461 -72.696861267090 -254.349990844727 2.429882526398
-7.649340152740 -81.305831909180 -256.510253906250 1.016396522522
-147.570434570313 -72.857116699219 -259.637420654297 0.964422285557
-16.979139328003 -79.847343444824 -269.402954101563 4.519149303436
-149.326522827148 -69.735595703125 -268.525146484375 2.063593626022
-150.155654907227 -70.795288085938 -280.084869384766 2.848304986954
-149.609786987305 -69.273384094238 -282.382446289063 2.826912879944
-5.735350131989 -74.425155639648 -285.952911376953 1.102512955666
-151.429458618164 -66.859443664551 -280.140808105469 1.497950792313
-26.765558242798 -80.536735534668 -286.128173828125 4.993349552155
-26.872360229492 -74.925582885742 -284.704345703125 1.532586216927
-15.098134040833 -75.957641601563 -295.235748291016 3.576382637024
-17.462255477905 -75.388008117676 -294.431274414063 3.386305093765
8.740599632263 -83.507583618164 -291.853637695313 4.040195465088
-127.213554382324 -75.331863403320 -288.530212402344 1.895980358124
-65.087684631348 -76.956901550293 -286.115814208984 3.310734510422
-44.676296234131 -73.706077575684 -290.497558593750 2.556201696396
-35.920234680176 -78.699493408203 -287.163909912109 1.450634717941
-10.738265037537 -76.914222717285 -295.221466064453 3.840750694275
3.316263914108 -81.588569641113 -288.381378173828 4.290138244629
-143.620605468750 -72.394165039063 -296.896575927734 1.542788386345
8.757802963257 -81.185668945313 -297.787658691406 7.286464691162
-156.323318481445 -68.170967102051 -300.890380859375 2.393941640854
-157.768478393555 -76.567726135254 -298.907226562500 3.719129562378
-155.917434692383 -66.496437072754 -310.427337646484 3.542347431183
-144.583435058594 -71.024917602539 -307.121154785156 3.838912248611
-48.705509185791 -72.328849792480 -48.891700744629 2.670501708984
-51.231819152832 -77.232421875000 -55.779926300049 3.839553117752
-65.890060424805 -69.183052062988 -53.748867034912 3.691832065582
-37.406269073486 -70.652153015137 -63.148998260498 5.492242336273
-33.051025390625 -73.880874633789 -59.360511779785 0.910909712315
-16.450263977051 -73.747642517090 -71.244827270508 1.833807706833
-78.872299194336 -67.480041503906 -68.672988891602 8.780187606812
87.667282104492 -81.356857299805 -80.633834838867 4.040076255798
-88.913360595703 -68.273147583008 -71.003479003906 4.059095382690
81.642097473145 -77.553962707520 -78.405189514160 2.628481388092
90.680664062500 -75.287788391113 -86.929977416992 2.770951747894
100.543266296387 -78.125686645508 -93.232124328613 6.248470306396
-60.147876739502 -75.189926147461 -96.132133483887 4.002318382263
83.029365539551 -82.730316162109 -99.069549560547 6.125174522400
77.250732421875 -85.922302246094 -92.413879394531 6.938119411469
87.745849609375 -80.581024169922 -92.697166442871 3.066590785980
-56.550903320313 -72.385360717773 -97.019386291504 6.273747444153
49.308578491211 -76.283638000488 -99.868675231934 0.658385753632
46.989631652832 -77.813507080078 -108.026611328125 2.123480081558
40.397377014160 -79.277420043945 -104.612167358398 1.598808646202
36.819652557373 -78.589080810547 -101.536926269531 5.095256805420
-90.351226806641 -65.504257202148 -100.987564086914 5.877194881439
36.373168945313 -76.040504455566 -118.585197448730 2.454212665558
-83.455856323242 -71.457038879395 -105.420600891113 2.428983211517
40.466377258301 -79.997039794922 -129.629776000977 2.959726333618
33.191062927246 -79.237510681152 -121.534561157227 2.308805465698
35.772033691406 -69.149185180664 -122.711029052734 0.506092846394
46.143688201904 -76.084762573242 -118.306823730469 2.529350042343
42.554389953613 -82.151161193848 -129.886169433594 5.294600486755
-49.476665496826 -66.335906982422 -134.670059204102 1.752654552460
38.420997619629 -83.928718566895 -134.960983276367 1.914607644081
36.087795257568 -78.358856201172 -145.858169555664 2.762623310089
-55.852897644043 -71.268096923828 -144.309432983398 2.094712734222
-43.459964752197 -74.348747253418 -139.695144653320 2.295327186584
35.812358856201 -76.424575805664 -143.448181152344 1.538565516472
111.048431396484 -76.929672241211 -142.959442138672 2.847123861313
112.645919799805 -78.496223449707 -150.175598144531 2.608424663544
27.020591735840 -79.772209167480 -141.813247680664 2.229638576508
-39.359924316406 -77.724632263184 -149.570755004883 2.183362007141
117.740867614746 -91.751815795898 -154.628509521484 14.690695762634
-35.782066345215 -72.108459472656 -152.150741577148 2.618457078934
-67.261863708496 -71.635704040527 -162.561050415039 2.568747043610
110.552078247070 -88.334945678711 -156.865051269531 10.753090858459
22.738494873047 -79.551467895508 -167.950576782227 1.524224877357
1.423097014427 -77.610832214355 -163.170471191406 2.086776733398
111.116622924805 -83.008476257324 -154.216400146484 6.515504837036
-63.812843322754 -72.669548034668 -166.001205444336 2.257427692413
-38.910392761230 -76.304420471191 -166.394836425781 1.628383994102
111.040016174316 -84.373359680176 -167.520812988281 6.249399662018
27.879785537720 -71.962158203125 -159.630508422852 2.404815673828
-60.488933563232 -65.639694213867 -163.409759521484 5.080175399780
113.156013488770 -83.587532043457 -168.165466308594 5.000606060028
-65.383102416992 -74.666183471680 -168.244415283203 1.705721735954
-48.436820983887 -77.774169921875 -182.788757324219 1.860113143921
106.134696960449 -82.362190246582 -173.573806762695 7.253393173218
-59.152473449707 -71.781494140625 -172.361450195313 2.542051792145
112.807365417480 -82.137557983398 -181.283187866211 6.122631072998
-61.420124053955 -72.168487548828 -176.258270263672 2.040332794189
-16.097864151001 -72.921463012695 -177.683807373047 3.651021242142
-9.663151741028 -82.797988891602 -183.397415161133 5.905021667480
107.619606018066 -85.210357666016 -167.818893432617 7.985893726349
21.724309921265 -79.740806579590 -171.926589965820 1.064348578453
31.720252990723 -72.593803405762 -169.880889892578 3.223980903625
-58.243339538574 -72.518432617188 -177.061508178711 1.367626428604
17.069105148315 -75.587356567383 -182.462005615234 1.391451954842
-57.276817321777 -74.630393981934 -173.632537841797 2.042479991913
-52.807651519775 -72.377052307129 -195.082870483398 5.749191761017
10.064059257507 -74.818359375000 -185.940811157227 2.320214033127
-54.950523376465 -67.841331481934 -178.580841064453 5.749079704285
105.727424621582 -79.954193115234 -191.777053833008 3.332493782043
26.239402770996 -82.074234008789 -183.094100952148 3.304014205933
-35.749938964844 -72.116409301758 -188.011718750000 3.257466077805
-43.522243499756 -77.771987915039 -188.846054077148 1.917267084122
10.911244392395 -80.672485351563 -191.537841796875 5.034739494324
-20.349397659302 -77.258102416992 -187.303909301758 1.569591760635
-47.194141387939 -76.211990356445 -195.538711547852 1.021551370621
100.976631164551 -87.730918884277 -184.360733032227 10.423718452454
7.840961933136 -81.971557617188 -190.628356933594 7.648845195770
-132.507736206055 -77.353370666504 -198.596115112305 3.363779544830
-50.481536865234 -76.905311584473 -195.568984985352 2.085168361664
93.523284912109 -81.479614257813 -200.869461059570 5.475189685822
-150.627792358398 -75.264068603516 -200.374252319336 2.550322055817
17.855697631836 -78.989830017090 -202.396881103516 2.321472883224
-43.989616394043 -71.165199279785 -205.997558593750 4.879763603210
-30.393110275269 -79.441886901855 -207.675582885742 2.429994106293
-37.685672760010 -76.696273803711 -200.336471557617 2.229927062988
-46.935817718506 -82.470649719238 -197.759460449219 1.814081072807
100.303382873535 -82.845802307129 -207.567611694336 6.510401725769
-22.132135391235 -81.099067687988 -199.563247680664 2.340606212616
-150.407058715820 -68.925148010254 -197.906509399414 1.796368122101
15.111942291260 -81.459747314453 -201.311248779297 2.891475677490
-78.101005554199 -77.978034973145 -203.948379516602 3.444602966309
-142.818908691406 -66.855476379395 -212.678131103516 2.831966161728
92.285064697266 -86.042663574219 -216.629211425781 8.957800865173
-33.483631134033 -73.893600463867 -206.845031738281 1.258940219879
-29.462289810181 -76.773826599121 -210.152267456055 1.768581867218
9.771499633789 -78.682502746582 -210.263214111328 1.881653904915
-72.608497619629 -78.522750854492 -205.702697753906 2.801306962967
-27.630481719971 -85.553161621094 -204.641128540039 6.913164138794
-9.818946838379 -79.158073425293 -217.770492553711 0.779515445232
-69.820182800293 -74.721908569336 -213.122085571289 3.707961082458
-14.635149955750 -77.601890563965 -217.769577026367 1.269737005234
7.515048980713 -68.264343261719 -211.598114013672 2.538656473160
10.682745933533 -81.931137084961 -222.253051757813 2.155973196030
-152.970550537109 -71.541915893555 -215.918548583984 0.735305011272
-10.109048843384 -77.157234191895 -214.323074340820 1.723172426224
-103.570739746094 -68.015571594238 -218.652175903320 2.047827005386
-22.763381958008 -76.225311279297 -219.328079223633 1.614981412888
86.792907714844 -89.483757019043 -214.105957031250 12.475518226624
9.148089408875 -76.065795898438 -224.680480957031 1.744778037071
21.631967544556 -78.875389099121 -217.085494995117 4.994502544403
78.694793701172 -84.187988281250 -214.271270751953 8.499360084534
0.134920999408 -83.519416809082 -230.976715087891 4.672551155090
84.198883056641 -83.161392211914 -218.491531372070 6.777240276337
-22.565113067627 -71.521133422852 -225.215316772461 1.947332143784
16.273456573486 -74.643913269043 -218.781524658203 2.478507518768
-149.806289672852 -71.059547424316 -215.641555786133 2.357222318649
-28.362575531006 -78.074745178223 -226.569076538086 3.400360584259
1.267814040184 -74.676277160645 -232.248779296875 2.708911180496
-157.692733764648 -75.454399108887 -222.403213500977 3.531936168671
-138.681076049805 -74.280189514160 -225.755035400391 1.357342720032
1.336303949356 -77.626197814941 -223.263534545898 1.888911604881
-4.214891910553 -73.344566345215 -224.035232543945 2.686714172363
-137.945144653320 -66.076370239258 -226.823471069336 2.667838573456
-148.584197998047 -70.308769226074 -241.354034423828 3.800161600113
-150.234222412109 -70.701927185059 -233.415390014648 2.674381256104
-32.444744110107 -78.004165649414 -236.217254638672 2.617223262787
-142.454528808594 -74.592796325684 -241.497528076172 1.881515026093
13.024886131287 -81.000915527344 -241.910797119141 1.883288383484
4.768827915192 -78.184776306152 -245.712463378906 1.754443526268
-151.437438964844 -63.203815460205 -236.679992675781 1.525371313095
-150.757293701172 -69.321601867676 -243.185958862305 3.072595834732
-46.405601501465 -78.295196533203 -246.318572998047 1.493826270103
-32.869899749756 -77.360206604004 -247.531616210938 4.384996414185
2.723862886429 -78.026092529297 -242.260055541992 0.579864859581
-36.807037353516 -78.821815490723 -245.153869628906 3.043179035187
20.476898193359 -79.783538818359 -247.005126953125 0.960225045681
-7.648408889771 -80.700386047363 -253.883178710938 1.838425755501
-144.290039062500 -71.903648376465 -251.052124023438 1.489523291588
-12.142837524414 -83.957427978516 -253.553634643555 3.520115613937
-149.552520751953 -67.328140258789 -243.770263671875 3.166343688965
-66.035217285156 -77.383857727051 -249.689620971680 2.655329704285
-147.817794799805 -78.166297912598 -256.621856689453 1.426189064980
-129.056045532227 -71.723579406738 -256.202178955078 3.141659975052
-154.907928466797 -70.353736877441 -254.116348266602 1.663895010948
-11.310032844543 -75.427131652832 -268.050109863281 3.635803699493
-147.346038818359 -78.170104980469 -271.737304687500 1.575832962990
-150.324935913086 -71.052986145020 -268.063568115234 0.621595263481
-13.811723709106 -78.380119323730 -271.255554199219 0.887755393982
-145.013198852539 -71.138595581055 -267.756530761719 2.231996774673
-8.567045211792 -76.803817749023 -276.243164062500 0.492298543453
-47.105667114258 -75.684059143066 -282.878784179688 2.103702783585
-136.595046997070 -68.505271911621 -286.562347412109 2.118385314941
-137.775512695313 -71.101371765137 -283.864959716797 2.395750045776
-123.725181579590 -68.201591491699 -279.021545410156 6.897954940796
-53.109779357910 -75.348686218262 -285.710815429688 1.949756860733
-112.661544799805 -71.627265930176 -281.254058837891 4.510590076447
