13.833629608154 -70.739425659180 -218.096420288086 1.818219542503
14.232892036438 -75.910842895508 -216.040542602539 2.598353862762
-14.832831382751 -66.868347167969 -211.685363769531 0.807224333286
-5.252726078033 -72.994094848633 -217.401367187500 1.350685238838
-173.926681518555 -65.169960021973 -212.225799560547 8.556016921997
-159.739959716797 -63.451045989990 -212.971954345703 3.620083332062
-95.334121704102 -70.211822509766 -219.998016357422 2.434636116028
-96.144897460938 -74.503799438477 -221.260375976563 2.300749301910
-161.295898437500 -72.255752563477 -228.511962890625 1.097308754921
-110.511329650879 -67.138549804688 -219.529067993164 3.466861963272
-11.833184242249 -70.309791564941 -210.847518920898 2.511125326157
-129.151550292969 -73.283302307129 -221.355468750000 4.109610557556
-144.028228759766 -70.512840270996 -223.208343505859 1.718497276306
-3.629641056061 -76.793594360352 -221.565841674805 1.411463499069
-134.467147827148 -67.714660644531 -224.591003417969 1.680964350700
-124.060249328613 -77.115211486816 -221.934585571289 4.561226844788
-114.726852416992 -75.600692749023 -223.761322021484 2.635116815567
-2.783502101898 -64.440895080566 -230.430084228516 2.942809820175
-108.094833374023 -67.786949157715 -233.310104370117 2.708766460419
-162.538421630859 -61.060276031494 -223.447967529297 4.107508182526
-145.567184448242 -69.619674682617 -226.725921630859 2.272309303284
-164.986312866211 -69.409225463867 -227.152084350586 2.572834968567
-8.791520118713 -70.214378356934 -225.248916625977 1.379919886589
-8.301708221436 -74.307968139648 -234.615875244141 1.250781059265
77.950485229492 -79.403594970703 -224.803054809570 3.117997646332
-2.530402898788 -77.309715270996 -228.876358032227 1.966269731522
-143.823562622070 -70.647872924805 -240.014801025391 2.238166809082
-15.103260993958 -69.773841857910 -230.153289794922 1.804219722748
73.451683044434 -75.692855834961 -227.435836791992 2.944710493088
73.363746643066 -75.856613159180 -233.400863647461 2.970854282379
-134.631164550781 -68.128608703613 -232.480422973633 1.521341681480
-156.134399414063 -76.053092956543 -229.201873779297 2.314270734787
-113.933837890625 -68.116279602051 -233.640716552734 1.793310165405
-125.973258972168 -64.103736877441 -238.078857421875 3.186693191528
-162.487197875977 -68.438354492188 -236.294189453125 2.161106824875
-161.766677856445 -71.465553283691 -236.145568847656 1.012482881546
-148.937194824219 -62.790603637695 -233.094848632813 0.761876523495
-16.485767364502 -69.514999389648 -234.461441040039 2.617740869522
-6.620691776276 -71.714424133301 -243.398559570313 2.016670703888
-160.452484130859 -68.947891235352 -244.557342529297 1.631014347076
5.356036186218 -74.291015625000 -236.781723022461 2.903544187546
-0.720414996147 -75.760581970215 -239.275573730469 1.786116957664
-159.058654785156 -69.893318176270 -237.512344360352 2.055371046066
18.713920593262 -80.310394287109 -239.919570922852 0.962406277657
50.543632507324 -78.542282104492 -246.770401000977 5.568947315216
47.822696685791 -79.654373168945 -243.345321655273 7.609992980957
-18.270946502686 -74.649421691895 -247.754531860352 4.624908924103
46.539192199707 -73.801895141602 -250.419723510742 2.171366214752
-159.444046020508 -64.581108093262 -249.320663452148 2.847184419632
-156.138153076172 -71.489212036133 -247.114044189453 0.966424822807
-162.103744506836 -77.460151672363 -249.833694458008 2.753959894180
56.039596557617 -73.919792175293 -247.090133666992 2.243379354477
-95.070289611816 -70.025672912598 -253.476333618164 1.708877444267
-124.352416992188 -69.129776000977 -255.687515258789 2.712829828262
-107.135665893555 -78.591186523438 -252.662857055664 5.325984954834
23.357421875000 -81.023323059082 -257.909179687500 3.587219715118
38.525375366211 -71.276535034180 -252.129989624023 2.066602945328
-100.808609008789 -68.017181396484 -255.199493408203 1.464017868042
-93.228614807129 -65.247932434082 -248.886398315430 4.701271533966
45.147480010986 -82.117744445801 -256.170654296875 11.004780769348
39.869354248047 -72.192070007324 -257.732269287109 2.810940980911
-154.596633911133 -78.450019836426 -257.778656005859 3.126138448715
27.278614044189 -75.009048461914 -260.843627929688 3.430371046066
-144.564758300781 -74.500816345215 -266.093811035156 2.641190052032
-112.838783264160 -71.871154785156 -263.635589599609 2.034658670425
-139.273223876953 -67.346031188965 -262.621398925781 1.455453038216
33.239421844482 -73.534919738770 -263.325897216797 4.741878032684
-126.821525573730 -70.028671264648 -263.139892578125 1.937559127808
-12.169375419617 -71.661308288574 -256.162170410156 3.260025262833
18.866744995117 -79.240104675293 -271.472656250000 1.913137435913
-3.875273942947 -82.753684997559 -263.775512695313 3.264979839325
18.054155349731 -78.434692382813 -280.963073730469 3.727483272552
-155.849075317383 -75.560623168945 -283.122833251953 1.540576815605
-12.649189949036 -71.406112670898 -281.462982177734 3.153279781342
-152.955764770508 -75.940986633301 -281.765625000000 2.075447320938
-122.332695007324 -76.744781494141 -285.486572265625 1.203271746635
-165.915161132813 -80.181755065918 -286.592163085938 4.606068611145
-115.883377075195 -71.912185668945 -287.411773681641 1.523652791977
-103.740570068359 -73.940422058105 -291.190032958984 1.417625904083
-7.598802089691 -72.444541931152 -284.415588378906 2.523399591446
-108.052413940430 -75.657302856445 -288.338836669922 1.885011553764
-117.843521118164 -69.408401489258 -282.805267333984 4.589745044708
-124.679527282715 -67.708847045898 -292.829376220703 0.673274040222
-141.145751953125 -72.807403564453 -290.956573486328 1.427634954453
-128.243179321289 -66.779495239258 -291.421020507813 1.690570235252
-159.909027099609 -78.887420654297 -289.670501708984 3.528558731079
-148.038650512695 -67.154083251953 -291.421295166016 1.201330423355
-161.802322387695 -67.671218872070 -304.454040527344 7.607010841370
-155.371551513672 -69.990242004395 -311.406433105469 2.119088649750
-162.246002197266 -68.169898986816 -302.129913330078 6.304718971252
-139.012039184570 -74.003250122070 -310.478973388672 3.165542125702
-149.189697265625 -76.864196777344 -315.859771728516 3.540262222290
34.409996032715 -68.558311462402 -6.096782207489 5.131581306458
48.787708282471 -75.219238281250 -17.522073745728 3.309432506561
22.600231170654 -67.075271606445 -21.168588638306 3.248956441879
50.651344299316 -69.788505554199 -25.140300750732 2.359142065048
26.601694107056 -71.585922241211 -33.862789154053 1.945414304733
30.255939483643 -69.606536865234 -32.371707916260 2.551583766937
-57.893852233887 -61.761711120605 -49.849639892578 5.595765590668
75.173141479492 -64.321838378906 -58.668415069580 2.009550571442
82.924186706543 -72.593750000000 -67.977607727051 2.664677858353
-89.991447448730 -70.033935546875 -63.977413177490 1.297594666481
-13.751733779907 -65.126098632813 -59.138004302979 2.542195320129
-93.173828125000 -69.098350524902 -73.169258117676 2.218139410019
96.132041931152 -74.800895690918 -66.128395080566 5.772206306458
-11.686330795288 -65.379364013672 -67.181480407715 1.707170248032
66.939506530762 -75.157821655273 -82.499588012695 3.731688022614
-45.952503204346 -73.476692199707 -82.258567810059 2.390288352966
-26.357662200928 -71.595863342285 -73.459655761719 2.701553344727
55.019935607910 -63.793254852295 -87.006713867188 0.969430744648
-43.360671997070 -79.579162597656 -83.331398010254 2.305983304977
64.758255004883 -58.782402038574 -87.963890075684 1.700117468834
51.260192871094 -77.460037231445 -91.840942382813 3.507533311844
55.762947082520 -69.328056335449 -94.952857971191 2.062487125397
56.548004150391 -79.955131530762 -90.134658813477 6.571007251740
55.329151153564 -64.392616271973 -95.750190734863 1.998170614243
97.957145690918 -66.835975646973 -98.626380920410 1.394180893898
107.248435974121 -64.992767333984 -100.309356689453 2.224464178085
60.580070495605 -74.609565734863 -101.128440856934 4.362903594971
107.716392517090 -66.463569641113 -101.102134704590 1.282252430916
-78.887893676758 -67.294868469238 -98.999649047852 1.650350451469
-74.393249511719 -69.186233520508 -104.239448547363 2.658003807068
99.740554809570 -67.080696105957 -98.196731567383 1.849485158920
52.692840576172 -72.455055236816 -101.054496765137 2.585505247116
69.570587158203 -73.855003356934 -96.383476257324 1.737100005150
-71.269897460938 -69.063308715820 -110.168464660645 3.062933683395
-86.592239379883 -66.635284423828 -109.139419555664 2.367576360703
84.998573303223 -77.030593872070 -102.238624572754 4.599411487579
37.587615966797 -73.883895874023 -101.872047424316 4.632467269897
106.227279663086 -67.108871459961 -108.218467712402 1.811183094978
48.403167724609 -75.439132690430 -113.625579833984 1.588299989700
110.752319335938 -73.353813171387 -101.064331054688 1.394170045853
-77.875495910645 -69.175048828125 -113.308258056641 1.320231318474
101.750000000000 -65.894554138184 -108.850868225098 3.396431684494
-83.117019653320 -65.258697509766 -122.597930908203 0.836560785770
-58.763221740723 -72.522773742676 -128.098434448242 2.676042079926
-58.140987396240 -69.048141479492 -123.827590942383 1.758687376976
-71.231887817383 -72.305900573730 -131.280929565430 0.670787096024
-50.770034790039 -71.347839355469 -131.729278564453 0.741547405720
-84.328338623047 -71.130462646484 -135.309188842773 1.636360406876
-78.023941040039 -63.660976409912 -131.753448486328 0.865733981133
-79.083030700684 -70.445098876953 -134.206192016602 1.248069405556
-62.406002044678 -76.098983764648 -143.059204101563 3.848505020142
-70.699729919434 -70.319000244141 -142.394485473633 2.293057918549
-61.462898254395 -76.911422729492 -132.277969360352 5.650824546814
-56.849189758301 -69.368438720703 -143.818786621094 1.681199669838
10.440684318542 -65.519393920898 -146.619338989258 3.740805625916
-92.001480102539 -70.524566650391 -140.447921752930 3.957664728165
-49.496734619141 -77.314468383789 -150.258544921875 0.944058001041
-94.257247924805 -67.551109313965 -150.681991577148 1.448886871338
-102.741455078125 -65.007980346680 -147.340209960938 2.940798759460
20.165977478027 -75.041297912598 -155.365310668945 2.843936443329
14.684931755066 -73.274551391602 -159.490066528320 1.882904887199
-95.402709960938 -73.281509399414 -161.657150268555 5.446785926819
-105.045188903809 -70.266777038574 -150.876251220703 4.658178806305
-99.775802612305 -67.816535949707 -167.866775512695 2.123037338257
20.744449615479 -71.521278381348 -170.866210937500 3.201071739197
-113.393806457520 -69.371459960938 -174.451721191406 3.598492860794
25.350978851318 -71.597427368164 -164.100845336914 2.621232509613
-148.690612792969 -69.554107666016 -177.747451782227 3.224602699280
17.733505249023 -71.293235778809 -176.003967285156 1.462120294571
24.840679168701 -74.029655456543 -186.176849365234 2.051450252533
-151.974502563477 -66.979476928711 -186.484497070313 2.081836700439
20.251840591431 -74.753036499023 -174.140411376953 1.878711223602
18.796323776245 -62.626613616943 -182.078796386719 3.945692062378
-146.788665771484 -74.321762084961 -182.295928955078 2.695193290710
-152.391159057617 -64.466117858887 -190.478424072266 3.050353765488
19.151252746582 -73.578041076660 -187.350158691406 2.590937614441
18.095790863037 -76.989494323730 -190.425018310547 1.279078483582
-141.905639648438 -72.779579162598 -195.217971801758 0.970923721790
-110.469581604004 -70.714912414551 -198.124694824219 1.617383241653
26.725547790527 -73.360908508301 -199.981460571289 5.299130916595
-126.402297973633 -71.027397155762 -195.252990722656 2.167085886002
8.262093544006 -76.774597167969 -201.667816162109 1.549027681351
-128.439285278320 -61.165901184082 -194.576278686523 4.058899879456
-164.230209350586 -65.843139648438 -188.070602416992 8.715932846069
-160.364761352539 -66.907066345215 -196.936065673828 2.610623121262
-156.306716918945 -72.297386169434 -192.601684570313 2.194104194641
-22.590240478516 -73.326766967773 -209.017150878906 1.278900861740
-170.287033081055 -72.305175781250 -199.417037963867 4.177850246429
-29.160873413086 -66.000205993652 -193.483551025391 3.390161991119
-16.594007492065 -73.824493408203 -192.543884277344 1.758232712746
4.542306900024 -64.571205139160 -196.567672729492 4.845248699188
-156.935104370117 -70.840629577637 -208.609329223633 2.896043062210
-106.400634765625 -68.186058044434 -203.656692504883 3.656330585480
-16.810718536377 -67.288803100586 -198.687255859375 2.784957885742
-162.500656127930 -60.853591918945 -201.604293823242 3.774269580841
17.134552001953 -74.117736816406 -202.888809204102 2.318734884262
-172.988708496094 -66.275032043457 -207.469329833984 5.402023792267
-119.887672424316 -72.985557556152 -202.611938476563 1.494124054909
-116.904258728027 -66.780113220215 -210.560958862305 5.772861480713
-123.276054382324 -70.081260681152 -203.946411132813 1.229899406433
-17.190649032593 -70.419509887695 -202.254089355469 1.721114277840
-20.881538391113 -73.425437927246 -203.156021118164 1.295981407166
-164.637344360352 -68.989944458008 -212.911010742188 2.945285558701
-160.208099365234 -66.174446105957 -211.831893920898 3.148431062698
-165.434600830078 -70.643745422363 -220.053253173828 2.607877254486
-139.103881835938 -73.557205200195 -213.916946411133 6.157101631165
-146.260223388672 -68.811813354492 -226.179611206055 2.185760974884
-0.717381000519 -70.449165344238 -218.608764648438 1.192813158035
-9.267335891724 -80.053497314453 -217.127441406250 1.210758924484
-102.122543334961 -67.403137207031 -220.784133911133 1.140934586525
-8.722634315491 -70.455917358398 -237.112426757813 1.534109473228
-170.571624755859 -65.368049621582 -232.409042358398 4.853259086609
-104.437950134277 -68.366630554199 -235.576797485352 6.664259910583
2.126257896423 -73.775680541992 -226.606552124023 1.866487264633
0.888514995575 -72.530647277832 -229.285202026367 2.387158870697
-112.641983032227 -70.552612304688 -234.843048095703 2.005999326706
-2.325050115585 -74.865310668945 -226.435668945313 2.622036695480
-119.756286621094 -66.040405273438 -234.490432739258 2.516388893127
-8.951146125793 -68.080665588379 -231.001831054688 1.767730236053
-2.059268951416 -71.572204589844 -235.185317993164 0.466084390879
-3.725332021713 -71.637466430664 -239.891876220703 1.066246271133
72.412635803223 -69.340240478516 -236.830108642578 1.665816187859
-9.525650978088 -76.909698486328 -237.766479492188 3.505198001862
11.015252113342 -74.325355529785 -235.259567260742 2.578376770020
10.755467414856 -72.358978271484 -237.090469360352 1.682716012001
4.250443935394 -75.381332397461 -238.681243896484 2.175806522369
4.510131835938 -76.033668518066 -242.057617187500 1.481496453285
62.009258270264 -67.149681091309 -240.321640014648 2.179797649384
68.235374450684 -68.251396179199 -240.992614746094 1.828057289124
4.937151908875 -72.295005798340 -249.810150146484 5.416606426239
49.732082366943 -76.884307861328 -242.697235107422 4.309655189514
54.274856567383 -80.324035644531 -239.910263061523 5.942194461823
46.356983184814 -68.475135803223 -252.215362548828 1.535042166710
42.456821441650 -69.264892578125 -251.946105957031 2.059242486954
40.223804473877 -72.643295288086 -260.143005371094 3.336609601974
-129.506866455078 -63.079845428467 -261.822265625000 2.083115339279
-8.592690467834 -71.620391845703 -246.473205566406 1.995928049088
31.189363479614 -70.857940673828 -257.281829833984 1.390009641647
42.237342834473 -71.818031311035 -244.150497436523 4.682279109955
29.918281555176 -77.948364257813 -251.933837890625 7.353082656860
-105.534591674805 -75.031471252441 -260.560028076172 2.589875459671
28.647239685059 -75.771171569824 -255.796081542969 5.502438068390
-144.647338867188 -73.274261474609 -263.071350097656 0.631275057793
-117.515258789063 -75.016242980957 -255.874908447266 0.984426498413
-112.785034179688 -71.475799560547 -259.410186767578 1.066141366959
-1.385400056839 -77.895919799805 -258.656921386719 4.352749824524
-153.706970214844 -71.941886901855 -257.580413818359 2.550427675247
37.462673187256 -75.089012145996 -263.666564941406 7.659175872803
-107.534584045410 -69.471336364746 -255.606704711914 2.046284675598
24.716749191284 -80.596145629883 -258.224212646484 4.406716346741
-135.250656127930 -75.634963989258 -266.334716796875 3.348022222519
-117.473136901855 -70.831382751465 -268.296295166016 5.256511211395
-112.659194946289 -70.953948974609 -263.792572021484 2.831673622131
-114.116287231445 -80.776107788086 -261.105682373047 6.913333892822
-143.439422607422 -73.284446716309 -254.007720947266 1.836595892906
29.508501052856 -74.889015197754 -258.134613037109 4.752202033997
-117.270263671875 -68.521080017090 -262.663604736328 1.651490926743
-145.700500488281 -72.447929382324 -264.125488281250 1.538366913795
-5.450871944427 -70.174995422363 -270.519317626953 3.358155965805
-149.998260498047 -73.994018554688 -279.998504638672 3.234260082245
-9.877861976624 -75.376609802246 -290.785400390625 1.223194956779
-6.206211090088 -70.830879211426 -280.395477294922 2.212851762772
-135.009613037109 -70.571327209473 -290.991271972656 1.214972496033
-131.076019287109 -72.201568603516 -293.809906005859 2.362190485001
-136.039321899414 -70.266387939453 -296.270141601563 2.302392244339
-127.419342041016 -67.542282104492 -289.436462402344 2.743729352951
-157.132827758789 -70.495002746582 -294.818176269531 1.463988780975
-159.576110839844 -72.121055603027 -300.239837646484 2.446154356003
-149.511505126953 -76.545387268066 -302.480804443359 2.081954717636
-149.615966796875 -74.504669189453 -306.135833740234 4.786447525024
-145.488922119141 -70.584365844727 -297.886322021484 2.043637275696
-152.114074707031 -71.062187194824 -307.730377197266 2.352721691132
-145.723541259766 -68.007209777832 -318.178283691406 5.362232685089
18.281129837036 -70.927726745605 -24.822381973267 2.953083276749
50.461200714111 -72.506950378418 -36.585926055908 1.399008750916
22.890449523926 -76.106803894043 -35.465579986572 3.769657850266
30.962779998779 -68.182853698730 -44.472225189209 3.170415163040
-41.809791564941 -58.241428375244 -49.439037322998 2.489285469055
-74.356300354004 -61.326591491699 -50.451919555664 4.861792087555
79.266448974609 -69.910934448242 -60.981052398682 2.562693595886
72.451850891113 -71.072288513184 -60.960918426514 5.005577564240
72.317291259766 -73.449943542480 -63.552562713623 6.045643329620
-102.439506530762 -66.424621582031 -71.426528930664 5.705930709839
97.220153808594 -76.607513427734 -74.757545471191 3.778639554977
-27.478914260864 -71.635459899902 -86.811248779297 7.076867580414
60.014423370361 -67.037277221680 -74.150123596191 5.159490108490
-42.229629516602 -63.112236022949 -84.776031494141 3.310349941254
-57.719303131104 -65.254043579102 -81.023735046387 2.564459323883
51.232902526855 -70.088714599609 -90.282791137695 2.520180463791
101.784271240234 -68.175918579102 -90.410705566406 2.078629732132
61.788436889648 -67.978240966797 -91.769096374512 1.316533207893
55.084533691406 -68.103935241699 -90.350395202637 1.379431486130
46.955150604248 -65.668411254883 -102.340972900391 1.889774084091
55.385894775391 -65.620529174805 -102.966644287109 3.580583572388
101.565567016602 -68.735122680664 -97.191703796387 2.219312906265
67.829429626465 -70.059059143066 -108.452812194824 5.535276412964
52.277736663818 -70.701782226563 -105.916038513184 2.682161569595
74.402976989746 -78.306221008301 -107.467468261719 8.935816764832
100.020019531250 -66.715576171875 -106.970443725586 4.042523384094
-74.024208068848 -63.759151458740 -97.869606018066 3.692041635513
-87.163177490234 -67.330055236816 -110.456306457520 0.926900029182
-82.524574279785 -68.078590393066 -112.050888061523 1.508397459984
-61.509208679199 -68.528228759766 -119.310295104980 2.733690261841
-58.180412292480 -73.176490783691 -126.801376342773 3.211239814758
-95.487892150879 -66.658927917480 -121.677383422852 2.532337188721
-74.073501586914 -71.529090881348 -118.852996826172 4.278672695160
-77.968635559082 -73.057960510254 -133.512161254883 1.326657176018
-60.894615173340 -63.947753906250 -127.710792541504 1.755215764046
-88.367538452148 -63.381046295166 -131.252593994141 1.746506094933
-90.513748168945 -66.158370971680 -131.705474853516 2.397702932358
-49.453075408936 -72.296043395996 -135.058731079102 1.770237922668
-51.073055267334 -71.448348999023 -138.123443603516 2.236400842667
-78.706230163574 -73.133560180664 -138.419830322266 3.898519754410
-55.866699218750 -72.107414245605 -141.415817260742 1.769574284554
-74.003829956055 -74.782585144043 -145.982025146484 1.485900402069
17.941625595093 -67.488945007324 -139.807952880859 2.807002782822
-59.030952453613 -74.906028747559 -143.967483520508 3.131757974625
-56.817665100098 -64.711654663086 -146.862533569336 2.058337926865
8.011310577393 -75.928962707520 -155.192779541016 2.371346473694
17.156675338745 -68.955970764160 -150.560958862305 0.952546119690
-141.688858032227 -69.589828491211 -173.352615356445 2.547963619232
-110.524818420410 -66.522712707520 -178.040420532227 1.784412384033
-112.580787658691 -64.178062438965 -191.186767578125 2.124562978745
-153.995269775391 -71.084228515625 -189.988388061523 2.197518110275
-113.982666015625 -68.309875488281 -186.915191650391 0.298419058323
-151.436279296875 -62.393207550049 -197.723144531250 1.792351722717
-114.804847717285 -68.383865356445 -199.830856323242 3.409134626389
-151.856918334961 -64.465438842773 -202.278503417969 2.833440542221
-149.731170654297 -67.990287780762 -207.523422241211 2.677245855331
-154.882507324219 -74.665298461914 -204.545974731445 3.408655405045
-150.322753906250 -69.260734558105 -225.606719970703 2.825715780258
-149.225173950195 -73.193748474121 -227.464813232422 1.213515520096
-105.866905212402 -66.137870788574 -230.125747680664 1.943261623383
-99.540222167969 -70.257369995117 -220.281829833984 1.653047561646
-123.142570495605 -63.395927429199 -233.884201049805 1.989793300629
-107.118110656738 -70.464996337891 -225.620635986328 1.704559922218
-158.141616821289 -69.385704040527 -231.366989135742 2.018660783768
-3.997889041901 -71.428459167480 -223.984176635742 2.647151708603
-133.304275512695 -74.462936401367 -229.971710205078 1.499474525452
-154.232025146484 -69.742744445801 -236.394378662109 2.616543292999
-140.467376708984 -74.275642395020 -232.462219238281 1.451262593269
-10.527354240417 -69.816749572754 -233.217117309570 1.074146747589
8.541087150574 -72.458694458008 -244.778900146484 1.060286402702
62.477008819580 -66.358757019043 -239.940368652344 1.921761989594
17.077644348145 -78.464462280273 -249.890869140625 1.081974029541
52.781944274902 -73.101493835449 -241.396408081055 2.250736474991
39.597747802734 -77.154365539551 -249.710662841797 6.451249122620
62.897399902344 -68.891708374023 -253.136016845703 5.205746173859
-154.295989990234 -69.856727600098 -248.678695678711 2.429919481277
-146.566604614258 -74.354095458984 -255.459014892578 3.016250848770
43.797088623047 -71.960144042969 -256.100769042969 3.336889266968
26.470781326294 -73.508850097656 -253.466949462891 3.947180509567
48.505180358887 -68.946861267090 -254.345550537109 0.724079847336
-146.016510009766 -73.764404296875 -265.100616455078 1.815391421318
-138.917999267578 -68.459190368652 -254.702392578125 2.183207035065
-124.018287658691 -67.501235961914 -260.593231201172 2.732623577118
-133.374008178711 -69.860183715820 -256.373413085938 0.973233044147
-140.004028320313 -71.811317443848 -258.759490966797 3.384585380554
-123.175460815430 -69.589340209961 -260.721313476563 2.773328781128
-143.796417236328 -67.630897521973 -260.707427978516 1.572457790375
-128.440353393555 -74.013023376465 -257.725372314453 2.947132349014
-119.448982238770 -72.442077636719 -265.964996337891 3.044425010681
-130.532119750977 -70.935485839844 -266.200500488281 1.663635849953
-123.641304016113 -65.881813049316 -264.947662353516 1.848988652229
-5.623786926270 -73.552268981934 -266.931060791016 6.092024803162
29.752222061157 -67.995475769043 -261.058135986328 2.076222658157
-145.768463134766 -62.696060180664 -268.510314941406 3.192269086838
25.745481491089 -75.953231811523 -272.175720214844 4.833786487579
-7.069120883942 -65.470222473145 -277.708648681641 1.664542317390
17.124546051025 -80.951385498047 -282.730926513672 5.574874877930
-141.273254394531 -71.623275756836 -290.246185302734 0.913867175579
-124.803359985352 -74.839622497559 -287.374786376953 1.113155007362
-130.321792602539 -65.115180969238 -291.594085693359 2.777468204498
-160.725555419922 -65.051834106445 -294.205108642578 5.261460781097
-127.471572875977 -64.181060791016 -290.233917236328 1.319529771805
-118.446388244629 -69.138267517090 -289.354949951172 1.516416072845
-124.590164184570 -75.509719848633 -299.080993652344 3.895209789276
-153.754669189453 -74.864425659180 -291.494812011719 1.719599962234
28.556217193604 -71.126342773438 -10.668389320374 1.804628252983
27.013883590698 -72.342506408691 -17.761384963989 1.521973371506
36.129024505615 -65.650039672852 -21.792638778687 1.590684056282
46.225555419922 -62.665798187256 -23.075838088989 3.158000230789
28.283096313477 -74.623001098633 -27.826202392578 2.792981147766
17.104022979736 -71.132423400879 -32.911716461182 2.582419872284
-34.394981384277 -69.617691040039 -45.248275756836 5.153276920319
-81.303840637207 -69.437591552734 -54.235080718994 2.387448787689
-18.518878936768 -67.777008056641 -60.030715942383 2.209464073181
73.944633483887 -66.820037841797 -64.379554748535 1.480269312859
104.044776916504 -69.035003662109 -68.545860290527 4.723963260651
63.613010406494 -65.885108947754 -84.254852294922 2.679205894470
60.123859405518 -62.803192138672 -84.833892822266 2.135857582092
95.655410766602 -71.594924926758 -84.398796081543 3.610524892807
-65.602058410645 -64.010971069336 -91.796714782715 1.032100319862
-67.527252197266 -67.784141540527 -89.149101257324 5.166625022888
50.969688415527 -65.575485229492 -91.133674621582 1.572050809860
-69.253433227539 -71.587127685547 -96.210838317871 2.518860101700
-74.807617187500 -66.834030151367 -102.834815979004 2.448685646057
-95.142616271973 -67.531517028809 -103.964286804199 3.264411211014
-77.242950439453 -61.569995880127 -99.518028259277 3.553705215454
46.184024810791 -64.074058532715 -102.629959106445 3.471336364746
-65.522689819336 -70.946083068848 -103.816810607910 4.343188762665
46.200511932373 -66.600807189941 -104.964500427246 2.244509696960
94.251800537109 -68.916763305664 -104.900352478027 2.262537479401
88.121116638184 -70.845634460449 -114.738151550293 9.042884826660
-71.840972900391 -66.896186828613 -116.741905212402 2.894694328308
-88.832557678223 -69.517219543457 -112.349105834961 2.618046045303
-62.892467498779 -67.290504455566 -119.197143554688 1.653463006020
-96.280128479004 -60.914932250977 -118.820190429688 2.822353363037
-76.936782836914 -70.913673400879 -127.607566833496 0.728166103363
-95.034988403320 -57.632713317871 -128.272628784180 5.505767822266
-65.510482788086 -66.280815124512 -116.744163513184 1.859232306480
-61.039646148682 -60.036426544189 -122.879737854004 1.981468439102
-91.648780822754 -69.991119384766 -131.434890747070 2.424686431885
-64.977462768555 -71.136421203613 -126.379486083984 4.635404586792
-84.603538513184 -66.476303100586 -134.569519042969 2.210096836090
-86.520355224609 -68.079917907715 -135.941574096680 2.602486133575
-61.568885803223 -74.865493774414 -138.177093505859 3.344384908676
-60.836002349854 -63.807609558105 -134.180892944336 1.585170388222
-56.135616302490 -59.402706146240 -133.434173583984 1.978589177132
-101.441688537598 -62.946346282959 -131.113677978516 8.839671134949
-98.405937194824 -61.561336517334 -145.834121704102 3.475418567657
-93.116020202637 -67.527053833008 -137.457687377930 1.255645155907
17.643667221069 -73.190940856934 -151.741744995117 2.078767776489
-51.370262145996 -69.185241699219 -139.972061157227 2.130463361740
19.825599670410 -70.803825378418 -152.344696044922 2.630764007568
-98.705017089844 -69.184402465820 -166.663162231445 2.617430448532
-104.361709594727 -75.320106506348 -170.908493041992 6.089292049408
-103.170852661133 -63.188011169434 -171.877548217773 2.045956134796
-109.340721130371 -58.961822509766 -176.517349243164 2.365351438522
-110.519309997559 -68.616432189941 -178.864379882813 0.991903662682
-111.272628784180 -67.641258239746 -180.011505126953 1.529609322548
-143.376495361328 -63.972034454346 -187.091583251953 1.443864464760
-112.042617797852 -66.652015686035 -186.103424072266 1.930855870247
-134.956390380859 -64.515144348145 -203.745758056641 1.876555800438
-152.298461914063 -71.053375244141 -199.212081909180 1.058590888977
-130.638809204102 -68.556228637695 -199.423751831055 3.164621591568
-159.825698852539 -70.108840942383 -195.572998046875 1.215466499329
-147.964797973633 -73.122962951660 -203.302688598633 1.654532432556
-128.073150634766 -60.609973907471 -197.185806274414 3.826842546463
-135.516220092773 -64.885581970215 -199.876907348633 2.807762861252
-139.359573364258 -76.293327331543 -207.358947753906 4.268416881561
-130.859680175781 -70.824043273926 -223.165115356445 2.364776611328
-108.613159179688 -72.662391662598 -231.814041137695 3.599512577057
-141.849914550781 -69.253448486328 -227.718383789063 2.547999143600
-121.519264221191 -67.210075378418 -233.698699951172 3.326841592789
-117.864173889160 -61.908828735352 -231.455276489258 3.050651788712
-121.480392456055 -71.084899902344 -232.645202636719 2.074453592300
-135.242568969727 -67.719802856445 -234.556533813477 2.131390810013
-115.199806213379 -64.747787475586 -240.380081176758 4.747541427612
5.368248939514 -70.096496582031 -237.324188232422 2.116898536682
-153.574203491211 -70.968360900879 -240.488830566406 2.544847011566
5.027280807495 -71.431716918945 -237.843322753906 3.016005516052
2.686111927032 -66.054618835449 -246.243301391602 3.007397174835
1.956550002098 -74.722068786621 -243.536575317383 2.065141677856
11.985810279846 -67.791801452637 -241.678268432617 2.484198093414
-143.296569824219 -64.596420288086 -235.499786376953 2.292236566544
-7.107839107513 -74.912788391113 -249.515396118164 2.685210704803
18.685317993164 -71.591033935547 -238.799163818359 1.356682777405
51.783641815186 -69.778015136719 -251.328002929688 2.493052721024
50.106700897217 -70.414733886719 -252.724227905273 2.489107608795
-147.412078857422 -71.405471801758 -253.209594726563 2.284083127975
-5.529208183289 -73.669746398926 -251.033950805664 3.567445516586
19.470481872559 -73.271820068359 -253.959960937500 2.698366641998
-130.999938964844 -61.242069244385 -258.661773681641 3.337807655334
-121.711883544922 -67.896911621094 -256.683288574219 3.049685955048
-123.797889709473 -72.579284667969 -258.928558349609 2.703196287155
26.891576766968 -71.344764709473 -257.576263427734 1.977357745171
-133.591079711914 -64.377746582031 -268.178314208984 5.904147148132
34.186336517334 -68.912147521973 -259.080200195313 1.496179461479
34.609081268311 -71.842521667480 -263.232360839844 4.211285114288
-155.236541748047 -71.520614624023 -269.561981201172 4.074043750763
-145.939788818359 -76.206336975098 -286.656250000000 0.940481066704
-148.245605468750 -63.535129547119 -288.003753662109 2.152399301529
-144.679748535156 -68.060249328613 -297.614440917969 3.046814680099
15.241188049316 -76.635757446289 -292.465362548828 0.670265078545
-154.927780151367 -67.371597290039 -306.856323242188 2.233616113663
46.129219055176 -71.823982238770 -26.180900573730 0.918395280838
34.979568481445 -74.416671752930 -39.648269653320 2.292377948761
-58.900840759277 -61.081695556641 -47.958278656006 4.450385093689
-71.984161376953 -62.380004882813 -48.568851470947 3.946718692780
-27.365209579468 -62.045856475830 -52.040233612061 1.395051836967
-24.455629348755 -71.091232299805 -55.310829162598 3.261636972427
-9.507191658020 -62.802429199219 -67.922340393066 2.493016004562
-29.642625808716 -61.010597229004 -71.394287109375 1.791818261147
63.212181091309 -68.673332214355 -75.447601318359 3.978270769119
-96.343742370605 -57.517585754395 -80.941154479980 3.778997659683
-46.520374298096 -67.540283203125 -89.548980712891 4.605971813202
53.434196472168 -70.426368713379 -86.230812072754 3.431682109833
60.796325683594 -69.246826171875 -85.389457702637 2.534436941147
58.344490051270 -69.527137756348 -88.455924987793 2.680730819702
106.917304992676 -68.210197448730 -90.655700683594 2.031442403793
51.520030975342 -66.106544494629 -88.440223693848 1.814668774605
96.899047851563 -59.972949981689 -100.071098327637 4.261782646179
-85.505622863770 -68.937141418457 -105.513122558594 1.854663848877
-91.585716247559 -64.997756958008 -101.480102539063 6.282710552216
72.939445495605 -64.364677429199 -115.161018371582 5.747387409210
-80.428466796875 -67.220123291016 -105.126388549805 1.102344393730
-78.816757202148 -72.406799316406 -112.274803161621 2.941882848740
-85.812477111816 -75.333763122559 -120.592308044434 4.681599617004
-56.325248718262 -68.655731201172 -127.024627685547 1.530478835106
-76.819549560547 -65.850646972656 -130.814666748047 2.953118085861
-64.847015380859 -60.932239532471 -128.541839599609 0.967950284481
-88.703353881836 -69.069831848145 -137.316146850586 1.671849846840
-77.687034606934 -65.267791748047 -134.025955200195 1.666248798370
-80.179924011230 -65.244895935059 -126.222114562988 0.657806634903
-91.581970214844 -64.998931884766 -130.315612792969 2.594275712967
-69.205490112305 -63.177791595459 -137.163436889648 4.595427513123
-91.600097656250 -67.624137878418 -131.939605712891 1.763469099998
-51.788402557373 -70.436416625977 -132.950897216797 1.943732738495
-55.903621673584 -74.895080566406 -139.751998901367 1.761475682259
27.078271865845 -68.855300903320 -143.504104614258 2.259967565536
-56.588794708252 -59.547931671143 -136.904983520508 1.345650076866
14.589047431946 -75.119117736816 -142.562789916992 5.103960037231
12.116813659668 -65.998947143555 -147.765808105469 2.422172069550
16.498130798340 -63.798221588135 -155.548675537109 3.088743925095
-100.240242004395 -64.951965332031 -146.673797607422 2.212413072586
-90.140274047852 -66.967231750488 -149.128829956055 3.124633550644
-97.859741210938 -62.952392578125 -150.901107788086 2.136334180832
-107.933341979980 -67.798301696777 -166.050628662109 2.559812545776
-99.901290893555 -64.993019104004 -161.583969116211 0.859829425812
-153.642181396484 -62.103511810303 -177.329925537109 1.763329029083
-155.203414916992 -66.192260742188 -176.385345458984 4.481157779694
-115.562080383301 -64.146614074707 -183.354934692383 3.972314119339
-141.680770874023 -64.770172119141 -177.852050781250 2.431427717209
-110.611602783203 -62.671920776367 -183.901702880859 3.083412885666
-148.178009033203 -56.227489471436 -188.676651000977 6.124010562897
-112.252731323242 -62.671863555908 -191.161468505859 2.209129095078
-112.239486694336 -69.184494018555 -181.059509277344 2.833838701248
-147.708831787109 -66.043830871582 -202.359741210938 2.916362524033
-127.788894653320 -69.393707275391 -197.849609375000 4.052161216736
-105.992042541504 -68.036621093750 -198.768554687500 3.740730762482
-117.119140625000 -59.254756927490 -199.288711547852 3.939547538757
-114.865890502930 -70.015106201172 -201.290466308594 1.572921752930
-117.962173461914 -60.645210266113 -203.842559814453 3.229743719101
-135.288436889648 -63.599216461182 -197.216506958008 2.248558282852
-143.754135131836 -67.141151428223 -204.930221557617 2.385887145996
-130.187210083008 -65.014328002930 -211.204055786133 5.995295524597
-130.531433105469 -60.344093322754 -200.854949951172 2.769706249237
-122.331199645996 -64.323745727539 -205.878845214844 1.928168892860
-111.651618957520 -66.882339477539 -206.454025268555 1.828570365906
-150.978500366211 -65.307983398438 -213.085830688477 2.349442005157
-154.462768554688 -65.789367675781 -218.322067260742 1.068136692047
-154.331115722656 -67.207283020020 -222.089813232422 2.028246879578
-139.546035766602 -73.368957519531 -225.649826049805 1.905684947968
-132.215713500977 -61.264694213867 -229.186767578125 2.723769903183
-120.792114257813 -70.045616149902 -217.087234497070 8.026319503784
-141.166366577148 -70.479972839355 -231.418914794922 3.166714429855
-153.340316772461 -68.716156005859 -224.634597778320 1.148083567619
-134.103866577148 -68.905426025391 -226.571884155273 1.791991710663
-134.346282958984 -63.548137664795 -229.024749755859 0.620363116264
-147.753677368164 -65.210632324219 -229.146697998047 1.261912822723
-137.076309204102 -57.759735107422 -228.588256835938 6.041210174561
-130.729034423828 -66.829498291016 -233.886734008789 2.437869787216
-14.624385833740 -71.722343444824 -237.732009887695 1.425399780273
4.768529891968 -68.364562988281 -243.103332519531 2.918001413345
13.850158691406 -62.863525390625 -244.572769165039 2.013026952744
8.320812225342 -73.737976074219 -243.908660888672 1.181179642677
-7.958772182465 -73.796676635742 -236.804595947266 1.367173194885
-14.878229141235 -70.691688537598 -246.956665039063 2.262724161148
33.543907165527 -68.673828125000 -249.030990600586 5.536761283875
45.486801147461 -69.950523376465 -254.863342285156 2.347481250763
-148.693222045898 -66.975387573242 -254.748870849609 1.805938601494
42.011207580566 -67.947128295898 -254.545959472656 1.039311766624
40.013702392578 -72.941970825195 -254.089462280273 3.017443656921
-161.688812255859 -74.205986022949 -256.367462158203 0.761661469936
-151.076095581055 -68.629112243652 -256.817016601563 2.156368494034
-154.482574462891 -70.172187805176 -259.145233154297 1.858987331390
2.300676107407 -73.003189086914 -263.248443603516 7.230352401733
-151.546569824219 -69.720466613770 -268.668823242188 1.582948327065
-1.836642026901 -71.293777465820 -274.218139648438 4.908413887024
-146.517044067383 -72.715332031250 -276.333679199219 1.580304265022
-148.917572021484 -69.715866088867 -281.386962890625 2.688528537750
-151.654876708984 -68.697822570801 -288.572296142578 0.992143392563
-150.651916503906 -56.842670440674 -283.763305664063 5.171906948090
-147.000411987305 -66.192283630371 -294.904663085938 2.054994821548
-155.587539672852 -67.552482604980 -285.364715576172 2.161733627319
-152.234954833984 -69.893402099609 -287.047149658203 1.928682327271
-154.479049682617 -63.836688995361 -289.382965087891 1.722116351128
-149.372482299805 -68.069648742676 -289.967651367188 1.364642262459
-145.268768310547 -68.834533691406 -287.488067626953 2.296362400055
8.743268013000 -73.279975891113 -281.698974609375 4.239911556244
-147.018051147461 -67.861915588379 -297.744598388672 1.325572252274
-159.559646606445 -62.615097045898 -294.286529541016 4.569513797760
-158.769714355469 -60.562099456787 -288.743225097656 4.394785404205
-150.084350585938 -65.525772094727 -293.568267822266 1.512071967125
-147.882888793945 -58.889053344727 -288.003570556641 3.387163877487
-147.988281250000 -71.969696044922 -293.082916259766 1.368499636650
6.962804794312 -73.932189941406 -292.717437744141 2.512715101242
-144.346496582031 -64.371604919434 -295.937805175781 2.043671607971
-149.079055786133 -63.686069488525 -293.262390136719 2.554748535156
28.400526046753 -58.560543060303 -14.168252944946 2.605723619461
42.023296356201 -71.355766296387 -22.021345138550 1.474289178848
41.571163177490 -62.513103485107 -21.471813201904 1.410329937935
13.866698265076 -69.537338256836 -32.422512054443 5.631062507629
22.630935668945 -54.415077209473 -35.842227935791 2.278631687164
34.793102264404 -63.842594146729 -37.130710601807 0.750710427761
-56.033981323242 -63.064163208008 -46.579547882080 1.954073548317
-51.297355651855 -64.047103881836 -40.905742645264 4.833943843842
90.122352600098 -67.394927978516 -67.564949035645 2.183860778809
-95.931724548340 -61.783054351807 -66.232688903809 0.859251916409
96.637344360352 -79.576271057129 -60.093074798584 13.064529418945
67.696311950684 -70.427597045898 -72.779449462891 2.781688451767
97.068107604980 -70.559989929199 -79.549972534180 3.348925828934
61.202766418457 -74.389251708984 -76.985191345215 7.327262878418
-43.691307067871 -65.029876708984 -78.195266723633 3.039346456528
58.104766845703 -64.671150207520 -82.563156127930 1.414153695107
-49.819717407227 -61.442127227783 -76.946571350098 2.367940664291
52.966007232666 -66.968650817871 -83.109382629395 3.151560068130
62.530117034912 -62.529529571533 -87.623649597168 2.028803825378
-99.387832641602 -63.335796356201 -85.558319091797 0.881049096584
50.542915344238 -64.694511413574 -83.452575683594 4.786874294281
50.571048736572 -74.271003723145 -93.606597900391 2.274637937546
64.963195800781 -68.474426269531 -91.946716308594 0.844754517078
51.060375213623 -66.660423278809 -97.334182739258 2.418973684311
-81.074295043945 -62.823326110840 -107.761161804199 1.440786600113
81.436058044434 -73.439979553223 -106.683540344238 3.090747594833
-85.428672790527 -70.824104309082 -121.852455139160 2.344563961029
-78.600753784180 -62.507213592529 -104.765769958496 0.634970724583
-80.627380371094 -66.583335876465 -125.157524108887 2.241298198700
-85.443656921387 -63.299755096436 -118.028297424316 2.065114259720
-97.201606750488 -58.806720733643 -120.605201721191 2.001959085464
-83.202957153320 -66.538375854492 -120.588882446289 1.511164784431
-50.787296295166 -64.387237548828 -124.475845336914 4.059396743774
-79.297698974609 -62.075157165527 -136.547912597656 3.659426927567
-57.929801940918 -59.582061767578 -128.744003295898 2.287879228592
-89.616447448730 -61.516490936279 -138.325317382813 1.591779947281
28.852827072144 -66.834007263184 -138.635208129883 2.300115585327
18.384798049927 -67.385627746582 -141.806686401367 2.844692707062
-95.811073303223 -52.058448791504 -146.445404052734 10.351382255554
21.921869277954 -70.682159423828 -148.597122192383 2.097450017929
-90.493782043457 -69.524848937988 -148.392562866211 3.329617500305
-95.468627929688 -59.178524017334 -148.652542114258 3.018667936325
17.061578750610 -68.724456787109 -164.682662963867 4.324984550476
-97.287887573242 -64.250404357910 -149.689132690430 1.426535725594
-100.594505310059 -62.371376037598 -146.707458496094 2.935176610947
-105.723655700684 -64.156051635742 -155.432327270508 4.369271278381
-94.252265930176 -65.639411926270 -163.815399169922 3.940522909164
-103.516921997070 -70.030792236328 -182.188171386719 2.557964801788
-111.950469970703 -74.364845275879 -170.560943603516 5.847974777222
-97.069442749023 -67.395370483398 -166.185958862305 3.744511604309
-105.373138427734 -67.220863342285 -167.583023071289 2.326127290726
-140.862121582031 -66.016021728516 -180.232711791992 3.056738615036
-113.221862792969 -65.475326538086 -178.261459350586 3.851836919785
-140.255432128906 -65.456802368164 -188.758041381836 2.365632057190
-149.194351196289 -60.008361816406 -192.704772949219 2.296388864517
-156.555938720703 -57.693412780762 -187.615921020508 8.100121498108
-121.962875366211 -62.225131988525 -197.626144409180 1.843919157982
-128.457855224609 -71.044441223145 -193.354522705078 1.853959321976
-122.772552490234 -62.349536895752 -202.744979858398 2.279770612717
-145.989135742188 -68.128219604492 -201.941482543945 2.547971487045
-123.845893859863 -70.601341247559 -204.083465576172 1.257252573967
-148.249862670898 -65.502517700195 -203.502975463867 3.350285053253
-153.563949584961 -64.365394592285 -205.975341796875 2.727964639664
-155.004135131836 -63.448696136475 -227.152282714844 1.464094281197
-144.908966064453 -73.294982910156 -232.358703613281 1.930624842644
-129.627304077148 -62.535598754883 -231.836166381836 3.741598606110
-153.418258666992 -64.043403625488 -230.085678100586 1.914737462997
-3.511894941330 -75.006408691406 -240.707641601563 1.194764018059
10.769869804382 -65.225776672363 -238.067367553711 1.302712917328
-1.532945990562 -74.130523681641 -244.253021240234 2.159502267838
-152.738769531250 -64.351585388184 -245.812591552734 3.209436893463
-9.854335784912 -66.219985961914 -240.778839111328 2.619120597839
-155.829650878906 -73.491241455078 -254.501434326172 2.026143550873
-8.260105133057 -76.079254150391 -250.936019897461 0.869568467140
-148.680999755859 -69.236824035645 -255.820327758789 2.297726869583
19.126865386963 -70.307434082031 -251.645477294922 1.314916133881
-152.436279296875 -59.803112030029 -256.379974365234 2.171157360077
-150.891799926758 -65.932334899902 -256.513580322266 1.414560556412
-151.702713012695 -65.739151000977 -254.804855346680 1.763112306595
-150.000366210938 -64.735565185547 -259.763488769531 1.345729947090
31.021205902100 -70.800712585449 -260.761108398438 1.720509052277
31.591497421265 -70.234375000000 -265.834655761719 4.350694179535
-145.661819458008 -66.790328979492 -254.298828125000 1.797898530960
-153.387084960938 -59.539749145508 -260.214294433594 3.985993385315
-154.109481811523 -71.463027954102 -260.487426757813 1.873117208481
-147.181930541992 -63.086654663086 -258.927520751953 1.191134333611
27.157592773438 -68.324867248535 -263.418823242188 0.869328498840
29.012250900269 -68.937751770020 -268.537017822266 3.564257144928
-158.424057006836 -68.037681579590 -263.056488037109 1.415144562721
-144.376296997070 -65.670288085938 -264.770935058594 1.927754998207
-148.162200927734 -61.393421173096 -263.138397216797 1.617672085762
-143.814773559570 -65.632461547852 -266.692413330078 2.650172472000
-143.195251464844 -70.052276611328 -262.412628173828 1.757411837578
-144.360961914063 -73.699127197266 -266.455932617188 2.181347131729
-148.751632690430 -63.288696289063 -267.748657226563 2.295576572418
-150.818832397461 -61.277359008789 -288.461578369141 1.760713696480
-146.020935058594 -66.219131469727 -282.923034667969 1.604261159897
-148.187911987305 -66.881225585938 -279.019836425781 2.672491550446
15.400602340698 -68.837966918945 -281.581451416016 2.787493705750
-154.744125366211 -61.143547058105 -287.335449218750 1.560209989548
-147.303298950195 -65.375129699707 -292.776733398438 1.106182932854
-7.397721767426 -78.741981506348 -286.481781005859 3.941268444061
4.297084808350 -68.480545043945 -292.329772949219 1.090255856514
-154.379135131836 -66.706726074219 -294.746246337891 1.711099267006
26.006345748901 -71.287521362305 -21.648302078247 2.048098802567
45.956455230713 -66.622940063477 -27.999803543091 3.052148342133
49.067092895508 -71.224357604980 -33.404624938965 2.308010101318
38.513610839844 -60.312442779541 -38.677070617676 2.698339462280
25.247407913208 -73.058219909668 -37.336517333984 2.557264328003
44.778781890869 -67.582206726074 -41.967380523682 2.414528846741
77.058433532715 -61.927658081055 -64.700897216797 3.926408290863
76.750213623047 -66.464286804199 -64.241920471191 1.968103647232
-21.089149475098 -64.603324890137 -72.793418884277 3.663220405579
67.959838867188 -63.003990173340 -72.201316833496 3.088067770004
-28.272724151611 -66.057067871094 -71.807929992676 3.103512525558
-38.449913024902 -71.054954528809 -82.166885375977 3.014672279358
-59.278507232666 -62.894756317139 -75.149772644043 5.669137001038
-57.661396026611 -59.587493896484 -79.561050415039 1.045892000198
61.978591918945 -73.045280456543 -82.192893981934 3.822439908981
108.987007141113 -72.606323242188 -92.199493408203 4.838123798370
-59.687660217285 -59.632839202881 -85.779159545898 1.050407648087
58.203903198242 -66.601379394531 -97.038070678711 0.977021157742
65.813354492188 -64.913597106934 -96.699928283691 1.640911579132
102.936828613281 -65.084609985352 -93.820327758789 2.734523773193
-66.546028137207 -69.516616821289 -93.258995056152 3.305581331253
54.317817687988 -60.840469360352 -96.706787109375 2.263751268387
-61.944957733154 -69.198104858398 -105.382095336914 7.035541534424
67.868995666504 -65.907760620117 -95.650581359863 1.685091137886
65.615623474121 -66.689071655273 -104.256767272949 3.999130249023
-77.861579895020 -61.338298797607 -110.119842529297 1.527613639832
-97.395072937012 -61.717628479004 -115.070457458496 1.541229486465
-70.584625244141 -56.466781616211 -114.387016296387 1.381356358528
-84.494400024414 -65.484611511230 -112.039894104004 2.910531282425
-61.095779418945 -67.936401367188 -117.012550354004 2.194698572159
-84.381980895996 -60.888343811035 -107.437728881836 3.494443178177
