-165.158798217773 -71.875495910645 -205.022384643555 1.699274182320
-75.662956237793 -67.111503601074 -205.546875000000 5.850675582886
89.707656860352 -77.844566345215 -208.126434326172 4.503907680511
-4.750113010406 -73.163581848145 -220.912429809570 2.234097480774
-158.344314575195 -64.556373596191 -212.329483032227 2.356864213943
-87.745269775391 -71.039619445801 -212.058319091797 3.860856056213
-11.322291374207 -78.370018005371 -210.848358154297 1.104963064194
15.497768402100 -74.246261596680 -217.403610229492 0.940989613533
-144.393173217773 -67.796867370605 -221.153625488281 1.687924861908
-5.475831031799 -81.342315673828 -220.970046997070 3.543372154236
-17.431921005249 -76.778236389160 -215.520996093750 2.657225847244
-15.211677551270 -69.542289733887 -222.240692138672 0.545981824398
91.260414123535 -79.181396484375 -223.000869750977 2.702516794205
-20.252382278442 -71.386970520020 -215.767028808594 2.889383077621
-35.431404113770 -71.620971679688 -218.624969482422 4.648295402527
-108.316078186035 -60.878009796143 -226.079925537109 4.712393283844
-17.538173675537 -70.991401672363 -224.481979370117 2.345237255096
94.054283142090 -76.558746337891 -219.536254882813 3.191197156906
72.656959533691 -79.881355285645 -222.868606567383 7.405375003815
8.283774375916 -76.390159606934 -218.470504760742 1.799201607704
-12.379331588745 -68.817535400391 -225.937942504883 1.315429210663
78.413833618164 -78.277755737305 -222.032974243164 2.652950525284
-121.934608459473 -74.617652893066 -225.235168457031 1.875284671783
-17.339477539063 -70.560096740723 -224.183593750000 1.872539401054
-95.325233459473 -69.119781494141 -223.109130859375 2.609701871872
-100.486732482910 -69.445686340332 -221.971450805664 1.577924847603
-129.182617187500 -70.803268432617 -229.534149169922 2.892095088959
79.945800781250 -79.488784790039 -223.546401977539 3.102169513702
-123.238876342773 -69.596511840820 -227.350387573242 2.883459568024
3.027955055237 -73.087707519531 -229.992446899414 1.863416910172
81.468711853027 -76.533927917480 -225.538528442383 2.671737432480
-17.978193283081 -75.503219604492 -235.722229003906 3.372147083282
-15.856368064880 -74.781890869141 -224.382019042969 1.475936770439
-0.133222997189 -83.379425048828 -230.360336303711 4.629334449768
11.269342422485 -78.732810974121 -228.367370605469 1.370934963226
90.770286560059 -81.230087280273 -229.068634033203 8.138781547546
8.050891876221 -72.619667053223 -231.264373779297 1.500871777534
6.934350013733 -73.092277526855 -230.400177001953 1.170998573303
-10.012935638428 -74.794662475586 -232.752105712891 1.146139621735
-7.666011810303 -76.236412048340 -227.195922851563 1.225210070610
20.022871017456 -73.964569091797 -234.402359008789 1.462754607201
-13.292851448059 -69.238418579102 -233.028030395508 1.907026290894
69.674217224121 -78.892776489258 -242.242324829102 3.652996540070
-11.035010337830 -72.545074462891 -240.402420043945 1.192302703857
18.550350189209 -76.419960021973 -236.168060302734 2.301270723343
-159.902343750000 -63.218471527100 -238.928680419922 3.375403165817
-6.993331909180 -70.428352355957 -235.529510498047 0.878299057484
-7.844114780426 -77.199699401855 -238.891403198242 3.363520860672
-168.223205566406 -68.014877319336 -249.626815795898 2.233698129654
-12.016696929932 -70.715843200684 -244.080581665039 0.851204454899
13.537772178650 -71.034729003906 -245.105758666992 2.257317543030
-149.614990234375 -69.212074279785 -251.383407592773 1.369616627693
-78.589851379395 -71.167198181152 -253.021484375000 2.480917215347
-63.613090515137 -73.717979431152 -247.571044921875 2.613496780396
49.826431274414 -72.725692749023 -247.637420654297 1.563050270081
-72.923042297363 -70.099433898926 -245.714477539063 2.491599082947
14.376276016235 -75.737236022949 -250.517669677734 2.932455539703
-73.660362243652 -73.094116210938 -250.446380615234 1.449546337128
-17.011758804321 -70.064598083496 -241.373550415039 1.286729574203
-146.279830932617 -71.873329162598 -252.198165893555 1.131754994392
43.640415191650 -70.677398681641 -252.242370605469 1.693588495255
-82.818771362305 -75.967399597168 -257.632019042969 3.136957883835
-104.244445800781 -64.512329101563 -255.453094482422 3.754678249359
-102.084228515625 -71.431175231934 -254.073684692383 1.173449158669
-123.016441345215 -63.625202178955 -250.471511840820 4.539360523224
-107.063842773438 -63.669208526611 -257.377410888672 1.471274495125
-105.582069396973 -67.910438537598 -256.897186279297 2.279330730438
19.833412170410 -69.339683532715 -257.377502441406 3.852216482162
-132.081619262695 -64.233467102051 -265.093750000000 3.271251440048
-17.720012664795 -75.003181457520 -275.060455322266 5.297604560852
-150.589263916016 -62.651660919189 -284.567535400391 2.110818147659
-170.178161621094 -69.356063842773 -287.090393066406 2.214409828186
-126.477539062500 -70.081291198730 -281.992279052734 3.298471212387
-115.306419372559 -64.462928771973 -286.670227050781 3.591821432114
-76.907943725586 -65.219322204590 -281.999938964844 6.113928318024
-59.763195037842 -74.532745361328 -286.887237548828 3.151778221130
-42.203849792480 -70.996780395508 -285.795104980469 2.815735578537
-17.597921371460 -80.408187866211 -292.332641601563 3.627079725266
-15.130485534668 -70.746109008789 -294.931701660156 2.624687194824
-40.920677185059 -77.572578430176 -291.729919433594 1.713249325752
-36.257251739502 -73.549621582031 -289.065521240234 1.591799378395
-20.952924728394 -68.896476745605 -288.919952392578 3.219933271408
-75.885757446289 -69.979133605957 -295.245208740234 4.440521717072
-58.593654632568 -71.146110534668 -291.800079345703 2.831232547760
-21.234872817993 -68.327735900879 -292.596954345703 5.170313835144
-15.835909843445 -77.332527160645 -288.890045166016 2.797363996506
-5.240436077118 -74.309638977051 -294.733184814453 3.463728666306
1.208415031433 -69.281120300293 -293.982177734375 1.349180340767
-96.403640747070 -70.142433166504 -294.079711914063 3.271325111389
-139.092208862305 -72.343101501465 -296.971466064453 4.204182147980
-116.646873474121 -70.436134338379 -292.751068115234 1.545910239220
-154.742218017578 -63.282341003418 -292.556518554688 1.104099392891
-151.274581909180 -68.981201171875 -299.157073974609 1.985405087471
-149.261077880859 -63.383766174316 -300.232940673828 2.977262020111
43.123332977295 -69.002090454102 -24.264799118042 1.504370450974
20.227640151978 -77.766441345215 -23.810634613037 4.906769275665
50.801048278809 -68.335334777832 -23.982515335083 2.681649208069
47.239883422852 -75.233390808105 -36.717205047607 3.036232709885
88.596076965332 -75.733123779297 -73.561988830566 1.259554862976
96.003730773926 -79.271141052246 -75.784965515137 5.650040626526
101.451675415039 -77.602195739746 -76.535453796387 4.315130710602
98.117942810059 -76.194496154785 -85.655342102051 1.078167796135
54.769729614258 -75.954483032227 -91.294654846191 2.269093036652
41.992774963379 -82.372207641602 -89.116149902344 11.269757270813
63.361316680908 -73.948150634766 -91.638977050781 2.123309373856
-65.787788391113 -67.115783691406 -94.735771179199 2.769672870636
72.520454406738 -73.020401000977 -87.730987548828 1.149639844894
99.626739501953 -65.992874145508 -101.104179382324 1.981281042099
74.135818481445 -75.459007263184 -103.303291320801 4.573942661285
92.452194213867 -74.799629211426 -104.907196044922 3.402047157288
-88.443954467773 -68.724472045898 -106.261909484863 1.743432641029
46.263324737549 -71.871276855469 -95.224723815918 1.670395851135
-89.123863220215 -69.755836486816 -98.789222717285 5.490012645721
51.689174652100 -75.695808410645 -110.651298522949 2.773973703384
35.101898193359 -83.698745727539 -103.214912414551 7.620702743530
97.744125366211 -75.379264831543 -104.233840942383 4.518608093262
35.953781127930 -74.303924560547 -104.154327392578 5.107024192810
45.594203948975 -77.732963562012 -123.013374328613 1.293255567551
41.782207489014 -75.280662536621 -113.705642700195 2.019180774689
112.180107116699 -75.845916748047 -111.755691528320 2.989175796509
-80.746826171875 -76.579551696777 -122.325111389160 5.746798038483
112.588478088379 -84.779655456543 -122.619316101074 8.693104743958
42.617679595947 -68.234741210938 -126.425170898438 3.927927970886
39.180343627930 -74.450798034668 -120.333190917969 3.133700609207
33.464138031006 -75.267166137695 -119.810241699219 1.480985403061
-55.223342895508 -77.126892089844 -129.429107666016 4.405780315399
29.040060043335 -72.199821472168 -123.666007995605 1.528038263321
-78.519149780273 -63.678928375244 -139.151809692383 2.005253553391
-55.471412658691 -75.997169494629 -132.468994140625 2.775857210159
-79.759124755859 -65.224784851074 -135.125579833984 2.795961141586
37.255741119385 -71.463592529297 -133.492370605469 1.714615345001
-60.790561676025 -72.575454711914 -133.448364257813 2.995433807373
34.932220458984 -73.501770019531 -133.305862426758 1.643256187439
-71.069992065430 -66.281745910645 -139.887359619141 2.349484443665
-59.519088745117 -63.436248779297 -143.742202758789 3.277805089951
21.713733673096 -75.638534545898 -146.343902587891 0.979174196720
111.770660400391 -81.734298706055 -143.729263305664 4.993713855743
114.335258483887 -71.747726440430 -139.046142578125 2.138492107391
29.509010314941 -75.038146972656 -144.305892944336 3.299996376038
-51.639122009277 -73.850852966309 -139.563919067383 1.041673541069
103.342796325684 -74.311798095703 -154.063339233398 7.268251895905
-77.604911804199 -68.705245971680 -142.116409301758 1.941394567490
-58.974029541016 -69.515663146973 -142.193115234375 0.969819843769
31.566736221313 -66.170738220215 -145.836593627930 3.089497327805
-79.477157592773 -71.260833740234 -145.868515014648 2.921437025070
-70.640663146973 -68.308090209961 -149.632766723633 1.623467206955
112.138061523438 -85.033782958984 -150.126907348633 7.275582313538
-64.887405395508 -66.989097595215 -156.271591186523 3.549595355988
-40.080936431885 -65.499771118164 -151.570434570313 4.535818099976
23.119953155518 -72.054077148438 -144.219757080078 1.645138025284
-71.920059204102 -70.143295288086 -142.814071655273 1.125989556313
11.872219085693 -71.390213012695 -148.748016357422 2.677489042282
31.165939331055 -73.960693359375 -160.069885253906 1.849233627319
31.047126770020 -70.476249694824 -153.621780395508 1.270192265511
17.640111923218 -79.697052001953 -153.804183959961 5.623654842377
-52.128360748291 -73.720024108887 -152.987274169922 2.132191896439
20.975715637207 -77.875617980957 -153.712799072266 2.836326122284
-48.176082611084 -69.201194763184 -152.039825439453 1.038713932037
1.744817972183 -72.971008300781 -154.898452758789 4.825128555298
17.954412460327 -72.330841064453 -150.614685058594 2.592129230499
-66.676994323730 -67.816619873047 -159.419662475586 2.779888868332
-48.321338653564 -66.359336853027 -154.484405517578 3.564583539963
-69.539505004883 -69.559013366699 -150.894989013672 0.673222541809
20.886026382446 -72.037437438965 -159.431549072266 2.064306974411
22.502727508545 -72.683280944824 -150.762924194336 1.269955992699
1.578554034233 -73.169746398926 -168.406799316406 2.473889589310
21.602424621582 -71.907508850098 -151.715072631836 1.862729668617
29.734848022461 -72.751052856445 -170.584899902344 2.493179559708
-48.004753112793 -71.377922058105 -165.006561279297 1.918473720551
-41.073223114014 -82.246238708496 -165.512374877930 2.264340400696
-43.138332366943 -72.748970031738 -161.654251098633 0.988721907139
26.762260437012 -75.189559936523 -157.439819335938 2.927858591080
-45.526298522949 -66.777534484863 -166.262847900391 5.443597793579
-39.766574859619 -68.787940979004 -170.814270019531 0.689387738705
21.300821304321 -71.298080444336 -165.720932006836 1.292046546936
-40.533500671387 -71.783920288086 -177.604904174805 2.588780879974
26.285465240479 -67.493064880371 -170.825988769531 3.032613754272
108.733108520508 -72.481727600098 -163.586013793945 0.908119320869
-35.775020599365 -71.476966857910 -172.705383300781 0.950961232185
97.504295349121 -73.821189880371 -174.752838134766 8.251697540283
-35.594928741455 -70.829833984375 -178.639465332031 2.389527320862
-39.631134033203 -75.943763732910 -182.927001953125 4.826203823090
22.688882827759 -78.000762939453 -179.823394775391 2.907787799835
105.773742675781 -79.465774536133 -183.053405761719 2.381117582321
-35.103446960449 -68.667007446289 -181.539596557617 3.488147735596
-37.676177978516 -70.958976745605 -181.413070678711 1.443858027458
-23.895856857300 -79.110351562500 -188.303024291992 2.725313901901
-150.257339477539 -65.911231994629 -189.793975830078 2.370933771133
8.921371459961 -72.638145446777 -184.044815063477 3.879634141922
102.263229370117 -76.070938110352 -194.221908569336 1.499435901642
-163.172012329102 -64.735649108887 -191.545013427734 6.442743778229
-20.323072433472 -66.049278259277 -187.709747314453 3.382053613663
-116.921691894531 -70.539665222168 -198.305236816406 2.723860979080
-128.790847778320 -69.362586975098 -193.778320312500 2.428363561630
-106.913040161133 -69.748924255371 -200.447921752930 2.997600555420
-116.684288024902 -65.717147827148 -200.168594360352 1.421183466911
-11.610036849976 -74.265602111816 -196.813339233398 1.837566614151
18.582765579224 -70.576263427734 -196.485733032227 1.692857623100
-16.897571563721 -66.690559387207 -202.771087646484 3.148654699326
-130.573623657227 -66.735504150391 -206.580230712891 2.705668687820
-20.983085632324 -65.969902038574 -200.426452636719 2.855989694595
-127.973587036133 -63.538833618164 -202.863388061523 0.963972985744
-18.649187088013 -71.579147338867 -198.087295532227 2.640839815140
-148.870834350586 -64.018669128418 -200.372589111328 0.836966454983
90.745758056641 -70.667991638184 -206.773330688477 2.525810003281
-164.519775390625 -55.764385223389 -200.747467041016 9.256844520569
-2.703248023987 -73.763656616211 -222.653579711914 1.926982522011
11.405168533325 -76.208068847656 -211.243942260742 2.526953935623
8.621081352234 -78.509941101074 -218.027572631836 1.156782627106
80.739768981934 -77.285049438477 -216.530517578125 2.280884027481
8.850019454956 -75.198135375977 -214.227005004883 1.874846458435
9.321076393127 -72.077613830566 -215.924468994141 2.518214225769
-17.188850402832 -76.138900756836 -215.446746826172 2.013020038605
-91.520851135254 -70.409713745117 -211.708511352539 3.281087636948
-100.043914794922 -68.291778564453 -216.903747558594 2.638203382492
2.766036987305 -72.319808959961 -217.987289428711 3.844283580780
-167.916488647461 -68.561470031738 -220.411376953125 2.445340633392
15.980800628662 -70.068046569824 -217.666290283203 0.799411058426
-145.902999877930 -65.211799621582 -219.156219482422 0.338628262281
12.835578918457 -74.654808044434 -225.516601562500 3.370675086975
-137.014129638672 -69.266670227051 -224.952301025391 2.461049795151
-116.230499267578 -68.957267761230 -229.230056762695 1.945250034332
16.499822616577 -73.167488098145 -220.382049560547 2.417271852493
79.022605895996 -77.147422790527 -219.119049072266 4.058208465576
4.527531147003 -74.645767211914 -224.419311523438 1.498536229134
-109.162452697754 -66.147972106934 -231.906372070313 2.420990943909
66.382980346680 -78.307762145996 -228.086517333984 5.754488468170
85.263526916504 -79.427322387695 -230.307617187500 6.606915473938
-128.285964965820 -66.503303527832 -238.070526123047 4.188153743744
-121.178337097168 -66.832679748535 -229.631958007813 2.268777132034
-9.697422027588 -66.677429199219 -225.386093139648 2.338877201080
70.703468322754 -77.291229248047 -234.941894531250 2.208794832230
63.187778472900 -76.880462646484 -232.436981201172 5.976274967194
70.084449768066 -75.909629821777 -228.601715087891 3.183880567551
-138.175155639648 -60.831352233887 -233.573028564453 4.408930778503
67.033508300781 -78.353111267090 -230.250473022461 4.581640720367
64.279174804688 -72.316802978516 -235.643981933594 1.454411506653
-166.751708984375 -61.965435028076 -232.000320434570 5.063714027405
0.753172993660 -83.492340087891 -243.604721069336 5.611904144287
20.229686737061 -76.489738464355 -239.380371093750 1.252194762230
-7.255291938782 -68.496231079102 -242.776321411133 2.176900148392
17.043342590332 -65.361053466797 -239.996917724609 1.963582396507
66.477416992188 -77.747352600098 -238.287185668945 3.208094120026
5.328431129456 -70.052055358887 -246.307022094727 4.126882076263
-12.918189048767 -64.427932739258 -240.402297973633 2.247706413269
-3.667072057724 -68.242233276367 -234.744537353516 0.930723726749
63.415390014648 -76.794197082520 -242.709213256836 1.634098410606
-0.927030026913 -72.784179687500 -242.902236938477 1.153040766716
-6.714338779449 -73.949172973633 -243.675750732422 2.137102603912
13.433803558350 -78.508102416992 -241.792358398438 1.607089161873
-168.913040161133 -68.895141601563 -240.866165161133 1.590414047241
51.593719482422 -77.850143432617 -247.823715209961 4.676517486572
46.907104492188 -65.876991271973 -255.158737182617 2.256492137909
59.357963562012 -76.896629333496 -244.161224365234 3.043662548065
-13.441941261292 -68.998741149902 -248.495193481445 1.527651071548
55.643112182617 -74.655029296875 -245.232025146484 1.693153977394
-76.256912231445 -69.336288452148 -251.911590576172 0.845161437988
48.466030120850 -76.150047302246 -248.482391357422 3.630708456039
-87.876068115234 -67.706581115723 -253.423263549805 1.789944291115
-122.166221618652 -68.296295166016 -259.131317138672 3.228974342346
-132.840667724609 -67.308395385742 -251.754364013672 4.094842433929
46.735389709473 -78.254737854004 -251.877899169922 6.038900852203
-130.748382568359 -71.022689819336 -250.644424438477 2.855649709702
-108.939659118652 -63.872806549072 -253.393753051758 4.187928676605
-119.619384765625 -64.567619323730 -258.246856689453 2.854818820953
-86.134300231934 -69.253288269043 -254.449356079102 0.919435620308
-111.256164550781 -63.170871734619 -257.572387695313 3.449725627899
-125.802230834961 -72.287132263184 -262.856781005859 1.970777750015
-148.973709106445 -62.660400390625 -269.187225341797 3.549245595932
-16.510210037231 -69.927185058594 -269.774749755859 2.472665071487
-176.325424194336 -68.973350524902 -264.916809082031 8.217801094055
-16.497295379639 -70.724960327148 -276.255432128906 3.486747026443
-159.365234375000 -60.394062042236 -267.023803710938 5.953161716461
-154.132171630859 -67.433715820313 -271.523864746094 2.839063644409
-172.926361083984 -64.789543151855 -277.618621826172 7.703720569611
-17.436035156250 -73.760993957520 -284.237640380859 4.112962245941
-128.251907348633 -70.798728942871 -282.504486083984 3.075212478638
-157.679992675781 -65.486640930176 -286.316711425781 1.035143256187
-143.842041015625 -64.788963317871 -280.129547119141 2.154748678207
-136.383880615234 -69.688446044922 -276.250030517578 6.866656303406
-9.311263084412 -63.342254638672 -284.545593261719 5.303458690643
-127.971397399902 -71.172042846680 -282.458251953125 2.781053066254
-141.724746704102 -61.768966674805 -286.042633056641 0.774612009525
-116.741653442383 -73.449295043945 -285.415893554688 2.022655010223
-83.679588317871 -65.296836853027 -290.010040283203 3.436648845673
-60.635749816895 -72.702247619629 -287.076507568359 2.876272439957
-10.281132698059 -74.733161926270 -288.135498046875 1.503332376480
-56.480197906494 -68.698211669922 -282.517120361328 4.125306606293
-57.855335235596 -66.953910827637 -289.010406494141 3.091195821762
-73.357795715332 -67.415481567383 -290.538330078125 3.704000711441
-91.052337646484 -66.559906005859 -296.455261230469 5.064949512482
-93.377449035645 -66.653114318848 -287.291473388672 3.725302457809
-160.030090332031 -65.387962341309 -291.543853759766 3.537867307663
-161.184112548828 -66.405090332031 -295.169433593750 5.237629890442
-125.422531127930 -71.625663757324 -293.041107177734 1.578583121300
-145.620056152344 -65.632652282715 -293.906494140625 1.543006658554
-152.233291625977 -69.179283142090 -306.419006347656 1.438142299652
-155.457092285156 -70.578079223633 -310.997070312500 2.246741294861
48.759441375732 -71.433609008789 -12.558533668518 4.552515983582
13.511355400085 -74.190948486328 -33.290885925293 6.524655342102
42.959167480469 -66.684555053711 -36.375236511230 1.841644883156
-14.437609672546 -74.579399108887 -66.349311828613 3.276191473007
81.236915588379 -72.258171081543 -65.884117126465 2.593369483948
91.601509094238 -69.483421325684 -67.051376342773 2.091557264328
78.565429687500 -81.782966613770 -65.682777404785 9.392088890076
71.121505737305 -77.455451965332 -71.145156860352 5.936403274536
90.295043945313 -77.454421997070 -77.785308837891 2.089705705643
-98.551788330078 -61.903732299805 -70.433959960938 2.174380540848
64.596313476563 -74.455810546875 -75.807067871094 5.644865512848
-36.721187591553 -73.614242553711 -78.373672485352 2.163374900818
97.279098510742 -75.120018005371 -86.110504150391 0.971172153950
62.945648193359 -69.212745666504 -91.514671325684 1.078116297722
107.213905334473 -83.614700317383 -92.349304199219 11.636585235596
97.312988281250 -82.827919006348 -100.161056518555 8.055369377136
73.561492919922 -75.243728637695 -102.977638244629 4.512045860291
-83.234474182129 -63.036788940430 -104.012512207031 2.595722913742
54.004169464111 -72.346160888672 -107.802711486816 0.461071550846
108.535568237305 -71.458915710449 -108.414710998535 1.174072146416
44.632499694824 -72.689247131348 -115.938865661621 1.942797064781
78.850845336914 -73.314262390137 -107.836051940918 4.885788440704
40.631141662598 -72.687286376953 -109.303031921387 0.404333919287
100.916328430176 -76.051368713379 -104.124267578125 4.656707763672
46.663600921631 -73.478248596191 -108.788375854492 2.615183830261
104.041236877441 -85.218734741211 -109.738929748535 10.327965736389
110.197952270508 -82.421684265137 -110.137351989746 7.694746017456
-81.038146972656 -64.136848449707 -114.739120483398 2.344372272491
-84.066299438477 -64.208747863770 -121.602310180664 1.937750577927
42.610702514648 -77.643478393555 -120.183654785156 1.072508215904
112.523826599121 -79.104530334473 -125.253639221191 2.893316268921
112.196411132813 -77.140335083008 -124.566406250000 2.236965656281
-90.817214965820 -65.762481689453 -126.790519714355 3.500607252121
103.405601501465 -79.893089294434 -129.164672851563 7.106393337250
-61.020591735840 -75.684432983398 -132.410903930664 4.501608848572
-87.071205139160 -68.304832458496 -128.664077758789 1.211876988411
-70.479270935059 -69.621032714844 -126.746376037598 4.955447673798
-61.405292510986 -64.000015258789 -127.308471679688 1.644620180130
31.354379653931 -73.068977355957 -132.152618408203 0.955001533031
44.603900909424 -68.825828552246 -137.562561035156 6.262759208679
-71.261940002441 -67.848297119141 -136.346069335938 1.955106973648
28.134050369263 -68.825569152832 -129.989257812500 2.834204673767
112.434112548828 -76.671096801758 -147.256042480469 1.561269879341
-38.005416870117 -70.454376220703 -150.868713378906 2.868409156799
33.974472045898 -76.727752685547 -150.756347656250 1.593074083328
111.610168457031 -74.268295288086 -151.084121704102 0.923418223858
35.352222442627 -74.454757690430 -142.940979003906 3.366198539734
108.448318481445 -75.025711059570 -140.062698364258 1.038920879364
-52.248741149902 -68.355102539063 -150.355697631836 1.420416235924
-75.552413940430 -63.536647796631 -152.349136352539 5.044741153717
-59.977066040039 -69.363113403320 -150.452194213867 5.800658226013
-44.316234588623 -76.033096313477 -165.516555786133 1.537476658821
1.608060002327 -75.315284729004 -156.280990600586 3.129170894623
107.020744323730 -77.723396301270 -153.826858520508 4.109328746796
106.896202087402 -76.331581115723 -162.727844238281 2.665326356888
10.489495277405 -72.252204895020 -157.123184204102 1.215542793274
0.187988996506 -70.247146606445 -160.662643432617 3.707050800323
21.601890563965 -69.681297302246 -154.246429443359 2.223129272461
25.311370849609 -70.761482238770 -156.420227050781 1.350667715073
105.219627380371 -76.428466796875 -166.317123413086 3.041082382202
110.319030761719 -81.637123107910 -168.552886962891 3.623188257217
23.123350143433 -68.999359130859 -177.970260620117 1.464350581169
22.416179656982 -77.171508789063 -166.636108398438 2.225687742233
110.050437927246 -73.513565063477 -163.401336669922 2.006270885468
-31.424142837524 -68.305122375488 -180.539749145508 1.731502413750
109.583923339844 -77.591896057129 -168.292297363281 0.734714925289
16.971475601196 -72.675613403320 -164.113357543945 1.856975078583
20.059446334839 -72.756416320801 -170.794387817383 3.425463914871
106.372779846191 -77.481643676758 -173.425262451172 2.811513662338
26.841436386108 -71.604568481445 -170.527450561523 1.254057168961
113.394432067871 -74.782806396484 -187.042953491211 4.079191207886
-39.939052581787 -69.404418945313 -181.102905273438 4.204933166504
22.201295852661 -72.846748352051 -169.111755371094 2.590735912323
106.772712707520 -76.710571289063 -186.365341186523 3.248502016068
21.052295684814 -74.182052612305 -176.837554931641 2.182911157608
-151.898849487305 -62.202037811279 -185.759918212891 2.365837574005
-28.748710632324 -66.057571411133 -190.969482421875 1.729516863823
22.861402511597 -68.917663574219 -186.200820922852 1.890428066254
-117.740646362305 -69.310409545898 -192.656509399414 2.889688968658
-113.417381286621 -62.288608551025 -193.742050170898 1.454259753227
24.390298843384 -73.922599792480 -188.099121093750 2.347645759583
9.240629196167 -67.766006469727 -185.176910400391 6.678458213806
-28.101663589478 -65.316810607910 -191.270492553711 2.565880775452
-30.032852172852 -76.954513549805 -189.861648559570 1.985948443413
-30.703807830811 -71.094474792480 -189.416412353516 1.821431994438
10.779909133911 -68.556694030762 -180.924179077148 4.886291027069
-151.810256958008 -64.577644348145 -196.457550048828 2.536785125732
-147.959396362305 -63.833534240723 -191.860794067383 2.312641859055
-149.127685546875 -70.256637573242 -200.008346557617 1.082505106926
-25.217237472534 -69.180809020996 -192.070632934570 1.951392889023
13.800530433655 -68.235198974609 -200.597000122070 2.342694759369
96.952812194824 -74.126388549805 -193.196121215820 2.210894823074
-114.472274780273 -64.073150634766 -198.621566772461 0.973856389523
19.621967315674 -78.648414611816 -198.158950805664 2.335074901581
-13.893502235413 -69.177558898926 -194.996994018555 2.273248195648
-18.184444427490 -70.910362243652 -198.966812133789 2.069103240967
100.642105102539 -74.190856933594 -201.706497192383 0.622001767159
5.170456886292 -75.756675720215 -198.220748901367 4.854855537415
-23.434442520142 -68.353660583496 -197.481475830078 1.583281517029
-121.498031616211 -70.562713623047 -205.128875732422 3.085090637207
-135.814285278320 -66.212287902832 -203.151321411133 2.574433565140
-115.238365173340 -58.456886291504 -206.883865356445 6.759602546692
-143.597549438477 -70.064140319824 -202.992630004883 1.124672293663
15.099168777466 -72.010986328125 -198.726257324219 2.890043497086
90.496940612793 -78.693458557129 -199.795333862305 5.732131004333
-165.875061035156 -56.608879089355 -199.174713134766 9.202993392944
98.964942932129 -75.031219482422 -202.186355590820 2.048861026764
-25.906002044678 -77.375991821289 -205.337448120117 2.937933683395
93.619789123535 -71.181632995605 -209.603118896484 1.572665452957
86.859375000000 -79.001846313477 -209.350067138672 5.395062446594
8.286254882813 -75.699272155762 -202.300109863281 2.529419660568
20.119945526123 -70.920516967773 -214.285614013672 3.043766975403
12.661452293396 -67.237281799316 -209.348175048828 1.902070403099
-12.203170776367 -71.316696166992 -225.032196044922 1.613778471947
-94.827423095703 -71.702743530273 -220.611801147461 1.538633704185
-14.658218383789 -74.676254272461 -211.151397705078 2.881044864655
85.806701660156 -76.825973510742 -219.204727172852 1.196581125259
-96.258659362793 -71.473579406738 -215.981872558594 2.370104074478
-100.104522705078 -62.261234283447 -222.757858276367 5.167500495911
-98.355789184570 -65.989562988281 -218.950881958008 2.964806318283
88.196342468262 -79.592521667480 -223.856399536133 3.680766344070
-137.366806030273 -66.758895874023 -225.227798461914 1.530547857285
-132.004913330078 -74.427803039551 -228.323226928711 0.881745517254
-117.585487365723 -66.875465393066 -224.740600585938 1.889544248581
-114.537544250488 -62.858581542969 -220.594680786133 5.801821708679
-133.385711669922 -62.312397003174 -228.404815673828 1.546682476997
-115.907035827637 -77.572700500488 -228.722946166992 2.023921966553
-111.855743408203 -65.375923156738 -228.759826660156 2.387252330780
-8.733740806580 -77.443016052246 -224.030044555664 1.318574309349
-16.184864044189 -75.531166076660 -223.707977294922 2.055363655090
-1.844697952271 -67.917083740234 -230.119049072266 1.506329894066
-10.908406257629 -66.474670410156 -227.390060424805 1.518887042999
14.513678550720 -74.077301025391 -235.116897583008 2.329508781433
-22.341320037842 -67.797035217285 -230.231338500977 5.801338672638
-167.841491699219 -61.999553680420 -219.613098144531 5.422040462494
-7.516766071320 -72.928039550781 -234.663284301758 0.708921313286
80.067588806152 -70.438407897949 -233.932800292969 2.023427724838
11.167105674744 -75.535545349121 -233.697433471680 2.429035663605
-6.332458019257 -70.835632324219 -236.395950317383 1.183754086494
-158.277145385742 -61.489376068115 -235.417984008789 2.501097202301
-144.910888671875 -62.715560913086 -227.371261596680 1.201725482941
58.740322113037 -73.436889648438 -237.942642211914 2.842342615128
-6.867271900177 -72.640457153320 -233.229309082031 1.375172019005
10.691658973694 -75.703704833984 -228.917343139648 2.473868846893
68.086898803711 -79.486114501953 -226.564895629883 7.272603034973
75.464912414551 -74.823982238770 -235.822052001953 3.118209838867
70.545288085938 -77.069793701172 -244.035644531250 4.394453525543
-3.663482904434 -76.903335571289 -234.755599975586 2.342960357666
57.687793731689 -71.353767395020 -236.872207641602 3.245247602463
-21.031017303467 -75.542739868164 -240.987319946289 1.644680857658
-14.884831428528 -66.603569030762 -240.016662597656 1.039611220360
6.239066123962 -72.033393859863 -238.622146606445 3.322948932648
61.887916564941 -80.494857788086 -236.809616088867 6.375687122345
67.418006896973 -72.482749938965 -242.909881591797 2.772916555405
46.685054779053 -75.051055908203 -246.294631958008 4.492949008942
59.219635009766 -79.965835571289 -243.373886108398 4.789823532104
-16.870559692383 -79.604614257813 -249.057876586914 6.475265502930
-85.177368164063 -63.285209655762 -258.379272460938 7.017161369324
-78.131889343262 -65.273178100586 -254.383697509766 3.981067657471
42.289756774902 -78.793762207031 -247.259201049805 7.677735328674
-154.845413208008 -67.552040100098 -249.192672729492 2.741524934769
33.467594146729 -72.986511230469 -258.313385009766 2.753352165222
-94.142326354980 -74.725334167480 -252.013595581055 0.957486152649
-158.722686767578 -58.312129974365 -253.507965087891 4.930556774139
-140.237030029297 -53.905551910400 -251.314208984375 9.779602050781
40.792720794678 -72.916542053223 -255.232574462891 3.705894470215
-126.946144104004 -61.126327514648 -258.935455322266 3.227868795395
-119.551315307617 -68.492393493652 -254.192810058594 3.373464822769
-92.210563659668 -61.608203887939 -256.563293457031 3.995158433914
-13.733871459961 -65.075141906738 -247.001205444336 2.761022329330
30.859933853149 -72.785522460938 -256.493865966797 1.976053357124
23.796575546265 -68.947319030762 -259.339569091797 1.327718138695
-161.722183227539 -56.391925811768 -261.230438232422 8.922077178955
-115.926773071289 -70.286521911621 -262.706817626953 1.620009541512
-14.599727630615 -71.439437866211 -262.792449951172 1.081733822823
-132.688812255859 -65.252952575684 -265.966552734375 4.290289402008
-16.173305511475 -69.712966918945 -270.717834472656 2.332535743713
-164.132400512695 -63.861911773682 -270.216796875000 3.789226770401
-6.824088096619 -73.031318664551 -278.253814697266 1.941971421242
-160.928512573242 -66.151817321777 -287.212066650391 1.332275509834
-167.050476074219 -69.192550659180 -277.971435546875 2.400791883469
-143.560760498047 -66.440849304199 -284.789245605469 0.810985267162
-174.186492919922 -67.646705627441 -284.051025390625 7.049068927765
12.927783966064 -77.290748596191 -289.829132080078 2.083828210831
-104.663856506348 -69.168434143066 -286.292419433594 1.975987315178
-89.081359863281 -60.178878784180 -285.246215820313 9.140305519104
-170.391555786133 -59.746952056885 -283.412750244141 10.461868286133
-95.058090209961 -76.559455871582 -280.345489501953 6.633266448975
-158.581527709961 -66.206504821777 -289.115600585938 3.071982860565
-79.804168701172 -71.250656127930 -298.805725097656 8.496037483215
-74.538650512695 -67.751419067383 -288.948242187500 1.913838982582
-85.517036437988 -71.096771240234 -292.321105957031 2.161567687988
-4.849689960480 -70.096122741699 -287.978698730469 1.036182641983
-93.123123168945 -67.816093444824 -286.398468017578 3.494092226028
-101.033676147461 -70.767448425293 -290.065185546875 1.734383821487
-121.176414489746 -66.832031250000 -292.929443359375 2.450830698013
-118.076896667480 -61.688465118408 -293.032226562500 4.806731224060
-135.714675903320 -67.005249023438 -290.457672119141 1.382508277893
-143.557235717773 -64.871978759766 -300.384216308594 4.870451450348
-146.411621093750 -67.122772216797 -311.986633300781 1.266531944275
24.491724014282 -66.377914428711 -14.508628845215 3.879649639130
33.803413391113 -70.563667297363 -16.037218093872 2.216535806656
29.822399139404 -74.438522338867 -18.191562652588 2.220833539963
45.269538879395 -67.309425354004 -19.597625732422 2.226475477219
23.133308410645 -69.958007812500 -32.243564605713 1.921880960464
-74.653854370117 -65.212928771973 -46.290237426758 2.689953565598
89.484100341797 -67.714859008789 -67.951499938965 1.804419755936
-20.001184463501 -64.339820861816 -66.897987365723 4.048939704895
104.801109313965 -75.040283203125 -74.936584472656 5.571795463562
92.491950988770 -79.792480468750 -76.479309082031 4.814857006073
67.775833129883 -74.167594909668 -79.843986511230 3.561415195465
72.460731506348 -79.052665710449 -82.475784301758 3.769819259644
-44.563354492188 -72.487091064453 -81.721458435059 2.398351669312
59.813972473145 -79.942008972168 -81.138748168945 9.532694816589
-93.126945495605 -66.258621215820 -89.249946594238 3.459644317627
-46.772407531738 -64.806106567383 -84.040153503418 1.405668497086
-57.125778198242 -74.774452209473 -83.743621826172 7.064404964447
102.529067993164 -83.881469726563 -99.937622070313 9.117629051208
60.068412780762 -77.485000610352 -90.179039001465 3.999469041824
67.845977783203 -72.694274902344 -91.422897338867 3.449968338013
-93.724510192871 -57.397693634033 -97.352973937988 6.628633975983
107.708221435547 -78.044677734375 -90.929115295410 7.841775894165
41.413314819336 -70.237068176270 -99.964965820313 1.836018681526
102.386581420898 -74.697288513184 -99.273475646973 2.436713695526
107.296745300293 -71.565277099609 -107.571350097656 0.953928053379
99.172561645508 -75.545845031738 -103.971382141113 5.025999069214
73.893844604492 -78.686126708984 -98.870330810547 4.352671623230
86.248641967773 -77.469917297363 -109.353492736816 8.969555854797
50.372634887695 -70.696441650391 -111.703330993652 2.507220029831
110.471343994141 -70.075325012207 -102.490249633789 1.822427272797
47.758808135986 -78.241256713867 -104.212753295898 1.063870429993
37.289676666260 -70.337844848633 -102.778434753418 3.587998867035
113.370674133301 -77.070770263672 -111.458358764648 4.171194553375
-77.957847595215 -61.287357330322 -108.349884033203 1.788149356842
45.105052947998 -70.817619323730 -113.219779968262 1.462420225143
31.901742935181 -76.059265136719 -116.974334716797 1.963313341141
106.077117919922 -72.234123229980 -111.759742736816 1.919865012169
36.323272705078 -68.773338317871 -112.103378295898 1.933968067169
-86.883598327637 -65.980743408203 -110.041671752930 1.938155651093
-94.821281433105 -60.379001617432 -113.846572875977 3.197136163712
100.373329162598 -82.273315429688 -121.080245971680 10.888787269592
-95.134651184082 -66.227172851563 -118.655349731445 1.747572660446
39.185718536377 -77.347457885742 -121.140945434570 2.152954578400
36.014728546143 -72.702026367188 -123.977439880371 1.695359110832
-85.963882446289 -66.264122009277 -123.414131164551 0.750268757343
33.491378784180 -69.738349914551 -134.092788696289 2.142966032028
112.348365783691 -77.551902770996 -132.262405395508 1.856067657471
-53.831821441650 -67.905181884766 -139.562347412109 1.075019478798
-87.879722595215 -63.963703155518 -133.615554809570 1.294239163399
37.847679138184 -78.300994873047 -130.163009643555 2.570259332657
-85.669845581055 -60.039073944092 -136.683212280273 4.800150871277
-88.189392089844 -70.426208496094 -141.119232177734 3.616247653961
-50.719776153564 -67.921981811523 -135.920349121094 2.019503831863
-71.310073852539 -63.565166473389 -138.402374267578 3.431008100510
-50.929599761963 -67.268821716309 -131.889480590820 0.613883197308
117.788185119629 -72.111351013184 -137.148483276367 0.672888875008
-71.632583618164 -69.782814025879 -133.249053955078 1.903802633286
37.616950988770 -74.005020141602 -130.621826171875 2.241866827011
-78.602210998535 -63.745578765869 -141.345458984375 3.634444952011
-72.096519470215 -67.396003723145 -134.854446411133 1.373929500580
-95.316307067871 -62.974658966064 -142.711791992188 1.223927855492
-55.950176239014 -62.769798278809 -144.829406738281 3.775168657303
31.457084655762 -65.550750732422 -146.556961059570 3.211979150772
26.859979629517 -70.165641784668 -149.103805541992 0.886526763439
20.773674011230 -63.782714843750 -144.956024169922 0.855781257153
111.817489624023 -75.203109741211 -146.979232788086 1.787301778793
-90.258003234863 -63.819576263428 -150.890960693359 4.270060539246
9.540689468384 -72.686836242676 -152.631454467773 2.328228473663
-71.847381591797 -66.151268005371 -155.524093627930 2.722935676575
23.561004638672 -69.426017761230 -149.214630126953 2.156283140182
-49.774433135986 -66.317733764648 -155.356613159180 4.181571006775
9.620806694031 -69.102935791016 -154.524932861328 1.260818362236
16.936443328857 -75.340583801270 -159.782669067383 3.166339159012
15.843201637268 -78.358749389648 -164.112197875977 5.292507648468
-52.387908935547 -71.271987915039 -163.874938964844 4.982529640198
-38.548622131348 -66.387107849121 -155.768188476563 3.325496673584
-48.442855834961 -69.705329895020 -162.778030395508 0.793551027775
-103.516632080078 -66.764739990234 -173.199707031250 1.176055550575
21.219932556152 -74.087150573730 -175.697372436523 2.549124002457
-33.771266937256 -69.318359375000 -179.191436767578 3.496621847153
14.638290405273 -77.888275146484 -178.662185668945 3.964135408401
-142.203521728516 -62.453189849854 -175.913848876953 1.379318237305
-31.482465744019 -64.170608520508 -172.483398437500 2.903300523758
-157.821029663086 -71.804924011230 -177.947158813477 4.816491127014
25.124200820923 -64.055412292480 -182.068878173828 5.635386943817
-35.270736694336 -71.400360107422 -169.941909790039 3.358584165573
-106.712463378906 -61.691226959229 -174.838134765625 2.620119810104
-107.701782226563 -73.028327941895 -184.373718261719 4.160634517670
-31.129083633423 -61.542762756348 -186.306167602539 7.325222492218
-25.438282012939 -76.111938476563 -181.655929565430 1.332730889320
11.177400588989 -69.725715637207 -189.327209472656 2.385100841522
15.052676200867 -67.072357177734 -200.119277954102 2.341105461121
12.259874343872 -72.182510375977 -188.084045410156 1.482382774353
-142.728164672852 -60.587471008301 -186.203720092773 3.502144813538
24.855274200439 -65.924140930176 -190.162521362305 3.921613454819
4.275011062622 -69.618370056152 -197.189224243164 3.272745132446
-134.481842041016 -61.535621643066 -192.653594970703 4.385843276978
-112.489074707031 -64.211944580078 -195.082321166992 1.716609954834
14.392492294312 -68.546813964844 -205.437652587891 1.940952181816
-120.051185607910 -62.157733917236 -196.772735595703 2.042645454407
-107.634620666504 -56.226531982422 -192.581649780273 8.930856704712
-168.022705078125 -64.176406860352 -202.020278930664 1.352553486824
-24.988365173340 -66.974906921387 -200.140045166016 1.568035125732
9.241698265076 -68.387481689453 -199.857467651367 2.120404720306
-146.536285400391 -64.449691772461 -204.024749755859 2.165254592896
-139.426727294922 -68.496742248535 -207.418746948242 3.016610145569
-23.117273330688 -66.566772460938 -208.522232055664 3.978229522705
-13.423661231995 -70.865425109863 -206.107955932617 0.874523341656
-14.145936965942 -71.804931640625 -206.145492553711 1.773295283318
-138.581024169922 -70.061172485352 -201.727447509766 0.933262884617
-18.447820663452 -69.131340026855 -213.211975097656 2.960581302643
-9.584545135498 -77.627296447754 -215.050781250000 1.943565487862
17.733051300049 -66.913063049316 -211.897918701172 1.727334737778
-19.153333663940 -76.606369018555 -212.221588134766 1.391250848770
9.358572006226 -72.893524169922 -209.103378295898 0.698948800564
-12.375720024109 -72.168640136719 -215.336364746094 1.908468365669
-25.008907318115 -64.345764160156 -211.786117553711 7.691682338715
9.973422050476 -79.896080017090 -220.980865478516 1.860531926155
-4.083014011383 -78.390419006348 -219.206802368164 1.472008228302
10.540697097778 -65.358856201172 -220.603027343750 1.835225939751
-7.843174934387 -74.598114013672 -229.411865234375 3.019906282425
-162.026321411133 -64.939071655273 -227.159011840820 2.668854951859
79.269744873047 -78.594596862793 -220.098709106445 4.089449405670
-136.534255981445 -60.818435668945 -223.547637939453 4.852399826050
-136.300125122070 -67.717597961426 -221.040023803711 3.340758323669
-8.727779388428 -71.434959411621 -225.441223144531 0.238340765238
4.822762966156 -70.370338439941 -236.559768676758 1.454277038574
-159.673156738281 -63.029567718506 -232.001327514648 2.123416423798
89.378234863281 -72.647430419922 -220.927947998047 1.067217230797
-2.084661006927 -68.690963745117 -227.245697021484 1.194025397301
-0.105874001980 -71.367385864258 -220.979629516602 1.525347709656
72.723083496094 -78.812980651855 -232.436676025391 5.058030605316
-0.704477012157 -66.808021545410 -237.491699218750 1.081239223480
-14.277270317078 -71.730743408203 -224.254837036133 2.285044431686
-128.620605468750 -59.903038024902 -233.611801147461 5.559510231018
-6.718657016754 -70.007461547852 -238.918151855469 2.141185283661
1.824221014977 -67.585350036621 -229.899810791016 2.439237117767
65.341461181641 -69.903152465820 -238.669204711914 1.612543582916
-158.966644287109 -66.778549194336 -236.749832153320 2.961373329163
-14.615745544434 -67.568367004395 -246.355941772461 1.637188434601
-171.874252319336 -66.832885742188 -239.109222412109 5.064608573914
10.172254562378 -64.818862915039 -241.663101196289 2.563462734222
-164.069396972656 -65.616271972656 -238.648452758789 2.687590599060
-160.761535644531 -66.246505737305 -247.555007934570 1.709080100060
57.414405822754 -74.677146911621 -245.355270385742 2.292371511459
59.181419372559 -76.900047302246 -242.521713256836 2.337666988373
54.038131713867 -74.989181518555 -247.004730224609 2.164604425430
50.104137420654 -73.438079833984 -250.208145141602 1.598880887032
-153.019790649414 -66.046028137207 -242.457611083984 2.293582201004
-156.820922851563 -58.462741851807 -245.963531494141 7.190640449524
-13.587896347046 -76.608520507813 -249.823699951172 2.258033037186
-151.347503662109 -62.905742645264 -247.794830322266 3.087122201920
16.245859146118 -71.807655334473 -251.494781494141 3.423771381378
-173.253921508789 -71.075584411621 -251.546722412109 5.036222934723
-170.392562866211 -60.738586425781 -251.267196655273 8.175450325012
-83.377525329590 -70.067611694336 -246.666458129883 2.801011323929
-172.205764770508 -61.544502258301 -257.234344482422 9.090579032898
-86.120193481445 -66.751174926758 -259.072937011719 3.989042282104
42.010772705078 -71.527114868164 -254.436981201172 2.339983463287
20.108133316040 -75.894584655762 -258.128875732422 2.858521223068
-158.823379516602 -65.537803649902 -263.965728759766 3.416300296783
-102.087547302246 -56.981681823730 -260.518585205078 5.699106216431
38.934597015381 -72.240455627441 -254.860061645508 2.525090456009
-109.676803588867 -76.929580688477 -258.071472167969 3.432959556580
-154.233932495117 -60.133354187012 -266.585723876953 2.847645759583
-104.432487487793 -65.195381164551 -256.216888427734 3.116482496262
-171.308700561523 -67.308395385742 -259.366729736328 3.665904045105
-114.427497863770 -66.710220336914 -264.478912353516 2.769547700882
-155.059097290039 -66.995819091797 -266.652008056641 2.450366735458
-160.744857788086 -59.512466430664 -262.555480957031 6.019622325897
-166.588989257813 -62.114761352539 -263.991027832031 5.377461910248
-166.949935913086 -61.117790222168 -262.393646240234 6.280600547791
-166.963806152344 -63.489456176758 -264.028961181641 4.314479351044
-171.168151855469 -64.297325134277 -258.754364013672 5.794610023499
25.714757919312 -73.911674499512 -266.356750488281 2.623635530472
-148.726867675781 -70.735862731934 -262.294952392578 2.364913702011
-153.605682373047 -64.160148620605 -285.873687744141 2.400562286377
28.132902145386 -72.023536682129 -275.843933105469 6.121246337891
-14.206582069397 -74.509025573730 -275.164886474609 2.871129512787
-126.118919372559 -61.800914764404 -285.278656005859 4.579999923706
-137.741714477539 -64.825195312500 -286.884552001953 3.863245725632
-134.476165771484 -64.464080810547 -290.184295654297 1.678923010826
-130.022674560547 -65.316062927246 -286.042785644531 2.192240715027
-113.562515258789 -64.305297851563 -293.200531005859 3.064523220062
-104.537460327148 -60.599769592285 -283.755340576172 7.640954971313
5.363580226898 -76.477241516113 -296.630859375000 3.426126480103
-85.445129394531 -68.990890502930 -291.484558105469 2.412858009338
-149.848129272461 -64.952011108398 -285.883148193359 1.306323528290
-104.163177490234 -67.853073120117 -291.541717529297 3.435567617416
-135.128662109375 -61.940242767334 -293.033325195313 4.891910076141
8.725936889648 -74.062820434570 -287.731750488281 1.496473073959
-111.356498718262 -56.871463775635 -286.680694580078 10.243124008179
3.600095987320 -71.943885803223 -294.840911865234 1.919873714447
-144.512466430664 -64.188049316406 -285.856475830078 2.246598005295
-153.430191040039 -64.122924804688 -294.979705810547 3.030370473862
-161.441314697266 -62.172676086426 -318.030303955078 10.252966880798
-157.541366577148 -61.104286193848 -310.979309082031 7.333083152771
45.901874542236 -75.121353149414 -25.659788131714 3.149402618408
25.778789520264 -69.382873535156 -38.459274291992 1.535469532013
28.224664688110 -71.327545166016 -36.981948852539 0.849553704262
-41.051349639893 -70.977691650391 -47.375228881836 3.067666292191
-9.827280998230 -65.344558715820 -63.895782470703 2.426943778992
95.089393615723 -74.318618774414 -68.539817810059 3.344480752945
68.447029113770 -65.113929748535 -69.282356262207 0.801541507244
-25.764207839966 -66.322586059570 -74.540603637695 2.269812107086
-101.649345397949 -69.796096801758 -89.310630798340 6.165966033936
-42.923408508301 -66.518577575684 -86.950843811035 3.992754459381
56.695510864258 -71.727134704590 -80.350936889648 3.910599231720
65.593925476074 -76.689865112305 -84.941093444824 5.265642642975
50.710048675537 -68.248641967773 -88.521217346191 0.779426753521
-59.713378906250 -65.364128112793 -91.332206726074 3.403288602829
67.886329650879 -66.254791259766 -89.984420776367 1.466289639473
42.004592895508 -76.598014831543 -99.549980163574 2.883251190186
69.208778381348 -76.170509338379 -96.018432617188 1.503815174103
-59.640308380127 -64.248718261719 -97.172241210938 3.374535560608
51.484977722168 -74.056625366211 -91.717796325684 1.696123123169
46.816196441650 -75.211883544922 -98.641456604004 1.513182878494
103.101905822754 -69.414222717285 -104.483345031738 2.093902587891
-64.577629089355 -66.051757812500 -98.269676208496 1.402509212494
111.817672729492 -73.946357727051 -100.449188232422 2.739843368530
-79.386795043945 -70.237121582031 -102.111663818359 1.165215730667
