-12.136410713196 -70.242202758789 -256.572021484375 3.096210718155
19.004606246948 -77.310211181641 -271.913787841797 2.189894676208
-3.730875015259 -81.136444091797 -264.347534179688 3.871179819107
18.213430404663 -76.349685668945 -281.391601562500 2.758964061737
-155.700256347656 -74.831634521484 -284.036651611328 1.738057494164
-12.543954849243 -69.559654235840 -281.866180419922 3.507613897324
-152.807952880859 -75.211898803711 -282.677246093750 1.240077614784
-122.168609619141 -75.706954956055 -286.317169189453 1.535894632339
-165.718536376953 -79.473411560059 -287.615051269531 4.379496097565
-115.752815246582 -70.790763854980 -288.140045166016 1.179826736450
-103.583007812500 -72.657028198242 -291.914916992188 1.215125203133
-7.476713180542 -70.507133483887 -284.820495605469 1.281362533569
-107.889236450195 -74.456718444824 -289.106628417969 1.032306313515
-117.746589660645 -68.381629943848 -283.497619628906 4.462777614594
-124.566596984863 -66.566253662109 -293.512298583984 1.725277662277
-140.996643066406 -71.827667236328 -291.777160644531 1.093563795090
-128.141738891602 -65.689598083496 -292.099304199219 1.768058419228
-159.714019775391 -78.078742980957 -290.652435302734 2.675350189209
-147.933471679688 -66.222610473633 -292.166778564453 1.344312429428
-161.654190063477 -66.627708435059 -305.248687744141 7.928197860718
-155.184555053711 -68.776336669922 -312.219787597656 2.572902202606
-162.100677490234 -67.169464111328 -302.934783935547 7.343695640564
-138.796035766602 -72.673461914063 -311.310455322266 3.605807065964
-148.934463500977 -75.523674011230 -316.770416259766 3.289072036743
33.681800842285 -71.029083251953 -6.348035812378 4.600707530975
48.146217346191 -77.378974914551 -17.840795516968 4.560206890106
21.904788970947 -69.383964538574 -21.428647994995 1.378317832947
49.988403320313 -71.804443359375 -25.359722137451 1.288519978523
25.979732513428 -73.645416259766 -34.185424804688 2.853061914444
29.613515853882 -71.662536621094 -32.649642944336 1.870092988014
-58.544925689697 -64.226951599121 -50.262401580811 4.541527748108
74.563728332520 -65.570938110352 -58.714401245117 3.250355958939
82.408477783203 -73.620666503906 -68.139160156250 2.383479833603
-90.533195495605 -72.513893127441 -64.627517700195 3.097779989243
-14.350034713745 -67.079010009766 -59.470951080322 2.930411815643
-93.695999145508 -71.447280883789 -73.811843872070 2.067681550980
95.628204345703 -75.753189086914 -66.287200927734 6.021354198456
-12.259041786194 -67.178596496582 -67.511184692383 1.361286640167
66.487693786621 -76.064735412598 -82.751754760742 4.736824989319
-46.414432525635 -75.291854858398 -82.829170227051 2.941620588303
-26.861307144165 -73.404449462891 -73.939331054688 3.614168167114
54.490230560303 -64.720787048340 -87.101417541504 1.272525906563
-43.770374298096 -81.354209899902 -83.997734069824 0.664130866528
64.190628051758 -59.616539001465 -87.943222045898 1.473948121071
50.854942321777 -78.332855224609 -92.179084777832 4.437274456024
55.301147460938 -70.113220214844 -95.138282775879 2.210494756699
56.157653808594 -80.814254760742 -90.499275207520 7.075303554535
54.829940795898 -65.168540954590 -95.852836608887 2.042397975922
97.484512329102 -67.221153259277 -98.639144897461 1.305336952209
106.765548706055 -65.275199890137 -100.261940002441 2.045928716660
60.178787231445 -75.249969482422 -101.388031005859 4.321204185486
107.247673034668 -66.728477478027 -101.078193664551 1.338760733604
-79.349258422852 -69.089469909668 -99.563774108887 0.969428598881
-74.824150085449 -70.855209350586 -104.821159362793 2.870499849319
99.268569946289 -67.458877563477 -98.208244323730 1.295659899712
52.274269104004 -73.160247802734 -101.301673889160 3.309522628784
69.148956298828 -74.504432678223 -96.603302001953 1.376950144768
-71.684486389160 -70.606239318848 -110.737594604492 4.074743747711
-87.028854370117 -68.318862915039 -109.714477539063 1.417248249054
84.619163513184 -77.456146240234 -102.464202880859 5.102184772491
37.183513641357 -74.695831298828 -102.189857482910 4.924195766449
105.784713745117 -67.264289855957 -108.209022521973 2.222641468048
48.045719146729 -75.963874816895 -113.934852600098 0.999609708786
110.338897705078 -73.593833923340 -101.148345947266 1.320617675781
-78.279724121094 -70.717330932617 -113.899124145508 2.097856283188
101.299674987793 -66.075256347656 -108.834426879883 3.663957357407
-83.525329589844 -66.685302734375 -123.136863708496 2.179176568985
-59.097736358643 -73.659355163574 -128.685317993164 2.914266109467
-58.516063690186 -70.253143310547 -124.354064941406 2.807835817337
-71.558349609375 -73.488098144531 -131.901977539063 1.452828645706
-51.103645324707 -72.358741760254 -132.271057128906 0.496409505606
-84.651954650879 -72.349060058594 -135.949890136719 2.271611690521
-78.418418884277 -64.891029357910 -132.248168945313 1.253803849220
-79.415603637695 -71.640625000000 -134.819259643555 0.310119718313
-62.667629241943 -77.009094238281 -143.715927124023 4.759495735168
-71.009574890137 -71.307861328125 -142.978408813477 2.338481664658
-61.749675750732 -77.997596740723 -132.947219848633 5.808396339417
-57.163017272949 -70.222305297852 -144.343750000000 2.346350431442
10.101602554321 -65.787467956543 -146.871520996094 3.923674583435
-92.314605712891 -71.717124938965 -141.101119995117 5.281526565552
-49.727893829346 -77.998298645020 -150.895187377930 1.746266245842
-94.564193725586 -68.587814331055 -151.289978027344 0.317974269390
-103.078392028809 -66.170028686523 -147.931503295898 3.437856674194
19.928949356079 -75.080749511719 -155.748367309570 2.555762529373
14.445982933044 -73.287887573242 -159.859283447266 1.786697149277
-95.631202697754 -74.139305114746 -162.364562988281 6.434936523438
-105.329292297363 -71.386062622070 -151.563598632813 4.865847587585
-100.029937744141 -68.604469299316 -168.493682861328 2.740315675735
20.524564743042 -71.292518615723 -171.185256958008 2.787914514542
-113.615577697754 -70.155914306641 -175.145965576172 4.084890842438
25.111667633057 -71.447082519531 -164.408035278320 2.424793243408
-148.899932861328 -70.564949035645 -178.552810668945 3.555590391159
17.526983261108 -71.001045227051 -176.327621459961 1.022933483124
24.685823440552 -73.506683349609 -186.523712158203 2.351032257080
-152.178787231445 -67.868148803711 -187.254821777344 1.640030145645
20.067630767822 -74.471839904785 -174.515502929688 1.474453091621
18.537773132324 -62.223907470703 -182.250762939453 4.422605991364
-146.946289062500 -75.239006042480 -183.175903320313 2.349762678146
-152.603958129883 -65.290496826172 -191.206649780273 2.817754030228
18.996412277222 -73.080703735352 -187.706649780273 2.660437583923
17.977506637573 -76.447593688965 -190.842346191406 1.384609103203
-142.037902832031 -73.437751770020 -196.054748535156 0.186429888010
-110.611099243164 -71.072219848633 -198.829269409180 1.872917294502
26.605779647827 -72.587677001953 -200.309082031250 5.164366245270
-126.549148559570 -71.561157226563 -196.012298583984 3.039486169815
8.175459861755 -76.119834899902 -202.110031127930 2.116427898407
-128.667510986328 -61.729251861572 -195.174102783203 3.290337562561
-164.438537597656 -66.803100585938 -188.859024047852 8.073390007019
-160.538619995117 -67.684783935547 -197.729385375977 2.744792699814
-156.450042724609 -73.115539550781 -193.474929809570 2.372977256775
-22.681941986084 -72.794364929199 -209.494430541992 1.498381853104
-170.409759521484 -73.119087219238 -200.332366943359 4.116989612579
-29.356990814209 -65.786476135254 -193.858657836914 3.849668979645
-16.730300903320 -73.524772644043 -193.013656616211 1.887547373772
4.342500209808 -64.035324096680 -196.814392089844 5.290484905243
-157.043106079102 -71.391220092773 -209.457305908203 3.522027015686
-106.546432495117 -68.416946411133 -204.304885864258 3.796486377716
-16.981618881226 -66.887268066406 -199.045547485352 2.753907680511
-162.709518432617 -61.569911956787 -202.300445556641 3.022619009018
17.029769897461 -73.371604919434 -203.258346557617 2.279066562653
-173.136260986328 -66.974395751953 -208.289123535156 5.611486911774
-119.997367858887 -73.341384887695 -203.383453369141 2.027978420258
-117.040718078613 -66.977661132813 -211.216491699219 6.435680389404
-123.405113220215 -70.441978454590 -204.678695678711 1.866701841354
-17.325836181641 -69.959663391113 -202.666290283203 2.073976755142
-20.989721298218 -72.979240417480 -203.630599975586 1.080449581146
-164.747344970703 -69.529212951660 -213.750534057617 2.632982492447
-160.344116210938 -66.697143554688 -212.610031127930 3.386434555054
-165.510269165039 -71.067367553711 -220.922302246094 2.288424730301
-139.175064086914 -73.874092102051 -214.755569458008 5.982095718384
-146.333374023438 -68.977828979492 -226.957626342773 1.852642416954
-0.804898023605 -69.578666687012 -218.968399047852 1.454343795776
-9.281503677368 -79.275001525879 -217.677047729492 1.148444652557
-102.224502563477 -67.307983398438 -221.403289794922 1.073596477509
-8.755457878113 -69.334129333496 -237.494018554688 2.082978487015
-170.653335571289 -65.623138427734 -233.202239990234 4.283564090729
-104.488616943359 -68.037704467773 -236.217269897461 7.062255859375
2.088929891586 -72.745513916016 -227.012863159180 1.754562377930
0.849067986012 -71.464942932129 -229.673736572266 1.906492233276
-112.676887512207 -70.301490783691 -235.546066284180 2.689343929291
-2.353936910629 -73.873497009277 -226.874237060547 2.164578199387
-119.828323364258 -65.853057861328 -235.138565063477 2.886004924774
-9.021046638489 -67.065277099609 -231.344604492188 1.188777208328
-2.089001893997 -70.429710388184 -235.565704345703 0.798371315002
-3.740654945374 -70.428077697754 -240.277801513672 1.463194370270
72.367019653320 -67.573860168457 -236.943344116211 2.287503480911
-9.504523277283 -75.782043457031 -238.260284423828 2.445328712463
11.007442474365 -73.076431274414 -235.646621704102 2.686234235764
10.737200737000 -71.081275939941 -237.444580078125 1.801492333412
4.261439800262 -74.128059387207 -239.106552124023 2.526440858841
4.536291122437 -74.720649719238 -242.492721557617 1.222030758858
61.956626892090 -65.407470703125 -240.429061889648 2.142218589783
68.193367004395 -66.447715759277 -241.099548339844 2.765291690826
4.955939769745 -70.847091674805 -250.179153442383 5.783868789673
49.765319824219 -75.198181152344 -243.007720947266 2.742383956909
54.327453613281 -78.648429870605 -240.265747070313 4.576062679291
46.350540161133 -66.655288696289 -252.391677856445 0.661502838135
42.456092834473 -67.480720520020 -252.147872924805 2.410685539246
40.274456024170 -70.736686706543 -260.407928466797 2.004504919052
-129.522125244141 -62.505222320557 -262.445892333984 2.331517457962
-8.588644027710 -70.337799072266 -246.872817993164 1.523058533669
31.217555999756 -69.072753906250 -257.544555664063 2.038234949112
42.234302520752 -70.168037414551 -244.397567749023 4.540503501892
29.987943649292 -76.263252258301 -252.321960449219 5.721804141998
-105.458137512207 -74.284317016602 -261.313568115234 2.149934530258
28.710750579834 -74.030784606934 -256.150482177734 4.231630802155
-144.576232910156 -72.797760009766 -263.914825439453 0.800811290741
-117.452247619629 -74.444869995117 -256.665710449219 1.163926601410
-112.740341186523 -70.806922912598 -260.125671386719 0.783498048782
-1.295266985893 -76.346847534180 -259.139373779297 5.951308727264
-153.662399291992 -71.631752014160 -258.429901123047 2.556767463684
37.543479919434 -73.144020080566 -263.981048583984 6.603618621826
-107.517410278320 -68.825614929199 -256.272491455078 1.984654307365
24.826412200928 -78.844993591309 -258.672454833984 4.337072849274
-135.151290893555 -75.027191162109 -267.189025878906 3.991291761398
-117.407363891602 -70.048690795898 -269.013885498047 5.057643890381
-112.605842590332 -70.209457397461 -264.498138427734 3.656641960144
-113.991622924805 -80.087348937988 -261.983276367188 6.368382453918
-143.394897460938 -72.952758789063 -254.849014282227 1.425641775131
29.571741104126 -73.102035522461 -258.470977783203 3.743095159531
-117.239654541016 -67.833183288574 -263.342102050781 1.344519853592
-145.632919311523 -71.962043762207 -264.958007812500 1.049348235130
-5.387961864471 -68.457656860352 -270.881072998047 2.493634223938
-149.871444702148 -73.271720886230 -280.868164062500 3.170237541199
-9.713355064392 -73.348358154297 -291.246246337891 1.309144377708
-6.108982086182 -68.951133728027 -280.769256591797 2.002452611923
-134.878631591797 -69.542266845703 -291.754943847656 0.480453252792
-130.923782348633 -71.092674255371 -294.588806152344 2.192489862442
-135.895263671875 -69.155639648438 -297.031005859375 3.357065439224
-127.317619323730 -66.479484558105 -290.125488281250 1.707344412804
-156.990417480469 -69.577842712402 -295.647979736328 1.563861966133
-159.404586791992 -71.130760192871 -301.104034423828 3.213891744614
-149.298110961914 -75.435531616211 -303.389038085938 3.424021005630
-149.408279418945 -73.333717346191 -307.009124755859 4.232802867889
-145.337203979492 -69.521675109863 -298.681427001953 2.379550695419
-151.929367065430 -69.884674072266 -308.552459716797 2.033694267273
-145.532989501953 -66.600982666016 -318.927185058594 6.285426616669
17.627616882324 -73.208045959473 -25.160741806030 3.691148519516
49.853786468506 -74.328842163086 -36.850486755371 3.111424207687
22.309757232666 -78.167884826660 -35.876327514648 5.612683296204
30.344398498535 -70.027198791504 -44.721946716309 4.423967361450
-42.491024017334 -60.585517883301 -49.742500305176 3.928769588470
-75.008506774902 -63.913444519043 -50.907783508301 2.915484666824
78.708709716797 -71.086860656738 -61.109237670898 3.453089475632
71.903656005859 -72.302909851074 -61.129821777344 6.130375385284
71.795875549316 -74.637046813965 -63.761959075928 6.298729896545
-102.988006591797 -68.877914428711 -72.052352905273 6.978889465332
96.756172180176 -77.403694152832 -74.942459106445 4.474412918091
-27.942985534668 -73.225448608398 -87.293045043945 7.901494026184
59.472911834717 -68.143379211426 -74.286605834961 6.120321273804
-42.767814636230 -64.856521606445 -85.158409118652 2.416837930679
-58.250686645508 -67.185920715332 -81.490737915039 4.154048442841
50.763683319092 -70.989616394043 -90.495796203613 2.456753253937
101.298164367676 -68.670249938965 -90.435737609863 1.790892362595
61.306190490723 -68.769676208496 -91.913505554199 1.786878108978
54.599380493164 -68.973197937012 -90.517761230469 0.640186548233
46.485885620117 -66.398818969727 -102.490089416504 1.547923564911
54.917774200439 -66.272781372070 -103.088928222656 2.928406000137
101.103889465332 -69.115524291992 -97.225914001465 2.771856546402
67.412727355957 -70.517387390137 -108.611572265625 6.097142696381
51.859333038330 -71.327743530273 -106.133926391602 2.565510272980
74.049591064453 -78.727256774902 -107.746536254883 9.483664512634
99.570846557617 -66.942039489746 -106.973571777344 4.137195110321
-74.517562866211 -65.534706115723 -98.358757019043 1.954097270966
-87.590309143066 -68.995635986328 -111.044746398926 0.950094997883
-82.941162109375 -69.679718017578 -112.637573242188 3.051691293716
-61.901618957520 -69.837287902832 -119.838951110840 3.456021308899
-58.513488769531 -74.330390930176 -127.397789001465 3.714997053146
-95.887168884277 -68.200019836426 -122.278312683105 2.220587491989
-74.442619323730 -72.946006774902 -119.471412658691 4.515926361084
-78.282234191895 -74.255935668945 -134.166381835938 2.311611652374
-61.299285888672 -65.109519958496 -128.158340454102 0.862179219723
-88.765365600586 -64.702507019043 -131.774414062500 1.595650911331
-90.887786865234 -67.488792419434 -132.281097412109 2.267472505569
-49.769313812256 -73.239486694336 -135.612091064453 1.967683076859
-51.387065887451 -72.352668762207 -138.666900634766 1.227649569511
-79.004776000977 -74.253776550293 -139.076858520508 4.328981399536
-56.165550231934 -72.993881225586 -141.984725952148 1.670993089676
-74.267051696777 -75.735969543457 -146.651550292969 2.462769985199
17.598134994507 -67.812705993652 -140.071640014648 3.246590137482
-59.299648284912 -75.773849487305 -144.593383789063 3.880046367645
-57.160079956055 -65.514213562012 -147.307693481445 1.932011485100
7.781373023987 -76.068504333496 -155.628341674805 2.736606836319
16.856615066528 -69.102478027344 -150.850402832031 1.394073486328
-141.911056518555 -70.619514465332 -174.137710571289 1.791281223297
-110.759101867676 -67.223533630371 -178.676818847656 1.653840899467
-112.795272827148 -64.671684265137 -191.787612915039 1.948506832123
-154.156112670898 -71.928627014160 -190.834259033203 2.080996751785
-114.176361083984 -68.886795043945 -187.591308593750 0.989952087402
-151.644531250000 -63.086822509766 -198.412063598633 2.648461580276
-114.959983825684 -68.747215270996 -200.508834838867 2.888075351715
-152.035064697266 -65.084411621094 -203.003311157227 3.089959621429
-149.865600585938 -68.502220153809 -208.300903320313 3.174611091614
-154.971710205078 -75.268035888672 -205.453353881836 3.104815959930
-150.393814086914 -69.468955993652 -226.404953002930 2.683571577072
-149.259124755859 -73.360816955566 -228.326324462891 1.375949859619
-105.951484680176 -65.913696289063 -230.733489990234 2.061273813248
-99.620750427246 -70.149589538574 -220.941711425781 1.553711056709
-123.237571716309 -63.246490478516 -234.497817993164 1.731128215790
-107.181007385254 -70.326858520508 -226.306549072266 2.294986248016
-158.194473266602 -69.558319091797 -232.190521240234 2.740664243698
-4.061606884003 -70.492431640625 -224.369750976563 2.078319549561
-133.321228027344 -74.459579467773 -230.805511474609 1.790995121002
-154.267379760742 -69.798309326172 -237.211212158203 1.900761961937
-140.478256225586 -74.287216186523 -233.314483642578 0.924544155598
-10.576703071594 -68.775909423828 -233.593963623047 1.361089706421
8.546285629272 -71.067657470703 -245.140365600586 2.109210252762
62.416870117188 -64.619438171387 -240.032928466797 2.491365194321
17.145936965942 -76.916885375977 -250.327545166016 0.739881396294
52.780765533447 -71.413787841797 -241.633331298828 2.486129999161
39.654129028320 -75.429786682129 -250.055847167969 4.978282451630
62.896411895752 -66.923667907715 -253.268432617188 5.684679985046
-154.294342041016 -69.703399658203 -249.495819091797 2.341428756714
-146.509078979492 -74.022521972656 -256.327911376953 2.285761594772
43.830230712891 -70.093948364258 -256.343658447266 2.703732252121
26.509302139282 -71.825988769531 -253.789871215820 2.608489036560
48.508716583252 -67.073425292969 -254.522964477539 1.777094125748
-145.935440063477 -73.264190673828 -265.956359863281 1.091545343399
-138.910476684570 -68.080322265625 -255.447555541992 2.259273529053
-124.001731872559 -66.902839660645 -261.275421142578 2.040678262711
-133.350494384766 -69.408203125000 -257.125152587891 1.498936533928
-139.957550048828 -71.371398925781 -259.564453125000 3.347257375717
-123.141731262207 -68.981636047363 -261.436431884766 3.095560550690
-143.777755737305 -67.188880920410 -261.452575683594 1.287493348122
-128.379577636719 -73.497756958008 -258.532409667969 3.102621555328
-119.377006530762 -71.714660644531 -266.716430664063 3.734260320663
-130.471191406250 -70.293060302734 -266.960327148438 2.611636400223
-123.625022888184 -65.206459045410 -265.600494384766 1.816581130028
-5.544197082520 -71.896873474121 -267.351348876953 4.482317447662
29.768493652344 -66.157936096191 -261.276000976563 1.072035908699
-145.766571044922 -62.137706756592 -269.176391601563 3.768278837204
25.858673095703 -73.956871032715 -272.539703369141 4.440417289734
-7.022944927216 -63.644126892090 -277.994232177734 3.476947069168
17.309326171875 -78.843246459961 -283.204895019531 4.777269363403
-141.135757446289 -70.656875610352 -291.047119140625 0.444376081228
-124.648994445801 -73.789733886719 -288.180297851563 1.007143259048
-130.233169555664 -64.039276123047 -292.250427246094 3.516073465347
-160.628662109375 -64.174850463867 -294.953399658203 5.387958526611
-127.394592285156 -63.105686187744 -290.865783691406 2.310589790344
-118.332374572754 -68.004737854004 -290.043579101563 1.291370749474
-124.396018981934 -74.258468627930 -299.895477294922 3.288070440292
-153.586944580078 -73.976097106934 -292.389099121094 1.497760415077
27.862358093262 -73.565605163574 -10.980662345886 1.774774789810
26.350711822510 -74.673004150391 -18.098037719727 2.481024026871
35.423435211182 -67.840034484863 -21.986761093140 3.082107782364
45.499320983887 -64.753616333008 -23.187940597534 3.367881536484
27.667814254761 -76.771385192871 -28.196264266968 4.036246299744
16.475961685181 -73.284248352051 -33.255970001221 3.474988698959
-34.997127532959 -71.971832275391 -45.723205566406 4.058740139008
-81.879333496094 -72.014152526855 -54.849788665771 3.841144084930
-19.093023300171 -69.752403259277 -60.423301696777 3.947391271591
73.372161865234 -67.981193542480 -64.470977783203 1.842553615570
103.501289367676 -69.883758544922 -68.581840515137 4.695878505707
63.091762542725 -66.790374755859 -84.359153747559 2.079162120819
59.579605102539 -63.727073669434 -84.896369934082 1.064579010010
95.179420471191 -72.240188598633 -84.501762390137 3.297351598740
-66.111526489258 -65.822555541992 -92.265182495117 2.217212677002
-68.014022827148 -69.655601501465 -89.688102722168 5.647233009338
50.466609954834 -66.464790344238 -91.270538330078 2.316898345947
-69.688758850098 -73.351371765137 -96.818809509277 2.788177967072
-75.261581420898 -68.530685424805 -103.377975463867 2.111238718033
-95.586891174316 -69.371597290039 -104.581657409668 2.350460767746
-77.748985290527 -63.343608856201 -99.979568481445 2.857531070709
45.702789306641 -64.805992126465 -102.754257202148 2.769145727158
-65.940971374512 -72.550926208496 -104.401268005371 3.455304861069
45.746494293213 -67.292373657227 -105.131408691406 2.425970554352
93.814498901367 -69.224304199219 -104.958992004395 2.592525482178
87.728469848633 -71.034233093262 -114.846992492676 9.331372261047
-72.253700256348 -68.332031250000 -117.274917602539 3.283139467239
-89.236450195313 -71.163513183594 -112.979621887207 2.568951368332
-63.295131683350 -68.612792968750 -119.708999633789 2.640707015991
-96.734046936035 -62.512081146240 -119.326217651367 3.458387613297
-77.285041809082 -72.204406738281 -128.223007202148 1.749778270721
-95.487640380859 -59.059364318848 -128.717544555664 5.292723655701
-65.928390502930 -67.666053771973 -117.247245788574 2.748836040497
-61.490013122559 -61.282390594482 -123.261878967285 3.009341239929
-91.992691040039 -71.334564208984 -132.079284667969 2.387148857117
-65.327972412109 -72.352294921875 -126.962135314941 5.001311302185
-84.966819763184 -67.710540771484 -135.131958007813 2.022301673889
-86.866615295410 -69.305831909180 -136.536987304688 2.510744810104
-61.854820251465 -75.852333068848 -138.810958862305 3.203477859497
-61.222797393799 -64.858657836914 -134.624908447266 1.890846252441
-56.560272216797 -60.429626464844 -133.788879394531 2.201405286789
-101.842948913574 -64.374923706055 -131.668304443359 9.209173202515
-98.775230407715 -62.714950561523 -146.353652954102 2.942668437958
-93.462043762207 -68.780029296875 -138.063735961914 1.952701926231
17.381177902222 -73.312675476074 -152.101608276367 1.856013417244
-51.697067260742 -70.060836791992 -140.477645874023 3.054821968079
19.545570373535 -70.898239135742 -152.657135009766 2.690287113190
-98.951698303223 -69.984039306641 -167.310241699219 3.176009416580
-104.546279907227 -76.091583251953 -171.676757812500 7.005659103394
-103.450370788574 -63.935585021973 -172.435501098633 1.343703150749
-109.640441894531 -59.680461883545 -177.021652221680 1.805870771408
-110.734306335449 -69.302795410156 -179.536285400391 1.259731531143
-111.492080688477 -68.314270019531 -180.668945312500 1.858127236366
-143.603530883789 -64.782051086426 -187.784210205078 1.079757928848
-112.252120971680 -67.227531433105 -186.745483398438 1.309855461121
-135.130447387695 -64.973785400391 -204.419250488281 2.701755762100
-152.432525634766 -71.726982116699 -200.050842285156 1.264931559563
-130.793167114258 -69.053260803223 -200.153396606445 3.507513284683
-159.977798461914 -70.904907226563 -196.419357299805 1.375051856041
-148.070343017578 -73.691780090332 -204.162734985352 2.417135477066
-128.298202514648 -61.126010894775 -197.772644042969 3.704307317734
-135.698638916016 -65.414581298828 -200.559005737305 2.685904979706
-139.427963256836 -76.723548889160 -208.245895385742 4.735713958740
-130.926025390625 -70.917778015137 -223.930480957031 2.386744976044
-108.640106201172 -72.430267333984 -232.541015625000 3.810747861862
-141.915145874023 -69.357841491699 -228.490127563477 3.138106822968
-121.584136962891 -67.050125122070 -234.372268676758 3.106010437012
-117.978485107422 -61.758792877197 -232.027709960938 2.908297538757
-121.517135620117 -70.941909790039 -233.384765625000 1.741887807846
-135.300323486328 -67.655014038086 -235.280838012695 2.205063104630
-115.265129089355 -64.423797607422 -240.991317749023 5.284399986267
5.332634925842 -68.858345031738 -237.656311035156 2.298207044601
-153.587692260742 -70.948654174805 -241.323883056641 3.099363803864
5.003962993622 -70.187210083008 -238.199142456055 2.733693122864
2.644224882126 -64.686630249023 -246.513549804688 3.089698314667
1.976577997208 -73.404525756836 -243.956985473633 2.847501993179
11.944171905518 -66.426856994629 -241.950180053711 2.356651306152
-143.376419067383 -64.580589294434 -236.195541381836 2.072556495667
-7.068383216858 -73.565872192383 -249.966018676758 3.191912412643
18.665590286255 -70.220855712891 -239.115570068359 1.718026518822
51.784893035889 -67.929618835449 -251.509933471680 1.499609708786
50.117244720459 -68.555847167969 -252.921936035156 1.658590197563
-147.384887695313 -71.119529724121 -254.031250000000 2.847089529037
-5.495365142822 -72.284530639648 -251.458328247070 4.644236564636
19.508796691895 -71.636650085449 -254.300308227539 2.366346359253
-131.039230346680 -60.733596801758 -259.259185791016 3.868918895721
-121.703712463379 -67.346626281738 -257.365692138672 3.559237957001
-123.745315551758 -72.006599426270 -259.696746826172 2.684843063354
26.924713134766 -69.588882446289 -257.860473632813 0.554432809353
-133.577072143555 -63.727256774902 -268.835632324219 6.760842800140
34.204025268555 -67.072654724121 -259.300323486328 1.742919802666
34.662559509277 -69.928359985352 -263.500427246094 4.051811695099
-155.160125732422 -71.018577575684 -270.407196044922 3.918804645538
-145.775741577148 -75.337669372559 -287.550109863281 1.872443795204
-148.179611206055 -62.664203643799 -288.688812255859 2.718416690826
-144.549194335938 -66.996162414551 -298.364105224609 3.668618202209
15.419854164124 -74.377540588379 -292.870208740234 1.192414522171
-154.775268554688 -66.232162475586 -307.624420166016 2.058332681656
45.485897064209 -73.858024597168 -26.448711395264 2.048653841019
34.397098541260 -76.309974670410 -39.992465972900 4.002782344818
-59.562911987305 -63.587356567383 -48.362838745117 5.057937145233
-72.633491516113 -64.979774475098 -49.035636901855 3.268466711044
-28.008678436279 -64.229286193848 -52.363662719727 2.954064130783
-25.016714096069 -73.194023132324 -55.778781890869 1.948668479919
-10.098570823669 -64.572044372559 -68.201377868652 2.129698038101
-30.237508773804 -62.882564544678 -71.704200744629 1.826142907143
62.687545776367 -69.731430053711 -75.601913452148 4.308820724487
-96.936286926270 -59.761478424072 -81.395217895508 2.609501838684
-47.008705139160 -69.236778259277 -90.019195556641 5.208425521851
52.955715179443 -71.378654479980 -86.443405151367 2.428194999695
60.305603027344 -70.154716491699 -85.559463500977 2.470053434372
57.865119934082 -70.402336120605 -88.637786865234 2.402580261230
106.431999206543 -68.659248352051 -90.665504455566 2.221201181412
51.013301849365 -67.037254333496 -88.584838867188 0.985121965408
96.375396728516 -60.343189239502 -99.970085144043 4.461838722229
-85.934379577637 -70.673416137695 -106.124557495117 2.372349262238
-92.057838439941 -66.852149963379 -102.043777465820 5.824089527130
72.496376037598 -64.668762207031 -115.206146240234 6.124622344971
-80.872383117676 -68.922645568848 -105.693054199219 1.666881442070
-79.197944641113 -73.973655700684 -112.923721313477 4.629144668579
-86.145393371582 -76.814346313477 -121.311309814453 4.852332115173
-56.694164276123 -69.791778564453 -127.538360595703 1.414432168007
-77.199188232422 -67.086677551270 -131.343093872070 2.637723684311
-65.273391723633 -62.112022399902 -128.950088500977 0.540837109089
-89.037521362305 -70.289619445801 -137.934921264648 2.599696636200
-78.061904907227 -66.456130981445 -134.546646118164 1.080516099930
-80.577804565430 -66.586212158203 -126.751243591309 1.610488295555
-91.969390869141 -66.361808776855 -130.874984741211 1.499000430107
-69.588294982910 -64.245117187500 -137.622009277344 4.146956920624
-91.961593627930 -68.959007263184 -132.543472290039 2.748779296875
-52.125732421875 -71.434814453125 -133.480102539063 1.895406723022
-56.184898376465 -75.809715270996 -140.368728637695 2.613240957260
26.756309509277 -69.042671203613 -143.762390136719 2.357406139374
-57.002067565918 -60.519294738770 -137.263031005859 1.539552807808
14.315247535706 -75.421417236328 -142.966232299805 4.904082775116
11.784901618958 -66.233970642090 -148.020828247070 2.340374231339
16.171184539795 -63.865901947021 -155.751617431641 3.244070291519
-100.579681396484 -66.105346679688 -147.256546020508 2.336625576019
-90.456642150879 -67.997550964355 -149.714462280273 2.666549682617
-98.202964782715 -64.015022277832 -151.441864013672 2.173971414566
-108.192657470703 -68.682510375977 -166.702575683594 3.295663833618
-100.196624755859 -65.889549255371 -162.164154052734 1.587257266045
-153.912582397461 -63.162433624268 -178.023742675781 1.399996280670
-155.443588256836 -67.279060363770 -177.153701782227 3.347898483276
-115.799713134766 -64.797599792480 -183.965591430664 4.028828620911
-141.928588867188 -65.723960876465 -178.554428100586 3.106727600098
-110.859703063965 -63.274215698242 -184.471954345703 2.831019163132
-148.462615966797 -57.050304412842 -189.251968383789 5.704195499420
-112.479446411133 -63.163555145264 -191.735671997070 1.588695764542
-112.443397521973 -69.847114562988 -181.746032714844 3.273292064667
-147.874191284180 -66.627929687500 -203.098648071289 3.456208705902
-127.941238403320 -69.894599914551 -198.584991455078 4.056072235107
-106.153411865234 -68.347579956055 -199.413681030273 3.538073539734
-117.349334716797 -59.647491455078 -199.818496704102 3.375222682953
-115.003585815430 -70.353782653809 -201.996185302734 1.231659412384
-118.167762756348 -60.966827392578 -204.397933959961 3.401161432266
-135.489059448242 -64.171974182129 -197.876403808594 2.506742000580
-143.903244018555 -67.649574279785 -205.675277709961 2.448716402054
-130.335525512695 -65.307579040527 -211.870254516602 6.693595886230
-130.747772216797 -60.817321777344 -201.444274902344 3.017563819885
-122.501007080078 -64.644981384277 -206.509948730469 1.906818509102
-111.799507141113 -67.107818603516 -207.095764160156 2.485421180725
-151.118164062500 -65.735565185547 -213.820663452148 2.830692529678
-154.583038330078 -66.155509948730 -219.075012207031 1.234807372093
-154.428909301758 -67.507904052734 -222.865936279297 1.895719170570
-139.584259033203 -73.489433288574 -226.484848022461 2.400612115860
-132.341354370117 -61.268337249756 -229.792709350586 2.641089916229
-120.882957458496 -70.162475585938 -217.809326171875 7.328035831451
-141.210861206055 -70.515602111816 -232.208877563477 2.801680564880
-153.418518066406 -68.965202331543 -225.432968139648 1.467986345291
-134.175552368164 -68.967399597168 -227.314056396484 2.258432388306
-134.453918457031 -63.571197509766 -229.676116943359 0.568190515041
-147.847061157227 -65.338668823242 -229.867553710938 0.678165972233
-137.231765747070 -57.813117980957 -229.149566650391 5.998461723328
-130.796081542969 -66.740142822266 -234.582107543945 2.498646020889
-14.644968986511 -70.637016296387 -238.153198242188 2.070246934891
4.735957145691 -67.033012390137 -243.406967163086 3.631421327591
13.777243614197 -61.435195922852 -244.754623413086 2.238635540009
8.333770751953 -72.363311767578 -244.292709350586 0.962633728981
-7.965610027313 -72.673423767090 -237.240737915039 1.325845837593
-14.880014419556 -69.451347351074 -247.359710693359 2.111886024475
33.530181884766 -67.010803222656 -249.250534057617 5.415399551392
45.500057220459 -68.092247009277 -255.067031860352 1.247681617737
-148.697174072266 -66.674255371094 -255.498825073242 2.031405687332
42.007514953613 -66.122444152832 -254.726287841797 1.284065008163
40.048988342285 -71.140174865723 -254.361022949219 1.792184591293
-161.629272460938 -73.980026245117 -257.280212402344 1.551178097725
-151.060546875000 -68.311508178711 -257.602111816406 1.543172121048
-154.447647094727 -69.841903686523 -259.966735839844 2.001492738724
2.364736080170 -71.347213745117 -263.635589599609 5.934576511383
-151.487411499023 -69.204429626465 -269.472198486328 1.984492301941
-1.753986001015 -69.484252929688 -274.587280273438 4.276156902313
-146.411422729492 -72.027854919434 -277.171417236328 1.288622856140
-148.821182250977 -68.962005615234 -282.180267333984 2.796999692917
-151.545501708984 -67.843582153320 -289.355621337891 0.662476122379
-150.652221679688 -56.064472198486 -284.342498779297 6.123713970184
-146.892791748047 -65.193290710449 -295.630096435547 1.550840616226
-155.496658325195 -66.784606933594 -286.141113281250 2.605465173721
-152.120391845703 -69.069587707520 -287.852844238281 1.916686296463
-154.406356811523 -62.992107391357 -290.092102050781 1.768098831177
-149.264144897461 -67.173469543457 -290.733062744141 0.877183914185
-145.161697387695 -67.947624206543 -288.254272460938 2.032846212387
8.863512039185 -71.257888793945 -282.068267822266 4.487212657928
-146.888641357422 -66.814369201660 -298.498077392578 2.422322988510
-159.482192993164 -61.727828979492 -294.989776611328 5.183677673340
-158.725128173828 -59.763355255127 -289.409942626953 4.881284713745
-149.985916137695 -64.574371337891 -294.292022705078 2.271765947342
-147.854354858398 -58.016048431396 -288.608428955078 4.437271595001
-147.839431762695 -71.008644104004 -293.909973144531 1.075833201408
7.120730876923 -71.736434936523 -293.101654052734 2.840301036835
-144.250610351563 -63.334083557129 -296.623931884766 2.650269269943
-148.996383666992 -62.732158660889 -293.951782226563 1.558575868607
27.615701675415 -60.943626403809 -14.266606330872 2.668004751205
41.364135742188 -73.493659973145 -22.294429779053 3.135058879852
40.839157104492 -64.665557861328 -21.595863342285 1.747065424919
13.224466323853 -71.723701477051 -32.749637603760 6.184607982635
21.876579284668 -56.475662231445 -35.884513854980 2.068231821060
34.118045806885 -65.782180786133 -37.295883178711 0.811511278152
-56.684230804443 -65.570014953613 -47.009246826172 3.759360551834
-51.956523895264 -66.611572265625 -41.338459014893 5.816051483154
89.563278198242 -68.372161865234 -67.615959167480 1.195709943771
-96.533111572266 -64.273590087891 -66.760284423828 0.792175352573
96.154235839844 -80.626541137695 -60.332504272461 13.253519058228
67.177810668945 -71.494964599609 -72.950233459473 3.350832462311
96.569488525391 -71.276771545410 -79.631706237793 2.868739366531
60.728775024414 -75.436225891113 -77.242736816406 8.386172294617
-44.233314514160 -66.897689819336 -78.615753173828 2.358034133911
57.568969726563 -65.649566650391 -82.663978576660 1.972337484360
-50.394077301025 -63.380928039551 -77.325019836426 3.025738716125
52.450511932373 -67.978492736816 -83.265022277832 3.470084190369
61.991764068604 -63.386646270752 -87.673667907715 1.506227135658
-99.919822692871 -65.524330139160 -86.120071411133 1.961156845093
50.010196685791 -65.718315124512 -83.576904296875 4.827157020569
50.145313262939 -75.119804382324 -93.892318725586 2.196017742157
64.485351562500 -69.237319946289 -92.089782714844 1.016617894173
50.584247589111 -67.443122863770 -97.488311767578 2.174342393875
-81.545875549316 -64.486892700195 -108.254585266113 1.728687286377
81.040908813477 -73.818923950195 -106.858291625977 3.482418060303
-85.794242858887 -72.280937194824 -122.493331909180 2.297393560410
-79.083770751953 -64.202087402344 -105.246650695801 1.647395372391
-81.017593383789 -67.946144104004 -125.710968017578 1.790564537048
-85.881088256836 -64.823219299316 -118.541725158691 0.832712650299
-97.667236328125 -60.381195068359 -121.077911376953 2.094706535339
-83.606849670410 -67.999687194824 -121.150161743164 1.713217020035
-51.198295593262 -65.523139953613 -124.900291442871 3.709125995636
-79.690826416016 -63.233970642090 -137.018829345703 2.535008668900
-58.366718292236 -60.703254699707 -129.107971191406 2.921355962753
-90.008476257324 -62.727725982666 -138.818176269531 1.619633793831
28.500213623047 -67.090515136719 -138.854370117188 2.151747226715
18.046327590942 -67.671798706055 -142.066940307617 2.829312562943
-96.255233764648 -53.182548522949 -146.795120239258 9.196192741394
21.629774093628 -70.823684692383 -148.901596069336 2.406264543533
-90.791687011719 -70.570098876953 -149.022918701172 3.645971536636
-95.848953247070 -60.261005401611 -149.122055053711 1.881657361984
16.801130294800 -68.631065368652 -164.966354370117 4.406149387360
-97.624237060547 -65.328880310059 -150.250411987305 1.603616237640
-100.954627990723 -63.527484893799 -147.247360229492 1.913814902306
-106.043586730957 -65.204193115234 -156.017074584961 4.118332386017
-94.536041259766 -66.452568054199 -164.388870239258 4.074470996857
-103.711013793945 -70.604187011719 -182.862121582031 2.469534397125
-112.143486022949 -75.203170776367 -171.336318969727 6.332986831665
-97.332008361816 -68.190361022949 -166.797622680664 3.577714920044
-105.632705688477 -68.058547973633 -168.217025756836 1.961759090424
-141.092926025391 -66.922454833984 -180.953414916992 1.935732364655
-113.463836669922 -66.194160461426 -178.888290405273 3.408794641495
-140.465728759766 -66.213157653809 -189.466079711914 1.651720881462
-149.436645507813 -60.769985198975 -193.346969604492 1.465198993683
-156.831558227539 -58.601123809814 -188.242111206055 7.725775718689
-122.173843383789 -62.684459686279 -198.221618652344 1.691438674927
-128.610076904297 -71.627014160156 -194.120712280273 2.421397686005
-122.967460632324 -62.728076934814 -203.344299316406 2.385368585587
-146.138992309570 -68.705307006836 -202.710647583008 2.109293222427
-123.970336914063 -70.964195251465 -204.826354980469 2.071885585785
-148.416198730469 -66.071556091309 -204.234161376953 3.244302749634
-153.731994628906 -64.935043334961 -206.703140258789 2.408332586288
-155.117324829102 -63.669086456299 -227.865753173828 1.430390834808
-144.927886962891 -73.344062805176 -233.207931518555 2.001419305801
-129.735015869141 -62.473140716553 -232.455383300781 3.516053438187
-153.518081665039 -64.200988769531 -230.803939819336 2.434840440750
-3.497684001923 -73.780807495117 -241.150131225586 1.216575384140
10.696994781494 -63.932571411133 -238.299880981445 1.073694467545
-1.515452980995 -72.828804016113 -244.673980712891 2.151198148727
-152.789947509766 -64.235618591309 -246.531661987305 3.681754350662
-9.910479545593 -65.045516967773 -241.091262817383 3.086330652237
-155.781555175781 -73.250297546387 -255.384262084961 1.655171751976
-8.207035064697 -74.717147827148 -251.409835815430 1.864235043526
-148.663574218750 -68.916931152344 -256.608581542969 2.035794258118
19.134508132935 -68.714988708496 -251.936752319336 2.815786361694
-152.493087768555 -59.505413055420 -257.019104003906 2.738836050034
-150.898895263672 -65.618904113770 -257.252288818359 1.299272775650
-151.716339111328 -65.461372375488 -255.543014526367 1.781169295311
-150.007583618164 -64.359817504883 -260.478576660156 1.218932509422
31.059162139893 -68.957572937012 -261.022857666016 2.194344282150
31.639770507813 -68.300292968750 -266.084259033203 3.590424299240
-145.668685913086 -66.472625732422 -255.036392211914 1.742244720459
-153.434707641602 -59.184352874756 -260.851287841797 3.636249065399
-154.060211181641 -71.106651306152 -261.329559326172 1.040685057640
-147.204986572266 -62.702880859375 -259.606018066406 0.645561456680
27.183547973633 -66.467803955078 -263.649902343750 1.608726143837
29.058109283447 -66.978492736816 -268.772064208984 3.106538057327
-158.394683837891 -67.672668457031 -263.853210449219 1.828112959862
-144.361480712891 -65.164001464844 -265.483917236328 1.654586672783
-148.186492919922 -60.946025848389 -263.790466308594 1.855160593987
-143.794647216797 -65.088928222656 -267.402740478516 2.881131172180
-143.152099609375 -69.575958251953 -263.196899414063 1.452460765839
-144.276504516602 -73.162574768066 -267.305267333984 2.286443471909
-148.747100830078 -62.767105102539 -268.434112548828 2.922814846039
-150.769592285156 -60.419631958008 -289.116058349609 1.321719646454
-145.948318481445 -65.416519165039 -283.647705078125 0.856849789619
-148.121353149414 -66.162376403809 -279.763000488281 2.148866653442
15.484465599060 -66.765373229980 -281.854705810547 3.343068838120
-154.699127197266 -60.336463928223 -287.999877929688 1.893575549126
-147.208496093750 -64.414985656738 -293.489501953125 1.865645527840
-7.218830108643 -76.766632080078 -286.992950439453 2.910406351089
4.410042762756 -66.313705444336 -292.629486083984 1.564361333847
-154.267562866211 -65.769424438477 -295.503143310547 2.700378179550
25.346126556396 -73.560028076172 -21.969512939453 1.899117708206
45.276573181152 -68.628288269043 -28.179349899292 3.041697740555
48.440048217773 -73.111862182617 -33.652118682861 2.791850090027
37.814514160156 -62.196502685547 -38.770492553711 2.979704856873
24.647560119629 -75.069084167480 -37.687850952148 3.788527965546
44.147697448730 -69.358734130859 -42.164783477783 2.376239061356
76.447380065918 -63.059268951416 -64.699440002441 3.229479074478
76.174377441406 -67.605384826660 -64.318687438965 1.003250002861
-21.651287078857 -66.382331848145 -73.137985229492 1.939642429352
67.379814147949 -64.080413818359 -72.245025634766 2.506828069687
-28.825778961182 -67.910118103027 -72.199462890625 1.554503798485
-38.931900024414 -72.812042236328 -82.673217773438 2.664087057114
-59.846092224121 -64.939651489258 -75.582290649414 6.873884677887
-58.242733001709 -61.544837951660 -79.931648254395 2.176126956940
61.509040832520 -73.997512817383 -82.424400329590 4.696563720703
108.541587829590 -73.011711120605 -92.277534484863 4.764505863190
-60.250293731689 -61.500415802002 -86.155830383301 1.229482769966
57.726169586182 -67.331947326660 -97.169281005859 1.472598671913
65.320747375488 -65.589294433594 -96.779067993164 1.953812003136
102.435783386230 -65.512145996094 -93.788696289063 2.335194826126
-67.006805419922 -71.309860229492 -93.823844909668 2.280937433243
53.792835235596 -61.608814239502 -96.751937866211 2.019056081772
-62.372863769531 -70.747940063477 -105.925567626953 7.516147136688
67.381240844727 -66.584716796875 -95.740478515625 1.123063802719
65.159523010254 -67.237243652344 -104.365600585938 4.684936046600
-78.338317871094 -62.936203002930 -110.577758789063 1.301607489586
-97.853492736816 -63.387474060059 -115.594131469727 1.266071557999
-71.088348388672 -57.934551239014 -114.739013671875 1.901144146919
-84.931846618652 -67.102157592773 -112.588478088379 1.718705773354
-61.499721527100 -69.281417846680 -117.530204772949 2.678697109222
-84.869979858398 -62.584247589111 -107.908432006836 2.450250387192
-74.791465759277 -66.877632141113 -114.926704406738 0.731859445572
-78.242210388184 -69.539375305176 -114.628494262695 0.862042009830
-71.917091369629 -70.045776367188 -120.302375793457 5.359727859497
-87.414833068848 -68.939140319824 -129.059921264648 0.675353705883
34.100177764893 -67.168701171875 -130.510330200195 1.383177757263
-48.032039642334 -65.306983947754 -132.283248901367 2.133709430695
32.843738555908 -65.900382995605 -138.145675659180 3.964552879333
29.655300140381 -67.569648742676 -132.381134033203 3.238140583038
27.736694335938 -72.176765441895 -130.888732910156 2.032802104950
-55.969524383545 -62.662967681885 -129.040847778320 1.048596978188
21.542461395264 -67.727111816406 -147.045898437500 2.500036716461
20.617996215820 -67.770965576172 -145.532592773438 1.337628602982
-147.001296997070 -68.193481445313 -179.342224121094 3.071717739105
-152.309997558594 -59.524841308594 -176.103103637695 2.771412134171
-153.761825561523 -64.302909851074 -185.958724975586 1.650532603264
-146.802261352539 -61.416259765625 -185.303070068359 2.503292560577
-151.989898681641 -67.024101257324 -198.422180175781 2.494456529617
-152.677978515625 -68.113754272461 -194.958511352539 2.242426395416
-138.374298095703 -66.944892883301 -194.222244262695 4.008781909943
-143.445480346680 -62.746173858643 -203.669982910156 1.553561210632
-120.698982238770 -70.456848144531 -201.635009765625 1.739198207855
-136.463790893555 -67.540794372559 -207.695785522461 5.520761013031
-150.281631469727 -67.946075439453 -217.892303466797 3.367411851883
-146.337051391602 -55.507919311523 -222.054016113281 5.083508014679
-152.257659912109 -64.624801635742 -229.827911376953 2.361764669418
-146.431884765625 -67.116920471191 -230.594039916992 2.126753091812
-150.517395019531 -64.594047546387 -232.107803344727 1.455842614174
-150.916015625000 -59.855865478516 -226.970626831055 1.787398576736
-146.061843872070 -67.132362365723 -234.246536254883 1.487211465836
-145.336990356445 -67.350730895996 -234.620483398438 0.786805689335
-141.891738891602 -62.620204925537 -241.563064575195 3.217263221741
-146.805862426758 -67.973846435547 -227.900405883789 0.651350378990
-156.655273437500 -63.770919799805 -235.837768554688 1.625196218491
12.329844474792 -64.534553527832 -240.477127075195 2.005760669708
-7.930062770844 -72.025474548340 -242.362960815430 2.298359870911
-145.026809692383 -60.686092376709 -247.094650268555 3.104055881500
-154.065338134766 -66.012321472168 -239.384872436523 3.431274175644
-156.465728759766 -68.787460327148 -243.758026123047 2.638620138168
7.367067813873 -68.957778930664 -242.615722656250 1.037452101707
-149.757766723633 -62.817516326904 -237.910400390625 2.050095796585
-150.194107055664 -70.851402282715 -254.448867797852 1.324069142342
-5.876511096954 -68.719902038574 -248.842971801758 2.875710964203
-146.733123779297 -64.516326904297 -252.741882324219 1.437209367752
-141.061508178711 -64.195121765137 -256.785369873047 2.308196783066
-140.225021362305 -65.736442565918 -257.939025878906 3.271339654922
-143.592681884766 -65.035018920898 -255.762756347656 1.009328603745
29.545080184937 -72.572509765625 -265.437408447266 3.282514333725
-149.818923950195 -71.466705322266 -264.658508300781 3.169873714447
29.606885910034 -68.674850463867 -274.398040771484 5.086740016937
12.945002555847 -64.275611877441 -289.881134033203 2.697421073914
2.135102033615 -66.691749572754 -286.727966308594 3.505065679550
10.393937110901 -64.142433166504 -295.962310791016 2.796686410904
30.699720382690 -67.077857971191 -22.651052474976 3.520259857178
39.186897277832 -77.452613830566 -39.288059234619 5.022004127502
36.568080902100 -75.229583740234 -39.060516357422 2.408007383347
-45.860931396484 -64.877334594727 -48.968578338623 2.977145195007
-93.324714660645 -67.754806518555 -59.273857116699 3.095051288605
-96.177742004395 -66.079444885254 -62.684459686279 4.141613960266
-24.344152450562 -63.462692260742 -68.213760375977 1.284952521324
100.466545104980 -69.263671875000 -67.295730590820 3.468384265900
107.216026306152 -66.174209594727 -74.327850341797 3.775651216507
105.909034729004 -67.916229248047 -75.959465026855 3.357573747635
-50.077400207520 -67.045341491699 -84.031349182129 0.619492173195
-63.622886657715 -63.158058166504 -86.340270996094 2.413297653198
57.014854431152 -66.681968688965 -90.310607910156 3.092035531998
52.790958404541 -73.117431640625 -92.314437866211 1.676405072212
-59.367813110352 -71.745834350586 -98.466377258301 6.059947967529
-94.960083007813 -59.761173248291 -111.095191955566 3.462050914764
73.294013977051 -65.190437316895 -109.632087707520 1.648427844048
