-148.093170166016 -75.015357971191 -246.927825927734 2.195943117142
-45.157932281494 -82.654296875000 -249.522933959961 4.094239234924
-52.909484863281 -69.937141418457 -247.902694702148 3.823613643646
-66.129318237305 -78.501770019531 -249.341110229492 2.291067600250
-11.161724090576 -84.844703674316 -245.535842895508 9.251170158386
-79.124839782715 -80.543983459473 -256.583374023438 3.925379514694
-157.634323120117 -84.661804199219 -253.878540039063 2.133065938950
-140.768707275391 -76.125457763672 -253.979858398438 2.388916492462
-121.217811584473 -80.280662536621 -258.958038330078 5.091935157776
-160.094589233398 -73.962425231934 -258.256408691406 2.766748666763
17.940477371216 -87.802185058594 -267.752014160156 6.947606563568
-15.598102569580 -82.263610839844 -269.685272216797 4.994658946991
-156.359680175781 -80.944129943848 -275.882812500000 4.349471569061
-153.762405395508 -85.495368957520 -279.867034912109 4.218862533569
-146.720718383789 -80.218864440918 -286.919189453125 1.644593715668
-59.290180206299 -73.538040161133 -279.471679687500 6.071012973785
-39.207572937012 -72.914985656738 -286.046630859375 0.784951031208
-17.539405822754 -76.854621887207 -290.703735351563 1.605841279030
-8.970409393311 -74.750625610352 -277.968902587891 1.904912114143
-66.825691223145 -82.689163208008 -285.472961425781 5.253566741943
-81.908294677734 -84.080444335938 -286.645538330078 7.482623577118
-2.127269029617 -80.808074951172 -282.099456787109 1.963612079620
1.572291016579 -81.583602905273 -293.574829101563 3.931488037109
-141.043075561523 -76.261245727539 -286.229492187500 1.335274934769
-81.544815063477 -74.662269592285 -286.265838623047 2.668786287308
-147.332427978516 -76.452964782715 -288.268524169922 2.339341402054
-95.262680053711 -89.179374694824 -285.585937500000 13.607481956482
-79.234840393066 -78.032447814941 -285.729064941406 2.588978767395
-86.814834594727 -75.409255981445 -297.552368164063 6.700208663940
-64.103492736816 -78.411018371582 -292.836975097656 4.159916400909
-31.763748168945 -71.633407592773 -296.643493652344 3.328779220581
-9.826345443726 -79.034698486328 -290.793151855469 2.639323949814
-150.751296997070 -69.741836547852 -301.266693115234 1.493048071861
-148.441680908203 -75.035324096680 -302.042053222656 2.587500572205
-143.737670898438 -76.040168762207 -307.008209228516 2.442751646042
-158.755874633789 -77.128387451172 -305.387664794922 3.952149152756
-57.554458618164 -73.379493713379 -57.229091644287 2.487885951996
-50.320381164551 -77.272209167480 -53.620189666748 3.225380659103
-41.178115844727 -79.972412109375 -54.034721374512 6.182217597961
-79.065528869629 -80.765830993652 -64.062477111816 3.816024303436
-30.785905838013 -76.331016540527 -66.067939758301 2.249607563019
-36.791023254395 -77.038047790527 -80.653411865234 1.212663292885
72.778572082520 -84.261688232422 -83.973068237305 8.368812561035
73.763153076172 -79.528671264648 -79.328750610352 4.577176094055
70.718704223633 -76.232070922852 -83.648887634277 0.839437067509
99.845977783203 -75.633979797363 -90.739257812500 2.800732851028
66.062049865723 -82.152732849121 -89.353462219238 8.910924911499
45.602333068848 -82.784057617188 -88.458229064941 10.355731010437
51.498973846436 -85.796821594238 -102.227096557617 7.159725189209
-67.389450073242 -75.561042785645 -103.531341552734 1.291616797447
-75.733573913574 -72.713027954102 -103.588592529297 3.498525381088
43.643875122070 -80.647270202637 -103.488647460938 1.791171431541
-83.220802307129 -83.642333984375 -111.369041442871 2.717401027679
-93.824241638184 -75.188491821289 -111.018676757813 3.181993484497
50.163143157959 -79.251678466797 -109.557357788086 1.317652821541
106.234039306641 -78.785118103027 -117.184989929199 4.797152042389
32.195590972900 -81.230468750000 -127.280921936035 3.708825588226
40.870216369629 -81.033149719238 -119.031166076660 2.000304937363
38.458652496338 -77.098724365234 -122.881385803223 1.428987264633
29.040065765381 -80.906555175781 -121.995285034180 3.856135368347
108.258995056152 -80.141410827637 -121.824058532715 4.486768722534
38.064292907715 -82.677360534668 -132.666854858398 2.734879732132
34.641727447510 -74.240127563477 -133.348739624023 2.167935371399
-44.883411407471 -76.389717102051 -142.314178466797 1.009348392487
-70.749450683594 -81.663993835449 -143.554962158203 5.780289173126
-53.557037353516 -76.877670288086 -150.847106933594 2.134310483932
-76.585990905762 -83.274475097656 -146.777359008789 7.854907512665
-38.802310943604 -78.036972045898 -148.805511474609 2.757960319519
104.537368774414 -81.215599060059 -158.054367065430 6.601501941681
-72.690643310547 -80.489837646484 -157.601562500000 4.088677406311
22.202434539795 -85.268966674805 -146.224914550781 8.024188995361
26.496168136597 -82.169479370117 -149.432830810547 3.592605113983
109.426811218262 -84.189163208008 -163.666732788086 7.622366905212
8.889084815979 -83.024032592773 -159.884674072266 4.679001808167
32.671524047852 -76.130378723145 -155.989761352539 1.656444072723
-63.494964599609 -81.116722106934 -160.385986328125 0.588640034199
-40.578327178955 -80.895881652832 -175.578430175781 4.064949512482
21.142177581787 -79.337150573730 -163.772476196289 1.908256173134
-66.552925109863 -76.835533142090 -156.060989379883 1.236314773560
-71.542716979980 -77.817504882813 -166.694778442383 4.164916515350
114.449867248535 -82.946823120117 -166.376449584961 4.515480995178
-9.497696876526 -80.682395935059 -165.030746459961 3.672855138779
-67.347473144531 -75.937911987305 -171.797744750977 2.921625375748
-37.221469879150 -80.823410034180 -166.920394897461 2.430665493011
-54.998188018799 -76.810646057129 -172.097305297852 2.087557792664
30.180871963501 -78.240867614746 -176.937759399414 3.887225866318
110.784828186035 -77.054229736328 -172.975219726563 1.836207866669
101.178489685059 -78.213996887207 -183.608276367188 3.029329061508
103.348808288574 -79.554008483887 -189.517822265625 2.625366210938
105.489212036133 -77.075325012207 -175.907806396484 2.670616388321
-51.651103973389 -76.521789550781 -193.890350341797 2.557373285294
-47.828437805176 -74.249755859375 -184.217926025391 2.558526992798
26.837131500244 -78.778175354004 -184.382171630859 1.603466987610
-48.417167663574 -76.872550964355 -185.801498413086 1.321403503418
-21.905797958374 -78.770896911621 -184.288192749023 1.304914712906
-52.118133544922 -81.953422546387 -192.182540893555 3.963443756104
-153.331527709961 -75.650352478027 -193.589279174805 2.711317062378
99.930931091309 -83.029373168945 -192.429138183594 6.929598331451
-45.076755523682 -74.925956726074 -196.035781860352 2.158630371094
-12.449169158936 -80.569915771484 -200.227584838867 3.083975076675
-140.192718505859 -76.140312194824 -193.100997924805 1.975472807884
-41.585468292236 -75.445457458496 -200.111160278320 1.792597532272
99.728050231934 -78.336860656738 -196.414520263672 3.519242048264
107.127731323242 -77.675155639648 -184.751785278320 2.717889308929
-43.356483459473 -77.941368103027 -195.882507324219 2.016320228577
-23.095422744751 -87.464248657227 -200.552108764648 7.838565349579
-147.750839233398 -79.966293334961 -201.528533935547 2.037479877472
-26.066144943237 -77.883171081543 -195.497222900391 2.200263261795
-161.798141479492 -77.191871643066 -197.523162841797 5.603558063507
-153.717041015625 -85.623664855957 -206.899154663086 4.876257896423
-146.385177612305 -79.546875000000 -202.947326660156 1.938667535782
-39.562194824219 -79.394058227539 -202.120269775391 1.175973176956
101.088066101074 -81.745468139648 -204.112365722656 4.815322875977
-43.590087890625 -76.002075195313 -200.703567504883 2.136654376984
-142.973129272461 -81.347244262695 -205.904708862305 1.124419927597
-38.047706604004 -73.597663879395 -205.926284790039 1.892941713333
-23.805337905884 -85.242141723633 -210.534149169922 5.899136543274
97.155479431152 -83.786705017090 -206.175354003906 7.621336936951
88.850334167480 -82.247772216797 -215.646087646484 5.462830066681
-39.159046173096 -76.102165222168 -217.934982299805 8.110982894897
-89.589973449707 -79.728195190430 -210.535690307617 3.472433090210
-76.716133117676 -79.571662902832 -212.510910034180 1.531287908554
-20.543947219849 -78.762855529785 -208.901306152344 3.877563714981
-151.073638916016 -80.168426513672 -201.283203125000 0.700235724449
91.304580688477 -79.130203247070 -214.410705566406 2.232061386108
87.431198120117 -75.618850708008 -218.037261962891 2.191553115845
88.753654479980 -80.908279418945 -221.292770385742 4.615458488464
-103.936958312988 -79.383026123047 -218.747528076172 6.860961437225
-156.300827026367 -79.811431884766 -221.618209838867 3.715675830841
-21.336475372314 -76.224235534668 -225.088073730469 0.849748432636
80.218292236328 -75.472351074219 -228.280197143555 1.103448033333
-151.562088012695 -81.998527526855 -221.887145996094 2.667095899582
-30.677049636841 -80.471702575684 -217.086578369141 1.561282277107
-135.484848022461 -75.249641418457 -234.724990844727 3.025553941727
-11.894244194031 -82.120704650879 -232.959381103516 5.799190998077
16.132654190063 -77.622474670410 -230.843109130859 1.800915002823
19.462329864502 -80.247100830078 -234.218612670898 3.337078332901
-156.771514892578 -80.381767272949 -237.073989868164 6.165554046631
-127.728401184082 -72.824165344238 -233.686172485352 2.424897193909
-9.256981849670 -78.605682373047 -236.419891357422 4.281811237335
-0.709010004997 -77.828796386719 -238.569168090820 1.107173562050
68.117286682129 -79.480712890625 -230.698532104492 5.159821033478
67.739433288574 -75.514831542969 -240.104187011719 0.902660250664
-1.110172986984 -75.875221252441 -240.852935791016 1.988125920296
14.947874069214 -73.958099365234 -240.809555053711 2.404154777527
-32.763824462891 -68.653907775879 -242.598541259766 6.325399875641
-32.924816131592 -89.800933837891 -243.364944458008 9.692762374878
-50.663219451904 -78.575378417969 -235.502685546875 6.432428359985
-42.050167083740 -75.852630615234 -240.134033203125 2.244599819183
-16.879564285278 -80.224952697754 -243.797729492188 3.826030254364
-52.570827484131 -76.006347656250 -245.330078125000 1.016860485077
0.698128998280 -79.826728820801 -246.023956298828 2.088953256607
-69.531341552734 -81.474945068359 -242.971389770508 6.488283157349
20.944126129150 -80.969032287598 -247.850875854492 1.115143656731
-142.496017456055 -80.429679870605 -244.462265014648 3.210047245026
-74.206306457520 -81.405967712402 -255.419616699219 4.856278419495
16.049095153809 -79.980941772461 -251.016143798828 1.754411339760
-161.952697753906 -75.904472351074 -250.337280273438 1.967995882034
11.142121315002 -84.272560119629 -254.860961914063 1.903458952904
-81.500640869141 -70.402145385742 -251.825866699219 1.934857249260
-77.073097229004 -78.561798095703 -251.084854125977 3.279451847076
16.964773178101 -81.667114257813 -254.368972778320 1.627762317657
-90.635025024414 -77.293998718262 -251.167343139648 3.469036579132
-126.792526245117 -72.993347167969 -255.182022094727 1.807652235031
-132.789688110352 -82.766120910645 -261.961456298828 4.545697212219
-137.791946411133 -81.450088500977 -252.384994506836 4.502023220062
-147.711761474609 -80.382217407227 -262.979309082031 2.334292888641
-147.938293457031 -73.166740417480 -251.980056762695 1.933479428291
-134.782379150391 -75.681518554688 -262.711029052734 1.916103482246
-162.699768066406 -72.755752563477 -261.198638916016 1.058969616890
-129.553497314453 -78.080261230469 -268.819702148438 6.651303768158
-137.851669311523 -70.537635803223 -264.157684326172 3.107894182205
-162.616897583008 -73.361686706543 -272.586883544922 3.623569965363
-155.915542602539 -74.095535278320 -265.836364746094 1.212827205658
-148.323959350586 -75.219917297363 -266.868316650391 2.345436573029
-150.172882080078 -78.517173767090 -266.726928710938 2.935027122498
16.623914718628 -81.866394042969 -279.888427734375 4.467794895172
-167.574752807617 -77.488372802734 -266.122589111328 2.676659584045
-152.174697875977 -79.783958435059 -274.438598632813 1.348835706711
-5.705224037170 -88.260643005371 -273.058319091797 6.690994262695
-154.721954345703 -74.263565063477 -277.526947021484 3.923921823502
10.932191848755 -82.944869995117 -284.807983398438 4.185311317444
-153.867019653320 -76.783638000488 -282.251434326172 2.073974132538
-167.700271606445 -79.074447631836 -290.143096923828 5.405811786652
-156.673370361328 -81.229522705078 -277.717712402344 5.487772941589
-165.055938720703 -74.216773986816 -290.908050537109 1.496918559074
-0.843010008335 -83.705154418945 -287.571868896484 6.746097564697
6.307983875275 -85.472702026367 -281.378845214844 4.761068820953
-107.789550781250 -75.300750732422 -294.633331298828 4.129038810730
-158.321914672852 -85.656738281250 -288.784149169922 4.477196216583
-148.734771728516 -74.374023437500 -285.613464355469 2.589391708374
-106.056999206543 -76.546455383301 -293.532989501953 4.049852848053
-154.704055786133 -81.711166381836 -294.683074951172 1.602265715599
-149.156158447266 -83.157798767090 -289.263580322266 0.904437601566
-77.504508972168 -82.884918212891 -294.762115478516 7.173799037933
-169.998580932617 -80.314361572266 -289.586425781250 6.202943325043
-123.027404785156 -73.091102600098 -292.516510009766 1.798619270325
-43.616321563721 -84.421501159668 -285.387878417969 6.487236499786
-151.098052978516 -77.044120788574 -288.207397460938 1.607439160347
-131.249206542969 -71.607368469238 -294.824340820313 1.919970273972
-21.641555786133 -75.931022644043 -296.127166748047 4.706275939941
-130.474670410156 -72.457572937012 -293.834259033203 2.985240697861
5.655426025391 -80.710754394531 -296.180999755859 5.392853260040
14.272965431213 -75.975334167480 -293.074127197266 0.365664809942
-133.943206787109 -72.007354736328 -291.347167968750 2.076470613480
-146.205795288086 -80.069664001465 -300.398315429688 1.999558925629
-157.175415039063 -82.185737609863 -317.163116455078 7.267374038696
-72.734565734863 -71.343132019043 -53.961200714111 3.477789878845
-22.625986099243 -70.085510253906 -67.997573852539 4.576396465302
-20.329410552979 -81.406639099121 -65.899536132813 4.707759380341
69.240966796875 -75.725997924805 -80.197853088379 3.575772047043
88.761116027832 -77.774917602539 -76.596908569336 2.184883117676
-37.034164428711 -77.528656005859 -81.399017333984 1.397102832794
75.379043579102 -77.336914062500 -82.272918701172 2.540160894394
89.295745849609 -83.227546691895 -83.964225769043 5.762813091278
64.160247802734 -79.084793090820 -85.433868408203 7.296757221222
72.456184387207 -76.799476623535 -92.475242614746 3.047377586365
-51.449981689453 -77.475502014160 -85.335411071777 2.313954114914
-92.988616943359 -80.050071716309 -91.227935791016 2.686846256256
58.490310668945 -82.407913208008 -94.800796508789 7.715487957001
49.364971160889 -81.551475524902 -101.559852600098 2.943028926849
91.251213073730 -73.876693725586 -103.387031555176 1.693111538887
-91.101325988770 -70.070106506348 -102.707344055176 3.987172842026
78.076255798340 -72.087074279785 -101.793319702148 2.551571846008
69.856094360352 -79.677101135254 -102.881996154785 7.243422031403
89.857513427734 -82.353996276855 -98.701896667480 7.524800777435
82.837364196777 -79.398193359375 -96.424720764160 2.299186944962
78.150856018066 -82.174468994141 -100.101325988770 6.883611202240
-91.260780334473 -78.793540954590 -103.851509094238 4.533756256104
43.880100250244 -74.515251159668 -104.710929870605 2.665856838226
103.394477844238 -80.913436889648 -111.580627441406 6.810874462128
105.016700744629 -80.259490966797 -111.417976379395 5.826195240021
49.567226409912 -82.868270874023 -122.122375488281 6.090660572052
113.060699462891 -83.848472595215 -119.486061096191 7.590184211731
116.633499145508 -84.089004516602 -135.970657348633 7.284285545349
-51.312313079834 -73.685211181641 -129.303054809570 3.377221345901
26.841461181641 -77.787483215332 -136.015106201172 2.575350522995
40.151329040527 -83.240310668945 -134.738204956055 3.589610099792
23.149803161621 -75.148651123047 -142.517959594727 1.598746538162
111.459877014160 -84.654396057129 -136.980010986328 6.782679557800
110.076484680176 -81.610534667969 -130.072937011719 5.685818672180
-74.702270507813 -76.527702331543 -149.446166992188 2.660692691803
-44.511760711670 -75.817840576172 -140.216140747070 1.504092454910
-72.539260864258 -74.529861450195 -154.470321655273 2.384592771530
16.835302352905 -75.399955749512 -148.110412597656 3.950958728790
110.665519714355 -75.582672119141 -148.090362548828 2.850038051605
-55.581108093262 -79.506217956543 -153.927947998047 5.515810966492
-74.106529235840 -75.759742736816 -154.146011352539 3.163390636444
-40.664894104004 -80.939346313477 -151.829406738281 1.013578653336
30.223062515259 -71.579795837402 -155.253463745117 1.958249092102
106.911132812500 -74.330429077148 -150.738204956055 2.726596593857
116.538185119629 -78.158981323242 -163.421188354492 2.780548810959
-69.415061950684 -73.120727539063 -157.792144775391 1.242253303528
-77.434715270996 -80.121017456055 -160.805480957031 7.877722263336
20.811569213867 -84.034446716309 -164.518478393555 5.848786830902
-61.565433502197 -73.985000610352 -168.380615234375 0.701954185963
-33.389972686768 -74.262512207031 -165.133178710938 1.870715141296
7.803984165192 -80.318893432617 -165.402450561523 4.849224090576
105.397918701172 -75.522644042969 -162.193359375000 3.515061140060
10.036377906799 -83.058593750000 -170.125961303711 8.987427711487
-33.342128753662 -77.695495605469 -167.092605590820 0.507507622242
-5.393083095551 -70.635498046875 -165.175643920898 4.484761714935
105.005706787109 -74.155975341797 -166.893508911133 1.675211906433
-43.117595672607 -74.496330261230 -163.596542358398 1.345352649689
29.906209945679 -75.342262268066 -175.139114379883 3.337369441986
114.134811401367 -85.411476135254 -173.087585449219 7.939636230469
-58.168502807617 -72.955291748047 -176.487289428711 1.256206750870
-28.841072082520 -81.779762268066 -177.276580810547 1.588044285774
99.730720520020 -80.322250366211 -175.416229248047 7.658388137817
28.382125854492 -75.028259277344 -167.688385009766 0.988393783569
101.618690490723 -81.146957397461 -177.055099487305 5.896591186523
-37.898803710938 -71.789291381836 -181.018630981445 1.348255395889
109.345230102539 -84.459762573242 -181.632339477539 7.871868133545
-65.203407287598 -72.520133972168 -178.712036132813 6.290186405182
-27.120979309082 -82.829864501953 -178.174804687500 2.198662996292
-149.095016479492 -67.742538452148 -186.386108398438 2.433738946915
-55.041366577148 -75.806327819824 -179.105300903320 2.136591911316
-148.692291259766 -76.406631469727 -186.959686279297 2.241646289825
-36.628463745117 -74.405693054199 -183.612396240234 2.714218139648
29.218353271484 -85.110748291016 -177.878570556641 5.766128540039
104.235137939453 -80.852714538574 -184.470367431641 4.083904743195
-38.928771972656 -75.950187683105 -181.894897460938 4.171458244324
9.077200889587 -78.474922180176 -191.975616455078 3.933685541153
14.412332534790 -77.494102478027 -207.588745117188 2.119039773941
-151.051803588867 -76.358146667480 -188.282623291016 2.927620172501
106.311798095703 -83.654823303223 -196.898971557617 4.820911884308
-25.651132583618 -75.118415832520 -193.695678710938 2.529481887817
99.018760681152 -81.260993957520 -187.191482543945 5.946486473083
10.315744400024 -74.260520935059 -192.000244140625 1.201035022736
-142.920959472656 -75.792442321777 -208.168197631836 3.424453735352
-138.074127197266 -74.562004089355 -200.334487915039 1.909153223038
102.363296508789 -84.431945800781 -202.452743530273 6.136155128479
-12.855992317200 -82.978172302246 -200.572128295898 4.938389301300
-18.913076400757 -77.950828552246 -206.116256713867 2.147985219955
10.825386047363 -81.032539367676 -208.465560913086 2.870897531509
-150.914199829102 -75.191368103027 -207.617233276367 2.383363246918
-147.683532714844 -77.088920593262 -211.585784912109 0.967741250992
100.748023986816 -71.720771789551 -207.024871826172 3.304032802582
-87.128448486328 -76.313987731934 -208.163467407227 3.347018241882
-35.837665557861 -79.130493164063 -200.832015991211 0.743700444698
19.846466064453 -82.733238220215 -217.065063476563 5.586435794830
-25.218666076660 -78.283149719238 -211.627914428711 1.869809389114
-75.037750244141 -74.314079284668 -205.532409667969 3.956065654755
89.997207641602 -79.384796142578 -209.324966430664 4.381893634796
-79.405921936035 -73.175529479980 -213.100067138672 1.379284858704
-149.354934692383 -75.185218811035 -220.756958007813 2.640058517456
-81.497451782227 -74.220283508301 -213.143814086914 1.508714318275
-11.672636985779 -70.201362609863 -207.149520874023 1.571735501289
-21.284860610962 -73.967521667480 -221.760208129883 1.716703772545
17.302333831787 -79.139221191406 -216.282302856445 2.352831363678
-5.952336788177 -79.714286804199 -224.380477905273 1.982765913010
-89.580917358398 -84.134582519531 -220.470672607422 7.769567966461
92.310745239258 -77.976768493652 -214.630157470703 1.196139335632
-102.022880554199 -74.119476318359 -216.331405639648 3.737436056137
-155.699356079102 -72.775650024414 -227.223587036133 2.119123458862
-32.103435516357 -76.537269592285 -226.032104492188 4.708323955536
18.643194198608 -79.825553894043 -216.361831665039 3.300951004028
-103.274124145508 -77.494773864746 -221.104782104492 4.470760822296
6.405613899231 -71.712173461914 -217.590316772461 2.009271860123
-29.017147064209 -77.123504638672 -215.001113891602 1.208653926849
81.233016967773 -76.083648681641 -225.935943603516 2.509674310684
-144.978561401367 -73.319190979004 -217.487274169922 1.365107059479
15.425257682800 -77.398094177246 -226.730041503906 1.995473980904
-10.434026718140 -82.075378417969 -230.016815185547 3.261811494827
17.054508209229 -68.538833618164 -224.975402832031 3.308171749115
83.148666381836 -80.805953979492 -223.701980590820 4.340491294861
-15.922169685364 -82.350982666016 -230.513763427734 5.825397491455
-131.343933105469 -78.677413940430 -228.407150268555 1.815096259117
-16.551145553589 -76.980995178223 -224.928543090820 2.874424457550
15.769031524658 -77.298019409180 -229.055297851563 2.274672746658
-129.310989379883 -79.708381652832 -228.101837158203 3.072701692581
-155.295852661133 -71.461517333984 -233.169219970703 1.364525079727
-144.409530639648 -74.302246093750 -230.477066040039 1.689188241959
-128.001647949219 -73.090057373047 -226.690155029297 1.920055270195
-11.386178016663 -73.595085144043 -224.478210449219 0.731384754181
71.036262512207 -78.468658447266 -227.271575927734 5.661395072937
-145.914916992188 -69.992584228516 -242.372634887695 1.194074034691
66.474090576172 -79.636619567871 -228.617156982422 6.487263202667
-22.569547653198 -82.295013427734 -233.021682739258 5.150096893311
-143.673355102539 -78.633659362793 -228.668228149414 1.596634030342
75.065170288086 -88.743560791016 -230.143676757813 12.559954643250
9.486148834229 -84.123016357422 -232.024322509766 3.391910791397
-140.184005737305 -79.541938781738 -237.828460693359 4.975366592407
-150.200820922852 -74.601646423340 -233.936065673828 1.834495067596
17.335248947144 -72.697914123535 -231.026855468750 1.727715492249
-3.258877992630 -82.527442932129 -240.810638427734 5.260140895844
-31.545291900635 -75.922538757324 -237.505828857422 1.140316367149
-2.249382019043 -72.012779235840 -236.398712158203 1.209774017334
-161.350173950195 -79.724052429199 -239.237243652344 4.848275661469
3.820887088776 -74.583213806152 -243.079071044922 1.562042713165
-165.770324707031 -77.249252319336 -243.307510375977 3.452313184738
-12.322948455811 -78.800117492676 -238.205291748047 5.063134670258
56.412071228027 -79.707969665527 -239.849655151367 4.980222702026
-14.660443305969 -75.459526062012 -236.574584960938 2.610093116760
-25.928712844849 -77.204429626465 -249.785736083984 5.040729999542
-24.886428833008 -76.844856262207 -242.613616943359 2.119723796844
-10.669060707092 -82.823669433594 -240.334289550781 8.449361801147
-147.356674194336 -76.827613830566 -227.959762573242 2.446779012680
6.872266769409 -76.133262634277 -241.780227661133 1.737941741943
63.187725067139 -78.309097290039 -246.048049926758 4.967385768890
15.372168540955 -74.119865417480 -246.051055908203 2.243123054504
-171.337310791016 -72.921379089355 -244.782089233398 6.099174499512
-53.048919677734 -75.651000976563 -238.685028076172 3.951675415039
4.751681804657 -85.510330200195 -250.167465209961 4.372661113739
16.604003906250 -78.573638916016 -243.478744506836 3.159954786301
-54.421886444092 -76.720962524414 -248.554244995117 1.333303689957
-2.242947101593 -71.033775329590 -251.987442016602 6.346213817596
19.517719268799 -86.901718139648 -250.018798828125 3.924550533295
-174.183135986328 -71.983772277832 -250.640441894531 6.358411312103
-65.048385620117 -81.980354309082 -250.637420654297 2.734117269516
-53.651992797852 -74.301750183105 -248.888610839844 1.184812784195
-84.358711242676 -73.980056762695 -254.829803466797 0.853806436062
-163.344512939453 -77.568527221680 -247.371917724609 1.785281896591
-151.325683593750 -64.114105224609 -248.320266723633 2.856642246246
-61.745018005371 -79.407325744629 -250.963531494141 2.716233015060
-69.434494018555 -76.019660949707 -249.339996337891 1.549411535263
-154.476272583008 -72.203117370605 -253.139083862305 1.664698839188
-153.023406982422 -77.360153198242 -253.339691162109 2.659862756729
-74.844764709473 -70.350883483887 -256.404693603516 3.005729913712
-94.353065490723 -71.943275451660 -258.552337646484 2.233658075333
-163.372497558594 -66.775428771973 -255.689117431641 3.702398777008
-158.522048950195 -76.062042236328 -263.439117431641 2.573694944382
-136.616058349609 -78.423805236816 -262.556121826172 2.074663162231
-84.256980895996 -75.476249694824 -250.139770507813 3.548272371292
-162.276077270508 -70.072761535645 -255.401855468750 3.110394001007
-142.333435058594 -71.973106384277 -258.777313232422 3.191417217255
-85.414299011230 -75.011039733887 -248.395782470703 3.018135309219
-98.682762145996 -74.075561523438 -263.784881591797 5.026746749878
-142.966064453125 -77.145439147949 -256.111755371094 2.847338438034
-92.750770568848 -76.005577087402 -256.730438232422 2.842555999756
-156.464660644531 -72.479408264160 -256.374816894531 2.303477048874
-105.465278625488 -75.467689514160 -255.342956542969 2.105482578278
-173.185089111328 -73.499771118164 -259.938842773438 6.200620651245
-163.398956298828 -78.059471130371 -269.176422119141 1.930161714554
-129.678970336914 -81.322929382324 -257.124816894531 3.987591028214
-153.803405761719 -76.169624328613 -261.039123535156 2.989880561829
-109.514305114746 -70.960952758789 -264.592468261719 3.273983955383
-14.519410133362 -74.403785705566 -263.121307373047 0.760012507439
-141.190292358398 -75.028549194336 -261.706878662109 0.423653990030
-128.317291259766 -74.366180419922 -261.409759521484 1.178334951401
-153.701629638672 -72.425498962402 -265.132354736328 1.807685136795
24.543994903564 -79.251029968262 -273.919891357422 4.426862716675
-150.978866577148 -78.676856994629 -281.196838378906 1.975016355515
-170.265335083008 -75.588127136230 -284.793395996094 1.069654107094
-10.066862106323 -75.470535278320 -280.915435791016 4.162159442902
-145.309310913086 -74.232910156250 -280.253295898438 1.938408017159
-12.094898223877 -74.930000305176 -284.881256103516 1.545389175415
12.087486267090 -79.454322814941 -288.061370849609 1.373884201050
-138.058898925781 -71.973846435547 -287.198333740234 1.934871912003
-65.760604858398 -79.988243103027 -288.906829833984 4.444590091705
-34.062679290771 -81.253173828125 -291.083221435547 2.162819862366
-112.843208312988 -76.304031372070 -283.020843505859 4.867147922516
-98.799247741699 -82.589950561523 -291.105712890625 6.067912101746
-88.701377868652 -77.187850952148 -292.933837890625 4.227221488953
-52.261619567871 -78.880691528320 -294.195739746094 5.007683277130
-116.834197998047 -83.460502624512 -287.707061767578 5.017776012421
-117.358802795410 -77.988830566406 -291.615447998047 3.225392103195
-34.742729187012 -72.966819763184 -288.299591064453 2.473499774933
-118.031387329102 -77.998924255371 -295.697570800781 5.136667251587
-129.773040771484 -69.026168823242 -289.659606933594 1.492948293686
-145.885910034180 -79.189186096191 -296.414245605469 2.110992431641
6.195097923279 -78.435691833496 -291.425567626953 1.737408995628
18.314609527588 -80.443428039551 -293.573181152344 4.311772823334
-163.248428344727 -74.630294799805 -293.339202880859 1.833967328072
-162.529373168945 -80.441848754883 -302.292663574219 8.554066658020
-150.013610839844 -77.457359313965 -311.060089111328 2.773384332657
-154.267639160156 -74.727249145508 -311.375823974609 1.481070041656
-153.444931030273 -75.434135437012 -316.441314697266 4.987463474274
26.437353134155 -82.669181823730 -14.146368026733 9.713383674622
35.423088073730 -73.522300720215 -21.102130889893 4.274668216705
19.886983871460 -77.164543151855 -27.088481903076 4.821909427643
28.379240036011 -73.122032165527 -40.156948089600 1.707746386528
-60.498210906982 -74.969230651855 -51.804599761963 1.991514801979
-65.752471923828 -75.702766418457 -52.195972442627 1.912054419518
-40.642551422119 -81.738311767578 -49.298538208008 7.935461997986
-88.865844726563 -66.976058959961 -68.747436523438 4.562267303467
78.638816833496 -82.129745483398 -77.050178527832 5.736660003662
-12.696535110474 -71.268844604492 -72.742797851563 4.479272365570
88.306068420410 -78.877182006836 -62.307876586914 7.079515933990
100.239891052246 -78.350708007813 -75.817314147949 4.588172912598
-92.793968200684 -71.811248779297 -75.360969543457 1.025020718575
63.854019165039 -78.036743164063 -81.606338500977 7.598902225494
-40.360469818115 -80.343269348145 -88.562629699707 3.196044921875
100.856323242188 -78.805496215820 -81.046188354492 4.433063030243
-59.413295745850 -71.934745788574 -89.333175659180 2.495954990387
48.120864868164 -78.634567260742 -91.879028320313 4.810651302338
68.304428100586 -87.317848205566 -90.550010681152 12.878747940063
52.081085205078 -75.957458496094 -96.382873535156 1.544099450111
51.509296417236 -79.573844909668 -100.093399047852 2.882808446884
74.811859130859 -82.941162109375 -97.417892456055 6.845689296722
46.527069091797 -76.665809631348 -111.183021545410 1.114590644836
95.572418212891 -79.532066345215 -103.764846801758 7.244686126709
103.644485473633 -85.630722045898 -109.331764221191 10.736952781677
75.337226867676 -76.072647094727 -105.153205871582 5.709897994995
93.809722900391 -80.332199096680 -106.763626098633 8.643434524536
98.609184265137 -79.346420288086 -93.539978027344 4.793593406677
109.164604187012 -81.014221191406 -105.585342407227 4.235645771027
38.843238830566 -76.334403991699 -107.911895751953 2.005113363266
113.088020324707 -75.954666137695 -118.284484863281 3.326343059540
113.782348632813 -81.262924194336 -120.831062316895 5.938747882843
28.369096755981 -74.691551208496 -126.283348083496 2.813972711563
43.329471588135 -79.904747009277 -118.879951477051 2.879420995712
114.311950683594 -80.652832031250 -134.342590332031 2.959686994553
31.766006469727 -76.663124084473 -128.004760742188 0.781687021255
116.494331359863 -86.588722229004 -127.548004150391 11.218596458435
106.225097656250 -81.375061035156 -123.755371093750 6.516843795776
26.403989791870 -80.754943847656 -134.050628662109 4.095131874084
-47.402759552002 -77.063728332520 -134.141693115234 3.329646110535
-53.029972076416 -73.853782653809 -135.671035766602 1.655539989471
110.581413269043 -79.245956420898 -136.771224975586 3.118097782135
-67.922279357910 -82.525245666504 -140.141159057617 7.952078819275
-71.716873168945 -76.441307067871 -141.773574829102 2.280357122421
-61.656272888184 -76.451072692871 -139.535400390625 2.898831844330
29.050880432129 -79.274559020996 -146.896301269531 1.246604681015
119.681976318359 -83.558822631836 -148.709457397461 8.566379547119
-71.560920715332 -70.936233520508 -149.537460327148 1.294610738754
-51.051189422607 -77.253814697266 -141.816329956055 1.131668686867
31.405197143555 -78.335845947266 -154.712219238281 2.147530555725
-69.462745666504 -77.748313903809 -148.964462280273 2.264633655548
113.405441284180 -77.987510681152 -139.818832397461 0.245211660862
110.069694519043 -76.732978820801 -159.027984619141 1.168108820915
115.390731811523 -81.262886047363 -156.100387573242 4.716076850891
-39.715919494629 -81.053482055664 -153.277145385742 1.347491025925
-64.357391357422 -75.652999877930 -167.399642944336 0.322933197021
-66.731452941895 -69.800186157227 -159.403945922852 1.914391040802
27.205503463745 -79.385406494141 -144.007431030273 1.642966866493
-3.032809019089 -80.092681884766 -162.905685424805 2.509389638901
109.563827514648 -77.687377929688 -164.251113891602 1.237187623978
111.481666564941 -76.777595520020 -152.934631347656 1.510859012604
111.841140747070 -84.974189758301 -161.096862792969 6.946586608887
-63.200592041016 -73.274673461914 -158.325225830078 1.058191418648
-45.566944122314 -79.503425598145 -170.135635375977 3.128301143646
-5.204971790314 -76.986190795898 -166.339599609375 1.461606860161
-32.916477203369 -78.295974731445 -176.368133544922 2.081760406494
104.565422058105 -77.818969726563 -169.315765380859 3.982892274857
-32.733566284180 -82.498855590820 -160.895568847656 4.190190315247
107.576766967773 -77.152526855469 -167.914306640625 2.006125450134
-42.674892425537 -77.038276672363 -175.964859008789 3.194807291031
106.779731750488 -76.011764526367 -171.674804687500 1.893229126930
-155.091674804688 -76.286407470703 -179.751358032227 5.344394683838
-25.753929138184 -71.113143920898 -179.140487670898 1.713493466377
-19.840032577515 -78.047988891602 -185.568649291992 1.675083398819
23.649295806885 -83.243736267090 -177.837097167969 3.409689188004
13.089496612549 -76.014778137207 -185.566040039063 1.481836557388
28.445371627808 -79.027992248535 -183.788269042969 1.851062536240
100.739982604980 -87.519599914551 -186.145187377930 10.447243690491
-153.263900756836 -69.609992980957 -184.300384521484 2.258090257645
-19.715120315552 -80.172119140625 -181.960998535156 2.311910867691
99.795570373535 -82.280128479004 -179.557647705078 6.047342300415
102.100959777832 -73.913284301758 -189.765289306641 1.600770711899
108.934516906738 -82.408752441406 -176.728302001953 4.708011150360
100.092002868652 -81.879592895508 -193.763153076172 5.912014484406
-151.306442260742 -72.654876708984 -200.441818237305 0.833815753460
98.659126281738 -80.424865722656 -207.975357055664 4.430956363678
-28.833181381226 -74.604438781738 -200.940093994141 2.861854076385
94.978523254395 -79.497894287109 -194.828445434570 5.762206554413
-118.883277893066 -81.585189819336 -203.845703125000 8.326141357422
-31.205793380737 -83.086059570313 -188.626358032227 2.296648502350
-143.556381225586 -67.927871704102 -199.784957885742 2.662588834763
95.625282287598 -79.522224426270 -198.156478881836 3.310764312744
7.421068191528 -77.828178405762 -201.194793701172 1.395082235336
24.254121780396 -75.109260559082 -192.097427368164 2.590112686157
-150.043182373047 -77.687477111816 -206.578506469727 1.808735966682
-137.565246582031 -74.568145751953 -204.342376708984 2.082319259644
-9.889151573181 -77.091156005859 -210.947769165039 1.434618830681
-124.977798461914 -74.582969665527 -207.920776367188 4.602431297302
-145.530578613281 -76.231483459473 -196.981918334961 2.077824354172
-0.812878012657 -78.518516540527 -199.292144775391 8.645364761353
-27.612272262573 -79.944252014160 -200.831756591797 5.414585113525
20.520467758179 -83.162361145020 -201.841567993164 5.411831378937
4.133481025696 -80.335388183594 -214.919433593750 4.010779857635
80.577178955078 -73.651084899902 -210.395645141602 5.789133071899
-18.170396804810 -73.793434143066 -213.292343139648 1.862204313278
89.535133361816 -75.746566772461 -210.162811279297 3.251333236694
97.962554931641 -83.725631713867 -207.954757690430 7.525866985321
-148.405181884766 -77.394096374512 -214.719009399414 2.490243911743
94.133995056152 -83.192153930664 -212.580123901367 6.912578582764
2.991108894348 -75.070426940918 -206.486328125000 1.599176883698
1.060624957085 -80.411766052246 -215.608627319336 4.908451557159
-32.118236541748 -76.581237792969 -206.294692993164 1.221766591072
-90.125686645508 -75.356353759766 -214.012634277344 1.095271348953
-25.018989562988 -80.583946228027 -210.525680541992 1.475290536880
85.107513427734 -77.316703796387 -219.545074462891 1.679409861565
90.680870056152 -78.160797119141 -215.720642089844 1.114805579185
-31.786594390869 -75.560882568359 -212.368774414063 0.974789619446
-83.982017517090 -71.075057983398 -221.705474853516 4.118495941162
-0.245627000928 -80.108909606934 -221.026428222656 1.554031610489
76.048965454102 -72.795204162598 -211.879150390625 7.900377273560
-153.766113281250 -82.887245178223 -222.551925659180 2.859167337418
-167.367019653320 -72.240280151367 -215.911956787109 1.895827889442
-165.142501831055 -80.300361633301 -223.005203247070 6.890284061432
-22.535665512085 -80.015846252441 -228.204269409180 2.879989862442
-156.071304321289 -81.412689208984 -223.635574340820 3.052209377289
-4.403514862061 -77.986351013184 -224.647399902344 1.302488088608
4.686802864075 -80.593772888184 -219.669784545898 3.391326189041
-171.160858154297 -74.810630798340 -228.273956298828 5.611146450043
-156.710388183594 -75.222152709961 -230.374710083008 2.203177213669
77.684226989746 -84.592430114746 -233.510025024414 7.504622936249
-3.085148096085 -77.376838684082 -226.565902709961 1.397555112839
-160.984924316406 -66.416259765625 -228.289154052734 2.139915466309
-143.752243041992 -78.932334899902 -223.949707031250 0.922095239162
-19.168882369995 -74.856369018555 -224.750549316406 2.355814218521
-3.842206001282 -82.729385375977 -220.688262939453 3.267792940140
78.990768432617 -74.778259277344 -228.534271240234 1.437622904778
-161.540023803711 -71.943687438965 -229.492431640625 1.823910474777
-141.392211914063 -71.068710327148 -235.469360351563 0.826591432095
-126.918991088867 -72.673851013184 -233.754699707031 1.965645670891
76.764266967773 -82.956573486328 -226.684356689453 6.101862430573
-116.719161987305 -76.169883728027 -231.079666137695 2.754842042923
-143.401657104492 -75.067146301270 -231.189331054688 1.790640592575
-152.283447265625 -73.072448730469 -234.011871337891 1.448523640633
-151.175750732422 -76.334342956543 -234.011657714844 2.023198843002
-156.490112304688 -76.459754943848 -230.852584838867 1.173109889030
-165.525146484375 -75.925018310547 -229.826950073242 3.410030603409
-132.865432739258 -77.161796569824 -239.588150024414 5.641280174255
-133.939559936523 -76.776016235352 -235.415954589844 3.728188514709
-152.180969238281 -82.793388366699 -235.683197021484 3.851444244385
-146.258514404297 -70.059982299805 -240.271713256836 2.242382526398
-151.343475341797 -76.459037780762 -237.606109619141 0.697188377380
75.197563171387 -83.433242797852 -234.952697753906 7.755420207977
66.452445983887 -70.523971557617 -235.068389892578 1.077461123466
-155.036972045898 -72.446548461914 -237.062484741211 3.163367033005
72.855255126953 -71.732498168945 -233.980285644531 1.444316029549
-21.648704528809 -74.096214294434 -237.548065185547 2.129240274429
12.429683685303 -80.741210937500 -240.034591674805 2.504501819611
7.568326950073 -78.796195983887 -236.969024658203 2.136036634445
-157.216857910156 -75.298370361328 -242.238555908203 2.562547683716
15.922730445862 -77.267944335938 -242.598175048828 2.656890630722
57.579116821289 -76.385597229004 -239.934829711914 1.879917383194
12.452537536621 -73.934814453125 -239.646652221680 1.536174297333
3.571357011795 -77.767738342285 -242.356887817383 1.208111643791
-7.363306999207 -73.101509094238 -240.423355102539 0.384462594986
-22.864175796509 -74.888290405273 -244.270431518555 3.711517572403
-3.594439029694 -78.013839721680 -241.195007324219 3.550488471985
4.570251941681 -82.200149536133 -248.059417724609 1.992145895958
56.720230102539 -80.933502197266 -241.500442504883 5.264272689819
-55.087757110596 -83.909942626953 -246.212005615234 4.399110794067
20.200235366821 -76.830566406250 -249.667953491211 2.510923385620
-58.169124603271 -77.515014648438 -240.659713745117 3.283822298050
-11.715340614319 -78.198158264160 -249.551498413086 3.219128131866
-67.975578308105 -71.336380004883 -252.296691894531 3.246235609055
-86.160942077637 -72.108749389648 -256.290252685547 0.676769733429
-82.860130310059 -78.790260314941 -256.370086669922 3.462218046188
-7.837619781494 -76.853240966797 -258.713104248047 2.817080497742
-123.862419128418 -76.106239318848 -264.634216308594 1.870461225510
-14.602510452271 -78.362770080566 -251.969848632813 2.640271425247
-117.526039123535 -75.494651794434 -255.870025634766 1.298897027969
-119.075462341309 -73.411712646484 -260.785339355469 0.662437200546
-104.587753295898 -76.006118774414 -255.373916625977 2.587715864182
-143.437698364258 -73.407173156738 -261.266296386719 2.619219779968
-144.921020507813 -75.152801513672 -270.695129394531 3.120972633362
-170.009368896484 -75.144279479980 -264.836975097656 4.271853923798
21.691734313965 -83.757026672363 -281.928863525391 9.435677528381
-62.087200164795 -73.591850280762 -286.408172607422 1.579899668694
-69.308471679688 -75.374961853027 -282.954254150391 3.535056829453
-42.825710296631 -79.618530273438 -283.132812500000 3.293557167053
-26.684047698975 -78.066963195801 -289.166839599609 2.091588020325
-96.000350952148 -80.267852783203 -293.288116455078 3.673884630203
-32.748783111572 -74.583518981934 -285.445312500000 0.944301187992
-3.880028009415 -77.167167663574 -286.485870361328 0.702801823616
-167.792587280273 -75.638000488281 -291.927001953125 4.435482978821
-20.793182373047 -81.052413940430 -286.276000976563 2.735309123993
4.343698978424 -79.652038574219 -288.993896484375 2.875911712646
13.229874610901 -85.489341735840 -279.547515869141 5.007832527161
-57.730819702148 -81.850990295410 -285.815399169922 5.186763286591
-36.902973175049 -79.335044860840 -293.737854003906 3.278160095215
13.924960136414 -75.582839965820 -295.489562988281 1.989953756332
-72.614654541016 -74.004463195801 -296.242645263672 3.967890739441
-44.063541412354 -72.771125793457 -288.839355468750 1.173262476921
-18.758972167969 -74.862487792969 -290.376678466797 2.192378044128
13.240656852722 -81.749443054199 -293.086242675781 4.272592544556
-13.110385894775 -81.224464416504 -297.819976806641 6.860194206238
4.241854190826 -76.979217529297 -296.764160156250 3.982468128204
13.929379463196 -82.521446228027 -288.815856933594 3.744735717773
-135.485626220703 -74.715866088867 -296.013641357422 2.897011995316
-145.830017089844 -78.657440185547 -299.075439453125 0.689588427544
-155.308837890625 -74.482673645020 -315.480560302734 3.101190805435
44.461715698242 -76.492149353027 -15.324199676514 4.586194038391
28.278108596802 -76.937576293945 -12.509173393250 4.579879283905
39.344043731689 -77.608192443848 -15.623950958252 4.184415817261
22.235624313354 -71.112327575684 -18.635837554932 2.420633316040
44.814212799072 -73.476905822754 -24.649103164673 3.061407327652
25.430562973022 -72.841827392578 -26.621740341187 1.177672863007
22.241619110107 -76.989959716797 -26.967676162720 4.054680824280
26.403509140015 -78.095565795898 -43.267318725586 7.026651382446
34.863506317139 -81.732032775879 -31.893852233887 9.949436187744
24.472118377686 -83.428680419922 -39.068698883057 11.792011260986
43.132556915283 -74.960029602051 -41.659008026123 2.868811607361
31.115545272827 -77.851905822754 -42.957382202148 6.076093673706
40.287704467773 -79.781166076660 -35.953796386719 7.789308071136
29.414371490479 -74.914962768555 -41.103263854980 2.624127864838
44.808391571045 -77.489624023438 -43.477264404297 6.251600265503
30.646839141846 -75.989311218262 -37.672275543213 4.558456420898
-44.254131317139 -75.050277709961 -48.210273742676 2.170290231705
-30.120285034180 -69.420639038086 -51.048686981201 1.748460054398
-91.934150695801 -76.174835205078 -54.279357910156 7.670098304749
-91.817207336426 -75.628913879395 -67.867340087891 5.218694686890
75.437049865723 -81.554092407227 -63.971668243408 10.590237617493
83.440986633301 -76.023376464844 -73.729591369629 1.117145061493
-22.532144546509 -73.621894836426 -76.935783386230 1.885843396187
-88.913894653320 -72.476036071777 -73.751197814941 2.237653255463
-25.942768096924 -74.087562561035 -77.846290588379 2.612258911133
-50.417964935303 -77.478515625000 -85.703872680664 1.421471714973
65.122673034668 -73.693077087402 -87.402061462402 2.757967948914
50.751247406006 -75.239463806152 -95.160957336426 1.147623777390
98.539276123047 -75.174743652344 -92.400230407715 2.838207006454
67.680282592773 -81.028343200684 -97.977584838867 6.154203891754
-71.956153869629 -75.009811401367 -89.398208618164 7.386513233185
-59.314678192139 -70.400016784668 -100.615295410156 6.536268711090
43.535003662109 -76.343955993652 -98.487503051758 1.520364403725
76.504867553711 -74.969245910645 -97.885375976563 1.044691920280
54.478412628174 -88.495864868164 -106.366287231445 9.275433540344
101.125724792480 -77.771110534668 -95.579627990723 4.892067432404
-95.355522155762 -78.712539672852 -108.953178405762 5.119730949402
41.479412078857 -76.141555786133 -109.777091979980 1.511610269547
106.824569702148 -80.118095397949 -110.817459106445 5.062325477600
48.810443878174 -77.582160949707 -112.573135375977 2.325014352798
98.978836059570 -80.270339965820 -112.413619995117 8.666292190552
-85.170394897461 -73.666641235352 -119.616508483887 3.768553256989
34.412517547607 -81.618240356445 -114.265502929688 5.149372100830
106.939620971680 -75.564323425293 -117.451324462891 3.038362503052
103.927223205566 -74.342414855957 -117.246871948242 3.243432044983
102.164779663086 -78.839241027832 -115.922851562500 5.515034675598
110.663490295410 -76.180686950684 -114.325134277344 3.551374673843
40.873542785645 -81.506355285645 -107.910697937012 2.384335517883
31.818193435669 -70.806266784668 -115.684356689453 2.446259975433
37.361103057861 -76.461868286133 -112.429450988770 2.471113920212
103.276351928711 -80.921180725098 -121.164916992188 7.877172946930
40.903297424316 -74.334411621094 -121.405937194824 2.003551483154
109.378540039063 -76.483016967773 -133.624877929688 2.741599798203
108.630538940430 -76.336708068848 -131.869232177734 3.303201198578
32.833595275879 -73.013183593750 -118.273582458496 1.434533476830
-79.614860534668 -76.080055236816 -122.937492370605 5.467347621918
110.928672790527 -73.395759582520 -133.971893310547 1.274526715279
-53.140312194824 -75.653747558594 -139.628417968750 2.719136953354
33.597709655762 -78.057189941406 -134.589721679688 0.310184150934
-74.626037597656 -75.426452636719 -133.787857055664 3.630480527878
23.828754425049 -81.232322692871 -129.714416503906 5.858459949493
-82.486259460449 -76.313911437988 -145.512756347656 6.514895439148
-46.374954223633 -79.453666687012 -142.898544311523 3.520833015442
-77.192321777344 -78.416435241699 -139.935791015625 4.300733566284
107.746109008789 -77.011032104492 -136.183410644531 3.970857620239
120.552352905273 -75.261871337891 -141.594390869141 4.975612163544
118.737548828125 -82.875427246094 -148.926330566406 7.474704265594
-83.136528015137 -75.395317077637 -144.098175048828 6.356421947479
5.170311927795 -71.143135070801 -151.450195312500 3.681329727173
-50.792125701904 -76.127693176270 -147.851913452148 1.966791749001
-53.402610778809 -77.216323852539 -155.511138916016 2.455987691879
104.608741760254 -79.307571411133 -164.772186279297 5.499889850616
-41.311847686768 -79.184577941895 -148.518920898438 1.354894161224
14.029080390930 -72.729057312012 -159.485931396484 1.169327974319
21.667030334473 -79.920982360840 -157.726348876953 2.468383789063
113.487655639648 -75.816490173340 -165.961929321289 3.162634134293
29.788137435913 -75.419265747070 -168.757492065430 1.782317996025
-1.624238967896 -78.595031738281 -164.699935913086 1.844848036766
31.132799148560 -77.772384643555 -160.614212036133 1.969739556313
-68.410560607910 -73.764030456543 -156.196823120117 1.065964818001
-67.864830017090 -75.654060363770 -159.923919677734 1.923600554466
