-140.139465332031 -75.788330078125 -196.317245483398 1.139928579330
-108.927589416504 -71.493484497070 -199.199890136719 1.905773997307
28.138233184814 -65.408401489258 -202.179351806641 8.373387336731
-124.774093627930 -73.081268310547 -196.273681640625 2.658254146576
9.898665428162 -69.777214050293 -204.083999633789 2.494102478027
-127.402198791504 -63.482669830322 -194.595489501953 3.285014629364
-162.755477905273 -71.002525329590 -188.367568969727 7.446146488190
-158.943466186523 -70.932106018066 -197.319305419922 2.156662702560
-154.509185791016 -76.466224670410 -193.574890136719 2.727639675140
-21.196439743042 -67.535850524902 -210.854309082031 3.195468902588
-168.547042846680 -76.661209106445 -200.268066406250 5.229535102844
-28.008165359497 -62.222270965576 -194.621307373047 5.618214130402
-14.975204467773 -69.305046081543 -194.552856445313 1.882883548737
5.503101825714 -58.400028228760 -197.758697509766 9.689857482910
-155.425918579102 -73.457611083984 -209.350479125977 2.778594493866
-105.090629577637 -68.176040649414 -204.474990844727 5.132074832916
-15.668419837952 -62.213855743408 -200.006088256836 6.714230060577
-161.504150390625 -64.586593627930 -201.341308593750 1.196155667305
18.575891494751 -66.465278625488 -205.087493896484 1.474560379982
-171.713317871094 -70.035568237305 -207.655654907227 4.820961952209
-118.244491577148 -73.884887695313 -203.833267211914 3.692981004715
-115.746223449707 -66.742149353027 -211.136352539063 6.214546203613
-121.820716857910 -71.077919006348 -204.847366333008 2.918117761612
-15.900655746460 -64.989646911621 -203.867309570313 2.603429555893
-19.411651611328 -68.113853454590 -205.043731689453 0.888935923576
-163.280242919922 -71.668273925781 -213.395462036133 1.397945880890
-159.018447875977 -68.705001831055 -212.066558837891 2.590924739838
-164.064132690430 -72.645774841309 -220.662673950195 1.340269207954
-137.529708862305 -74.516181945801 -215.016906738281 7.132577419281
-145.116058349609 -69.022117614746 -226.694564819336 1.832907080650
0.337478011847 -62.359497070313 -220.245651245117 5.217464447021
-7.589402198792 -72.576560974121 -219.684097290039 3.419268369675
-101.083259582520 -65.419631958008 -221.463439941406 2.662071466446
-7.883399009705 -61.013061523438 -238.605224609375 3.796518802643
-169.668731689453 -66.490264892578 -232.392364501953 3.914670228958
-103.520385742188 -65.040802001953 -236.263076782227 7.697835922241
3.279021978378 -64.686218261719 -228.555297851563 2.565000772476
1.933956980705 -63.258857727051 -231.087249755859 2.895202398300
-111.565414428711 -67.794860839844 -235.701202392578 3.774934768677
-1.094761013985 -66.062011718750 -228.466812133789 3.095720529556
-118.937568664551 -63.791488647461 -234.851547241211 2.110294580460
-8.180333137512 -59.279701232910 -232.285339355469 6.224368572235
-1.140601038933 -61.900180816650 -236.842269897461 1.875013470650
-2.858345031738 -61.597801208496 -241.520919799805 1.243451118469
73.028625488281 -54.890655517578 -238.724227905273 12.670867919922
-8.298037528992 -67.406433105469 -239.900115966797 1.403616070747
12.075952529907 -63.814144134521 -237.275634765625 2.401209831238
11.673402786255 -61.694473266602 -238.897766113281 2.991921186447
5.346149921417 -64.940994262695 -240.743423461914 1.592945814133
5.602982044220 -65.234954833984 -244.169860839844 2.530416011810
62.467781066895 -53.012718200684 -241.911941528320 12.076824188232
68.740768432617 -53.652694702148 -242.729629516602 13.655300140381
5.703279972076 -60.720378875732 -251.509506225586 3.833461284637
50.780647277832 -63.205066680908 -245.177246093750 2.713590383530
55.559967041016 -66.617263793945 -242.779174804688 3.083616018295
46.778289794922 -54.112194061279 -253.779632568359 8.678643226624
42.937458038330 -55.165790557861 -253.566558837891 7.668331146240
40.812942504883 -57.839637756348 -262.047515869141 6.918588161469
-129.192504882813 -58.723884582520 -261.684783935547 5.523677349091
-7.799642086029 -61.225116729736 -248.036285400391 2.078792572021
31.722705841064 -56.914390563965 -258.964263916016 4.428866386414
42.972274780273 -58.494503021240 -246.066116333008 6.315361976624
30.955028533936 -64.569366455078 -254.348785400391 1.585607290268
-104.519775390625 -69.228675842285 -261.782623291016 1.708591103554
29.504859924316 -62.100028991699 -257.964294433594 1.348921060562
-143.695114135742 -69.663459777832 -263.857482910156 1.489276528358
-116.419303894043 -70.426773071289 -257.044219970703 2.534238100052
-111.959274291992 -66.263381958008 -260.235168457031 2.091269016266
-0.374888002872 -65.790451049805 -260.834777832031 1.130144953728
-152.749847412109 -69.452621459961 -258.203308105469 2.552102327347
38.162776947021 -60.087535858154 -265.781707763672 6.750261783600
-106.794143676758 -64.326957702637 -256.282562255859 1.747605800629
25.846954345703 -66.892868041992 -260.840667724609 1.409665107727
-134.213150024414 -71.097320556641 -267.401062011719 3.341501235962
-116.788917541504 -65.026054382324 -268.981597900391 3.355989217758
-111.920494079590 -65.299018859863 -264.543548583984 3.372420549393
-112.739936828613 -75.412147521973 -262.849243164063 2.409779310226
-142.375442504883 -70.505012512207 -254.848678588867 2.862780809402
30.281167984009 -60.936592102051 -260.207611083984 2.864609479904
-116.657318115234 -63.282585144043 -263.146453857422 2.552940607071
-144.809982299805 -68.802902221680 -264.816497802734 0.459498375654
-5.053494930267 -57.189483642578 -271.834350585938 3.339650392532
-149.203460693359 -69.017768859863 -280.737091064453 1.767593145370
-9.407217979431 -60.603092193604 -292.492553710938 3.796430826187
-5.890871047974 -56.899963378906 -281.721435546875 1.765158057213
-134.591201782227 -63.587852478027 -291.424133300781 2.678256511688
-130.600814819336 -64.680358886719 -294.417236328125 3.387795686722
-135.703674316406 -62.821048736572 -296.638946533203 7.034750938416
-127.181686401367 -60.263637542725 -289.620422363281 4.795558452606
-156.723785400391 -64.504302978516 -295.084228515625 2.392966032028
-159.130661010742 -65.728637695313 -300.626434326172 5.454820632935
-148.842987060547 -69.272514343262 -303.364624023438 3.483734846115
-149.117904663086 -66.886924743652 -306.795074462891 3.085029363632
-145.135574340820 -63.562480926514 -298.219238281250 3.605011224747
-151.841796875000 -63.464179992676 -308.019378662109 3.367454528809
-145.781539916992 -58.988292694092 -318.147094726563 9.235833168030
21.754476547241 -81.035919189453 -27.614324569702 8.103271484375
53.821056365967 -79.427543640137 -39.679939270020 8.711507797241
26.538515090942 -84.827980041504 -38.753421783447 13.089932441711
33.997329711914 -75.556632995605 -46.967998504639 5.096154212952
-39.303726196289 -69.710571289063 -50.450065612793 3.447958230972
-71.610511779785 -74.695800781250 -51.562725067139 1.926751136780
82.105705261230 -72.619346618652 -63.871479034424 1.975599884987
75.375747680664 -74.198181152344 -63.925266265869 5.828357696533
75.354530334473 -76.308448791504 -66.742050170898 4.788168430328
-99.589454650879 -79.405960083008 -72.766113281250 10.603631019592
100.261703491211 -76.775588989258 -78.364799499512 3.302817106247
-24.648994445801 -78.382850646973 -89.069831848145 10.426712036133
62.550525665283 -69.645095825195 -76.562866210938 4.123346328735
-39.867069244385 -71.039276123047 -86.094436645508 3.510440826416
-55.148418426514 -74.504196166992 -82.478950500488 6.302762031555
53.770927429199 -71.607551574707 -92.864921569824 1.988808751106
104.104873657227 -66.553398132324 -93.118827819824 2.087044239044
64.158058166504 -68.707061767578 -94.197959899902 1.403477191925
57.492713928223 -69.390434265137 -92.756813049316 1.613909602165
49.080013275146 -66.277854919434 -104.389999389648 2.101562261581
57.483528137207 -65.643737792969 -105.060874938965 5.447774887085
103.835914611816 -66.444084167480 -99.920166015625 1.787718296051
70.105720520020 -68.729278564453 -111.044158935547 5.254467964172
54.655506134033 -70.587821960449 -108.486808776855 2.158350706100
77.183525085449 -76.609054565430 -110.934989929199 9.180760383606
102.047355651855 -63.556613922119 -109.436180114746 4.801927089691
-71.723884582520 -72.348205566406 -98.985710144043 1.560786008835
-84.776222229004 -75.451995849609 -111.784606933594 1.349623441696
-80.120834350586 -75.747528076172 -113.475646972656 5.566020965576
-59.209892272949 -74.161827087402 -120.875968933105 5.601824760437
-55.696895599365 -77.821617126465 -128.817520141602 5.370561599731
-93.266242980957 -74.180633544922 -122.828475952148 4.065259933472
-71.560249328613 -77.968452453613 -120.643577575684 10.131587982178
-75.537742614746 -78.262603759766 -135.357299804688 3.641202688217
-58.982025146484 -68.734832763672 -128.776763916016 1.887777447701
-86.480308532715 -69.525321960449 -132.070098876953 2.189973115921
-88.458015441895 -72.371414184570 -132.786544799805 2.207810878754
-47.143882751465 -75.579002380371 -136.999328613281 1.481020450592
-48.850952148438 -74.531364440918 -139.952926635742 2.417303085327
-76.330711364746 -77.892669677734 -140.242919921875 3.253405570984
-53.636116027832 -75.154479980469 -143.264572143555 1.731916427612
-71.631256103516 -78.481605529785 -147.962173461914 1.962600708008
19.765485763550 -66.141616821289 -141.666168212891 1.547728180885
-56.654853820801 -77.875083923340 -146.064819335938 2.685409307480
-55.106075286865 -67.324516296387 -147.933547973633 1.748455286026
10.178507804871 -73.601356506348 -157.759017944336 1.417840003967
18.937225341797 -66.571739196777 -152.507019042969 1.215441346169
-139.844573974609 -74.794212341309 -174.243743896484 3.838608026505
-108.987831115723 -69.342658996582 -178.795822143555 1.635856151581
-111.347885131836 -65.827239990234 -191.626358032227 2.175036668777
-152.243774414063 -75.379211425781 -190.867446899414 2.170624017715
-112.440658569336 -70.444671630859 -187.783355712891 1.255407094955
-150.318542480469 -65.816009521484 -197.704635620117 1.479795813560
-113.418418884277 -69.277458190918 -200.635498046875 2.252073049545
-150.668563842773 -67.444351196289 -202.442611694336 2.908027172089
-148.396911621094 -70.287971496582 -208.028823852539 2.806241035461
-153.092361450195 -77.534500122070 -205.705535888672 1.727646350861
-149.136001586914 -69.777702331543 -226.144104003906 2.182244062424
-147.823104858398 -73.429298400879 -228.395309448242 1.430435657501
-105.014709472656 -63.461566925049 -230.606552124023 4.253620147705
-98.325004577637 -68.143745422363 -221.267135620117 1.612748146057
-122.471496582031 -61.436508178711 -233.960983276367 3.735700607300
-105.942222595215 -68.286941528320 -226.551803588867 1.906992316246
-157.004058837891 -69.811637878418 -231.838256835938 1.743638038635
-2.943988084793 -62.998233795166 -225.671493530273 2.537264108658
-131.887023925781 -73.449409484863 -231.117614746094 1.307474613190
-153.143203735352 -69.420379638672 -236.900634765625 1.947962880135
-139.078781127930 -73.459518432617 -233.531387329102 2.201529264450
-9.674942970276 -60.880104064941 -234.654067993164 4.904840946198
9.373188018799 -61.162147521973 -246.543090820313 3.089035987854
62.890983581543 -52.236354827881 -241.455978393555 12.988842964172
18.196643829346 -66.084281921387 -252.287094116211 5.335599422455
53.609310150146 -59.389122009277 -243.521743774414 4.352562904358
40.594825744629 -63.401653289795 -252.118148803711 2.151452064514
63.300365447998 -53.405765533447 -254.841903686523 16.171756744385
-153.353866577148 -68.308898925781 -249.133438110352 1.773670911789
-145.449218750000 -71.616432189941 -256.380462646484 1.789893150330
44.388046264648 -57.343448638916 -257.979675292969 5.291261196136
27.223350524902 -60.221675872803 -255.405700683594 0.740742087364
48.924495697021 -54.234066009521 -255.959991455078 9.308530807495
-145.057006835938 -70.032325744629 -265.917114257813 1.860648989677
-138.166870117188 -65.362838745117 -255.082931518555 2.646181106567
-123.428657531738 -62.896320343018 -260.941436767578 2.010534763336
-132.568893432617 -66.242385864258 -256.921386718750 2.515869140625
-139.096420288086 -68.353363037109 -259.449737548828 2.880590915680
-122.461273193359 -64.904693603516 -261.284240722656 3.261457443237
-143.161636352539 -64.242904663086 -260.943267822266 1.062561869621
-127.407623291016 -69.924476623535 -258.715362548828 3.094203233719
-118.633132934570 -66.981521606445 -266.811737060547 2.244745969772
-129.789779663086 -66.150695800781 -266.824523925781 3.595817565918
-123.206047058105 -60.829208374023 -265.113189697266 3.980247259140
-4.974442005157 -60.912891387939 -268.603027343750 3.611587524414
30.065893173218 -53.783462524414 -262.424285888672 1.148480057716
-145.529571533203 -58.684543609619 -268.197509765625 4.150359153748
26.414831161499 -60.822929382324 -274.260528564453 3.866264820099
-7.046548843384 -51.898960113525 -278.503540039063 1.373203754425
17.984487533569 -65.266410827637 -285.210388183594 1.706203341484
-140.768905639648 -65.096305847168 -290.749114990234 1.778301358223
-124.098381042480 -67.553825378418 -288.319885253906 0.564067423344
-130.254028320313 -57.818016052246 -291.504608154297 7.686395168304
-160.634963989258 -59.383617401123 -293.904022216797 7.247568607330
-127.449523925781 -56.849288940430 -290.075378417969 8.209797859192
-118.127563476563 -61.298984527588 -289.756530761719 4.859370231628
-123.991149902344 -67.035179138184 -300.035217285156 5.546791076660
-153.043197631836 -68.965759277344 -292.238677978516 2.063131570816
32.198863983154 -82.010185241699 -13.617257118225 7.587333202362
30.645168304443 -82.604316711426 -20.786737442017 9.148969650269
39.282424926758 -74.988693237305 -24.181730270386 6.078027725220
49.160518646240 -71.269355773926 -25.221908569336 1.427285790443
31.925460815430 -83.783409118652 -31.037721633911 11.089744567871
20.490915298462 -80.503280639648 -35.675621032715 7.781680583954
-31.154655456543 -80.965988159180 -47.471904754639 10.219665527344
-78.095428466797 -82.803794860840 -56.098731994629 7.529579162598
-15.607307434082 -76.672882080078 -62.094093322754 5.158237934113
76.562561035156 -69.540809631348 -66.908134460449 1.672687053680
106.687301635742 -69.452873229980 -71.466041564941 4.250192642212
65.945045471191 -67.266639709473 -86.522933959961 1.891346454620
62.266834259033 -64.365112304688 -86.766960144043 0.845434784889
98.272521972656 -70.930839538574 -87.442802429199 2.781385898590
-63.226734161377 -72.682212829590 -93.022247314453 0.654779136181
-64.884086608887 -76.813591003418 -90.755554199219 3.419021606445
53.221343994141 -67.056983947754 -93.255767822266 1.248602151871
-66.462554931641 -79.991111755371 -98.152999877930 3.359273195267
-72.379730224609 -74.953781127930 -104.230026245117 2.856282711029
-92.646453857422 -76.797302246094 -105.295555114746 3.161080598831
-75.090965270996 -70.209465026855 -100.385192871094 1.584295392036
48.209197998047 -64.713615417480 -104.512245178223 2.760622262955
-62.873561859131 -78.361923217773 -105.679298400879 5.586165428162
48.351070404053 -66.988265991211 -107.089202880859 1.561256766319
96.451042175293 -66.308036804199 -107.561660766602 2.028801441193
90.327217102051 -67.620567321777 -117.504707336426 9.359195709229
-69.589202880859 -73.440162658691 -118.091255187988 8.484127998352
-86.332176208496 -77.538383483887 -113.877258300781 1.891302108765
-60.664783477783 -73.030006408691 -120.630142211914 4.773077011108
-94.372718811035 -68.811607360840 -119.402984619141 1.691101908684
-74.565216064453 -76.659667968750 -129.273574829102 5.503546237946
-93.449241638184 -64.529434204102 -128.484939575195 4.090643882751
-63.308773040771 -72.435401916504 -118.071556091309 5.371230125427
-59.305671691895 -65.342918395996 -123.575920104980 1.464318752289
-89.352859497070 -76.275108337402 -132.895736694336 5.066571235657
-62.600250244141 -76.260391235352 -128.149642944336 5.651694774628
-82.575752258301 -72.033355712891 -135.705276489258 2.687631368637
-84.407852172852 -73.607719421387 -137.219558715820 3.926759004593
-59.117809295654 -78.571708679199 -140.283813476563 3.617768526077
-59.013111114502 -67.944892883301 -135.200180053711 2.428510427475
-54.582157135010 -63.353187561035 -134.043807983398 2.055991649628
-99.553787231445 -69.920127868652 -131.805648803711 7.555117130280
-96.793037414551 -66.883773803711 -146.330947875977 3.033465147018
-91.043449401855 -73.316993713379 -138.630706787109 5.649627208710
19.667676925659 -70.628883361816 -154.110916137695 2.616863489151
-49.309238433838 -72.117576599121 -141.562591552734 2.257667541504
21.691698074341 -68.062454223633 -154.484420776367 1.830781102180
-96.885757446289 -72.389129638672 -167.818893432617 6.330979824066
-102.209030151367 -78.409111022949 -172.624145507813 9.352702140808
-101.775161743164 -66.190490722656 -172.375289916992 0.443798571825
-108.249732971191 -61.913116455078 -176.527359008789 1.905402660370
-108.864501953125 -71.339065551758 -179.826248168945 3.220288515091
-109.690399169922 -70.302764892578 -180.864669799805 2.357438087463
-142.044769287109 -67.946258544922 -187.336944580078 1.506891608238
-110.595703125000 -68.758956909180 -186.821182250977 1.730544924736
-133.816390991211 -66.296554565430 -204.014068603516 2.145579338074
-150.667663574219 -74.320587158203 -200.051773071289 1.763907551765
-129.205795288086 -70.473457336426 -200.147857666016 2.776151895523
-158.192443847656 -74.214431762695 -196.288681030273 3.295629739761
-146.267013549805 -75.697296142578 -204.357101440430 2.107826232910
-127.103477478027 -62.646854400635 -197.138107299805 2.045463800430
-134.304016113281 -67.086158752441 -200.198654174805 2.003684520721
-137.535339355469 -77.905075073242 -208.765945434570 5.876880645752
-129.584701538086 -70.364669799805 -223.995056152344 0.956635594368
-107.377403259277 -69.942512512207 -232.925277709961 3.130026340485
-140.706588745117 -69.032661437988 -228.297760009766 3.457087039948
-120.615600585938 -65.141784667969 -234.170364379883 2.081522941589
-117.264022827148 -59.874626159668 -231.428146362305 4.248840332031
-120.326454162598 -69.092597961426 -233.512298583984 3.187606334686
-134.291641235352 -66.415092468262 -234.988510131836 0.877887368202
-114.542846679688 -61.635604858398 -240.609909057617 7.604163646698
6.155307769775 -59.759185791016 -238.868682861328 1.672860264778
-152.462921142578 -70.187072753906 -241.101669311523 3.278090476990
5.890226840973 -61.054386138916 -239.517349243164 1.771185159683
3.119358062744 -55.020061492920 -247.318832397461 2.484916448593
2.955595970154 -63.943271636963 -245.493225097656 2.522984266281
12.564369201660 -56.623741149902 -243.010513305664 1.467098116875
-142.532882690430 -63.719673156738 -235.561904907227 1.918070197105
-6.154272079468 -64.098052978516 -251.403564453125 1.277781128883
19.519367218018 -60.268119812012 -240.570556640625 2.897392749786
52.285202026367 -55.157482147217 -253.062103271484 8.815702438354
50.633026123047 -55.754348754883 -254.504684448242 8.122447967529
-146.445343017578 -68.965850830078 -253.840530395508 2.111098527908
-4.673817157745 -62.613658905029 -252.799301147461 3.408439874649
20.216047286987 -60.372070312500 -255.828186035156 1.794480323792
-130.755569458008 -57.307800292969 -258.346099853516 7.118851184845
-121.053588867188 -63.536956787109 -257.105773925781 4.545701503754
-122.877044677734 -68.091835021973 -259.797485351563 2.922581911087
27.459423065186 -57.635490417480 -259.279052734375 1.518472433090
-133.268890380859 -59.630886077881 -268.113250732422 7.300732135773
34.572216033936 -54.615997314453 -260.576629638672 5.619640827179
35.121498107910 -57.084419250488 -265.005096435547 6.232027053833
-154.452224731445 -67.930976867676 -270.071807861328 2.418586969376
-145.100860595703 -70.296562194824 -287.609100341797 2.993973493576
-148.194580078125 -57.722053527832 -287.660461425781 4.204462051392
-144.479064941406 -61.032833099365 -297.699920654297 4.074474334717
15.718792915344 -60.124252319336 -294.449188232422 5.032308101654
-154.864944458008 -60.061561584473 -306.760772705078 6.403430938721
49.586009979248 -80.059249877930 -29.231863021851 8.011676788330
38.448204040527 -81.979904174805 -42.821086883545 9.054027557373
-56.169013977051 -73.741424560547 -49.154701232910 2.296171665192
-69.154953002930 -75.782791137695 -49.810195922852 2.750028848648
-24.687084197998 -72.330604553223 -53.511917114258 4.313865184784
-21.270521163940 -80.805099487305 -57.694183349609 5.415012359619
-7.016498088837 -70.383514404297 -69.501960754395 6.961150646210
-27.265737533569 -69.508354187012 -72.648872375488 2.317584514618
65.825920104980 -70.941253662109 -78.038513183594 1.793806076050
-94.169868469238 -69.230407714844 -81.374702453613 1.858242511749
-43.938179016113 -75.225814819336 -91.261451721191 6.094365596771
56.039318084717 -72.211311340332 -88.881439208984 2.693486690521
63.325412750244 -70.666557312012 -87.972175598145 1.410371780396
60.857128143311 -70.790603637695 -91.035751342773 1.839760422707
109.226905822754 -66.243911743164 -93.398422241211 3.636118173599
53.836841583252 -67.819526672363 -90.632942199707 1.387750029564
98.606185913086 -57.744926452637 -101.873962402344 2.053521156311
-82.961654663086 -77.439277648926 -107.038734436035 2.342051744461
-89.220481872559 -74.308563232422 -102.591575622559 5.050563335419
74.773246765137 -62.085983276367 -117.177604675293 6.511734008789
-77.994667053223 -75.457328796387 -106.513290405273 3.289081573486
-76.158157348633 -79.792785644531 -114.157241821289 8.325785636902
-83.065208435059 -82.302291870117 -122.682685852051 9.751321792603
-54.124843597412 -73.194679260254 -128.596557617188 2.657157659531
-74.798248291016 -71.303810119629 -131.955749511719 1.421632289886
-63.121669769287 -65.902832031250 -129.275268554688 1.462826609612
-86.543205261230 -74.588943481445 -138.672958374023 6.057920932770
-75.739921569824 -70.457740783691 -135.086563110352 1.155478954315
-78.131629943848 -71.370468139648 -127.304428100586 1.220655918121
-89.577705383301 -71.425453186035 -131.280364990234 0.211724430323
-67.442138671875 -67.541336059570 -138.051345825195 3.215861797333
-89.455459594727 -73.871086120605 -133.160064697266 3.065778493881
-49.562076568604 -74.088279724121 -134.700408935547 1.661116600037
-53.481517791748 -78.091461181641 -141.889434814453 2.238263607025
28.921632766724 -66.560928344727 -145.538604736328 2.186537265778
-55.069015502930 -63.178428649902 -137.508666992188 2.243543863297
16.851963043213 -73.651542663574 -145.153411865234 4.402351379395
13.761221885681 -64.228088378906 -149.396820068359 0.945998370647
17.901840209961 -60.991950988770 -156.946319580078 3.875961065292
-98.426750183105 -70.280838012695 -147.495864868164 2.490988016129
-88.253913879395 -71.408798217773 -150.204879760742 5.516606807709
-96.226211547852 -67.724426269531 -151.515502929688 1.663224101067
-106.173225402832 -71.647499084473 -167.011795043945 2.508953809738
-98.272636413574 -68.809265136719 -162.336364746094 2.609554767609
-152.282546997070 -67.705101013184 -177.372222900391 3.007183551788
-153.578643798828 -71.956909179688 -176.833923339844 1.335693120956
-114.227218627930 -66.764625549316 -183.812438964844 2.257248878479
-140.187820434570 -69.557563781738 -178.235458374023 2.513062238693
-109.383522033691 -64.937828063965 -184.239318847656 3.149710416794
-147.330749511719 -60.395484924316 -188.104522705078 2.192872047424
-111.112335205078 -64.313667297363 -191.451751708984 2.247907876968
-110.574035644531 -71.790534973145 -182.056488037109 4.286324501038
-146.433013916016 -68.745819091797 -202.708404541016 2.301181077957
-126.290489196777 -71.285423278809 -198.683975219727 3.288102626801
-104.630775451660 -68.491142272949 -199.599288940430 4.947060585022
-116.280136108398 -60.409927368164 -199.163116455078 3.070517539978
-113.397773742676 -70.755157470703 -202.251388549805 0.482885628939
-117.093437194824 -61.387638092041 -203.828323364258 2.556831598282
-134.122100830078 -66.060676574707 -197.423843383789 1.735296607018
-142.451049804688 -69.332618713379 -205.401138305664 1.514011740685
-129.119354248047 -65.749893188477 -211.514694213867 6.305742740631
-129.619171142578 -62.168636322021 -200.746307373047 1.837905049324
-121.254280090332 -65.108459472656 -206.196731567383 2.076857089996
-110.446166992188 -66.927963256836 -207.093780517578 2.536792278290
-149.875625610352 -67.145515441895 -213.285202026367 1.938673019409
-153.389175415039 -67.316390991211 -218.521194458008 1.252809405327
-153.218170166016 -68.339416503906 -222.413223266602 0.481831401587
-138.129425048828 -73.183242797852 -226.668304443359 2.761401176453
-131.598541259766 -60.353839874268 -229.015808105469 3.817029714584
-119.508338928223 -69.573829650879 -217.933364868164 7.185283660889
-139.995635986328 -69.838050842285 -232.107147216797 2.664196491241
-152.168838500977 -69.521697998047 -225.103103637695 1.818396925926
-132.982620239258 -68.320297241211 -227.170974731445 1.475718498230
-133.583160400391 -62.770019531250 -229.070877075195 0.797071993351
-146.864151000977 -65.242050170898 -229.274826049805 1.657090544701
-136.656677246094 -57.235225677490 -228.037063598633 6.527166366577
-129.833023071289 -65.317451477051 -234.261032104492 1.132926821709
-13.703869819641 -62.575511932373 -239.311798095703 3.585459709167
5.378400802612 -57.498558044434 -244.440383911133 1.109539985657
14.087203979492 -51.324386596680 -245.406234741211 2.206893205643
9.242536544800 -62.533256530762 -245.804595947266 1.620955824852
-6.912706851959 -64.313888549805 -238.639846801758 2.672828197479
-14.135794639587 -60.645179748535 -248.384170532227 5.779886245728
34.042274475098 -55.424354553223 -250.550582885742 4.387544155121
45.966957092285 -55.366554260254 -256.557037353516 7.557861328125
-148.014404296875 -64.492263793945 -254.918197631836 1.933290719986
42.379508972168 -53.624862670898 -256.017822265625 8.482638359070
40.697326660156 -58.754756927490 -256.053497314453 3.671749830246
-160.562332153320 -72.318367004395 -257.173950195313 2.894896984100
-150.317291259766 -66.075729370117 -257.127136230469 0.822093605995
-153.651840209961 -67.586929321289 -259.577239990234 2.916884422302
2.947043895721 -60.243438720703 -264.933929443359 3.368270635605
-150.868453979492 -66.003349304199 -269.025421142578 1.931689500809
-1.424162983894 -57.705902099609 -275.649719238281 4.642489433289
-145.761413574219 -67.898162841797 -276.984252929688 3.276637554169
-148.404098510742 -64.563346862793 -281.694885253906 1.373666882515
-151.288345336914 -63.003856658936 -288.723937988281 2.171874523163
-150.952713012695 -51.649833679199 -282.753143310547 9.920904159546
-146.875595092773 -59.593120574951 -294.801391601563 3.058314323425
-155.243255615234 -62.431720733643 -285.392639160156 2.829010486603
-151.775009155273 -64.379707336426 -287.323181152344 2.662953376770
-154.414657592773 -58.270992279053 -289.023620605469 3.625186920166
-149.066314697266 -62.098640441895 -290.063385009766 2.061389446259
-144.892761230469 -62.851146697998 -287.699310302734 2.470937967300
9.162980079651 -58.272502899170 -283.359039306641 1.355151295662
-146.826568603516 -60.968193054199 -297.794708251953 2.231691360474
-159.621490478516 -56.883228302002 -293.747253417969 8.673922538757
-158.889358520508 -55.349845886230 -288.030639648438 8.179282188416
-149.977569580078 -59.256587982178 -293.385253906250 2.312638282776
-148.116943359375 -53.085777282715 -287.195159912109 8.478897094727
-147.485122680664 -65.573936462402 -293.563873291016 1.285707712173
7.287954807281 -57.928802490234 -294.375732421875 1.612451076508
-144.351242065430 -57.516834259033 -295.662841796875 6.297492980957
-149.083007812500 -57.397792816162 -292.902221679688 4.149483203888
31.230577468872 -69.191436767578 -15.834193229675 1.279102802277
45.511531829834 -80.265510559082 -25.020473480225 8.262700080872
44.525955200195 -71.567436218262 -23.581315994263 1.744677901268
17.168413162231 -79.169425964355 -35.008007049561 6.878421306610
24.947168350220 -63.265632629395 -36.944324493408 2.427182197571
37.646446228027 -71.742790222168 -39.251422882080 1.071257352829
-53.169155120850 -75.669815063477 -48.000526428223 4.630349159241
-48.310581207275 -76.919006347656 -42.484397888184 8.036465644836
92.703971862793 -68.787628173828 -70.237251281738 3.347091197968
-93.313438415527 -74.911697387695 -67.172851562500 4.831482410431
100.045341491699 -81.226615905762 -64.069999694824 11.323459625244
70.442070007324 -72.671478271484 -75.588729858398 2.695158720016
99.679824829102 -70.300262451172 -82.523475646973 2.448269844055
64.151016235352 -76.588516235352 -80.130607604980 6.768311977386
-41.126129150391 -73.692611694336 -79.730873107910 1.658330559731
60.394447326660 -66.572677612305 -84.682968139648 1.393751621246
-47.446517944336 -70.635612487793 -78.088928222656 6.075065135956
55.399497985840 -69.118942260742 -85.425102233887 1.240672111511
64.616714477539 -63.664779663086 -89.530174255371 1.330884456635
-96.909721374512 -74.735542297363 -86.534446716309 2.448799133301
52.837661743164 -66.976905822754 -85.522476196289 1.352831840515
53.324726104736 -75.469444274902 -96.588356018066 1.565170645714
67.354766845703 -68.984703063965 -94.444633483887 1.909827351570
53.300624847412 -67.508575439453 -99.534416198730 1.181807756424
-78.941314697266 -70.867744445801 -108.688247680664 2.436999082565
83.914848327637 -71.417953491211 -109.709907531738 4.488781929016
-82.973937988281 -77.674118041992 -123.485168457031 6.681084156036
-76.454452514648 -70.699684143066 -105.691925048828 2.024136781693
-78.482963562012 -72.833877563477 -126.377082824707 2.941076755524
-83.401542663574 -70.585533142090 -118.923439025879 1.279000878334
-95.443778991699 -66.596801757813 -120.961006164551 2.431077003479
-80.999053955078 -73.406257629395 -121.810935974121 3.128021240234
-48.827049255371 -68.866615295410 -125.666297912598 5.844594001770
-77.574409484863 -67.135185241699 -137.264328002930 0.982894897461
-56.303134918213 -64.111907958984 -129.384231567383 1.814895629883
-87.929450988770 -67.043968200684 -138.911346435547 1.141802191734
30.629970550537 -64.930381774902 -140.502380371094 2.709613561630
20.176443099976 -65.811576843262 -143.647109985352 1.766957163811
-94.792518615723 -57.224590301514 -145.999496459961 5.849928379059
23.823347091675 -68.186172485352 -150.756927490234 1.702551245689
-88.440971374512 -74.044235229492 -149.727416992188 7.324895381927
-94.042594909668 -64.053092956543 -148.913833618164 1.889680027962
18.651330947876 -64.935333251953 -166.532928466797 3.557635545731
-95.560859680176 -69.099075317383 -150.443893432617 1.279194116592
-98.938690185547 -67.736854553223 -147.267501831055 3.198671579361
-104.057830810547 -68.955261230469 -156.095108032227 3.360824823380
-92.623023986816 -68.876884460449 -164.657104492188 5.292645454407
-101.830848693848 -71.975929260254 -183.319595336914 4.734592437744
-109.837081909180 -77.966918945313 -172.134368896484 8.036387443542
-95.356910705566 -70.558616638184 -167.174468994141 6.229549407959
-103.672554016113 -70.761688232422 -168.494430541992 2.135332107544
-139.324325561523 -70.505760192871 -180.734497070313 2.968504905701
-111.746482849121 -68.448081970215 -178.893356323242 1.938203811646
-138.859786987305 -69.060035705566 -189.163970947266 3.469879150391
-148.164138793945 -63.810337066650 -192.486053466797 1.852421283722
-155.589309692383 -62.478004455566 -187.143783569336 3.992282390594
-120.911796569824 -63.826972961426 -197.777252197266 2.531377553940
-126.800834655762 -73.415832519531 -194.373626708984 3.188632965088
-121.776374816895 -63.488861083984 -202.877426147461 2.112381219864
-144.583862304688 -70.750656127930 -202.512817382813 0.571212410927
-122.359329223633 -71.616088867188 -205.032470703125 2.873999595642
-147.020431518555 -68.127555847168 -203.787948608398 2.625263690948
-152.424682617188 -67.081352233887 -206.099777221680 0.818680405617
-154.183303833008 -64.142478942871 -227.067565917969 1.874516844749
-143.570404052734 -72.772094726563 -233.301712036133 1.221902132034
-128.970581054688 -61.190044403076 -231.795898437500 4.817568302155
-152.600860595703 -64.341094970703 -230.055847167969 2.095575332642
-2.449345111847 -64.848449707031 -242.672790527344 1.114102602005
11.238963127136 -54.512298583984 -239.152175903320 1.430995106697
-0.572260022163 -63.501064300537 -246.124481201172 2.310380458832
-152.100738525391 -63.031940460205 -245.737945556641 3.249437332153
-9.318052291870 -56.510238647461 -241.819671630859 3.204938650131
-154.734985351563 -71.431068420410 -255.282470703125 2.792936563492
-7.250680923462 -65.185928344727 -252.927032470703 1.427537798882
-147.877212524414 -66.630043029785 -256.211791992188 2.164311647415
19.720645904541 -57.681156158447 -253.225097656250 2.651377439499
-152.209548950195 -57.439388275146 -255.795837402344 4.118579387665
-150.294616699219 -63.416606903076 -256.555114746094 1.543974041939
-151.094375610352 -63.446071624756 -254.830535888672 0.589436948299
-149.518859863281 -61.847717285156 -259.673706054688 1.933281898499
31.507808685303 -56.520015716553 -262.419006347656 2.674864768982
31.978801727295 -55.414730072021 -267.413330078125 3.425968408585
-144.994613647461 -64.165092468262 -254.470977783203 1.194484114647
-153.222610473633 -56.853454589844 -259.578125000000 5.264338016510
-153.217254638672 -68.711357116699 -261.044799804688 2.442052602768
-146.796386718750 -60.118717193604 -258.693908691406 2.307261705399
27.466936111450 -54.035709381104 -264.789733886719 1.625332474709
29.291400909424 -54.017158508301 -269.955200195313 2.633629798889
-157.765228271484 -65.321052551270 -263.228973388672 3.000203609467
-143.911270141602 -61.925556182861 -264.785186767578 1.777382016182
-147.931091308594 -58.077030181885 -262.706817626953 2.207799911499
-143.377212524414 -61.660911560059 -266.696624755859 2.777352094650
-142.434799194336 -66.439529418945 -262.887176513672 1.618361115456
-143.425659179688 -69.729049682617 -267.269409179688 2.510968923569
-148.461090087891 -59.534648895264 -267.480529785156 2.932287454605
-150.906692504883 -55.594135284424 -287.872589111328 5.933089256287
-145.746368408203 -60.757278442383 -282.889678955078 3.181055784225
-147.819717407227 -61.939834594727 -279.059265136719 2.628450870514
15.536910057068 -53.459388732910 -282.837249755859 2.157020807266
-154.818420410156 -55.817852020264 -286.713928222656 5.604190349579
-147.201263427734 -59.013309478760 -292.600158691406 3.598689317703
-6.672066211700 -64.221336364746 -288.565063476563 3.946105241776
4.298633098602 -52.719543457031 -293.424804687500 1.523637533188
-154.206436157227 -60.578430175781 -294.648956298828 4.544226169586
29.526363372803 -81.230537414551 -24.541366577148 8.403829574585
49.072483062744 -74.723213195801 -30.517187118530 3.220819711685
52.390998840332 -78.558708190918 -36.377017974854 6.752361297607
41.124267578125 -67.851295471191 -40.458259582520 0.507716596127
28.680856704712 -81.466995239258 -40.323017120361 9.234567642212
47.780941009521 -74.351997375488 -44.502693176270 7.687100887299
79.366821289063 -64.456794738770 -66.755325317383 5.074111461639
79.342605590820 -69.026931762695 -66.753120422363 2.256695508957
-18.526596069336 -72.404533386230 -74.456298828125 2.702448606491
70.257965087891 -65.340965270996 -74.268394470215 3.548170804977
-25.594823837280 -74.393203735352 -73.576728820801 2.873358488083
-35.575942993164 -78.952774047852 -84.321479797363 3.255064249039
-56.775428771973 -72.845726013184 -76.387718200684 8.986170768738
-55.419124603271 -69.019760131836 -80.454025268555 5.007791519165
64.777870178223 -74.684806823730 -85.181480407715 3.166861057281
111.542297363281 -70.326400756836 -95.389671325684 4.714537143707
-57.516506195068 -68.568809509277 -86.632232666016 3.532890081406
60.430294036865 -67.035575866699 -99.278961181641 2.217040777206
67.925811767578 -64.920410156250 -98.820777893066 2.303965806961
105.023284912109 -63.070945739746 -96.207374572754 2.920925378799
-63.850204467773 -78.061973571777 -95.024986267090 1.166885614395
56.203353881836 -61.589408874512 -98.345291137695 1.427554607391
-59.429401397705 -76.247192382813 -107.083343505859 8.963842391968
70.051422119141 -65.884849548340 -97.889770507813 3.286842584610
67.742515563965 -65.940010070801 -106.516494750977 3.911532402039
-75.855300903320 -68.957458496094 -110.905799865723 1.625731468201
-95.389404296875 -70.053054809570 -115.746063232422 3.137387275696
-68.944145202637 -63.240768432617 -114.707099914551 2.599825859070
-82.245437622070 -73.295127868652 -113.191322326660 4.108735084534
-58.804721832275 -73.778236389160 -118.532997131348 5.968554496765
-82.356925964355 -69.184150695801 -108.150924682617 2.580291032791
-72.166610717773 -72.325782775879 -115.604331970215 5.715816497803
-75.465538024902 -75.186996459961 -115.494972229004 5.707064151764
-69.205604553223 -74.876129150391 -121.254570007324 9.937443733215
-84.866058349609 -73.892601013184 -129.732894897461 4.516193389893
36.346881866455 -65.395103454590 -132.250732421875 3.534832239151
-45.784576416016 -67.867034912109 -133.036804199219 3.718792915344
34.913566589355 -63.568401336670 -139.740356445313 5.300080776215
31.903030395508 -65.880950927734 -134.103759765625 1.833451151848
30.255168914795 -70.693534851074 -132.982421875000 1.535523176193
-53.803958892822 -65.937011718750 -129.505203247070 1.791082262993
23.597751617432 -65.263473510742 -148.648147583008 3.603447437286
22.699056625366 -65.482910156250 -147.134597778320 3.199478149414
-145.132308959961 -72.225761413574 -179.175888061523 2.351976633072
-150.848785400391 -64.157440185547 -175.170471191406 1.945356369019
-152.186523437500 -68.173866271973 -185.375854492188 3.280177593231
-145.382278442383 -64.976913452148 -184.551193237305 2.821976423264
-150.453231811523 -69.751831054688 -198.040298461914 1.742941498756
-151.031661987305 -71.160743713379 -194.673080444336 1.654740095139
-136.801651000977 -69.279968261719 -193.985412597656 3.214297533035
-142.226760864258 -64.594734191895 -202.997772216797 1.054718255997
-119.073669433594 -71.197738647461 -201.842910766602 2.134769439697
-135.058227539063 -68.651840209961 -207.480133056641 3.897093057632
-148.981506347656 -68.962005615234 -217.535522460938 2.960124492645
-145.767929077148 -56.025390625000 -220.682586669922 5.461388587952
-151.305526733398 -64.775115966797 -229.131362915039 2.721997976303
-145.366699218750 -66.874259948730 -230.161560058594 2.313369035721
-149.602737426758 -64.460746765137 -231.418060302734 1.952576279640
-150.179122924805 -60.193553924561 -225.899124145508 1.216838002205
-145.049545288086 -66.566658020020 -233.806106567383 1.493876218796
-144.319564819336 -66.713478088379 -234.204254150391 1.298936843872
-141.233261108398 -61.243110656738 -240.761444091797 4.019513607025
-145.655166625977 -67.970649719238 -227.545349121094 1.559574007988
-155.829421997070 -63.666587829590 -235.004333496094 1.791010260582
12.869793891907 -54.841899871826 -241.388412475586 2.327137947083
-6.986328125000 -63.242519378662 -243.690093994141 2.541133642197
-144.547302246094 -59.030597686768 -246.080261230469 4.681990623474
-153.175308227539 -65.461845397949 -238.752197265625 4.210844516754
-155.487396240234 -67.991409301758 -243.317642211914 2.970645189285
8.119797706604 -59.336185455322 -243.839233398438 1.817860007286
-149.023559570313 -62.170532226563 -237.059234619141 1.568131089211
-149.270645141602 -68.817359924316 -254.206024169922 2.065428972244
-5.206747055054 -59.304195404053 -249.891479492188 3.014323949814
-146.128540039063 -62.466629028320 -252.010421752930 0.820124685764
-140.541595458984 -61.502990722656 -256.069671630859 3.658245801926
-139.640838623047 -62.895519256592 -257.356475830078 3.118122100830
-143.009155273438 -62.561332702637 -255.095474243164 1.713891625404
30.124937057495 -59.833549499512 -267.104797363281 4.849686622620
-149.011657714844 -68.562728881836 -264.434631347656 2.677988529205
29.848121643066 -55.208824157715 -275.708496093750 2.056995153427
12.751606941223 -50.454700469971 -290.601593017578 2.479786157608
2.133210897446 -53.708858489990 -287.552978515625 3.073010206223
10.108892440796 -49.956874847412 -296.624450683594 1.617386817932
34.515583038330 -74.432373046875 -24.732521057129 7.134758949280
43.301933288574 -82.914543151855 -42.262783050537 10.110591888428
40.571697235107 -80.863906860352 -41.823959350586 7.765812873840
-42.427955627441 -74.228851318359 -50.003726959229 2.606696128845
-89.815116882324 -78.821769714355 -60.036167144775 7.775033950806
-92.802864074707 -77.027214050293 -63.265987396240 7.566474914551
-21.299663543701 -70.054168701172 -69.278503417969 3.177412509918
103.642799377441 -69.107688903809 -70.102188110352 3.125492095947
110.114616394043 -65.082977294922 -76.918945312500 5.827885150909
108.878952026367 -66.752288818359 -78.677230834961 4.200264930725
-47.032131195068 -73.708702087402 -85.080886840820 3.275518894196
-60.798069000244 -70.386596679688 -86.920684814453 3.981117963791
59.785106658936 -66.996177673340 -92.383163452148 2.717183828354
55.882301330566 -73.463722229004 -94.875297546387 1.389509558678
-56.267166137695 -77.694999694824 -99.764205932617 6.733281135559
-92.628692626953 -66.660118103027 -110.989089965820 4.040731430054
75.678596496582 -63.023799896240 -111.674934387207 1.718982338905
-79.835479736328 -69.726585388184 -106.673690795898 2.187753200531
-66.451171875000 -74.385261535645 -108.350563049316 5.330296516418
-77.081893920898 -77.032516479492 -117.397171020508 5.759940147400
-82.848037719727 -60.810546875000 -118.259483337402 1.149478673935
-81.982643127441 -72.062263488770 -118.057029724121 1.002543449402
-69.783699035645 -57.475830078125 -122.544357299805 3.119924306870
-66.386756896973 -68.156936645508 -116.461654663086 3.651331901550
-81.086952209473 -62.254253387451 -118.192565917969 1.424346566200
-73.006240844727 -69.915786743164 -118.131118774414 4.414052009583
-59.436229705811 -67.502304077148 -120.546264648438 1.463650703430
-83.066612243652 -69.429145812988 -118.546188354492 1.999133467674
-72.397247314453 -70.371131896973 -120.844062805176 5.086952209473
-71.600654602051 -65.704292297363 -132.038482666016 2.913246154785
-80.542282104492 -69.290336608887 -130.341964721680 1.347612261772
27.174976348877 -63.812767028809 -123.075263977051 6.769665241241
-58.462448120117 -64.663589477539 -135.150283813477 1.370451569557
29.749507904053 -65.491134643555 -136.916030883789 2.483321666718
23.045480728149 -70.869529724121 -144.500411987305 2.558265209198
-141.714355468750 -68.997344970703 -196.163787841797 0.939049065113
-133.383071899414 -67.092567443848 -198.983139038086 2.409912824631
-149.900604248047 -68.375541687012 -206.159896850586 2.702671766281
-150.981048583984 -63.286640167236 -199.422195434570 2.186197519302
-158.716262817383 -72.774757385254 -203.031600952148 2.217913389206
-146.262008666992 -60.813899993896 -202.523712158203 1.200450539589
-140.705093383789 -64.006004333496 -202.695114135742 2.519376993179
-149.143173217773 -62.108684539795 -208.271331787109 0.910755813122
-146.366699218750 -67.720657348633 -224.892868041992 2.322054386139
-147.696975708008 -64.569702148438 -218.634811401367 1.631190538406
-142.805374145508 -60.789379119873 -225.659530639648 2.038419961929
-142.949371337891 -64.051223754883 -221.505950927734 2.134663820267
-151.288345336914 -65.020080566406 -228.096328735352 3.161878108978
-147.774215698242 -61.128589630127 -224.435668945313 1.879690170288
-149.220794677734 -61.666927337646 -228.791870117188 0.996032893658
-139.468307495117 -61.325305938721 -228.217437744141 3.166048288345
-141.785644531250 -68.804794311523 -228.401763916016 2.764684438705
-142.706497192383 -61.775249481201 -235.107147216797 1.096112132072
-149.826660156250 -58.861366271973 -235.670822143555 1.897748589516
-146.242736816406 -59.860343933105 -233.671981811523 2.336847543716
3.633529901505 -60.175468444824 -240.426498413086 1.840430617332
18.784324645996 -54.953163146973 -246.335189819336 3.004649400711
24.766613006592 -47.692932128906 -257.553344726563 4.058922767639
22.998622894287 -54.867794036865 -258.213958740234 2.537584781647
10.868736267090 -58.223937988281 -264.817932128906 4.208333492279
21.082229614258 -56.015682220459 -282.356872558594 0.940207660198
8.055036544800 -56.236175537109 -281.721710205078 1.852048397064
8.037761688232 -52.780906677246 -295.993103027344 2.002583026886
10.322056770325 -55.497829437256 -288.478057861328 2.456138134003
53.219951629639 -78.550018310547 -25.149122238159 7.048251152039
33.787818908691 -69.619178771973 -41.074787139893 1.856987357140
-29.235225677490 -70.337432861328 -53.271499633789 1.106937408447
-12.648067474365 -71.537010192871 -54.997486114502 4.321660995483
-11.737633705139 -63.370113372803 -62.238109588623 3.232241153717
97.855690002441 -67.503669738770 -62.624473571777 3.184635400772
-93.240394592285 -68.382209777832 -75.627883911133 3.244663000107
100.421730041504 -69.938575744629 -76.505149841309 1.528565287590
56.413040161133 -67.660827636719 -90.655456542969 2.739603042603
71.374855041504 -63.010921478271 -90.260704040527 5.010138511658
-63.352035522461 -67.950538635254 -95.271156311035 2.866901874542
54.396629333496 -66.533058166504 -96.024497985840 2.304194450378
61.334167480469 -59.172405242920 -89.266853332520 1.924441933632
106.169822692871 -62.175876617432 -100.313957214355 1.751183152199
-69.226676940918 -69.956993103027 -94.836013793945 3.481442451477
-70.801872253418 -66.835746765137 -95.427185058594 3.578674554825
84.903877258301 -65.919143676758 -110.516304016113 4.748016834259
-72.028297424316 -72.040695190430 -110.114753723145 3.749388694763
-62.480690002441 -68.661026000977 -106.353507995605 6.336614131927
38.619647979736 -60.418712615967 -125.316421508789 1.799646139145
-82.705993652344 -70.474250793457 -127.602355957031 1.102552533150
41.979980468750 -64.209342956543 -124.144798278809 3.781966686249
-88.238426208496 -71.239646911621 -120.125404357910 3.545668601990
-97.510131835938 -64.130950927734 -131.624893188477 5.187941551208
-67.812080383301 -64.221275329590 -123.911056518555 2.691101312637
34.166122436523 -62.711746215820 -127.430747985840 0.832993268967
-62.254192352295 -71.368583679199 -130.285308837891 1.634850621223
-53.905036926270 -66.317237854004 -135.377838134766 2.441071748734
-57.364250183105 -69.298057556152 -139.727844238281 1.722282052040
-144.077270507813 -63.318244934082 -199.253265380859 2.012059688568
-150.128479003906 -61.814037322998 -189.670303344727 3.081095695496
-145.939407348633 -64.995628356934 -195.624496459961 2.302522420883
-152.827545166016 -66.178649902344 -197.959030151367 2.375891208649
-145.279998779297 -69.169357299805 -193.900650024414 1.754807353020
-146.700851440430 -61.371841430664 -197.754470825195 1.173519730568
-137.724243164063 -61.529808044434 -199.682174682617 3.812279462814
-146.932434082031 -65.444587707520 -203.992080688477 2.308248996735
-143.737716674805 -69.135147094727 -197.148269653320 1.759181618690
-153.531082153320 -60.894115447998 -207.159088134766 1.794747352600
-139.969329833984 -67.176704406738 -203.320831298828 1.537647008896
-146.209869384766 -68.557807922363 -206.115844726563 2.738985061646
-145.559082031250 -60.378047943115 -206.087097167969 0.913040220737
-151.030685424805 -61.719741821289 -206.686706542969 0.468700885773
-143.922821044922 -62.948242187500 -224.349960327148 1.151638984680
-4.785706996918 -60.997524261475 -233.847702026367 4.189929962158
7.167524814606 -54.748943328857 -245.478210449219 1.215489864349
7.564600944519 -53.069862365723 -238.701812744141 0.709642469883
5.189326763153 -55.708393096924 -245.715316772461 1.289784550667
20.373178482056 -52.296432495117 -249.780746459961 2.450037717819
0.822187006474 -58.586544036865 -259.813964843750 5.476573944092
13.585018157959 -55.588008880615 -271.695526123047 0.624680995941
26.903232574463 -62.491596221924 -270.005401611328 0.778953433037
17.996522903442 -50.535568237305 -283.458587646484 2.286308765411
