-129.783309936523 -87.518028259277 -290.648803710938 6.231441974640
-154.312042236328 -83.971496582031 -291.205047607422 1.251983523369
-145.936309814453 -87.007926940918 -292.676269531250 1.899746179581
-147.247604370117 -83.724296569824 -290.135192871094 1.683386564255
-153.670349121094 -86.457695007324 -298.469726562500 3.120711565018
-144.629837036133 -80.163909912109 -292.922851562500 2.312880754471
-152.626129150391 -83.668235778809 -303.140960693359 2.701906442642
-147.438812255859 -85.248847961426 -305.657348632813 0.780403077602
-146.592987060547 -78.030891418457 -308.423767089844 2.278010129929
-59.173473358154 -70.848258972168 -62.503112792969 5.945295333862
-67.512390136719 -79.928573608398 -65.767700195313 0.879317343235
-49.289180755615 -80.581878662109 -61.863422393799 2.880993127823
-25.879751205444 -83.028846740723 -76.996704101563 3.815229654312
-54.039619445801 -85.236763000488 -87.696357727051 2.741712808609
-90.726028442383 -90.464607238770 -97.773498535156 9.652229309082
38.147846221924 -82.778404235840 -106.802139282227 4.986494064331
-75.324348449707 -83.403411865234 -99.463088989258 2.756237745285
43.513462066650 -85.531158447266 -113.620292663574 2.666575431824
40.391853332520 -82.124267578125 -123.254745483398 2.680247306824
40.044326782227 -83.091613769531 -123.025169372559 3.130894899368
33.409313201904 -83.277870178223 -134.557861328125 3.046116113663
30.351877212524 -80.074684143066 -133.783996582031 2.809887170792
31.962968826294 -91.639808654785 -134.023056030273 9.396358489990
31.534421920776 -78.645553588867 -150.563491821289 2.460824728012
-47.269107818604 -76.637306213379 -150.822814941406 0.805426716805
28.217315673828 -84.873756408691 -139.032516479492 4.754313468933
-67.717369079590 -76.832687377930 -153.570465087891 1.325161099434
-36.300479888916 -85.143218994141 -152.217056274414 6.324428081512
-62.165019989014 -84.305587768555 -163.463012695313 3.283891201019
-39.943969726563 -84.302330017090 -158.658660888672 2.985642194748
30.677524566650 -83.839950561523 -157.272537231445 4.746848106384
-37.540927886963 -89.749961853027 -156.636581420898 7.411177158356
-1.512246012688 -83.121665954590 -175.400894165039 6.616964817047
34.241748809814 -75.143981933594 -165.575195312500 3.188252210617
-12.058255195618 -83.079704284668 -171.658706665039 1.817877531052
-59.365810394287 -81.864471435547 -163.097549438477 3.073715686798
-39.254615783691 -77.931045532227 -171.119232177734 1.666838645935
-34.284164428711 -78.171539306641 -174.989105224609 0.299119830132
22.375019073486 -84.833694458008 -177.810409545898 5.163676261902
-54.165245056152 -83.967712402344 -176.513580322266 2.292939424515
-27.902963638306 -76.476295471191 -175.055816650391 1.106001138687
21.274627685547 -81.943412780762 -186.101303100586 4.298874855042
-53.113780975342 -83.806518554688 -186.431610107422 3.231925487518
-25.668100357056 -75.325225830078 -179.665054321289 2.259271621704
-55.971683502197 -78.213584899902 -185.525711059570 1.920819759369
-42.292976379395 -80.926269531250 -195.938705444336 1.926008343697
-30.068492889404 -80.365783691406 -190.421707153320 1.784954071045
-41.625465393066 -84.696609497070 -196.165359497070 2.178405523300
-23.515497207642 -81.666709899902 -193.013198852539 2.830835342407
-139.474853515625 -83.054893493652 -198.361587524414 1.596609354019
20.877120971680 -82.214553833008 -201.441360473633 5.262675285339
-134.383148193359 -80.404258728027 -200.701126098633 1.548169732094
-21.289476394653 -78.871109008789 -196.509689331055 1.218119621277
-21.917701721191 -79.016662597656 -197.015914916992 1.549444079399
-43.387744903564 -83.160888671875 -194.192504882813 1.752764582634
9.919562339783 -78.982299804688 -199.511764526367 2.771463632584
-17.464805603027 -86.240730285645 -198.709426879883 6.469084739685
-54.952194213867 -84.411750793457 -205.683364868164 0.811151325703
-35.413787841797 -82.719154357910 -203.700942993164 3.855820894241
-60.046245574951 -78.967147827148 -207.448699951172 0.845442652702
-69.104766845703 -80.961952209473 -212.033264160156 1.409244418144
15.944430351257 -80.172256469727 -209.566970825195 2.061008453369
-87.570625305176 -80.713058471680 -212.153198242188 2.138559818268
-28.705932617188 -82.941833496094 -215.531066894531 4.263901233673
-81.376495361328 -83.242347717285 -209.539810180664 5.033736705780
-150.918731689453 -82.888572692871 -214.523086547852 3.636990070343
-7.656136989594 -83.013214111328 -214.524139404297 1.874746203423
-5.864529132843 -80.404525756836 -218.201599121094 1.715167760849
12.021509170532 -83.804100036621 -217.632614135742 2.892936468124
11.813254356384 -74.902862548828 -227.390670776367 2.764435768127
-1.337723016739 -84.845428466797 -227.862319946289 5.019415855408
-144.677230834961 -81.011337280273 -219.599929809570 2.167627096176
-150.432571411133 -87.301521301270 -237.075866699219 2.540537834167
-155.684356689453 -78.538993835449 -235.107803344727 4.210423946381
-1.029489040375 -86.266525268555 -237.076187133789 7.875967979431
2.453694105148 -80.640327453613 -237.745010375977 1.636813998222
-24.481491088867 -88.827888488770 -243.340148925781 9.942165374756
-151.044815063477 -79.822219848633 -239.858749389648 1.199541568756
9.474203109741 -84.786537170410 -242.843307495117 3.671591997147
-23.146125793457 -75.782958984375 -241.519302368164 1.702025890350
18.717006683350 -82.880340576172 -235.081314086914 2.748643159866
-52.689498901367 -81.191329956055 -243.799789428711 2.067182302475
-50.625511169434 -82.844612121582 -250.813827514648 5.127553462982
-147.437850952148 -88.510551452637 -246.938079833984 3.476232051849
-61.948211669922 -84.341743469238 -249.284622192383 5.778936386108
-2.667632102966 -82.911720275879 -246.106246948242 4.141234397888
-10.635029792786 -79.338783264160 -253.720520019531 3.338789701462
-147.179901123047 -87.297035217285 -261.020843505859 1.175010442734
-131.554855346680 -80.492462158203 -257.104156494141 2.031662702560
-135.401687622070 -80.332435607910 -258.199951171875 1.890437841415
16.407955169678 -81.631782531738 -257.206848144531 0.493418484926
-145.832611083984 -84.519142150879 -273.768157958984 1.831854820251
17.890342712402 -84.055900573730 -265.301452636719 4.134232997894
-143.244827270508 -80.563804626465 -276.954650878906 4.058090686798
3.038970947266 -85.336585998535 -277.128417968750 2.638099908829
-141.103363037109 -83.541519165039 -283.186676025391 3.762346029282
-2.067336082458 -86.555114746094 -283.198760986328 5.683177947998
-153.399887084961 -79.805839538574 -286.271453857422 1.827317237854
-144.041397094727 -79.149757385254 -283.859008789063 0.700065135956
-135.925842285156 -88.335647583008 -287.391357421875 0.794694602489
-149.492355346680 -85.040473937988 -296.405914306641 0.726653993130
-21.137969970703 -80.534347534180 -290.584014892578 1.003526210785
-150.450592041016 -81.585845947266 -293.376068115234 3.220103979111
-146.226837158203 -87.595932006836 -296.569396972656 2.311741113663
-151.973327636719 -81.906845092773 -308.312133789063 2.887465953827
-57.893867492676 -77.130187988281 -57.244125366211 1.578143239021
-41.615657806396 -86.658462524414 -63.622009277344 5.655481338501
-77.583572387695 -83.982696533203 -69.437126159668 4.715731143951
-33.792083740234 -78.066398620605 -66.747001647949 0.592089056969
-29.561916351318 -81.829856872559 -70.445640563965 3.296801328659
-89.237159729004 -81.032180786133 -79.606689453125 3.578253746033
82.445960998535 -83.673576354980 -83.511825561523 4.477507591248
-36.427864074707 -77.583694458008 -86.300048828125 3.538091182709
80.402038574219 -86.063194274902 -85.226036071777 7.317289829254
77.659347534180 -82.025688171387 -88.253669738770 5.765988349915
83.147888183594 -80.924865722656 -84.326087951660 1.824491381645
85.076019287109 -78.307319641113 -89.789657592773 1.774110198021
87.930450439453 -79.940849304199 -94.008995056152 3.059208154678
-92.557464599609 -76.606750488281 -94.033226013184 1.951907873154
55.280086517334 -81.380592346191 -104.704994201660 3.563228607178
-99.354263305664 -67.782058715820 -112.088676452637 3.447809696198
46.321998596191 -84.325149536133 -106.094306945801 5.843530178070
48.892429351807 -82.392158508301 -112.406295776367 5.008365631104
36.097808837891 -79.678665161133 -113.801673889160 3.919842004776
33.500354766846 -81.690620422363 -138.050613403320 1.544586896896
25.817504882813 -80.083778381348 -140.594451904297 2.762398958206
20.455677032471 -73.127769470215 -143.133758544922 2.987739086151
31.455812454224 -76.197135925293 -141.973281860352 1.018578171730
-46.958488464355 -83.937660217285 -154.110610961914 3.960670232773
-50.991306304932 -82.335372924805 -151.330520629883 5.443586826324
-41.666053771973 -79.664970397949 -158.926025390625 3.083669185638
21.345159530640 -78.164611816406 -154.728698730469 2.702186584473
30.275928497314 -79.638610839844 -167.651535034180 3.740115642548
-33.824535369873 -76.606391906738 -169.705978393555 1.626308798790
-36.528175354004 -74.550033569336 -158.746002197266 1.236742377281
-46.970584869385 -83.667228698730 -159.789535522461 5.244766712189
0.576476991177 -77.444915771484 -162.947021484375 2.003338336945
24.017774581909 -81.700897216797 -149.678039550781 2.852011442184
32.577785491943 -76.280494689941 -158.545089721680 1.847774267197
28.711666107178 -78.662513732910 -170.403610229492 1.637964248657
-6.040881156921 -80.124588012695 -172.832077026367 3.029045820236
-6.495011806488 -82.117332458496 -170.412139892578 0.633048832417
-59.515953063965 -78.203186035156 -166.286529541016 1.090612053871
-61.768600463867 -80.103797912598 -171.812072753906 1.510039091110
-45.754402160645 -82.237602233887 -169.383895874023 4.918604373932
-38.582607269287 -78.436584472656 -167.701370239258 0.817249417305
20.420688629150 -74.882431030273 -170.256942749023 2.815747976303
-24.587167739868 -85.810379028320 -178.335601806641 4.219592094421
-30.239124298096 -76.910987854004 -181.911697387695 1.656735539436
-64.043930053711 -85.002258300781 -179.625030517578 8.072938919067
95.566474914551 -82.954307556152 -181.007156372070 9.378123283386
20.455007553101 -85.081748962402 -175.687911987305 5.471465587616
-26.357755661011 -80.497856140137 -179.678482055664 2.612850189209
-52.911563873291 -80.858963012695 -177.761276245117 1.908463001251
-23.017740249634 -76.655677795410 -180.825134277344 2.156101226807
112.725006103516 -81.316299438477 -181.504730224609 5.762169361115
-57.791221618652 -83.123764038086 -185.995086669922 4.115742683411
10.733590126038 -83.256187438965 -191.103332519531 6.960938930511
15.133350372314 -80.737518310547 -177.906829833984 4.524173259735
-56.887451171875 -87.439674377441 -176.544250488281 6.436199665070
-25.865180969238 -79.013252258301 -182.707946777344 0.954870998859
-56.803695678711 -84.901985168457 -177.758819580078 4.964418888092
-37.576885223389 -83.250686645508 -176.314544677734 5.457714080811
-29.809713363647 -80.767951965332 -187.579849243164 1.931022763252
18.318614959717 -81.420906066895 -188.439376831055 2.194264888763
-48.278095245361 -82.869483947754 -188.894912719727 3.216703414917
102.570358276367 -79.894279479980 -189.166625976563 2.889913797379
-51.245189666748 -76.614936828613 -189.411941528320 1.778703689575
5.367949008942 -80.120475769043 -202.962539672852 3.577225446701
20.635498046875 -79.447868347168 -197.605224609375 3.200610399246
-50.679107666016 -81.048027038574 -191.918930053711 3.167604923248
-16.052078247070 -81.872016906738 -188.854598999023 4.081912517548
98.255599975586 -80.894279479980 -193.519699096680 6.148053169250
94.412895202637 -86.033432006836 -193.748596191406 10.946386337280
-51.460006713867 -79.188354492188 -186.417831420898 1.092619061470
-150.872146606445 -87.904457092285 -201.237304687500 4.581163883209
-46.179965972900 -80.464263916016 -195.707565307617 1.541599273682
-145.610290527344 -81.733261108398 -197.559677124023 1.362580060959
-135.453094482422 -75.934410095215 -197.397293090820 1.498018145561
-48.204189300537 -84.532363891602 -195.631027221680 2.096445798874
8.783976554871 -83.228927612305 -206.310653686523 4.704558372498
-16.400035858154 -77.669197082520 -204.989761352539 1.562900900841
15.482357025146 -77.816856384277 -200.381179809570 2.095624208450
90.821617126465 -86.171501159668 -212.662124633789 8.690409660339
-35.064037322998 -78.778747558594 -202.696685791016 1.059686779976
-15.903286933899 -78.272094726563 -202.706207275391 1.608618259430
-17.878606796265 -78.045600891113 -214.595840454102 3.146971940994
-35.343257904053 -79.356246948242 -203.396255493164 1.710345149040
4.420383930206 -81.412277221680 -206.092529296875 5.382294654846
-80.998962402344 -82.782333374023 -211.230834960938 3.897734642029
15.973408699036 -82.307167053223 -214.815765380859 3.068617820740
-35.747734069824 -79.723388671875 -205.315490722656 1.719131350517
-146.106658935547 -85.851753234863 -207.314285278320 2.796898365021
-141.456726074219 -76.591163635254 -210.694854736328 2.654257297516
-89.386337280273 -81.680549621582 -213.133148193359 3.482898235321
-35.543830871582 -78.359016418457 -208.686416625977 1.099945425987
-13.033887863159 -86.952850341797 -211.889190673828 5.880033493042
-35.068035125732 -82.252380371094 -204.436279296875 3.203629493713
-91.272659301758 -84.304527282715 -217.467651367188 6.981788635254
-87.285858154297 -83.240562438965 -213.340911865234 4.385688781738
4.959802150726 -88.014038085938 -220.198837280273 6.940397739410
-150.133239746094 -74.177101135254 -213.045928955078 1.419975399971
-15.939166069031 -85.778457641602 -212.076431274414 5.625691890717
8.651665687561 -88.959869384766 -218.683853149414 7.338692665100
-144.850051879883 -79.233940124512 -221.381683349609 2.410238981247
-24.565565109253 -82.910980224609 -214.886123657227 2.148771762848
1.428318023682 -75.740837097168 -218.978347778320 3.139466524124
-10.123270034790 -82.100471496582 -219.649749755859 1.455895543098
-153.210159301758 -75.817428588867 -223.991363525391 2.573831558228
-141.183105468750 -68.886276245117 -227.092422485352 2.698902130127
-4.171484947205 -81.434211730957 -226.230102539063 2.384191513062
-148.740249633789 -86.556068420410 -227.372985839844 2.500213861465
0.245726004243 -75.527114868164 -228.749694824219 2.824376106262
17.352464675903 -80.083099365234 -235.766174316406 1.305978655815
-3.148973941803 -84.445999145508 -228.551666259766 5.695187091827
-3.193285942078 -74.401031494141 -231.308029174805 2.185969352722
8.287996292114 -79.096130371094 -231.285491943359 2.281008958817
-153.298873901367 -81.777458190918 -241.310409545898 3.122602701187
-20.379652023315 -78.185470581055 -232.378570556641 1.910014986992
-34.980690002441 -83.724853515625 -238.461059570313 4.648386955261
0.083849996328 -79.615348815918 -234.946136474609 3.399358034134
3.455991983414 -87.519950866699 -243.632369995117 7.939996719360
0.469668000937 -78.898818969727 -232.392669677734 2.756282091141
-59.937057495117 -80.440017700195 -242.243927001953 4.686262607574
-149.192840576172 -76.351432800293 -250.687896728516 2.720080375671
-154.182815551758 -80.563011169434 -248.211212158203 3.003231525421
11.933499336243 -83.248649597168 -246.755294799805 2.267278432846
25.728694915771 -83.913528442383 -245.136962890625 6.135637283325
-62.096076965332 -77.226875305176 -247.185562133789 1.242600798607
-142.095153808594 -86.191505432129 -252.828384399414 4.933933258057
-153.873077392578 -84.803321838379 -255.492233276367 2.240570545197
-155.376892089844 -84.815849304199 -257.685729980469 3.050507545471
-143.609725952148 -77.399452209473 -263.290069580078 1.540576338768
-143.151870727539 -82.054824829102 -257.266296386719 0.506948113441
-6.216114997864 -83.341995239258 -255.626602172852 2.643461704254
-146.247436523438 -82.317970275879 -262.646057128906 2.110274791718
-15.247764587402 -82.211044311523 -268.762207031250 5.086404323578
-147.919998168945 -79.176368713379 -271.542846679688 1.611405372620
-148.368637084961 -80.124725341797 -283.133209228516 2.374537229538
-147.841339111328 -78.545448303223 -285.396148681641 2.086925268173
-3.854046106339 -75.977722167969 -284.919342041016 1.643746852875
-149.849609375000 -76.261924743652 -283.179016113281 1.932484030724
-24.513208389282 -83.198028564453 -285.766937255859 6.184542655945
-24.960391998291 -77.619995117188 -284.280578613281 1.908499002457
-12.858834266663 -77.883064270020 -294.483093261719 2.461253166199
-15.271601676941 -77.450935363770 -293.739746093750 2.429945945740
11.246943473816 -84.196754455566 -290.511322021484 4.503524303436
-124.989822387695 -83.319885253906 -290.973266601563 5.740769863129
-62.957618713379 -81.665184020996 -286.806060791016 6.319610118866
-42.635738372803 -77.273612976074 -290.564788818359 1.111405491829
-33.720813751221 -81.837440490723 -287.041748046875 2.096736907959
-8.456033706665 -78.606140136719 -294.355682373047 4.255566120148
5.632843017578 -82.615829467773 -287.172882080078 3.820036172867
-141.291259765625 -81.149230957031 -299.769256591797 5.447509765625
11.304981231689 -81.798423767090 -296.414611816406 5.645246505737
-154.085922241211 -77.555908203125 -304.073852539063 1.614530086517
-155.133438110352 -86.043380737305 -302.231994628906 3.987694740295
-153.504776000977 -75.735305786133 -313.574920654297 3.728287696838
-142.040786743164 -79.697204589844 -310.000274658203 5.037968158722
-53.464866638184 -79.329887390137 -49.172870635986 7.137442588806
-55.531635284424 -84.268928527832 -56.187801361084 6.445446491241
-70.651336669922 -77.039581298828 -54.481048583984 3.231232404709
-41.878841400146 -76.863983154297 -63.081077575684 1.213852405548
-37.464000701904 -79.906280517578 -59.208206176758 1.995790600777
-20.569507598877 -78.730690002441 -70.611480712891 3.191485404968
-83.285247802734 -75.832008361816 -69.748489379883 4.032294273376
84.027488708496 -80.657081604004 -77.114181518555 4.059453964233
-93.200477600098 -77.127769470215 -72.373809814453 4.609124660492
77.747276306152 -77.210556030273 -75.013671875000 3.075805902481
86.885383605957 -74.352813720703 -83.249671936035 1.770657300949
97.057785034180 -76.577148437500 -89.300819396973 3.050223588943
-63.416332244873 -82.167213439941 -96.751129150391 1.148149609566
79.985488891602 -82.030075073242 -95.689697265625 3.706097841263
74.203094482422 -85.613685607910 -89.239807128906 9.220580101013
84.400512695313 -79.717620849609 -89.160362243652 2.251931428909
-59.951599121094 -79.163452148438 -97.502189636230 2.585797548294
46.002895355225 -77.378784179688 -97.374771118164 2.613490819931
43.997577667236 -78.921257019043 -105.613059997559 2.048665285110
37.400714874268 -80.779594421387 -102.405677795410 4.781773567200
33.706912994385 -80.323822021484 -99.425895690918 8.963589668274
-93.948562622070 -74.040435791016 -102.351943969727 3.302876472473
33.599700927734 -77.575889587402 -116.448684692383 2.743660211563
-86.623031616211 -79.557899475098 -106.656341552734 1.770164012909
38.205406188965 -81.161361694336 -127.417877197266 2.882519721985
30.677047729492 -80.898315429688 -119.525207519531 3.935745716095
32.745105743408 -70.672058105469 -120.508361816406 3.246367454529
43.346984863281 -77.103317260742 -115.892105102539 1.280800342560
40.412261962891 -83.197601318359 -127.639991760254 4.468169689178
-52.165386199951 -72.244995117188 -134.861587524414 0.921956658363
36.523174285889 -85.125091552734 -132.851333618164 2.575866699219
34.199253082275 -79.542831420898 -143.744171142578 1.209665298462
-57.996833801270 -77.381065368652 -144.736587524414 3.672334194183
-45.589946746826 -79.858329772949 -139.807144165039 3.597885847092
33.753429412842 -77.658233642578 -141.320358276367 2.141496181488
108.865486145020 -74.161247253418 -138.690475463867 1.820912241936
110.745170593262 -75.544265747070 -145.876098632813 1.310251474380
25.111679077148 -81.490913391113 -139.976654052734 3.467043161392
-41.041137695313 -82.879234313965 -149.600875854492 3.715254545212
116.665733337402 -88.449165344238 -150.337951660156 11.282040596008
-37.699081420898 -77.046585083008 -152.011215209961 1.595726728439
-68.856575012207 -78.112861633301 -163.309448242188 2.729315757751
109.369186401367 -85.390617370605 -152.738250732422 7.917132854462
21.554002761841 -81.150611877441 -166.221130371094 3.504645347595
0.040272001177 -80.412017822266 -162.028762817383 2.206426620483
109.573257446289 -80.077369689941 -150.011886596680 2.094102859497
-65.262542724609 -78.915618896484 -166.661727905273 1.711737155914
-40.199710845947 -81.213218688965 -166.387344360352 2.108305454254
109.940765380859 -81.267135620117 -163.328247070313 4.819553375244
26.047050476074 -73.409652709961 -157.668701171875 2.145886421204
-62.393901824951 -71.753799438477 -163.893661499023 1.961876630783
112.028717041016 -80.361190795898 -163.902923583984 4.091891288757
-66.660354614258 -80.963020324707 -168.972259521484 2.900293111801
-49.173027038574 -82.969940185547 -183.062683105469 3.117551326752
105.105255126953 -79.439712524414 -169.494628906250 4.779564857483
-60.481056213379 -77.695960998535 -172.875442504883 1.806514501572
111.968536376953 -78.757324218750 -177.007232666016 1.245712995529
-62.615207672119 -78.151290893555 -176.839691162109 1.832392096519
-17.295658111572 -76.469833374023 -176.979888916016 1.914209961891
-10.183846473694 -85.912605285645 -182.623703002930 6.249864578247
106.579795837402 -82.281112670898 -163.733688354492 6.400262355804
20.662635803223 -81.340759277344 -170.226440429688 3.271296262741
30.200044631958 -73.699287414551 -167.812026977539 2.774484872818
-59.403076171875 -78.320777893066 -177.556015014648 1.155995726585
16.086826324463 -77.301277160645 -180.840652465820 2.506265401840
-58.420631408691 -80.423721313477 -174.126037597656 1.322687506676
-53.482658386230 -77.650115966797 -195.411972045898 4.000513076782
9.150295257568 -76.860282897949 -184.508651733398 4.131082534790
-56.324745178223 -73.455093383789 -178.925445556641 2.209893941879
105.076911926270 -76.814682006836 -187.672378540039 1.517100334167
25.605838775635 -83.281455993652 -181.287292480469 2.382044076920
-36.667160034180 -76.575347900391 -187.854263305664 4.103272914886
-44.098731994629 -82.625320434570 -188.976806640625 3.830073356628
10.465844154358 -82.585929870605 -190.147933959961 6.340106487274
-21.038766860962 -80.898323059082 -186.767944335938 2.162942886353
-47.661052703857 -81.174163818359 -195.752655029297 0.327784895897
100.545135498047 -84.931495666504 -180.486999511719 7.640048027039
7.445487022400 -84.058708190918 -189.341873168945 9.346669197083
-132.672332763672 -86.817771911621 -201.257034301758 5.633051395416
-50.904418945313 -82.041160583496 -195.884933471680 2.775121450424
93.230270385742 -78.866859436035 -197.126785278320 5.252613544464
-150.821762084961 -85.673202514648 -203.526840209961 3.243969440460
17.610010147095 -80.391304016113 -200.783737182617 2.751621246338
-44.441532135010 -75.825035095215 -206.055480957031 4.507974624634
-30.379274368286 -83.342613220215 -207.442337036133 4.754416465759
-38.010280609131 -81.087326049805 -200.282470703125 0.822329103947
-47.005691528320 -87.380058288574 -198.038848876953 2.165827274323
100.257919311523 -79.780632019043 -203.644363403320 3.212063550949
-22.270616531372 -84.665237426758 -199.117660522461 5.367288112640
-151.010131835938 -79.364936828613 -200.979141235352 0.692664444447
14.973461151123 -83.018112182617 -199.806091308594 4.337672233582
-78.182357788086 -84.471992492676 -205.061294555664 5.452046871185
-143.135162353516 -76.697494506836 -215.502716064453 3.326818943024
92.678230285645 -83.279159545898 -212.968231201172 6.258612632751
-33.784816741943 -77.978378295898 -206.634902954102 1.793133974075
-29.524204254150 -80.596008300781 -209.859786987305 1.878381013870
9.743335723877 -80.410354614258 -208.873428344727 2.994359016418
-72.621795654297 -84.699935913086 -206.664443969727 4.077354431152
-27.378547668457 -89.337905883789 -204.402633666992 10.126729011536
-9.576586723328 -81.828834533691 -216.941879272461 1.523281812668
-69.835617065430 -80.657516479492 -213.955841064453 1.091867804527
-14.467462539673 -80.531570434570 -217.060058593750 3.430900573730
6.969542026520 -70.110336303711 -210.149108886719 2.812997102737
11.161273002625 -83.445907592773 -220.869888305664 2.956794023514
-152.926635742188 -81.874504089355 -219.086639404297 3.159536838531
-10.069529533386 -79.892364501953 -213.480758666992 1.211910009384
-103.730003356934 -75.685546875000 -220.367401123047 3.266614437103
-22.611227035522 -79.569305419922 -218.833557128906 1.578693509102
87.310310363770 -87.041221618652 -210.643554687500 10.303824424744
9.382546424866 -77.638847351074 -223.270721435547 1.669600605965
21.782608032227 -79.880310058594 -215.356216430664 5.339683055878
78.947616577148 -82.182632446289 -210.977401733398 8.118654251099
0.961017012596 -85.477523803711 -229.909194946289 6.231611251831
84.504211425781 -80.808189392090 -215.026428222656 4.270880699158
-22.501504898071 -74.783279418945 -224.656784057617 1.468716025352
16.254243850708 -75.918083190918 -217.154434204102 2.199246168137
-149.801727294922 -81.227989196777 -218.713775634766 1.176294207573
-27.899209976196 -81.617813110352 -226.252746582031 5.359716892242
1.653082966805 -76.570442199707 -231.043914794922 1.770139336586
-157.249649047852 -85.946296691895 -225.749191284180 5.082057952881
-138.242294311523 -83.716476440430 -228.542922973633 1.563224434853
1.629222035408 -79.631889343262 -222.095840454102 3.441745281219
-4.119924068451 -75.642158508301 -222.975051879883 1.230982899666
-137.917861938477 -75.471603393555 -229.493011474609 2.593174219131
-147.905548095703 -80.070899963379 -244.370239257813 2.201319217682
-149.752731323242 -80.657058715820 -236.487136840820 2.899583816528
-31.708816528320 -81.636337280273 -236.011993408203 2.524191141129
-141.553359985352 -84.020027160645 -244.389312744141 3.765038490295
13.997101783752 -82.130599975586 -240.440429687500 2.502468824387
5.711067199707 -79.707885742188 -244.442672729492 1.559946894646
-151.264831542969 -73.190887451172 -239.695999145508 1.376326918602
-150.076553344727 -79.176589965820 -246.251663208008 2.386107921600
-45.347038269043 -82.536132812500 -246.510391235352 1.384367465973
-31.852399826050 -80.865356445313 -247.325485229492 4.727099418640
3.565112113953 -79.704345703125 -241.048416137695 2.275657892227
-35.770233154297 -82.566146850586 -245.078506469727 4.246422767639
21.512191772461 -80.450263977051 -245.305267333984 1.373112082481
-6.320868968964 -82.772377014160 -252.993606567383 2.230973482132
-143.263427734375 -81.305503845215 -253.959991455078 1.229101061821
-10.641612052917 -86.268318176270 -252.830932617188 2.894142150879
-148.964599609375 -77.114173889160 -246.777786254883 1.720392584801
-64.895706176758 -82.626953125000 -250.429336547852 3.351599693298
-146.293685913086 -87.672470092773 -259.701690673828 1.505914330482
-127.923400878906 -80.245620727539 -258.670654296875 1.996450901031
-153.859634399414 -80.282745361328 -257.307495117188 1.107651233673
-9.863752365112 -77.513519287109 -267.196044921875 1.549810171127
-145.401336669922 -87.449890136719 -274.796508789063 3.716384649277
-148.858825683594 -80.551109313965 -271.125518798828 1.155667304993
-12.113184928894 -80.552635192871 -270.506195068359 2.165923357010
-143.560760498047 -80.357719421387 -270.668029785156 3.622851371765
-6.823617935181 -78.632919311523 -275.323120117188 2.187644243240
-45.166931152344 -79.479461669922 -283.042327880859 3.894243955612
-134.775085449219 -77.029548645020 -289.193542480469 2.217859029770
-135.889343261719 -79.720527648926 -286.561767578125 2.769840955734
-122.155181884766 -76.141143798828 -281.285400390625 3.492354393005
-51.099132537842 -79.426719665527 -286.040405273438 2.070900440216
-110.865837097168 -78.942573547363 -283.241546630859 6.364585399628
17.133399963379 -79.687118530273 -292.308349609375 2.967179775238
-55.757034301758 -77.911148071289 -288.382141113281 0.874470591545
-140.081344604492 -80.070800781250 -294.810424804688 3.638953685760
-63.114307403564 -78.846733093262 -290.584869384766 4.164684295654
-144.714202880859 -86.364364624023 -295.044982910156 3.291272163391
-115.720405578613 -77.105636596680 -291.788574218750 3.699775934219
-45.067981719971 -83.663108825684 -290.051849365234 7.263649463654
-32.519802093506 -80.284011840820 -291.405364990234 1.986177444458
-138.259841918945 -74.751411437988 -298.248199462891 5.198752403259
-14.493859291077 -73.599906921387 -279.970825195313 4.399643421173
6.187903881073 -79.767509460449 -285.668609619141 1.605532765388
7.340073108673 -78.257461547852 -289.285095214844 1.671269178391
15.985247612000 -81.558006286621 -295.118774414063 3.859989643097
-149.148834228516 -85.619018554688 -299.585052490234 1.154230833054
-143.612487792969 -77.317832946777 -292.557983398438 1.517001867294
-67.674079895020 -76.219589233398 -62.796875000000 2.227636814117
87.431770324707 -81.256378173828 -70.208877563477 6.772657394409
77.009780883789 -80.525459289551 -76.128700256348 6.199504375458
-30.127664566040 -81.756103515625 -75.935409545898 1.969520092010
81.542434692383 -77.238723754883 -72.464477539063 1.879800438881
-40.445667266846 -81.903320312500 -79.421806335449 2.091525077820
79.736984252930 -74.203384399414 -81.207557678223 2.446120262146
95.171226501465 -74.288650512695 -77.594879150391 1.833020329475
-66.011711120605 -72.253715515137 -96.649894714355 0.962684214115
70.400993347168 -79.866699218750 -92.932022094727 5.607515811920
78.160583496094 -76.507041931152 -96.250526428223 2.486011505127
96.163337707520 -82.679130554199 -93.622909545898 5.719717979431
53.705802917480 -81.388328552246 -95.330718994141 5.647450923920
-66.498435974121 -75.022857666016 -101.341552734375 2.194341659546
-75.319175720215 -74.858345031738 -101.064651489258 0.818738520145
49.471759796143 -81.526618957520 -101.725166320801 2.848062753677
-88.503356933594 -80.007827758789 -101.771575927734 2.147135496140
46.439350128174 -75.275489807129 -117.049758911133 1.826869606972
109.338180541992 -78.517448425293 -118.304000854492 2.076118946075
111.931640625000 -81.904380798340 -127.917030334473 5.259519100189
18.058526992798 -76.574028015137 -135.688415527344 6.214534282684
108.997253417969 -81.587585449219 -124.834251403809 4.985799312592
27.986440658569 -75.747161865234 -131.994827270508 1.097490668297
111.445487976074 -72.359848022461 -131.030944824219 1.324302673340
35.549400329590 -76.086296081543 -133.488220214844 2.153674602509
-58.671451568604 -77.833007812500 -139.663635253906 2.641674518585
35.495288848877 -84.096832275391 -144.956985473633 5.401912212372
107.401893615723 -77.054275512695 -131.953826904297 4.378192424774
-46.059352874756 -76.590759277344 -143.404724121094 1.794322013855
31.004978179932 -77.280036926270 -149.639587402344 1.945278048515
-57.983627319336 -72.083717346191 -141.648986816406 1.836612343788
-61.660102844238 -78.150398254395 -143.821472167969 4.880583763123
-54.148963928223 -82.509353637695 -150.005676269531 5.007021427155
-65.214637756348 -82.086128234863 -155.596343994141 3.381522178650
110.140167236328 -84.455841064453 -144.735290527344 7.009414196014
-50.643341064453 -86.577339172363 -155.063278198242 7.409360885620
22.473001480103 -85.009880065918 -155.779800415039 5.288745880127
106.398948669434 -80.344917297363 -161.423126220703 5.066284656525
-65.989372253418 -78.870063781738 -154.245590209961 2.307410001755
-43.496738433838 -80.184135437012 -157.331390380859 3.295998334885
8.269647598267 -76.418380737305 -153.396820068359 2.883771896362
-69.577255249023 -79.484878540039 -153.892028808594 2.276759147644
-65.612709045410 -82.075408935547 -157.838012695313 3.087899923325
-0.142681002617 -79.168769836426 -161.637817382813 3.180361747742
-45.327735900879 -74.270118713379 -167.795928955078 1.817721366882
27.710651397705 -76.626106262207 -167.062469482422 2.085598230362
-64.300811767578 -73.946548461914 -168.858627319336 1.308056712151
-56.494937896729 -81.363143920898 -166.020660400391 3.631427049637
12.867042541504 -82.980407714844 -158.667724609375 6.622502326965
-30.793567657471 -77.503112792969 -167.806030273438 0.447291254997
-29.051902770996 -81.963546752930 -165.892791748047 3.956276655197
13.872740745544 -80.863693237305 -173.715133666992 5.390886783600
-45.039646148682 -82.406990051270 -172.687347412109 4.438364982605
-10.929914474487 -80.902427673340 -171.482940673828 0.911760747433
-67.629241943359 -75.020378112793 -171.289413452148 2.075524568558
-8.679820060730 -76.322120666504 -174.000000000000 2.172205686569
-22.018335342407 -79.146697998047 -179.305023193359 1.635136246681
21.415687561035 -75.765876770020 -183.654983520508 2.115177392960
-39.571388244629 -81.231262207031 -172.048919677734 4.023482322693
20.862306594849 -74.454849243164 -174.142227172852 2.333600997925
-23.366767883301 -74.976181030273 -185.670257568359 1.596989631653
-32.730236053467 -82.061592102051 -176.559143066406 4.094268321991
-148.985366821289 -75.334854125977 -194.493682861328 1.275586366653
-17.688638687134 -84.415161132813 -182.750366210938 3.134908199310
-140.435867309570 -76.971725463867 -190.744354248047 3.108724355698
-155.253402709961 -79.417533874512 -188.284118652344 4.930910587311
-50.721836090088 -77.020751953125 -188.869445800781 2.187157154083
97.899208068848 -78.816116333008 -193.000595092773 5.205354213715
-145.562637329102 -80.372947692871 -190.931213378906 2.593744039536
-145.271209716797 -76.294975280762 -196.547515869141 1.633439421654
22.460187911987 -77.116043090820 -194.930801391602 4.491309642792
-139.582412719727 -79.630905151367 -196.562850952148 3.580513000488
12.088002204895 -74.719512939453 -198.407821655273 1.851960897446
-138.102752685547 -82.635643005371 -200.762313842773 1.383866667747
12.773759841919 -74.636817932129 -197.016174316406 1.874797701836
-133.026992797852 -74.982673645020 -195.628402709961 1.602980375290
4.266110897064 -75.012458801270 -200.630416870117 4.719934463501
-152.810974121094 -78.987876892090 -202.768264770508 1.828045606613
95.354545593262 -79.584762573242 -205.082214355469 3.199335813522
-17.574340820313 -82.171829223633 -208.841918945313 3.956348657608
-30.855278015137 -77.929275512695 -208.753341674805 1.883072376251
-12.888344764709 -73.155441284180 -204.538131713867 2.011413335800
-145.006271362305 -84.398071289063 -211.301254272461 1.769571542740
-35.910728454590 -79.130630493164 -202.317474365234 0.731949448586
-84.979347229004 -81.321029663086 -202.378707885742 9.807734489441
-27.197389602661 -80.870368957520 -207.541397094727 1.813066601753
13.592941284180 -80.030273437500 -213.497863769531 1.381640195847
-146.369094848633 -76.149887084961 -216.508865356445 2.290903091431
-88.927787780762 -82.015869140625 -220.040283203125 5.601962566376
-29.297927856445 -77.905967712402 -220.255584716797 1.983626246452
-27.831436157227 -79.352401733398 -220.609527587891 2.706614494324
-7.599973201752 -81.268119812012 -207.704162597656 4.526863574982
-27.641700744629 -78.271202087402 -206.584030151367 0.946025550365
-84.831207275391 -79.594398498535 -222.825439453125 6.122744083405
-90.730117797852 -85.481033325195 -220.236434936523 9.071533203125
-22.812360763550 -78.377899169922 -221.621566772461 3.162797451019
-2.025315999985 -89.307594299316 -224.792205810547 9.004981040955
-157.649505615234 -81.675559997559 -218.303680419922 7.681332588196
-2.593048095703 -81.085983276367 -221.316268920898 1.959932446480
88.277008056641 -84.857666015625 -226.407608032227 8.826623916626
-138.899871826172 -81.920532226563 -223.526626586914 3.152036905289
-3.040745019913 -79.912429809570 -219.943420410156 2.645903348923
-138.988891601563 -80.930503845215 -226.321655273438 2.583693742752
-147.271560668945 -87.811126708984 -225.558319091797 3.559493780136
-5.604361057281 -78.283149719238 -227.177215576172 1.543577313423
22.480842590332 -80.735572814941 -211.848617553711 6.521451473236
-138.550399780273 -76.857704162598 -230.105209350586 1.676890015602
-18.419443130493 -81.457702636719 -226.830551147461 3.020358085632
70.791862487793 -80.808464050293 -223.271881103516 9.440299034119
74.468261718750 -80.174491882324 -232.748596191406 5.643199920654
10.977932929993 -81.980682373047 -228.719696044922 1.567811727524
-35.349636077881 -80.668304443359 -234.995605468750 4.382696628571
-24.730722427368 -88.560012817383 -242.107284545898 9.576753616333
2.251926898956 -77.684310913086 -242.360244750977 0.669567465782
-46.327510833740 -74.082473754883 -243.634658813477 2.862486124039
-20.269697189331 -76.930313110352 -242.329879760742 1.473477244377
10.833621025085 -75.715621948242 -236.951156616211 0.768367648125
-62.891136169434 -80.000740051270 -245.462600708008 2.713205575943
-37.078498840332 -85.374458312988 -243.497421264648 4.214008808136
-37.395538330078 -78.150146484375 -245.120895385742 2.499094724655
-147.231811523438 -76.373588562012 -246.689636230469 0.976335287094
-44.206821441650 -82.988243103027 -248.379272460938 3.487474679947
-52.098838806152 -70.343559265137 -246.873962402344 3.297804355621
-65.219512939453 -79.045845031738 -248.391891479492 1.820463418961
-10.225707054138 -84.822166442871 -244.094619750977 9.120079994202
-78.131561279297 -81.245674133301 -255.736557006836 4.402934074402
-156.616180419922 -86.141418457031 -253.684143066406 1.862704634666
-139.836593627930 -77.436592102051 -253.674758911133 2.343847990036
-120.203239440918 -81.413963317871 -258.470367431641 6.384924888611
-159.145904541016 -75.483825683594 -258.123901367188 3.198682546616
19.093490600586 -87.570800781250 -266.050811767578 6.605714797974
-14.481103897095 -82.376579284668 -268.290649414063 5.165832042694
-155.190765380859 -82.493904113770 -275.690887451172 4.626132965088
-152.514099121094 -87.033782958984 -279.635345458984 2.982192754745
-145.465560913086 -81.713394165039 -286.647583007813 1.291483759880
-58.173088073730 -74.127037048340 -278.482055664063 6.116355895996
-38.042247772217 -73.327087402344 -284.888183593750 1.862268209457
-16.296707153320 -77.066436767578 -289.345550537109 2.279777526855
-7.858367919922 -74.828628540039 -276.546417236328 1.606729984283
-65.565055847168 -83.375869750977 -284.511993408203 6.500336170197
-80.622413635254 -84.922927856445 -285.807525634766 8.370733261108
-0.919881999493 -80.832550048828 -280.595275878906 0.878791749477
2.885212898254 -81.614036560059 -292.035705566406 3.093847036362
-139.833908081055 -77.696403503418 -285.924774169922 1.519770383835
-80.356468200684 -75.500213623047 -285.460968017578 2.626811027527
-146.103363037109 -77.958930969238 -288.016540527344 2.778649568558
-93.933670043945 -90.151679992676 -284.842010498047 14.665888786316
-78.017555236816 -78.844985961914 -284.891601562500 3.237987041473
-85.522079467773 -76.342521667480 -296.788970947266 6.108278751373
-62.822959899902 -79.098327636719 -291.868957519531 4.333819389343
-30.521305084229 -72.010688781738 -295.426177978516 3.052614212036
-8.561727523804 -79.169273376465 -289.360931396484 2.920552492142
-149.477996826172 -71.331390380859 -301.069061279297 2.895900249481
-147.108978271484 -76.604301452637 -301.804351806641 0.984757483006
-142.352859497070 -77.580528259277 -306.726379394531 2.363576889038
-157.372711181641 -78.813392639160 -305.229553222656 2.885616302490
-58.338871002197 -73.115333557129 -56.234966278076 2.502586126328
-51.097305297852 -76.921623229980 -52.549690246582 3.788474082947
-41.925258636475 -79.531425476074 -52.876018524170 5.388173580170
-79.715744018555 -80.742950439453 -63.222705841064 4.604452133179
-31.467529296875 -75.831138610840 -64.834274291992 3.535790205002
-37.340370178223 -76.653282165527 -79.467498779297 2.151318073273
72.320442199707 -82.788772583008 -81.826789855957 7.281006813049
73.217864990234 -78.028678894043 -77.192497253418 2.338135004044
70.177619934082 -74.779083251953 -81.551033020020 1.742141008377
99.356994628906 -73.915206909180 -88.395523071289 0.637816011906
65.629386901855 -80.767616271973 -87.272216796875 7.809949874878
45.170097351074 -81.600975036621 -86.548706054688 10.611050605774
51.214080810547 -84.606132507324 -100.255210876465 6.392743110657
-67.755371093750 -75.569633483887 -102.610504150391 1.111997723579
-76.126792907715 -72.805778503418 -102.749717712402 2.762885808945
43.318904876709 -79.540496826172 -101.603355407715 2.511346101761
-83.437484741211 -83.838905334473 -110.551506042480 2.094597101212
-94.127609252930 -75.490699768066 -110.323905944824 3.003789663315
49.875518798828 -78.102348327637 -107.621696472168 1.359857559204
106.002113342285 -77.101470947266 -114.773612976074 2.259884357452
32.080825805664 -80.328086853027 -125.489776611328 3.716570377350
40.682209014893 -80.012649536133 -117.167320251465 0.881492435932
38.264385223389 -76.117141723633 -121.053024291992 2.578978538513
28.877149581909 -80.015998840332 -120.232475280762 3.767443418503
108.080116271973 -78.454795837402 -119.390037536621 2.542273044586
38.009544372559 -81.736213684082 -130.819961547852 4.586995601654
34.508655548096 -73.336395263672 -131.563400268555 0.870565891266
-44.911464691162 -76.318115234375 -141.196945190430 1.800345540047
-70.711875915527 -81.856483459473 -142.637496948242 6.107054710388
-53.506519317627 -76.925224304199 -149.801437377930 1.098389267921
-76.504249572754 -83.537590026855 -145.903228759766 8.215525627136
-38.758914947510 -77.928627014160 -147.629898071289 3.127250909805
104.679267883301 -79.702537536621 -155.646301269531 6.524592399597
-72.544578552246 -80.754707336426 -156.704528808594 3.315440893173
22.290891647339 -84.537933349609 -144.502441406250 7.602676868439
26.580654144287 -81.407577514648 -147.685623168945 3.338120937347
109.646026611328 -82.647941589355 -161.205383300781 5.571529388428
9.072987556458 -82.478179931641 -158.283554077148 4.813625812531
32.751083374023 -75.331466674805 -154.212921142578 1.847277283669
-63.319622039795 -81.299690246582 -159.408157348633 0.757445216179
-40.277301788330 -80.905883789063 -174.405776977539 3.685674905777
21.321353912354 -78.683090209961 -162.081085205078 1.478215694427
-66.457138061523 -77.033180236816 -155.125839233398 1.609347701073
-71.345771789551 -78.105194091797 -165.797866821289 4.528460979462
114.679374694824 -81.365425109863 -163.876998901367 3.691113948822
-9.291655540466 -80.340652465820 -163.594879150391 4.514457702637
-67.126083374023 -76.202774047852 -170.872131347656 2.939206600189
-36.995471954346 -80.767150878906 -165.719833374023 1.298096537590
-54.766563415527 -76.952575683594 -171.063217163086 2.923125505447
30.460834503174 -77.545623779297 -175.173095703125 2.544362306595
111.012084960938 -75.534790039063 -170.529342651367 1.583269357681
101.509078979492 -76.830932617188 -181.239242553711 2.203102111816
103.743133544922 -78.171287536621 -187.124893188477 0.839572250843
105.742210388184 -75.620079040527 -173.506790161133 0.995018780231
-51.236370086670 -76.712089538574 -192.827941894531 1.499984502792
-47.519454956055 -74.365425109863 -183.132156372070 2.692843914032
27.186397552490 -78.144462585449 -182.643569946289 0.338966608047
-48.068347930908 -76.999938964844 -184.710586547852 1.490378260612
-21.553199768066 -78.626274108887 -182.964431762695 1.625594258308
-51.663593292236 -82.141677856445 -191.103302001953 4.646540164948
-152.919311523438 -76.860565185547 -193.395553588867 2.595127344131
100.385223388672 -81.691726684570 -190.051803588867 5.715603828430
-44.660224914551 -75.058395385742 -194.923477172852 1.633313536644
-11.943129539490 -80.390174865723 -198.815719604492 4.156257152557
-139.780899047852 -77.216728210449 -192.793579101563 1.730542302132
-41.129199981689 -75.558135986328 -198.966964721680 2.378826141357
100.169464111328 -77.016502380371 -194.056793212891 2.837896108627
107.462188720703 -76.236679077148 -182.334136962891 1.062067151070
-42.911224365234 -78.055778503418 -194.743972778320 1.750721216202
-22.516685485840 -87.392234802246 -199.204315185547 7.902076244354
-147.228042602539 -81.150077819824 -201.270370483398 1.774061560631
-25.626258850098 -77.822525024414 -194.211776733398 2.496110200882
-161.336151123047 -78.501800537109 -197.395385742188 6.848092079163
-153.091201782227 -86.887229919434 -206.669769287109 5.857676982880
-145.854568481445 -80.722305297852 -202.679077148438 2.808020353317
-39.049404144287 -79.493751525879 -200.943588256836 1.942223787308
101.629280090332 -80.440208435059 -201.729629516602 2.579060077667
-43.123008728027 -76.137077331543 -199.574279785156 1.716817021370
-142.399520874023 -82.499427795410 -205.600372314453 2.425370454788
-37.560527801514 -73.696792602539 -204.758834838867 2.268204212189
-23.163454055786 -85.214912414551 -209.200515747070 6.136221885681
97.735092163086 -82.528579711914 -203.818130493164 6.520633697510
89.496223449707 -81.108734130859 -213.365051269531 3.663636684418
-38.544055938721 -76.257469177246 -216.766845703125 7.021996498108
-88.997589111328 -80.361846923828 -209.783096313477 3.589205503464
-76.109535217285 -80.083488464355 -211.649276733398 1.836588621140
-19.981151580811 -78.697113037109 -207.564910888672 2.652823209763
-150.550628662109 -81.384643554688 -201.052536010742 1.423614263535
91.908493041992 -77.962059020996 -212.120834350586 1.690741539001
88.031303405762 -74.503440856934 -215.793685913086 1.005993723869
89.434410095215 -79.791526794434 -219.017456054688 3.673353433609
-103.276588439941 -80.191642761230 -218.117980957031 7.610514163971
-155.607101440430 -81.156616210938 -221.432510375977 4.157795906067
-20.660652160645 -76.227470397949 -223.767471313477 1.851658105850
80.905105590820 -74.467895507813 -226.098129272461 2.816605567932
-150.844604492188 -83.297019958496 -221.652694702148 3.485647916794
-30.026306152344 -80.538398742676 -215.829498291016 1.738315939903
-134.726547241211 -76.435356140137 -234.379135131836 2.677939653397
-11.092934608459 -82.058380126953 -231.535415649414 4.391003608704
16.868431091309 -77.271026611328 -229.198028564453 1.824488878250
20.252943038940 -79.874763488770 -232.534957885742 2.942579030991
-155.939941406250 -81.789772033691 -236.889434814453 5.928118228912
-127.003929138184 -73.928230285645 -233.283676147461 2.413466691971
-8.461500167847 -78.530097961426 -234.986846923828 3.243461608887
0.096331000328 -77.675506591797 -237.066268920898 1.998048901558
68.865936279297 -78.606628417969 -228.603927612305 5.318435668945
68.528831481934 -74.680137634277 -238.027618408203 1.209842801094
-0.304827988148 -75.734657287598 -239.360870361328 1.933987736702
15.732273101807 -73.656242370605 -239.188217163086 2.187976837158
-32.013103485107 -68.838165283203 -241.403549194336 6.555979251862
-31.955873489380 -89.988479614258 -242.089950561523 9.781915664673
-49.872306823730 -78.912117004395 -234.422164916992 7.032017230988
-41.247657775879 -76.120452880859 -238.990493774414 1.908769011497
-16.004150390625 -80.253555297852 -242.423004150391 4.330393791199
-51.721454620361 -76.399345397949 -244.275238037109 0.974409937859
1.587069988251 -79.687225341797 -244.501083374023 2.974962234497
-68.645935058594 -82.029060363770 -242.039962768555 6.772089004517
21.858369827271 -80.633041381836 -246.151229858398 1.082281351089
-141.602035522461 -81.722122192383 -244.155715942383 2.845086097717
-73.214775085449 -82.053848266602 -254.527694702148 4.880674362183
16.980928421021 -79.706062316895 -249.361831665039 2.101421594620
-161.052093505859 -77.414627075195 -250.213470458984 2.228721857071
12.150198936462 -84.061164855957 -253.231719970703 1.678652286530
-80.649337768555 -71.110382080078 -251.038497924805 1.778084754944
-76.146842956543 -79.222320556641 -250.228454589844 3.837072134018
17.942064285278 -81.395553588867 -252.700225830078 2.933919906616
-89.719589233398 -78.091079711914 -250.431228637695 3.581929206848
-125.882690429688 -74.168838500977 -254.769973754883 0.752715110779
-131.723571777344 -84.026763916016 -261.562561035156 4.728032112122
-136.820434570313 -82.725028991699 -252.034149169922 4.291755199432
-146.659515380859 -81.796669006348 -262.716522216797 2.383522987366
-147.052261352539 -74.542518615723 -251.747436523438 1.577276706696
