# This PCD file was generated using the MATLAB® pcwrite function
# from Computer Vision Toolbox®.
# .PCD v.7 - Point Cloud Data file format
VERSION .7
FIELDS x y z
SIZE 8 8 8
TYPE F F F
COUNT 1 1 1
WIDTH 793
HEIGHT 1
VIEWPOINT 0 0 0 1 0 0 0
POINTS 793
DATA ascii
-37.677810668965620 -60.048316955589058 -27.830200195346890
-105.650054931660932 -63.248336792014840 -150.028915405307828
-33.525985717793745 -68.391578674339058 -27.023315429721890
-123.799636840840620 -65.616523742698433 -174.885269165073453
-33.841918945332807 -65.323371887229683 -8.980712890659390
-18.118812561055464 -59.334838867210152 -9.632446289096890
-64.942413330098432 -60.805198669456246 -85.610519409214078
-35.632873535176557 -67.658710479758980 -6.470092773471890
-68.484573364278120 -56.952049255393746 -82.723205566440640
-140.001449584981231 -60.544811248801949 -193.706909179721890
-129.071197509785918 -70.149036407493355 -178.338439941440640
-36.999542236348432 -61.173408508323433 -13.726013183628140
-65.815750122090620 -62.761863708518746 -69.017364501987515
-130.655303955098418 -60.219268798850777 -189.653221130405484
-64.286560058614057 -66.219600677512886 -63.753906250034390
-45.138763427754682 -63.837982177757027 -19.529083251987515
-63.586654663106245 -57.173465728782418 -57.028747558628140
-39.069534301778120 -65.978199005149605 -17.538787841831265
-63.137359619160932 -64.305816650413277 -60.233001709018765
-48.331954956074995 -65.240982055686715 -21.796783447300015
-41.291702270528120 -63.531604766868355 -13.350311279331265
-39.552108764668745 -71.923984527610543 -9.594512939487515
-38.487930297871870 -67.777622222923043 -17.340911865268765
-40.497329711934370 -60.412208557151558 -13.588287353550015
-44.655654907246870 -61.861949920676949 -10.462371826206265
-141.495529174824981 -63.496593475364449 -177.232040405307828
-43.518722534199995 -68.063411712669136 -16.890197753940640
-68.231689453145307 -59.412940979026558 -10.561950683628140
-140.158340454121856 -72.106822967551949 -163.169555664096890
-124.854568481465620 -64.583202362083199 -132.627685546909390
-78.485473632832807 -63.572246551536324 -26.059631347690640
-73.281784057637495 -64.012237548850777 -25.870361328159390
-77.497970581074995 -61.855491638206246 -22.631866455112515
-82.556793212910932 -63.343544006370308 -36.184387207065640
-81.578002929707807 -58.453121185325386 -39.777435302768765
-89.979965209981245 -66.595035553001168 -46.988677978550015
-154.069869995137481 -66.920497894309761 -154.946823120151578
-101.518157959004682 -59.148174285911324 -70.093414306675015
-69.437652587910932 -62.703681945823433 -0.189666748081265
-93.654220581074995 -65.303833007835152 -48.873504638706265
-83.363128662129682 -60.728034973167183 -35.169494628940640
-149.180343627949981 -70.916557312034371 -144.312835693393765
-92.702835083028120 -59.104114532493355 -37.974975585971890
-141.632415771504668 -60.884105682395699 -140.916076660190640
-72.483825683614057 -64.675865173362496 -16.341400146518765
-70.301956176778120 -62.665397644065621 0.625122070278110
-86.577255249043745 -58.049282073997261 2.916503906215610
-91.250854492207807 -64.614959716819527 9.887969970668735
58.045959472635943 -61.992996215842965 -308.030937194858609
66.754985809305865 -61.912860870383980 -286.354810714756070
54.219917297342974 -61.006427764915230 -291.349254608188687
93.995789527872759 -57.224109649680855 -216.975776672397672
63.791786193827349 -58.633541107200386 -241.702659606967984
-5.837066650410932 -58.152557373069527 -324.887381553684293
5.522972106913286 -59.441532135032418 -307.698002338443814
42.900413513163286 -62.748828887962105 -223.104896545444547
81.493352889994341 -66.622749328635933 -160.228286743198453
56.428993225077349 -61.194026947044136 -208.081611633335172
2.530242919901568 -68.495658874534371 -300.652388572727261
3.162567138651568 -59.953876495383980 -291.802373886142789
9.282333374003130 -68.450313568137886 -292.522733688388882
58.446140289286333 -64.516235351585152 -195.643150329624234
-1.841842651387495 -61.798187255882027 -297.236449241672574
0.552597045878130 -67.228511810325386 -274.341529846225797
-9.661506652852339 -68.874324798606636 -297.703313827549039
54.407245635966021 -58.519832611106636 -177.810058593784390
-4.655067443867964 -59.391284942649605 -274.773769378696500
4.546066284159380 -67.062099456809761 -277.776760101352750
-30.628341674824995 -59.120040893577340 -325.970420837436734
54.904647827128130 -54.047611236594918 -167.539199829135953
-31.464889526387495 -57.138080596946480 -329.845687866245328
55.315818786600786 -65.554149627708199 -166.432571411167203
-12.339759826680464 -60.757942199729683 -279.981739044223843
2.913642883280474 -56.077373504661324 -279.485733032260953
-30.096282959004682 -63.143749237083199 -315.720534086261807
-29.065673828145307 -59.153469085716011 -304.281332969699918
-10.927955627461714 -67.696620941184761 -278.461532592807828
50.648769378641802 -66.131019592307808 -162.742324829135953
47.041439056376177 -61.438808441184761 -164.573150634800015
46.731151580790240 -70.138538360618355 -155.602935791050015
51.944641113260943 -61.115177154563668 -150.928207397495328
-45.875183105489057 -58.674800872825386 -315.804899215732632
48.428432464579302 -62.795242309592965 -156.736129760776578
35.686195373514849 -60.549999237083199 -153.920043945346890
-51.233428955098432 -59.116973876975777 -324.154821395908414
42.058189392069536 -63.165302276633980 -169.037002563510953
-60.300582885762495 -59.160915374778511 -312.515834212337552
-56.692657470723432 -56.587574005149605 -313.055625197279198
-50.664169311543745 -64.428424835227730 -318.212932109867154
35.987106323221880 -59.423854827903511 -140.097366333042203
12.858100891092974 -63.035137176536324 -175.188720703159390
21.360671997050005 -63.625526428245308 -148.099655151401578
10.329750061014849 -63.861598968528511 -145.832778930698453
23.275222778300005 -62.916225433372261 -152.969177246128140
14.700386047342974 -61.982078552268746 -165.199432373081265
7.421752929667193 -67.410404205344918 -161.308029174839078
-22.996368408223432 -63.917984008811715 -226.609550476108609
27.880401611307818 -62.143939971946480 -128.378311157260953
0.605628967264849 -55.999767303489449 -169.592758178745328
4.303146362284380 -63.317291259788277 -166.476943969760953
-14.490760803242964 -65.310611724876168 -166.551269531284390
-42.772399902364057 -64.787414550803902 -227.707511901889859
4.195854186991411 -66.894721984885933 -168.312240600620328
31.629531860331255 -64.711338043235543 -126.980300903354703
-9.937408447285932 -64.229103088401558 -170.443710327182828
-31.623626709004682 -59.827144622825386 -227.581703186069547
20.090270996073443 -59.778068542503121 -112.403305053745328
-43.509902954121870 -63.145858764671090 -221.457595825229703
12.943466186503130 -56.511680603049996 -107.660888671909390
19.730400085428911 -72.170604705833199 -115.194549560581265
-41.307754516621870 -67.060234069846871 -225.010055542026578
-52.859039306660932 -59.896476745628121 -220.750755310092984
16.122375488260943 -59.020908355735543 -110.035507202182828
25.909538269022661 -59.914337158225777 -72.071334838901578
-47.435684204121870 -56.497940063499215 -172.740783691440640
-34.052139282246870 -58.585231781028511 -172.330062866245328
0.527282714823443 -65.110206604026558 -100.008392334018765
12.277481079081255 -65.045524597190621 -57.170562744175015
0.943931579569536 -61.722412109397652 -102.314758300815640
22.260681152323443 -60.741981506370308 -52.432983398471890
0.610900878885943 -63.821903228782418 -67.903579711948453
3.695892333964068 -69.480834960960152 -66.392181396518765
-48.984481811543745 -60.341567993186715 -165.750869751010953
2.308700561503130 -57.006122589133980 -79.161468505893765
-3.319503784199995 -69.291000366233590 -83.643905639682828
-51.440338134785932 -64.476589202903511 -162.073135376010953
6.099899291971880 -56.769603729270699 -48.832885742221890
-3.689659118672651 -70.937374115012886 -67.357803344760953
-9.975105285664839 -59.605854034446480 -74.736877441440640
-72.829376220723432 -62.880279541038277 -188.773826599155484
12.621864318827349 -59.023441314719918 -39.152526855503140
-85.725296020528120 -56.172145843528511 -185.626091003452359
-84.063903808614057 -58.657066345237496 -190.692810058628140
-64.017730712910932 -61.532199859641793 -162.022842407260953
-78.581420898457807 -60.748645782493355 -175.856506347690640
4.741699218729693 -62.635276794456246 -33.132476806675015
-5.026962280293745 -62.040920257591011 -46.012481689487515
-34.500808715840620 -62.315208435081246 -97.366836547885953
-39.774414062520307 -63.596523284934761 -84.553283691440640
-7.676612854024214 -60.969100952171090 -27.376312255893765
-27.472915649434370 -58.600734710716011 -84.969863891635953
-73.355865478535932 -58.971080780051949 -162.472137451206265
-18.669807434102339 -64.184951782249215 -64.852905273471890
-18.530784606953901 -67.863319396995308 -46.655700683628140
-77.878051757832807 -62.894489288352730 -164.600296020542203
-19.431037902852339 -65.345676422141793 -49.225646972690640
-26.326416015645307 -66.287094116233590 -62.115737915073453
-36.117706298848432 -55.835556030296090 -70.254882812534390
-88.386398315449995 -61.464557647727730 -173.556594848667203
-39.329345703145307 -69.887313842796090 -73.159362793003140
-11.073913574239057 -67.472385406516793 -36.076019287143765
-13.373985290547651 -58.079429626487496 -48.220092773471890
-3.557632446309370 -60.609329223655465 -29.077819824253140
-83.584243774434370 -61.910636901878121 -159.145370483432828
-91.355117797871870 -55.395797729514840 -157.405044555698453
-126.485137939473432 -63.488315582298043 -240.467491149936734
-92.840591430684370 -62.634246826194527 -168.250152587925015
-30.614990234395307 -64.895736694358590 -40.036102294956265
-82.851425170918745 -66.936161041282418 -156.202041626010953
-131.807571411153106 -65.250274658225777 -236.777328491245328
-131.306259155293731 -60.343334198020699 -235.514717102085172
-23.122726440449995 -58.464122772239449 -50.344390869175015
-14.125953674336714 -62.861881256126168 -32.385528564487515
-33.165176391621870 -67.673923492454293 -62.243057251010953
-31.679138183614057 -58.248371124290230 -51.341583251987515
-19.734809875508589 -68.668292999290230 -24.007324218784390
-20.530807495137495 -63.903457641624215 -29.969909668003140
-27.898498535176557 -67.649211883567574 -43.617736816440640
-96.663085937520307 -66.442062377952340 -156.166946411167203
-97.378311157246870 -63.485454559348824 -161.072082519565640
-14.332061767598432 -54.406490325950386 -28.114135742221890
-100.134628295918745 -59.900142669700386 -173.266555786167203
-100.128005981465620 -62.835300445579293 -172.977172851596890
-23.073699951192182 -61.742858886741402 -30.313629150425015
-108.398559570332807 -68.396682739280465 -171.649108886753140
-130.237365722676543 -63.593837738059761 -203.386383056675015
-132.279968261739043 -61.010135650657418 -206.410041809116422
-100.138305664082807 -65.529754638694527 -146.698608398471890
-132.920654296895293 -62.054691314719918 -200.007820129428922
-35.944000244160932 -59.275665283225777 -22.931915283237515
-23.468399047871870 -66.525306701682808 -20.044952392612515
-30.688232421895307 -57.631778717063668 -25.848114013706265
-139.440429687520293 -56.062614440940621 -199.132553100620328
-69.187454223653120 -63.948802948020699 -80.243972778354703
-43.093902587910932 -61.779281616233590 -50.511138916050015
-62.985427856465620 -62.982986450217965 -62.894683837925015
-129.412826538106231 -63.469310760520699 -178.315826416050015
-137.211593627949981 -65.670745849632027 -192.807441711460172
-65.424606323262495 -62.509685516380074 -65.391296386753140
-64.583618164082807 -58.384319305442574 -71.709976196323453
-134.306915283223418 -59.488243103049996 -197.530189514194547
-135.027877807637481 -65.039604187034371 -194.644592285190640
-41.484222412129682 -62.988407135032418 -23.934570312534390
-134.381027221699981 -59.766567230247261 -183.186370849643765
-49.434814453145307 -59.516857147239449 -29.880889892612515
-62.087310791035932 -59.230476379417183 -49.075103759800015
-57.665069580098432 -71.119915008567574 -35.870758056675015
-131.529403686543731 -65.160739898704293 -180.450820922885953
-47.410690307637495 -63.666435241721871 -45.884765625034390
-115.459777832051557 -63.337894439719918 -140.456848144565640
-136.627136230489043 -65.311439514182808 -168.041854858432828
-128.049423217793731 -57.784553527854683 -138.435592651401578
-142.338577270528106 -62.269195556663277 -161.278152465854703
-57.826217651387495 -54.504550933860543 -8.865478515659390
-131.832382202168731 -61.088676452659371 -132.462570190464078
-60.824462890645307 -65.187797546409371 -13.359863281284390
-75.350799560567182 -57.913902282737496 -30.913940429721890
-57.876403808614057 -66.645633697532418 -3.908599853550015
-81.713241577168745 -64.214076995872261 -39.639648437534390
-86.055175781270307 -61.916687011741402 -47.723175048862515
-137.850097656270293 -66.094535827659371 -134.372833251987515
-93.281600952168745 -63.091190338157418 -48.632080078159390
-85.120315551778120 -64.052036285423043 -39.622833251987515
-88.589965820332807 -63.800998687766793 -37.546051025425015
-74.041198730489057 -62.640663146995308 -16.627746582065640
-76.112487792989057 -68.773059844993355 -30.887115478550015
-65.157745361348432 -65.243247985862496 -5.119415283237515
-74.224380493184370 -63.117660522483590 -11.671447753940640
-75.875991821309370 -56.183517456077340 -0.592895507846890
-87.258834838887495 -56.058101654075386 0.767974853481235
-82.332000732442182 -63.762958526633980 8.596771240199985
-83.862564086934370 -63.204196929954293 -3.849182128940640
-90.054244995137495 -55.766609191917183 5.420196533168735
79.925590515116411 -62.932197570823433 -302.469704628025113
73.074478149393755 -68.027927398704293 -315.434798240696011
67.842586517313677 -59.279209136985543 -289.505846023593961
60.170436859110552 -64.461601257346871 -309.736316204105435
62.407619476298052 -69.601863861106636 -290.251241683994351
54.707794189432818 -65.263774871848824 -296.445438385044156
97.977579116800982 -54.541603088401558 -208.037170410190640
4.686882019022661 -58.313476562522652 -322.823865890537320
11.830978393534380 -58.099884033225777 -327.228591918979703
100.542144298533159 -60.720161438010933 -176.297927856479703
56.240852355936724 -60.655677795432808 -233.586395263706265
91.258097648600298 -59.906326293967965 -168.455001831089078
-0.743858337422651 -63.503677368186715 -334.659378051792203
57.335433959940630 -58.618755340598824 -237.659194946323453
11.078483581522661 -65.682544708274605 -302.350134849582730
62.039577484110552 -72.132892608665230 -213.390312194858609
53.989654540995318 -68.168487548850777 -218.246025085483609
2.673057556132036 -61.942710876487496 -288.843551635776578
56.734588623026568 -67.210441589378121 -201.409774780307828
-0.941452026387495 -59.563419342063668 -299.818430900608121
-1.343368530293745 -67.971450805686715 -287.221811294590054
3.735076904276568 -60.973571777366402 -277.879184722934781
0.300735473612505 -61.580242157005074 -289.566009521518765
-4.002914428731245 -65.258518219016793 -285.480840683017789
-18.200149536153120 -63.765029907249215 -317.291744232212125
-35.991271972676557 -65.671009063743355 -318.828610420261441
-9.330848693867964 -62.396755218528511 -278.070743560825406
-30.933502197285932 -57.543556213401558 -332.988115310703336
55.294136047342974 -60.836833953880074 -163.972671508823453
63.443508148173052 -57.576511383079293 -169.034423828159390
-29.491363525410932 -60.259304046653511 -324.407973289524136
-3.652992248555464 -61.255889892600777 -283.918247222934781
-10.089752197285932 -63.212738037132027 -297.592808723484097
49.784679412821490 -55.542751312278511 -167.486267089878140
61.681655883768755 -64.814220428489449 -156.795837402378140
-26.949905395528120 -60.118347167991402 -308.257888317142545
-13.935729980489057 -56.332576751731636 -260.903751373325406
-31.681259155293745 -57.403076171897652 -324.865580558811246
-10.877098083516401 -58.057518005393746 -262.638172149692593
-43.909317016621870 -60.996353149436715 -319.818257331882535
57.099128723124224 -62.084541320823433 -158.874984741245328
-37.445480346699995 -60.017253875755074 -324.660763740573941
47.523971557596880 -56.153984069846871 -147.793441772495328
24.003463745096880 -60.197841644309761 -166.171890258823453
28.325119018534380 -61.644031524680855 -175.705749511753140
40.394569396952349 -68.597965240501168 -156.052368164096890
23.199241638163286 -61.765396118186715 -168.697128295932828
36.050827026346880 -55.558601379417183 -147.415878295932828
30.410484313944536 -58.148937225364449 -151.287155151401578
36.232078552225786 -53.803489685081246 -151.500411987339078
21.081253051737505 -60.804553985618355 -166.135559082065640
25.661628723124224 -65.740310668967965 -149.522018432651578
18.314506530741411 -61.707557678245308 -164.131896972690640
19.593811035135943 -61.276527404807808 -160.400619506870328
-27.235305786153120 -63.336044311546090 -228.179824829135953
28.382537841776568 -60.436515808128121 -126.264205932651578
2.223846435526568 -65.897171020530465 -168.021286010776578
24.318061828592974 -57.901935577415230 -121.050491333042203
24.653297424296099 -56.190788269065621 -115.523483276401578
-40.238082885762495 -65.571224212669136 -220.399078369175015
-31.946105957051557 -60.852664947532418 -208.639236450229703
17.376190185526568 -58.630023956321480 -120.987091064487515
21.657699584940630 -60.496036529563668 -114.101745605503140
10.862693786600786 -61.584033966087105 -108.236053466831265
-48.531692504903120 -63.164127349876168 -219.620330810581265
10.748878478983599 -61.408657073997261 -106.609466552768765
-47.041351318379682 -64.386268615745308 -212.396972656284390
29.828620910624224 -59.452163696311715 -66.742401123081265
-47.592987060567182 -67.142826080344918 -211.250564575229703
-69.075469970723432 -67.699420928977730 -213.323471069370328
27.606376647928911 -53.085136413596871 -56.269836425815640
-63.494857788106245 -61.983577728294136 -219.323768615757047
-59.714324951192182 -60.516555786155465 -210.615600585971890
15.578765869120318 -63.594104766868355 -72.945007324253140
12.886070251444536 -64.815952301048043 -65.203933715854703
-73.590835571309370 -53.999160766624215 -202.520561218296109
-61.429260253926557 -56.452266693137886 -203.608871459995328
16.231727600077349 -63.196758270286324 -67.669448852573453
-11.039352417012495 -59.106544494651558 -88.972076416050015
-78.488922119160932 -58.943382263206246 -203.294662475620328
2.462989807108599 -62.945217132591011 -78.510147094760953
-67.179855346699995 -55.466644287132027 -192.502037048374234
3.936874389628130 -58.789119720481636 -74.408477783237515
18.827690124491411 -56.088134765647652 -51.644531250034390
25.849281311014849 -61.989311218284371 -42.564880371128140
13.887367248514849 -57.737285614036324 -47.299163818393765
-55.958068847676557 -65.269058227561715 -168.655517578159390
27.295471191385943 -57.051712036155465 -36.222442626987515
-49.797851562520307 -68.497539520286324 -166.898941040073453
-59.263168334981245 -67.367355346702340 -171.572769165073453
-66.453964233418745 -59.911769866966011 -194.817985534702359
17.251396179178911 -62.992675781272652 -45.029541015659390
-3.693168640157026 -60.644714355491402 -90.174209594760953
-61.638534545918745 -56.831363678001168 -164.431915283237515
10.504531860331255 -58.446880340598824 -40.121856689487515
-74.066635131856245 -58.458549499534371 -198.103477478061734
12.434310913065630 -57.418918609641793 -39.943756103550015
-4.374153137227339 -59.647605896018746 -77.331573486362515
-14.123374938985151 -56.476634979270699 -79.087890625034390
-10.125221252461714 -56.428859710716011 -80.415573120151578
-63.875518798848432 -57.616752624534371 -165.154418945346890
-66.221633911153120 -57.678482055686715 -164.386184692417203
10.978919982889849 -57.689628601096871 -35.768615722690640
4.062919616678911 -59.930599212669136 -38.204132080112515
-3.897689819356245 -60.642650604270699 -30.669952392612515
-10.187332153340620 -60.958488464378121 -54.096923828159390
-21.689498901387495 -63.265457153342965 -40.042236328159390
-80.158798217793745 -51.634906768821480 -169.740493774448453
-70.736816406270307 -50.902160644553902 -165.819702148471890
-34.422180175801557 -63.789688110374215 -87.677978515659390
-86.518325805684370 -57.993797302268746 -168.135635376010953
-6.645919799824995 -62.608207702659371 -27.724578857456265
-34.236495971699995 -60.146499633811715 -76.524856567417203
-94.689239501973432 -57.554512023948433 -168.734939575229703
-97.736328125020307 -56.741474151633980 -164.674713134800015
-35.776062011739057 -57.771068573020699 -74.021926879917203
-84.659286499043745 -66.766513824485543 -173.364776611362515
-43.351043701192182 -66.989868164085152 -69.048370361362515
-91.817184448262495 -55.868949890159371 -163.625534057651578
-92.967437744160932 -60.992115020774605 -165.339172363315640
-96.263870239278120 -59.311302185081246 -165.280899047885953
-132.779357910176543 -54.840091705344918 -223.913513183628140
-93.447296142598432 -64.064132690452340 -156.783935546909390
-100.304931640645307 -62.874469757102730 -163.575836181675015
-106.594436645528120 -60.584465026878121 -177.150283813510953
-101.371459960957807 -61.323371887229683 -167.730895996128140
-104.005874633809370 -55.176105499290230 -171.024749755893765
-136.126052856465606 -63.938674926780465 -223.853729248081265
-138.814407348653106 -65.690093994163277 -223.709213256870328
-112.109191894551557 -60.772621154807808 -175.305007934604703
-130.462677001973418 -60.150241851829293 -216.470405578647672
-132.984375000020293 -64.126781463645699 -218.626358032260953
-130.264389038106231 -60.994220733665230 -203.019973754917203
-126.020248413106245 -56.237659454368355 -198.444648742710172
-132.947540283223418 -61.067058563255074 -194.656196594272672
-44.518249511739057 -55.516513824485543 -41.661407470737515
-106.885131835957807 -63.347488403342965 -141.939117431675015
-125.003860473653120 -56.448783874534371 -168.150192260776578
-139.906448364278106 -61.102821350120308 -199.683357238803922
-119.397644042989057 -56.186122894309761 -174.751083374057828
-64.432464599629682 -58.457134246848824 -71.582336425815640
-133.372741699239043 -54.557731628440621 -190.000556945835172
-45.204589843770307 -63.058643341087105 -21.896759033237515
-58.780578613301557 -57.825378417991402 -63.622619628940640
-65.960403442403120 -57.213714599632027 -61.796493530307828
-112.200408935567182 -58.363037109397652 -147.536636352573453
-44.117675781270307 -67.663524627708199 -24.457885742221890
-134.190658569356231 -62.347812652610543 -181.205978393589078
-62.901062011739057 -56.095756530784371 -62.389068603550015
-130.900390625020293 -65.754611969016793 -174.819656372104703
-49.287811279317182 -72.404766082786324 -39.681274414096890
-61.486862182637495 -62.809020996116402 -58.709426879917203
-60.051284790059370 -56.158306121848824 -60.213211059604703
-69.025207519551557 -63.429763793967965 -53.146423339878140
-47.644454956074995 -57.460395813010933 -35.732391357456265
-126.075836181660932 -60.653041839622261 -180.800216674839078
-62.253250122090620 -59.783699035667183 -49.402618408237515
-47.856246948262495 -61.571922302268746 -33.901092529331265
-124.995361328145307 -67.317340850852730 -146.056152343784390
-66.048568725606245 -65.858051300071480 -13.162414550815640
-131.468841552754668 -63.897373199485543 -136.747665405307828
-139.182479858418731 -58.664649963401558 -134.748077392612515
-62.783966064473432 -59.926856994651558 -22.083312988315640
-83.611358642598432 -59.278926849387886 -33.627990722690640
-76.078186035176557 -67.327026367210152 -20.746276855503140
-89.143844604512495 -58.563934326194527 -23.545471191440640
-73.986694335957807 -61.395408630393746 -0.276519775425015
-76.586761474629682 -56.703609466575386 -1.796325683628140
-81.227981567403120 -61.458015441917183 -10.400665283237515
-83.919799804707807 -62.277248382591011 -6.491210937534390
-77.154174804707807 -54.722351074241402 -5.049407959018765
-76.713073730489057 -49.661708831809761 -5.152648925815640
-91.529937744160932 -66.078533172630074 3.251556396449985
72.905258178690630 -62.817607879661324 -283.458675384555875
52.887035369852740 -64.440307617210152 -308.114210128818570
59.184085845926958 -63.819984436057808 -283.956270217929898
53.347438812235552 -62.763057708762886 -293.455795288120328
87.068313598612505 -64.555938720725777 -221.822196960483609
102.658122062662798 -60.697746276878121 -190.905929565464078
13.778022766092974 -59.399951934837105 -324.316861152683316
20.718170165995318 -61.737949371360543 -318.452996254001675
15.460166931132036 -66.062385559104683 -307.160126209293423
94.015652656534868 -59.492122650169136 -161.200088501010953
-14.234703063985151 -61.552658081077340 -334.441484451328336
63.588104248026568 -61.199996948264840 -209.143798828159390
2.319450378397661 -59.026920318626168 -299.690222740207730
58.549709320048052 -55.550827026389840 -205.898918151889859
57.654582977274615 -60.048881530784371 -198.776939392124234
5.511291503885943 -63.090953826926949 -274.104030609165250
-17.914344787617964 -66.555957794212105 -325.099722862278043
-7.881256103535932 -56.592826843284371 -295.156082153354703
-8.143608093282026 -57.986991882346871 -278.843593597446500
-3.208511352559370 -59.731212615989449 -275.575397491489468
-5.872886657735151 -55.623344421409371 -284.741426467929898
-23.988327026387495 -59.230720520042183 -324.353541374240933
-16.560302734395307 -56.379226684592965 -290.477602005039273
-7.730873107930464 -56.258663177512886 -268.097385406528531
-24.207992553731245 -55.940326690696480 -296.896802902256070
-27.994659423848432 -58.767978668235543 -303.065267562900601
56.812499999979693 -63.885246276878121 -163.113220214878140
55.470085144022661 -67.318515777610543 -154.265838623081265
45.012039184550005 -63.165061950706246 -158.958023071323453
30.710403442362505 -56.774711608909371 -174.183166503940640
26.515266418436724 -61.458496093772652 -172.813339233432828
47.985488891581255 -65.831409454368355 -139.240921020542203
44.044414520243365 -54.541942596458199 -155.784515380893765
36.368186950663286 -69.904159545921090 -148.636810302768765
28.056144714335161 -59.300201416038277 -166.263488769565640
41.531379699686724 -49.662746429466011 -139.743972778354703
39.384597778300005 -60.905540466331246 -140.757919311557828
17.110000610331255 -59.541400909446480 -173.506256103550015
20.627746582010943 -58.503452301048043 -167.692031860385953
28.199867248514849 -61.186164855979683 -145.890655517612515
12.696434020975786 -61.910449981712105 -160.552429199253140
24.280990600565630 -61.507095336936715 -148.368759155307828
-28.975296020528120 -54.474987030051949 -235.251564025913297
11.215881347635943 -67.638236999534371 -169.440338134800015
7.262626647928911 -62.707756042503121 -166.988601684604703
-33.570037841817182 -58.127140045188668 -206.995803833042203
-28.479217529317182 -56.771114349387886 -218.261375427280484
26.183662414530474 -57.356216430686715 -64.721603393589078
11.912094116190630 -65.272548675559761 -100.735839843784390
2.317245483378130 -59.070148468040230 -98.993835449253140
19.447479248026568 -66.813293457053902 -56.645019531284390
-0.054260253926557 -61.062191009544136 -84.049926757846890
22.647514343241411 -54.957786560081246 -46.529907226596890
-4.254707336446089 -58.114341735862496 -87.721542358432828
8.866439819315630 -63.259449005149605 -57.786972045932828
7.210189819315630 -61.803222656272652 -46.073669433628140
-1.806770324727339 -62.670742034934761 -47.482421875034390
-12.877746582051557 -62.860515594505074 -47.884399414096890
-10.170036315938276 -57.314178466819527 -40.830169677768765
-32.646545410176557 -59.391868591331246 -81.309600830112515
-43.112335205098432 -65.719699859641793 -84.645568847690640
-32.625518798848432 -53.481929779075386 -66.819702148471890
-32.682815551778120 -61.170444488548043 -79.644302368198453
-18.866104125996870 -63.123699188255074 -36.896392822300015
-86.937835693379682 -60.527046203635933 -170.319961547885953
-27.239135742207807 -64.193222045921090 -49.904541015659390
-15.391433715840620 -59.098949432395699 -37.644531250034390
-27.422470092793745 -53.527538299583199 -50.809875488315640
-92.043426513692182 -63.432792663596871 -153.316085815464078
-100.437332153340620 -56.603820800803902 -172.516586303745328
-131.659759521504668 -57.834285736106636 -217.794097900425015
-115.278442382832807 -62.640964508079293 -179.198394775425015
-132.091232299824981 -57.328353881858590 -214.640289306675015
-130.767761230489043 -65.273391723655465 -193.161247253452359
-131.063079834004668 -62.035110473655465 -205.312019348178922
-43.660293579121870 -61.384658813499215 -29.599060058628140
-45.760726928731245 -67.937137603782418 -24.475341796909390
-132.902755737324981 -59.212779998801949 -193.225959777866422
-128.323852539082793 -60.171447753928902 -185.248748779331265
-133.946289062520293 -64.591228485130074 -194.579216003452359
-43.506408691426557 -64.623729705833199 -27.022430419956265
-50.725189209004682 -62.968368530296090 -39.150604248081265
-56.579040527364057 -56.829757690452340 -50.963012695346890
-45.222122192403120 -57.419433593772652 -34.564483642612515
-43.505340576192182 -57.487182617210152 -28.536529541050015
-57.056365966817182 -55.724109649680855 -55.826477050815640
-45.782943725606245 -55.651081085227730 -26.087249755893765
-60.118545532246870 -63.833786010764840 -47.060546875034390
-60.226608276387495 -62.971736907981636 -40.526000976596890
-57.842239379903120 -62.859493255637886 -38.250030517612515
-63.136901855489057 -49.016700744651558 -50.965332031284390
-120.849136352559370 -56.019641876243355 -146.593643188510953
-129.735839843770293 -58.920654296897652 -178.139434814487515
-50.193511962910932 -55.108123779319527 -27.169799804721890
-136.475463867207793 -58.237590789817574 -173.640197753940640
-120.711791992207807 -61.014698028587105 -146.892730712925015
-147.338104248067168 -64.433895111106636 -155.870956420932828
-78.194580078145307 -59.267917633079293 -19.404083251987515
-73.725418090840620 -56.395206451438668 -34.317047119175015
-82.555068969746870 -60.446891784690621 -26.358062744175015
-66.800704956074995 -58.916854858421090 0.351959228481235
-80.698577880879682 -57.843341827415230 -29.626220703159390
-84.619750976582807 -60.056324005149605 -38.511901855503140
-81.428726196309370 -63.950870513938668 -22.425811767612515
-72.223220825215620 -63.319351196311715 -3.858306884800015
75.494716644266802 -60.599498748801949 -299.177472114597379
78.881589889506060 -51.645912170432808 -304.200791358982144
68.389392852762896 -68.183502197288277 -304.810892105136929
59.653575897196490 -50.004978179954293 -311.805106163059293
72.500640869120318 -61.934577941917183 -290.937658309970914
64.397689819315630 -62.486606597923043 -286.755006790195523
78.171874999979693 -62.051971435569527 -230.916076660190640
110.509176254252154 -58.239032745383980 -191.251426696811734
69.843784332255083 -64.635143280051949 -243.153770446811734
13.477996826151568 -54.215488433860543 -309.934995174442349
2.231246948221880 -55.320533752464058 -335.790433883701382
0.837013244608599 -57.613986969016793 -299.933525085483609
4.675613403300005 -57.624393463157418 -295.862527847324429
-17.357124328633589 -55.377201080344918 -334.363042831455289
58.639171600321490 -56.175971984885933 -183.102294921909390
66.136287689188677 -56.623031616233590 -185.836608886753140
0.283332824686724 -67.198646545432808 -275.713417053257047
56.835102081278521 -56.579315185569527 -179.023178100620328
54.164112091044146 -52.962856292747261 -175.381408691440640
71.121227264383990 -57.927410125755074 -149.230224609409390
60.888362884501177 -62.757427215598824 -166.184768676792203
-2.863494873067182 -56.198619842551949 -275.867385864292203
49.267971038798052 -62.634246826194527 -171.324447631870328
-8.520553588887495 -55.652248382591011 -276.917778015171109
-32.959533691426557 -64.643028259299996 -310.986018180881558
-34.227355957051557 -59.055248260520699 -312.753361195360242
52.407970428446490 -59.573974609397652 -162.561462402378140
54.926399230936724 -62.851554870628121 -156.469116210971890
33.044906616190630 -58.140316009544136 -164.614242553745328
42.268157958964068 -58.395454406760933 -137.334350585971890
35.352592468241411 -53.616931915305855 -156.344253540073453
43.839824676493365 -59.849861145042183 -144.183975219760953
35.852645874003130 -64.060268402122261 -167.841415405307828
30.166061401346880 -55.822189331077340 -168.601821899448453
35.701393127421099 -57.294837951682808 -143.763290405307828
30.378540039042193 -59.591205596946480 -163.375671386753140
38.862831115702349 -56.760066986106636 -147.124679565464078
31.525688171366411 -56.703441619895699 -154.696121215854703
21.358596801737505 -57.259338378928902 -162.578704834018765
21.634628295878130 -55.538452148460152 -164.073120117221890
14.689117431620318 -56.559589386008980 -168.917953491245328
30.683944702128130 -52.573982238792183 -145.346923828159390
35.722061157206255 -63.176918029807808 -124.123733520542203
39.753250122050005 -63.194858551048043 -137.661819458042203
-33.358215332051557 -61.813613891624215 -233.031524658237515
6.013908386210161 -54.446056365989449 -165.180603027378140
-27.443267822285932 -53.732501983665230 -220.016578674350797
14.756538391092974 -62.710521698020699 -122.962509155307828
3.604347228983599 -62.091777801536324 -113.698394775425015
12.243209838846880 -48.873950958274605 -105.914184570346890
20.085456848124224 -49.459812164329293 -103.379272460971890
3.519256591776568 -63.865028381370308 -96.380371093784390
15.759071350077349 -51.202453613303902 -103.642333984409390
10.902915954569536 -57.705169677757027 -63.052230834995328
-2.338119506856245 -56.844245910667183 -88.952957153354703
1.134765624979693 -60.837028503440621 -71.014953613315640
12.450614929178911 -58.468448638938668 -56.911376953159390
4.820739746073443 -62.467075347923043 -81.284240722690640
12.702133178690630 -56.644908905051949 -54.992980957065640
8.265777587870318 -57.589008331321480 -53.377197265659390
-6.534088134785932 -57.499671936057808 -73.740692138706265
-7.494575500508589 -54.955093383811715 -64.330978393589078
-0.232414245625776 -63.223827362083199 -54.642944335971890
-11.066566467305464 -66.182758331321480 -56.641937255893765
-31.406631469746870 -60.224605560325386 -75.840072631870328
-20.074539184590620 -64.541683197044136 -41.618072509800015
-28.304275512715620 -58.510528564475777 -66.954360961948453
-34.616775512715620 -58.295162200950386 -69.807312011753140
-30.335189819356245 -57.504180908225777 -59.600357055698453
-39.339385986348432 -57.229019165061715 -60.977798461948453
-39.430053710957807 -60.445022583030465 -70.112014770542203
-97.746444702168745 -62.176609039329293 -165.830993652378140
-15.745307922383589 -59.425800323508980 -38.517272949253140
-97.513015747090620 -57.939014434837105 -169.313690185581265
-105.669876098653120 -60.211585998557808 -170.427001953159390
-101.055053710957807 -60.396446228049996 -160.163040161167203
-111.251663208028120 -49.669239044212105 -184.994827270542203
-23.028182983418745 -65.508567810081246 -39.462707519565640
-102.825119018574995 -56.254711151145699 -161.706176757846890
-112.059875488301557 -61.005573272727730 -175.682205200229703
-134.514846801778106 -60.534778594993355 -194.243194580112515
-128.199798584004668 -56.194240570091011 -200.917022705112515
-43.232086181660932 -60.021545410178902 -31.053588867221890
-109.063003540059370 -55.863304138206246 -154.606811523471890
-131.761520385762481 -59.600292205833199 -184.289871215854703
-47.212036132832807 -61.468662261985543 -30.761352539096890
-56.855819702168745 -59.963325500510933 -38.313842773471890
-54.097808837910932 -59.178321838401558 -46.024963378940640
-126.963317871114057 -57.776695251487496 -174.844055175815640
-55.599777221699995 -63.372604370139840 -38.308319091831265
-131.540466308614043 -57.803462982200386 -178.162979126010953
-138.389404296895293 -54.914043426536324 -176.526077270542203
-50.007263183614057 -66.165279388450386 -15.082885742221890
-68.552474975606245 -65.108257293723824 -10.117797851596890
-64.180831909199995 -61.930751800559761 -1.566864013706265
-74.733993530293745 -61.624862670921090 -11.289672851596890
-151.336563110371856 -63.527236938499215 -148.004882812534390
-68.225448608418745 -60.462013244651558 -5.887145996128140
62.864971160868365 -57.630558013938668 -306.728052139316617
48.585365295389849 -65.370826721214058 -298.085291862522183
102.882634162882525 -58.610721588157418 -203.895042419467984
104.040652275065142 -58.009220123313668 -199.950317382846890
81.708635330179888 -57.391735076926949 -227.622673034702359
68.197830200175005 -55.199321746848824 -237.917976379428922
59.761817932108599 -60.557212829612496 -236.674293518100797
55.162704467753130 -56.546878814719918 -234.738143920932828
17.352989196757036 -56.031288146995308 -306.717391967807828
81.516441345194536 -59.283462524436715 -162.464370727573453
56.887317657450396 -56.819721221946480 -197.651580810581265
6.982521057108599 -57.657104492210152 -283.333072662387906
7.887336730936724 -52.412364959739449 -287.827629089389859
0.021949768046099 -60.132980346702340 -293.740121841465054
-21.905410766621870 -59.654800415061715 -328.658174514804898
4.301239013651568 -47.761848449729683 -281.456815719638882
-31.441223144551557 -61.072257995628121 -321.513653755222379
58.430759429911333 -52.349033355735543 -167.095825195346890
68.199581146219927 -56.194248199485543 -145.874160766635953
-30.741439819356245 -54.965335845969918 -293.079511642490445
46.592880249003130 -60.311458587669136 -163.352569580112515
48.926883697489458 -57.242477417014840 -155.581588745151578
45.853454589823443 -53.309577941917183 -148.646652221714078
26.456764221171099 -59.774177551292183 -173.617019653354703
29.952087402323443 -63.390853881858590 -152.153274536167203
27.714103698710161 -58.036838531516793 -164.602630615268765
25.753929138163286 -58.548240661643746 -146.983963012729703
31.178253173807818 -50.365718841575386 -151.399093627964078
44.022823333719927 -60.079792022727730 -155.692001342807828
41.622169494608599 -58.533306121848824 -144.751174926792203
22.803932189921099 -53.858638763450386 -162.546432495151578
39.266487121561724 -55.098258972190621 -141.437500000034390
14.845809936503130 -58.334144592307808 -178.336135864292203
13.150146484354693 -53.554767608665230 -164.991363525425015
-27.049804687520307 -60.740978240989449 -237.532508850132047
9.157676696757036 -54.326160430930855 -161.421997070346890
-32.296981811543745 -59.838138580344918 -228.523559570346890
-31.416519165059370 -56.720664978049996 -226.930801391635953
-39.158905029317182 -60.863136291526558 -223.653839111362515
27.686630249003130 -55.847671508811715 -130.934234619175015
25.503334045389849 -56.489051818870308 -125.025375366245328
23.337226867655474 -55.731407165549996 -118.234527587925015
20.706893920878130 -57.204177856467965 -115.253234863315640
19.739463806132036 -59.969409942649605 -117.576904296909390
23.779533386210161 -60.534622192405465 -59.715469360385953
31.461639404276568 -56.868049621604683 -64.060882568393765
3.552398681620318 -69.410537719749215 -93.684036254917203
17.537895202616411 -57.106464386008980 -73.458251953159390
10.993186950663286 -55.909179687522652 -97.801498413120328
15.356529235819536 -59.643646240257027 -62.439102172885953
-2.931320190449995 -61.335781097434761 -92.037582397495328
-2.148590087910932 -57.741264343284371 -95.035659790073453
5.304420471171099 -52.218730926536324 -60.833221435581265
1.441169738749224 -55.613025665305855 -63.333831787143765
-11.251556396504682 -56.835590362571480 -91.809066772495328
-12.319931030293745 -52.789199829124215 -77.872985839878140
-13.812904357930464 -55.870983123801949 -88.312698364292203
-13.777748107930464 -59.605716705344918 -84.686752319370328
4.099189758280474 -61.888500213645699 -65.287994384800015
-5.462104797383589 -54.289184570335152 -60.915847778354703
-3.307243347188276 -60.196937561057808 -65.502914428745328
-5.193389892598432 -57.881362915061715 -78.082855224643765
-12.151847839375776 -56.963298797630074 -69.879989624057828
-5.848449707051557 -59.015510559104683 -74.641632080112515
-14.248901367207807 -54.533939361594918 -47.826690673862515
-11.081558227559370 -53.944206237815621 -37.183868408237515
-16.203361511250776 -56.382404327415230 -38.681701660190640
-17.534416198750776 -67.740112304710152 -52.092742919956265
-24.370391845723432 -53.479888916038277 -52.439666748081265
-27.061752319356245 -59.254878997825386 -63.026229858432828
-22.422592163106245 -56.928901672385933 -52.862579345737515
-15.131362915059370 -66.284435272239449 -33.922943115268765
-24.161392211934370 -57.679237365745308 -51.446563720737515
-26.070541381856245 -59.615665435813668 -52.437591552768765
-15.176422119160932 -54.476009368919136 -37.358795166050015
-23.284957885762495 -54.539714813255074 -45.834075927768765
-25.824584960957807 -60.518703460716011 -55.721191406284390
-95.256805419942182 -65.326156616233590 -158.641784668003140
-100.602172851582807 -54.431442260764840 -169.813034057651578
-111.909240722676557 -57.714141845725777 -177.703094482456265
-110.929031372090620 -58.141834259055855 -167.258697509800015
-103.812011718770307 -55.870803833030465 -149.146835327182828
-104.273895263692182 -60.869453430198433 -147.263809204135953
-135.847732543965606 -54.114212036155465 -195.041061401401578
-139.519653320332793 -62.240886688255074 -203.284202575717984
-42.485443115254682 -55.715057373069527 -31.083587646518765
-130.650619506856231 -61.982299804710152 -189.333702087436734
-131.938217163106231 -53.886161804221871 -184.946212768589078
-35.448959350606245 -54.702922821067574 -11.524444580112515
-39.858154296895307 -52.233158111594918 -18.617431640659390
-44.627090454121870 -55.902149200462105 -28.814605712925015
-123.863891601582807 -56.802173614524605 -156.857437133823453
-47.619903564473432 -62.776676178001168 -18.139068603550015
-118.630249023457807 -57.053298950217965 -142.573272705112515
-52.893020629903120 -51.294845581077340 -23.310119628940640
-61.576507568379682 -49.483135223411324 -18.668731689487515
-58.152038574239057 -56.334648132346871 -15.635955810581265
-65.173965454121870 -54.042896270774605 -17.198944091831265
-62.033660888692182 -57.492038726829293 -16.156646728550015
-60.792526245137495 -61.208896636985543 -4.610900878940640
-64.685180664082807 -53.937492370628121 -11.590698242221890
-70.570800781270307 -57.744510650657418 -15.640563964878140
-69.854125976582807 -60.313423156760933 -11.817443847690640
-71.062362670918745 -57.512065887473824 -14.535583496128140
-152.105514526387481 -56.482765197776558 -154.723983764682828
-73.299987792989057 -60.322395324729683 -15.173889160190640
-66.839904785176557 -48.199844360374215 -10.372161865268765
-58.620147705098432 -59.678165435813668 -2.449035644565640
-71.995697021504682 -58.874462127708199 -0.406402587925015
-63.559494018574995 -50.928573608421090 -7.010162353550015
-73.365447998067182 -59.344455719016793 -8.682006835971890
-146.331222534199981 -65.152862548850777 -137.114837646518765
-76.207183837910932 -53.524913787864449 -10.716949462925015
-70.985626220723432 -54.517993927024605 -8.175323486362515
79.261661529520708 -48.336433410667183 -294.474294662509976
70.533752441385943 -63.819866180442574 -310.774133205448209
74.691314697245318 -55.427974700950386 -311.051634311710416
77.314752578715044 -68.581256866477730 -284.332300186191617
60.866432189921099 -50.568786621116402 -293.077541351352750
61.510429382303911 -61.858791351341011 -299.311446189914761
102.087738990763384 -58.439498901389840 -208.342880249057828
90.150318145731646 -61.939002990745308 -216.630935668979703
9.122993469217974 -54.837398529075386 -328.157258033786832
101.604332447031695 -60.259803771995308 -162.941940307651578
8.014839172342974 -60.658054351829293 -328.401376724277554
13.122688293436724 -58.445438385032418 -315.813160181079922
-13.831680297871870 -60.316452026389840 -334.584142684970914
3.553062438944536 -65.673431396507027 -301.393188476596890
58.458759307841021 -62.106483459495308 -211.354316711460172
2.597236633280474 -51.868564605735543 -297.267719268833218
66.261520385721880 -52.333419799827340 -196.848289489780484
-0.571395874043745 -55.866912841819527 -301.372279167209683
7.316940307596880 -52.200241088889840 -295.618024826084195
85.477558135966021 -61.202804565452340 -162.043395996128140
5.892745971659380 -55.869544982932808 -277.777961730991422
-3.515739440938276 -57.335594177268746 -284.629781723056851
-6.234855651875776 -60.508457183860543 -296.975519180332242
-2.791854858418745 -62.904670715354683 -277.973453521762906
53.118511199930865 -58.320240020774605 -166.200759887729703
-26.351562500020307 -60.553573608421090 -305.495071411167203
48.449817657450396 -56.413051605247261 -160.173233032260953
50.580417633036333 -55.808982849143746 -158.253204345737515
47.251842498758990 -53.575183868430855 -151.746368408237515
50.717731475809771 -51.163032531760933 -150.559829711948453
47.873649597147661 -68.867050170921090 -142.839370727573453
37.122459411600786 -61.628818511985543 -149.343032836948453
26.882057189921099 -56.802448272727730 -169.010269165073453
31.980110168436724 -59.314632415794136 -145.881103515659390
14.488540649393755 -56.571643829368355 -166.122955322300015
28.614364624003130 -54.470981597923043 -141.574386596714078
-25.329055786153120 -48.303050994895699 -245.088928222690640
-22.830245971699995 -56.494098663352730 -241.004631042514859
34.035507202128130 -56.523017883323433 -135.950210571323453
-31.081497192403120 -60.090442657493355 -221.848747253452359
32.350914001444536 -53.224258422874215 -135.188262939487515
28.887435913065630 -58.264808654807808 -129.788574218784390
-42.897338867207807 -59.330142974876168 -220.682685852085172
20.192985534647661 -57.913928985618355 -128.124588012729703
22.565185546854693 -55.106437683128121 -133.582015991245328
23.680343627909380 -59.617263793967965 -121.116210937534390
19.277221679667193 -63.972736358665230 -117.677627563510953
7.941986083964068 -53.230499267600777 -110.457351684604703
17.718818664530474 -65.964332580589058 -105.531906127964078
21.603477478007036 -57.382362365745308 -114.279739379917203
11.240509033182818 -55.852546691917183 -102.306732177768765
35.832656860331255 -65.342956542991402 -78.576919555698453
7.278877258280474 -53.165863037132027 -100.316635131870328
18.499748229960161 -56.834152221702340 -66.565612793003140
14.985160827616411 -62.987361907981636 -60.568664550815640
15.267387390116411 -52.587776184104683 -56.717315673862515
1.508094787577349 -58.676948547385933 -76.457107543979703
-1.604446411153120 -56.116813659690621 -73.375076293979703
-4.443099975606245 -56.974384307883980 -81.188430786167203
5.507125854471880 -51.534141540549996 -63.123870849643765
-7.850570678731245 -56.315750122092965 -75.608566284214078
4.139419555643755 -57.834743499778511 -49.131774902378140
5.091239929178911 -64.988498687766793 -47.020263671909390
-14.674324035664839 -56.247524261497261 -31.700225830112515
-20.161994934102339 -58.705673217796090 -45.225952148471890
-34.687240600606245 -53.922954559348824 -57.090255737339078
-19.632514953633589 -61.418884277366402 -35.705596923862515
-101.615173339864057 -59.780178070091011 -159.278137207065640
-109.640136718770307 -54.857906341575386 -168.627304077182828
-99.589752197285932 -62.535453796409371 -156.745712280307828
-34.171112060567182 -59.350383758567574 -31.672790527378140
-105.936187744160932 -57.237735748313668 -159.256347656284390
-37.900558471699995 -54.088699340842965 -26.600646972690640
-107.116088867207807 -63.783836364768746 -157.458953857456265
-39.469726562520307 -50.439720153831246 -25.763305664096890
-127.710937500020307 -67.781719207786324 -176.818847656284390
-42.314239501973432 -57.007492065452340 -21.592132568393765
-37.642288208028120 -59.365005493186715 -25.744079589878140
-44.945938110371870 -58.774513244651558 -22.319824218784390
-40.784347534199995 -54.048313140891793 -25.088348388706265
