21.654283523560 -75.009468078613 -158.543014526367 1.824665904045
-65.397315979004 -73.085632324219 -145.334030151367 2.101325273514
-71.040115356445 -74.309761047363 -155.610244750977 2.360005140305
114.640426635742 -77.898193359375 -166.991104125977 1.384759426117
-8.989791870117 -76.630905151367 -157.831146240234 8.415906906128
-67.193885803223 -72.492538452148 -161.002578735352 2.329299449921
-36.775012969971 -77.036270141602 -157.956268310547 1.548078417778
-54.880573272705 -73.268913269043 -162.068450927734 4.759243488312
29.831586837769 -74.088005065918 -172.272796630859 3.271875143051
110.510032653809 -72.161949157715 -173.451324462891 1.820389509201
100.261848449707 -73.601882934570 -183.430816650391 4.218871593475
102.066650390625 -75.035530090332 -189.440460205078 1.652994036674
105.039993286133 -72.282188415527 -176.041366577148 1.569178342819
-52.921237945557 -73.364891052246 -184.031494140625 2.229783058167
-48.516139984131 -70.878791809082 -174.664260864258 6.595811367035
26.028974533081 -74.793632507324 -179.479110717773 2.207217693329
-49.179080963135 -73.535850524902 -176.158889770508 4.741366863251
-22.608352661133 -75.186531066895 -176.294967651367 1.611769318581
-53.228103637695 -78.766906738281 -182.198074340820 2.297588348389
-154.382812500000 -73.326438903809 -177.300125122070 2.260817289352
98.504425048828 -78.593437194824 -192.064910888672 4.593015670776
-46.511066436768 -71.755783081055 -186.618408203125 4.648756980896
-14.162104606628 -77.208801269531 -192.766143798828 2.749078750610
-141.235366821289 -73.698707580566 -177.636962890625 2.923944234848
-43.279747009277 -72.323493957520 -190.896713256836 2.789380550385
98.005683898926 -73.979003906250 -196.114898681641 1.789119482040
106.121528625488 -73.035736083984 -184.958923339844 2.171878576279
-44.756183624268 -74.753463745117 -186.519149780273 3.009120225906
-24.742097854614 -84.195602416992 -192.288345336914 3.990298509598
-149.274917602539 -77.745674133301 -185.496658325195 2.551413774490
-27.477409362793 -74.545410156250 -187.232055664063 2.289411783218
-163.066345214844 -75.011886596680 -180.660308837891 10.855627059937
-155.515213012695 -83.552665710449 -190.373397827148 5.815093994141
-148.005722045898 -77.341926574707 -187.006637573242 1.870725870132
-41.350437164307 -76.292594909668 -192.957214355469 2.241903781891
98.908248901367 -77.521331787109 -203.819610595703 2.377232789993
-45.312477111816 -72.907737731934 -191.350509643555 1.310770750046
-144.770706176758 -79.169738769531 -190.140838623047 2.020609378815
-40.134384155273 -70.556961059570 -196.957382202148 3.525454759598
-26.102767944336 -82.168701171875 -202.244400024414 5.480155944824
94.872489929199 -79.633605957031 -205.591262817383 2.958849191666
85.970901489258 -78.342689514160 -214.543014526367 3.177389860153
-41.979259490967 -73.297325134277 -208.823455810547 4.541626930237
-91.804893493652 -77.198440551758 -198.176177978516 14.150175094604
-79.083778381348 -76.973159790039 -200.966217041016 6.395774841309
-22.805877685547 -75.633003234863 -200.940887451172 1.966783046722
-152.573486328125 -77.970520019531 -185.037460327148 5.160750865936
88.468864440918 -75.182174682617 -213.523193359375 1.026891469955
84.340965270996 -71.772132873535 -216.960723876953 3.136647939682
85.504699707031 -77.111129760742 -220.195861816406 1.987951159477
-106.645088195801 -77.127044677734 -205.466781616211 9.482790946960
-159.079315185547 -78.041488647461 -205.003250122070 5.230447292328
-24.644357681274 -73.407752990723 -217.088714599609 1.278733611107
76.493675231934 -71.878967285156 -226.726684570313 1.010908246040
-154.346679687500 -80.194129943848 -205.531890869141 2.659530878067
-33.419769287109 -77.579933166504 -208.434448242188 1.630829453468
-139.177795410156 -73.557029724121 -219.485031127930 4.307808876038
-15.663627624512 -79.374038696289 -225.433258056641 3.576963186264
12.397348403931 -74.605598449707 -225.181228637695 3.383954524994
15.531493186951 -77.266082763672 -228.712295532227 2.263753890991
-160.521087646484 -78.908050537109 -220.385009765625 6.942797660828
-131.394409179688 -71.048446655273 -218.984802246094 5.581336498260
-13.283740997314 -75.903503417969 -229.117980957031 2.644607782364
-4.896502017975 -75.096961975098 -231.818817138672 1.545589923859
64.302284240723 -76.032028198242 -228.298889160156 5.571152687073
63.293010711670 -72.248077392578 -237.732894897461 1.559905290604
-5.459685802460 -73.190322875977 -234.108047485352 1.607818365097
10.550174713135 -71.140365600586 -235.118103027344 1.372376084328
-37.227050781250 -66.264602661133 -233.975463867188 10.112681388855
-37.236801147461 -87.422958374023 -234.341690063477 9.702978134155
-54.547542572021 -76.197303771973 -225.578018188477 14.939035415649
-46.270668029785 -73.491737365723 -230.795364379883 8.177203178406
-21.342029571533 -77.724891662598 -235.966690063477 3.411201238632
-57.096946716309 -73.830505371094 -235.310195922852 7.425673961639
-3.944839954376 -77.223922729492 -239.309890747070 2.366237878799
-73.822036743164 -79.393173217773 -231.780868530273 14.285520553589
16.154972076416 -78.233596801758 -242.395507812500 2.092071771622
-146.741577148438 -78.978034973145 -228.661407470703 2.033088207245
-79.275306701660 -79.598312377930 -243.906784057617 7.339251041412
11.060470581055 -77.345977783203 -245.261672973633 1.903678059578
-166.572631835938 -74.725402832031 -233.373077392578 2.084695816040
5.960855960846 -81.749900817871 -248.708160400391 2.051452875137
-86.431190490723 -68.588973999023 -240.060440063477 9.007131576538
-81.888923645020 -76.696357727051 -239.451950073242 9.270329475403
11.778142929077 -79.087684631348 -248.634277343750 1.378750324249
-95.440277099609 -75.542228698730 -238.697647094727 12.987493515015
-131.818222045898 -71.616622924805 -240.490005493164 4.522922515869
-138.139709472656 -81.565055847168 -246.694961547852 6.944312095642
-142.538528442383 -80.109352111816 -236.846389770508 3.760188817978
-153.118087768555 -79.323982238770 -246.808227539063 2.005197286606
-152.716598510742 -71.903778076172 -235.951110839844 0.690370202065
-140.242523193359 -74.512580871582 -247.446655273438 4.581861972809
-168.034729003906 -71.789039611816 -244.221191406250 3.437556505203
-135.388031005859 -76.983283996582 -253.829483032227 2.313596010208
-143.445510864258 -69.422477722168 -248.789978027344 2.516946792603
-168.666503906250 -72.609649658203 -255.578720092773 1.818144440651
-161.545043945313 -73.160346984863 -249.254348754883 2.672366619110
-154.023651123047 -74.241409301758 -250.744766235352 2.301493644714
-155.828750610352 -77.550544738770 -250.425888061523 3.544308662415
9.826030731201 -79.772621154785 -274.072784423828 1.105633974075
-173.166503906250 -76.654029846191 -248.738418579102 6.734449863434
-158.302215576172 -78.979484558105 -257.970581054688 4.393065929413
-11.965206146240 -86.220405578613 -265.724426269531 5.756769657135
-161.091613769531 -73.539718627930 -260.992034912109 1.774333238602
3.845012903214 -80.990898132324 -278.600921630859 1.191878914833
-160.513427734375 -76.141601562500 -265.714141845703 3.022452354431
-174.795852661133 -78.695320129395 -272.669464111328 9.216156959534
-162.985427856445 -80.523887634277 -260.930755615234 5.731500625610
-172.251113891602 -73.831352233887 -273.689605712891 5.408159732819
-8.073716163635 -81.900421142578 -280.598266601563 5.411019325256
-0.529045999050 -83.491432189941 -274.839691162109 2.348061084747
-115.327247619629 -74.513351440430 -281.017761230469 4.950570106506
-165.288681030273 -85.173156738281 -271.787231445313 8.465033531189
-155.627029418945 -73.753791809082 -269.438507080078 1.870337009430
-113.516914367676 -75.723678588867 -280.006805419922 6.411651134491
-162.088470458984 -81.310218811035 -277.975128173828 6.210141658783
-156.195571899414 -82.608238220215 -272.892639160156 2.834170818329
-85.040802001953 -81.848594665527 -282.927215576172 6.585333824158
-177.042556762695 -79.943389892578 -271.945495605469 11.855846405029
-130.420898437500 -72.389770507813 -277.980010986328 6.678987979889
-50.614646911621 -82.928016662598 -275.693847656250 11.098187446594
-158.124343872070 -76.491889953613 -271.827880859375 3.726598024368
-138.785812377930 -71.017822265625 -279.788726806641 4.356663227081
-29.444032669067 -74.461341857910 -287.958923339844 1.878499984741
-137.942230224609 -71.842727661133 -278.834320068359 5.206482410431
-2.161242008209 -79.015975952148 -289.655639648438 2.671357631683
6.590497016907 -74.151710510254 -287.188842773438 0.882956206799
-141.250625610352 -71.374137878418 -276.141021728516 2.634901046753
-153.984497070313 -79.707130432129 -284.246856689453 1.386094331741
-165.971923828125 -82.230438232422 -300.240753173828 11.123396873474
-65.161384582520 -65.713409423828 -43.165832519531 1.253641247749
-16.054830551147 -64.308448791504 -60.371784210205 3.216333389282
-13.523537635803 -75.568527221680 -58.216053009033 6.188779354095
74.905815124512 -69.421012878418 -78.266632080078 5.226424217224
94.633056640625 -71.240394592285 -75.873573303223 1.600716114044
-31.210849761963 -72.122406005859 -72.693786621094 4.376861095428
80.915290832520 -71.020233154297 -80.696769714355 4.898728847504
94.752098083496 -76.826858520508 -83.158599853516 2.667130470276
69.536033630371 -72.920074462891 -83.107414245605 1.692195057869
77.348159790039 -70.700065612793 -90.701385498047 5.324106216431
-45.846607208252 -72.262626647949 -75.708549499512 6.241486072540
-87.648620605469 -75.290702819824 -78.907226562500 2.852488517761
63.316669464111 -76.466484069824 -92.033393859863 3.556997060776
53.774486541748 -75.813377380371 -98.214851379395 1.964243650436
95.387115478516 -67.829391479492 -102.834732055664 0.824927091599
-86.585227966309 -65.514511108398 -90.664512634277 9.579316139221
82.323036193848 -66.118644714355 -100.442008972168 2.169780731201
74.122398376465 -73.795448303223 -100.867744445801 2.366250991821
94.372489929199 -76.227729797363 -97.915786743164 2.573087453842
87.482833862305 -73.287361145020 -95.252746582031 3.111451625824
82.599586486816 -76.171264648438 -98.573204040527 1.101932644844
-86.734466552734 -74.259048461914 -91.635887145996 6.430546760559
48.035228729248 -68.883506774902 -101.140487670898 0.764429867268
107.053726196289 -74.919548034668 -111.651176452637 0.968435883522
108.676757812500 -74.249282836914 -111.603744506836 1.332824468613
52.688385009766 -77.517318725586 -118.721168518066 6.373175621033
116.227912902832 -77.923835754395 -120.098358154297 5.329866409302
118.753196716309 -78.446784973145 -136.769119262695 3.758260250092
-48.525436401367 -69.303977966309 -119.658630371094 7.443735599518
29.082649230957 -72.887901306152 -131.235992431641 1.849057555199
42.497444152832 -78.205650329590 -130.705642700195 2.269196510315
24.962430953979 -70.403114318848 -137.539047241211 2.616542100906
113.531661987305 -79.073814392090 -137.437866210938 2.380011558533
112.559196472168 -75.911308288574 -130.514022827148 1.365470886230
-73.114578247070 -72.719909667969 -138.222595214844 1.173676371574
-42.408824920654 -71.586578369141 -130.939941406250 5.908998012543
-71.292549133301 -70.799720764160 -143.409622192383 1.744890213013
18.309555053711 -70.812263488770 -142.714324951172 3.936155319214
111.950790405273 -70.220802307129 -148.640197753906 2.875821352005
-54.287872314453 -75.624908447266 -143.852279663086 1.158088803291
-72.824508666992 -72.036132812500 -142.964050292969 2.034065485001
-39.255954742432 -76.895019531250 -142.677734375000 5.582159996033
31.182186126709 -67.017684936523 -150.760772705078 3.261245250702
108.024833679199 -69.049888610840 -151.067199707031 3.864335775375
116.866226196289 -73.038230895996 -164.262634277344 1.771318674088
-68.398094177246 -69.427978515625 -146.948165893555 1.673617482185
-76.525901794434 -76.549934387207 -149.317901611328 4.267861366272
21.321460723877 -79.722610473633 -159.180175781250 1.859324216843
-61.225982666016 -70.427696228027 -157.995361328125 2.915687084198
-32.900188446045 -70.411354064941 -156.536361694336 4.515830993652
8.249556541443 -76.131843566895 -159.305709838867 1.923179388046
105.801536560059 -70.471084594727 -162.379547119141 3.376992702484
10.204502105713 -78.941925048828 -164.110153198242 5.239737987518
-32.943988800049 -73.880287170410 -158.431503295898 0.952928483486
-4.997463226318 -66.555038452148 -158.420440673828 9.421363830566
105.100013732910 -69.196884155273 -167.069671630859 3.775493144989
-42.508533477783 -70.696258544922 -154.382003784180 1.628433585167
29.643903732300 -71.158248901367 -170.513885498047 1.872599720955
113.924842834473 -80.491912841797 -173.622390747070 3.568388223648
-58.358375549316 -69.523590087891 -166.318649291992 3.356687307358
-29.057661056519 -78.119277954102 -168.803665161133 1.486450672150
99.354980468750 -75.566612243652 -175.126113891602 6.907187938690
28.591154098511 -70.715896606445 -162.988540649414 1.624496221542
101.143218994141 -76.406585693359 -176.865982055664 5.406664848328
-38.427696228027 -68.276435852051 -172.146697998047 1.718643069267
108.595726013184 -79.741584777832 -181.862304687500 3.887991428375
-65.523681640625 -69.188636779785 -168.100494384766 4.032560825348
-27.387989044189 -79.171966552734 -169.789703369141 2.552139759064
-149.773986816406 -65.249069213867 -170.526473999023 3.869209527969
-55.376312255859 -72.397773742676 -169.076873779297 4.981078147888
-149.326675415039 -73.918853759766 -170.965240478516 3.917480945587
-37.299316406250 -70.930885314941 -174.767318725586 1.956902384758
28.876310348511 -80.982162475586 -173.024398803711 1.910555243492
103.282608032227 -76.231147766113 -184.436370849609 2.452285051346
-39.471744537354 -72.461517333984 -172.879348754883 1.912824749947
7.822318077087 -74.780586242676 -185.935516357422 4.470793724060
12.149924278259 -74.051422119141 -201.870864868164 1.392365813255
-151.765472412109 -73.914871215820 -172.136581420898 4.363516330719
104.595466613770 -79.250709533691 -196.918075561523 0.483111590147
-26.975381851196 -71.743728637695 -185.511520385742 2.426960945129
97.908668518066 -76.733848571777 -186.813308715820 4.831945896149
9.017034530640 -70.557334899902 -186.115997314453 4.767053127289
-144.914154052734 -73.658515930176 -192.504699707031 1.914619445801
-139.593444824219 -72.240135192871 -185.017990112305 3.841289758682
100.311157226563 -80.165321350098 -202.195129394531 3.484941720963
-14.567179679871 -79.626411437988 -193.039916992188 4.415690422058
-21.009876251221 -74.755004882813 -198.280227661133 1.206560015678
8.548228263855 -77.635269165039 -202.453369140625 0.692442655563
-152.861862182617 -73.113059997559 -191.459182739258 2.479031085968
-149.870880126953 -75.058662414551 -195.589080810547 1.363795280457
98.290206909180 -67.556686401367 -206.888275146484 3.286495447159
-89.230575561523 -73.719779968262 -196.027893066406 15.368224143982
-37.554546356201 -75.973991394043 -191.912750244141 3.744665145874
17.023059844971 -79.423942565918 -211.574859619141 2.401077270508
-27.647985458374 -75.243545532227 -203.373962402344 3.446545124054
-77.017089843750 -71.570800781250 -194.205902099609 14.060824394226
87.488182067871 -75.351257324219 -208.360977172852 4.436756610870
-81.865623474121 -70.611717224121 -201.500991821289 9.269349098206
-152.136779785156 -73.342689514160 -204.669235229492 1.287128686905
-83.945793151855 -71.674316406250 -201.392852783203 9.808341979980
-13.922657012939 -66.967025756836 -199.912612915039 2.019156932831
-24.403673171997 -71.088111877441 -213.812820434570 2.977849721909
14.499749183655 -75.836853027344 -210.698486328125 2.143672704697
-9.214041709900 -76.756805419922 -217.293991088867 2.902088880539
-92.382591247559 -81.791809082031 -208.009155273438 7.203483581543
89.448211669922 -74.024841308594 -213.827148437500 1.626037120819
-104.631759643555 -71.803108215332 -203.273941040039 6.820055007935
-158.899887084961 -71.108314514160 -210.763732910156 2.271825551987
-35.446037292480 -73.827369689941 -217.342269897461 4.019662857056
15.839308738708 -76.513496398926 -210.850265502930 1.303642034531
-106.150489807129 -75.278335571289 -207.895599365234 9.063470840454
3.472584009171 -68.525993347168 -211.449127197266 5.005244255066
-31.662944793701 -74.179290771484 -206.520263671875 1.480628609657
77.660331726074 -72.437408447266 -224.440658569336 0.608859658241
-147.580200195313 -71.379104614258 -201.718414306641 1.181013464928
11.949392318726 -74.309280395508 -221.036392211914 2.404665708542
-14.020739555359 -79.261009216309 -222.590530395508 2.193717241287
13.602745056152 -65.405258178711 -219.551559448242 3.711251020432
79.757865905762 -77.100639343262 -222.246307373047 1.647755742073
-19.526481628418 -79.591209411621 -222.733367919922 1.687833070755
-134.613510131836 -76.830375671387 -213.380584716797 8.723163604736
-19.851594924927 -74.121864318848 -217.219055175781 1.590517401695
12.144473075867 -74.250389099121 -223.380218505859 2.136168479919
-132.555694580078 -77.838577270508 -213.185897827148 9.624459266663
-158.885604858398 -69.903640747070 -216.746109008789 3.116972923279
-147.824523925781 -72.603050231934 -214.697906494141 0.397744148970
-131.222152709961 -71.184158325195 -211.981842041016 6.753499507904
-14.700638771057 -70.685569763184 -217.159347534180 1.320541620255
67.422462463379 -74.931274414063 -225.083068847656 6.573720455170
-150.119735717773 -68.531814575195 -226.551223754883 2.124204635620
62.795543670654 -76.162071228027 -226.115005493164 8.074107170105
-26.319385528564 -79.637527465820 -224.815368652344 3.527103424072
-146.934631347656 -76.893241882324 -212.860153198242 1.382510900497
71.358375549316 -85.225105285645 -228.015670776367 11.199247360229
5.751031875610 -81.181922912598 -225.819091796875 3.025660037994
-144.023147583008 -77.945892333984 -222.204971313477 2.026651382446
-153.819885253906 -73.015594482422 -217.776672363281 1.971028685570
13.539434432983 -69.675651550293 -225.531250000000 2.119341850281
-7.538600921631 -79.858047485352 -233.807449340820 2.710992813110
-35.620418548584 -73.425277709961 -228.837646484375 8.925543785095
-6.351297855377 -69.253814697266 -229.662216186523 0.374728173018
-165.233367919922 -78.329162597656 -222.265319824219 5.402352809906
-0.691675007343 -71.900054931641 -236.665695190430 1.675805211067
-169.925216674805 -75.968360900879 -226.091888427734 4.303288936615
-16.454507827759 -76.156959533691 -230.701522827148 2.582091808319
52.044452667236 -76.528915405273 -236.683715820313 7.130762577057
-18.715593338013 -72.805503845215 -228.987503051758 2.167255878448
-30.779817581177 -74.892944335938 -241.423339843750 3.076226234436
-29.289497375488 -74.389137268066 -234.339569091797 3.832339763641
-14.900707244873 -80.206306457520 -232.856872558594 5.969904899597
-150.582641601563 -75.104553222656 -211.952850341797 1.670663833618
2.450213909149 -73.400032043457 -235.534683227539 2.284572124481
58.401069641113 -75.191764831543 -243.323898315430 1.858830332756
10.643658638000 -71.397781372070 -240.372100830078 1.374263405800
-175.614868164063 -71.715217590332 -227.289749145508 8.481030464172
-57.157184600830 -73.353431701660 -228.655838012695 13.647831916809
-0.108025997877 -82.951301574707 -243.597000122070 5.809644222260
12.077633857727 -75.791778564453 -237.801727294922 0.954918503761
-59.141376495361 -74.621246337891 -238.396835327148 6.056708812714
-7.339925765991 -68.569938659668 -245.235351562500 2.372787714005
14.650319099426 -84.217811584473 -244.359344482422 2.125855922699
-178.834182739258 -70.912132263184 -232.972106933594 9.167903900146
-69.828285217285 -80.006561279297 -239.705123901367 8.077817916870
-58.417011260986 -72.202522277832 -238.823699951172 5.716236114502
-89.439659118652 -72.246536254883 -242.810928344727 7.207107543945
-167.758392333984 -76.344474792480 -230.295379638672 4.719902038574
-155.950973510742 -62.811744689941 -232.250762939453 1.865798830986
-66.576560974121 -77.413009643555 -240.287231445313 6.590450286865
-74.179573059082 -74.058761596680 -238.241897583008 7.429369449615
-159.323577880859 -71.016204833984 -236.710769653320 0.924855053425
-157.837753295898 -76.163955688477 -236.908370971680 3.153189659119
-80.078979492188 -68.569480895996 -245.052261352539 4.527941703796
-99.668167114258 -70.363044738770 -245.929046630859 7.455831527710
-168.414062500000 -65.711280822754 -238.790847778320 4.045557498932
-163.976074218750 -75.102569580078 -246.660964965820 1.858622074127
-142.036788940430 -77.266479492188 -247.125457763672 2.225337982178
-89.027435302734 -73.652824401855 -238.110092163086 11.074365615845
-167.270614624023 -68.993431091309 -238.513183593750 1.682985901833
-147.564331054688 -70.792793273926 -243.110839843750 2.878150463104
-90.076477050781 -73.164260864258 -236.305084228516 13.086619377136
-104.299804687500 -72.629592895508 -250.836502075195 4.779973030090
-147.978317260742 -75.918800354004 -240.315994262695 1.160137891769
-97.915641784668 -74.376800537109 -244.138122558594 8.371655464172
-161.509933471680 -71.370056152344 -239.808319091797 2.985069990158
-110.521461486816 -73.917617797852 -241.957382202148 9.894345283508
-178.411911010742 -72.595520019531 -242.285659790039 10.965613365173
-169.186981201172 -77.248352050781 -252.039855957031 3.941583871841
-134.743087768555 -80.005004882813 -242.092605590820 8.331849098206
-159.114303588867 -75.125801086426 -244.563415527344 3.520375490189
-115.189628601074 -69.620246887207 -251.012771606445 4.705578327179
-20.263595581055 -72.251144409180 -255.504669189453 5.228515148163
-146.579971313477 -73.893592834473 -246.050399780273 2.625231981277
-133.720779418945 -73.119583129883 -246.582275390625 6.963758945465
-159.306884765625 -71.459083557129 -248.722915649414 0.997759401798
18.082695007324 -76.979560852051 -268.667480468750 2.443847656250
-157.546646118164 -77.990638732910 -264.810211181641 3.947497844696
-177.050216674805 -75.129669189453 -267.232818603516 8.789147377014
-16.935386657715 -73.617660522461 -273.522705078125 4.526414871216
-151.870925903320 -73.483032226563 -264.309814453125 1.143263578415
-19.215164184570 -73.169006347656 -277.361236572266 7.112150192261
4.759293079376 -77.553123474121 -281.984588623047 2.446724653244
-145.095855712891 -71.296073913574 -271.740875244141 3.414639234543
-72.977958679199 -78.744895935059 -277.882507324219 9.248056411743
-41.470592498779 -79.789344787598 -282.040710449219 4.626553058624
-119.626747131348 -75.338348388672 -269.091796875000 5.607143878937
-106.063529968262 -81.660110473633 -277.934020996094 10.643657684326
-96.152854919434 -76.210479736328 -280.497589111328 5.764660358429
-59.851493835449 -77.626342773438 -284.036102294922 3.745202064514
-123.838447570801 -82.614891052246 -273.383331298828 11.928490638733
-124.660728454590 -77.222656250000 -277.350372314453 6.877437114716
-42.051342010498 -71.457687377930 -279.372192382813 5.610509395599
-125.589988708496 -77.315544128418 -281.380798339844 3.157892704010
-137.010375976563 -68.327270507813 -274.776245117188 7.005063056946
-153.421630859375 -78.748809814453 -280.307952880859 3.335535287857
-1.343394041061 -76.646957397461 -284.986541748047 2.361471652985
10.634439468384 -78.594963073730 -287.861053466797 1.495807170868
-170.597137451172 -74.275878906250 -276.222442626953 2.908279418945
-170.390960693359 -80.249687194824 -285.095275878906 4.703096389771
-158.483398437500 -77.328521728516 -294.691925048828 4.116388320923
-162.774429321289 -74.640052795410 -294.787384033203 3.344572544098
-162.267074584961 -75.435852050781 -299.881011962891 5.474418640137
36.432273864746 -75.465850830078 -9.517775535583 4.695898532867
44.873512268066 -66.378440856934 -17.196060180664 1.677936792374
29.024961471558 -70.261299133301 -22.117420196533 1.044195890427
36.635288238525 -66.396896362305 -35.770061492920 2.033313751221
-52.779491424561 -69.197021484375 -41.723190307617 5.754048347473
-58.040840148926 -69.981140136719 -41.767097473145 5.113162040710
-32.742156982422 -75.753509521484 -40.357227325439 10.536489486694
-82.235900878906 -61.760082244873 -56.977222442627 5.880659103394
84.543861389160 -75.686340332031 -75.604095458984 1.797061681747
-6.434621810913 -65.499435424805 -65.714500427246 4.607989311218
95.092964172363 -72.075790405273 -61.566612243652 6.388178825378
106.143074035645 -71.706649780273 -75.812904357910 4.915268898010
-86.528633117676 -66.751777648926 -63.238491058350 4.959024429321
69.462600708008 -71.802345275879 -79.288055419922 1.173744916916
-34.956836700439 -75.099403381348 -79.579185485840 2.282294988632
106.431869506836 -72.255203247070 -81.061111450195 4.738657951355
-54.098682403564 -66.864364624023 -79.294433593750 3.961501836777
53.117630004883 -72.724166870117 -88.529815673828 1.652506589890
73.425811767578 -81.214004516602 -88.323974609375 6.123333454132
56.759689331055 -70.100196838379 -93.324089050293 2.070677995682
55.988517761230 -73.790740966797 -96.923866271973 1.645653963089
79.444351196289 -76.914550781250 -95.669837951660 2.191535949707
50.287765502930 -71.134246826172 -107.726806640625 1.563769578934
99.728912353516 -73.455078125000 -103.381858825684 3.869870662689
107.489921569824 -79.591209411621 -109.336456298828 4.786950111389
79.414703369141 -70.189537048340 -103.547721862793 1.617390155792
97.787727355957 -74.326316833496 -106.247642517090 4.971596717834
103.404327392578 -73.050956726074 -93.375244140625 3.256266593933
113.192138671875 -74.859283447266 -106.032974243164 2.939229726791
42.823398590088 -70.804382324219 -103.981712341309 1.812064528465
116.256744384766 -70.008743286133 -119.046081542969 1.450214505196
116.838645935059 -75.358337402344 -121.533660888672 2.372090578079
31.193399429321 -69.595886230469 -121.679168701172 2.180819511414
46.640499114990 -74.544509887695 -115.144737243652 0.881979763508
116.506965637207 -74.999679565430 -135.060501098633 1.677493214607
34.493087768555 -71.571594238281 -123.576004028320 0.564884245396
119.170524597168 -80.787734985352 -128.310104370117 6.761116027832
109.112983703613 -75.588096618652 -123.970375061035 2.883865594864
28.798282623291 -75.821166992188 -129.193572998047 2.000913619995
-44.898017883301 -72.741104125977 -124.672561645508 8.141348838806
-50.640697479248 -69.607170104980 -125.900711059570 4.880142211914
112.617202758789 -73.669815063477 -137.273147583008 0.390387117863
-65.703468322754 -78.484184265137 -129.257629394531 8.667182922363
-69.650894165039 -72.463722229004 -130.757614135742 2.301801443100
-59.469238281250 -72.348167419434 -129.162017822266 1.994757771492
30.613451004028 -74.562339782715 -142.206237792969 2.846618652344
120.984848022461 -78.132621765137 -149.683151245117 6.429857254028
-70.038139343262 -67.105453491211 -138.615539550781 3.010564327240
-49.022533416748 -73.106452941895 -132.095642089844 1.254395604134
32.459827423096 -73.752304077148 -150.171630859375 1.646727800369
-67.843795776367 -73.887931823730 -138.051742553711 4.559657573700
115.230857849121 -72.446014404297 -140.516265869141 1.294910311699
110.675346374512 -71.582740783691 -159.495056152344 1.964304447174
116.213333129883 -76.012413024902 -156.828033447266 1.746204376221
-38.399402618408 -77.028701782227 -144.180404663086 5.804679870605
-63.934467315674 -72.099807739258 -156.808898925781 2.400593280792
-65.853218078613 -66.116516113281 -148.787582397461 4.019774913788
28.955583572388 -74.633720397949 -139.204620361328 2.394101619720
-2.409302949905 -75.947799682617 -156.131439208984 4.746505260468
109.849205017090 -72.639945983887 -164.657196044922 2.034803867340
112.470184326172 -71.500411987305 -153.503692626953 1.222049355507
112.390029907227 -79.846748352051 -161.520416259766 2.640555143356
-62.228599548340 -69.540733337402 -147.871276855469 4.265643119812
-45.319187164307 -75.846229553223 -160.659606933594 2.468148946762
-4.823469161987 -72.924858093262 -159.477172851563 4.962094306946
-33.100124359131 -74.652648925781 -167.702758789063 2.347609043121
104.541984558105 -72.908561706543 -169.391464233398 3.135147571564
-31.899490356445 -78.560348510742 -152.198379516602 5.311767578125
107.629501342773 -72.190910339355 -168.196228027344 1.925562977791
-42.824928283691 -73.468055725098 -166.704742431641 1.629784703255
106.585533142090 -71.128120422363 -171.918930053711 1.398864269257
-155.258255004883 -73.715034484863 -163.369094848633 12.226248741150
-26.195274353027 -67.464736938477 -171.055114746094 4.026612281799
-20.634605407715 -74.470977783203 -177.716873168945 1.820122361183
23.303668975830 -79.160690307617 -172.664184570313 1.394803762436
12.208545684814 -72.166595458984 -179.839477539063 2.859744787216
27.673837661743 -75.018898010254 -178.983871459961 1.647969841957
99.751548767090 -82.957130432129 -185.763504028320 6.922243595123
-153.784851074219 -67.111045837402 -168.146682739258 7.451873302460
-20.261777877808 -76.525352478027 -174.086013793945 2.661364793777
99.176254272461 -77.601913452148 -179.226669311523 4.969182968140
100.752525329590 -69.410987854004 -189.711853027344 3.251444339752
108.476646423340 -77.601608276367 -176.980575561523 1.949641704559
98.569961547852 -77.467811584473 -193.427337646484 3.819082021713
-152.823455810547 -70.444564819336 -184.321121215820 1.384809017181
96.227539062500 -76.294143676758 -207.544403076172 0.339545279741
-30.613899230957 -71.393180847168 -192.547821044922 2.297498703003
93.377120971680 -75.148941040039 -194.209823608398 5.467137336731
-120.597686767578 -79.170013427734 -189.609359741211 9.095018386841
-32.122978210449 -79.659553527832 -179.954772949219 0.494196295738
-145.092285156250 -65.642227172852 -184.243881225586 2.940582513809
93.812324523926 -75.230911254883 -197.571166992188 3.027034997940
5.580461978912 -74.322090148926 -195.041442871094 3.595578670502
22.928752899170 -71.292793273926 -187.081130981445 1.266855955124
-151.903396606445 -75.581802368164 -190.432113647461 2.101248979568
-139.338989257813 -72.317916870117 -189.049285888672 3.214354276657
-12.318059921265 -73.912521362305 -203.689132690430 1.571549057961
-127.003456115723 -72.296653747559 -193.417709350586 1.876139402390
-146.806884765625 -73.907310485840 -181.169311523438 3.078835487366
-2.509807109833 -75.044181823730 -192.608200073242 11.406325340271
-29.338293075562 -76.719734191895 -192.419082641602 1.553235530853
18.662450790405 -79.559349060059 -196.419418334961 1.760166525841
1.455304980278 -77.115577697754 -208.481658935547 4.769974231720
77.965660095215 -69.716712951660 -208.937332153320 8.619244575500
-20.761722564697 -70.728157043457 -205.564086914063 0.976375937462
86.939765930176 -71.733467102051 -209.234497070313 2.445945978165
95.564811706543 -79.599563598633 -207.419082641602 3.484621047974
-150.786315917969 -75.429008483887 -198.664108276367 2.927109479904
91.446548461914 -79.185287475586 -211.801406860352 2.532301664352
0.798934996128 -71.701583862305 -200.091186523438 6.757232189178
-1.654127955437 -77.230323791504 -208.973114013672 3.365665197372
-34.212215423584 -73.497970581055 -197.646148681641 3.921649217606
-92.600608825684 -72.897743225098 -201.691848754883 11.344516754150
-27.357320785522 -77.521347045898 -202.244552612305 3.839663505554
81.942687988281 -73.517318725586 -218.286743164063 2.781650066376
87.754447937012 -74.242904663086 -214.808517456055 0.794766366482
-34.274990081787 -72.590034484863 -203.746765136719 2.319384574890
-86.996368408203 -68.712265014648 -209.836059570313 6.080859661102
-3.303179979324 -77.040817260742 -214.301849365234 3.288681507111
73.344825744629 -68.926422119141 -210.146209716797 10.403795242310
-156.579849243164 -81.113418579102 -206.039154052734 4.542111396790
-169.833389282227 -70.455230712891 -198.746826171875 4.402933597565
-167.986022949219 -78.629478454590 -205.817642211914 7.379782199860
-26.002412796021 -77.267402648926 -220.052459716797 1.803405761719
-158.962753295898 -79.678688049316 -207.001358032227 6.027770519257
-7.701560020447 -75.021514892578 -217.690277099609 2.654306650162
1.709522962570 -77.459228515625 -213.251998901367 5.409294605255
-174.376998901367 -73.290237426758 -210.794128417969 8.799734115601
-160.085067749023 -73.622261047363 -213.798965454102 2.459032773972
73.720054626465 -81.116966247559 -231.616973876953 6.681312084198
-6.512961864471 -74.437568664551 -219.699371337891 2.880009651184
-164.302001953125 -64.814033508301 -211.608627319336 2.177516460419
-146.712142944336 -77.103218078613 -208.141433715820 2.543743133545
-22.472753524780 -72.015907287598 -216.914489746094 0.926589429379
-6.846309185028 -79.683990478516 -213.688262939453 3.346941947937
75.246055603027 -71.199951171875 -226.915115356445 1.250989079475
-164.879943847656 -70.367622375488 -212.672576904297 2.675755262375
-145.159576416016 -69.439788818359 -219.930007934570 2.232139110565
-130.592391967773 -70.892784118652 -219.107269287109 5.105093479156
73.218193054199 -79.359886169434 -224.777908325195 6.669552803040
-120.211311340332 -74.253349304199 -217.020584106445 8.598165512085
-146.856552124023 -73.372955322266 -215.458465576172 1.545115113258
-155.917465209961 -71.505332946777 -217.748352050781 1.133461117744
-154.781265258789 -74.757392883301 -217.758468627930 3.115870237350
-159.883804321289 -74.866821289063 -214.267028808594 3.380034446716
-168.840530395508 -74.387298583984 -212.680587768555 3.594039916992
-136.853271484375 -75.539199829102 -224.468566894531 2.334825277328
-137.664993286133 -75.083404541016 -220.244445800781 4.340814590454
-155.829238891602 -81.254981994629 -219.244033813477 6.043139934540
-150.329132080078 -68.562271118164 -224.431869506836 2.375525712967
-155.174789428711 -74.951461791992 -221.332168579102 0.886781513691
71.136306762695 -80.005821228027 -232.920104980469 4.719012737274
62.280059814453 -67.173606872559 -232.718124389648 3.711560249329
-158.864166259766 -70.959991455078 -220.629211425781 3.502186059952
68.749969482422 -68.308479309082 -232.016159057617 0.340186536312
-25.763973236084 -71.518524169922 -229.540817260742 5.137517929077
8.150097846985 -77.928131103516 -234.060607910156 1.656429171562
3.474212884903 -75.965614318848 -230.729217529297 0.929710149765
-161.340042114258 -73.927131652832 -225.603424072266 2.742401361465
11.441131591797 -74.475311279297 -236.903854370117 1.207398533821
53.172397613525 -73.199241638184 -236.903717041016 6.161024570465
8.133266448975 -71.115661621094 -233.799942016602 2.267437458038
-0.865000009537 -75.072288513184 -235.870788574219 1.477914929390
-11.699009895325 -70.460639953613 -233.333847045898 0.997379183769
-27.394603729248 -72.447662353516 -236.156906127930 2.585887193680
-7.940338134766 -75.355445861816 -234.252578735352 0.745169997215
-0.186983004212 -79.603431701660 -241.542831420898 2.808729887009
52.259140014648 -77.782882690430 -238.327941894531 6.751942157745
-59.589981079102 -81.769859313965 -235.885482788086 7.835730075836
15.258673667908 -74.136528015137 -244.237472534180 2.153151512146
-62.374214172363 -75.296646118164 -230.267349243164 14.138858795166
-16.571344375610 -75.764816284180 -242.072555541992 1.081942558289
-72.954772949219 -69.420387268066 -241.370635986328 5.958294868469
-91.348197937012 -70.418121337891 -244.188278198242 7.744279861450
-87.996192932129 -77.072502136230 -244.354522705078 7.104249000549
-13.293611526489 -74.561569213867 -251.484756469727 2.526859521866
-129.462509155273 -74.883552551270 -250.050201416016 4.391591548920
-19.603990554810 -75.998962402344 -244.299560546875 1.875053524971
-122.590621948242 -74.054008483887 -241.718124389648 6.143021583557
-124.467353820801 -72.077293395996 -246.562713623047 6.806056976318
-109.642608642578 -74.449279785156 -242.034027099609 10.442597389221
-148.810211181641 -72.282760620117 -245.498046875000 1.241505980492
-150.870315551758 -74.218666076660 -254.780212402344 2.660285472870
-175.536941528320 -74.306175231934 -247.344284057617 9.236845970154
14.772271156311 -81.659667968750 -276.395385742188 3.278585195541
-69.214355468750 -72.272285461426 -275.739654541016 8.930169105530
-76.185623168945 -74.049217224121 -271.802673339844 13.270030021667
-49.728328704834 -78.076873779297 -273.582031250000 11.345349311829
-34.015907287598 -76.506706237793 -280.654846191406 5.609480857849
-103.430267333984 -79.356719970703 -280.331756591797 6.443348407745
-39.865730285645 -73.003593444824 -276.620849609375 7.713392257690
-11.097482681274 -75.368316650391 -279.442108154297 3.540203332901
-175.033187866211 -75.294128417969 -274.506713867188 7.677536487579
-27.926130294800 -79.388244628906 -278.088989257813 7.761349678040
-3.025759935379 -77.832305908203 -282.420471191406 1.883357405663
6.494650840759 -83.416336059570 -273.450927734375 1.307829976082
-64.751541137695 -80.482528686523 -275.272735595703 11.558959960938
-44.491035461426 -77.945281982422 -284.544677734375 2.003171205521
6.086752891541 -73.807868957520 -289.584167480469 1.803673386574
-80.338310241699 -72.957717895508 -284.877624511719 3.744711160660
-51.389060974121 -71.349113464355 -279.323364257813 7.294787406921
-26.213764190674 -73.260444641113 -282.423370361328 3.485390424728
5.613974094391 -79.933326721191 -287.029449462891 1.717691421509
-20.987462997437 -79.715339660645 -290.091735839844 0.540309071541
-3.643980979919 -75.307922363281 -290.216400146484 2.119013786316
6.578619956970 -80.618682861328 -282.797882080078 2.139074802399
-143.059463500977 -74.183097839355 -280.649749755859 3.008108377457
-153.539138793945 -78.267074584961 -282.976623535156 2.252614021301
-164.075393676758 -74.481781005859 -298.821624755859 5.981274127960
54.287036895752 -69.163780212402 -11.949282646179 8.452078819275
38.318759918213 -69.689300537109 -8.106108665466 3.682757139206
49.171401977539 -70.327461242676 -11.903405189514 5.183063507080
31.846271514893 -64.031051635742 -13.943257331848 1.787706613541
54.020687103271 -66.322723388672 -21.331565856934 5.501309394836
34.545959472656 -65.884956359863 -22.082557678223 2.330299615860
31.380771636963 -70.065048217773 -22.149377822876 1.945891857147
34.513793945313 -71.444526672363 -38.657054901123 1.972347021103
43.710018157959 -74.795234680176 -27.778017044067 4.004259109497
32.902153015137 -76.712982177734 -34.247203826904 5.397408008575
51.280761718750 -68.141265869141 -38.170516967773 4.328858852386
39.233493804932 -71.156196594238 -38.651027679443 1.955464482307
48.847976684570 -72.876876831055 -32.208843231201 2.790496349335
37.625362396240 -68.198822021484 -36.747024536133 1.893115282059
52.862030029297 -70.690902709961 -40.044612884521 4.422255516052
39.082408905029 -69.197853088379 -33.381931304932 2.191989898682
-36.340583801270 -69.076087951660 -39.165157318115 7.941104412079
-22.468231201172 -63.384803771973 -42.996894836426 7.787765979767
-84.296249389648 -70.708435058594 -42.177242279053 7.380089282990
-85.043983459473 -70.418777465820 -55.753032684326 3.120762348175
82.170295715332 -74.889739990234 -62.361671447754 4.383016109467
89.488624572754 -69.478843688965 -72.707351684570 4.143486022949
-16.493083953857 -68.012435913086 -69.231513977051 2.377942800522
-82.548431396484 -67.353965759277 -61.866035461426 6.657873153687
-19.949918746948 -68.523353576660 -69.915237426758 3.061362504959
-44.839977264404 -72.264106750488 -76.141586303711 5.220252990723
70.321182250977 -67.558807373047 -85.231338500977 3.652234554291
55.503078460693 -69.370201110840 -92.033706665039 2.397089242935
103.367309570313 -68.859169006348 -92.310150146484 0.973710775375
72.273933410645 -75.071533203125 -95.811264038086 1.396559119225
-66.591003417969 -70.043441772461 -78.507583618164 9.710246086121
-54.728210449219 -65.542633056641 -90.586372375488 3.970144271851
48.101642608643 -70.596908569336 -94.875175476074 2.580775022507
81.029167175293 -68.939216613770 -96.390037536621 4.330552577972
58.638984680176 -82.805076599121 -103.207496643066 6.493608474731
105.771881103516 -71.493820190430 -95.598930358887 1.260875701904
-91.144226074219 -74.308364868164 -96.468299865723 2.426531076431
45.334403991699 -70.625129699707 -106.013526916504 2.159004449844
110.517570495605 -74.081649780273 -111.121757507324 1.797478199005
52.487197875977 -72.057876586914 -109.241836547852 2.368519783020
102.588386535645 -74.328765869141 -112.214195251465 2.744860649109
-81.701850891113 -69.381332397461 -107.846809387207 2.912451028824
38.049758911133 -76.243858337402 -109.943511962891 1.370113372803
110.169929504395 -69.653419494629 -117.832069396973 2.378272056580
107.165107727051 -68.452743530273 -117.459510803223 3.569096803665
105.532394409180 -72.938095092773 -115.944061279297 1.776854872704
114.089691162109 -70.179786682129 -114.937492370605 2.424129486084
44.898384094238 -75.958465576172 -104.014282226563 1.319153904915
35.269081115723 -65.482421875000 -111.393310546875 5.098456859589
41.059810638428 -71.029518127441 -108.393104553223 1.669911265373
106.329811096191 -75.109619140625 -121.206939697266 2.661755084991
44.007030487061 -69.043159484863 -117.613670349121 1.936362504959
111.589714050293 -70.857849121094 -134.108123779297 1.832343339920
110.952896118164 -70.684524536133 -132.311553955078 1.623440742493
36.139469146729 -67.729492187500 -114.000755310059 2.754696846008
-76.344940185547 -71.811256408691 -111.468475341797 2.188025712967
113.085624694824 -67.765037536621 -134.609344482422 2.492933034897
-50.984104156494 -71.482559204102 -129.809432983398 1.934372663498
35.917758941650 -73.074859619141 -130.237136840820 1.948553562164
-72.058654785156 -71.321968078613 -122.623489379883 6.072274684906
26.507036209106 -76.237625122070 -124.694770812988 1.656535506248
-80.635902404785 -72.495918273926 -133.808151245117 1.261713743210
-44.403560638428 -75.287750244141 -133.431594848633 4.309074401855
-74.980293273926 -74.448814392090 -128.540390014648 4.209492206573
109.803802490234 -71.447624206543 -136.547882080078 2.050070762634
122.225166320801 -69.695617675781 -142.791152954102 5.645257949829
120.022193908691 -77.461265563965 -149.852233886719 5.246493339539
-81.204048156738 -71.556114196777 -132.372299194336 2.831405162811
6.417091846466 -66.715744018555 -145.385375976563 5.426343441010
-49.156299591064 -72.092643737793 -138.155166625977 1.082573771477
-52.235542297363 -73.347496032715 -145.612182617188 3.242727518082
104.886573791504 -74.310516357422 -164.833206176758 2.820960521698
-39.708778381348 -75.083320617676 -139.365676879883 5.841389179230
14.764513969421 -68.380332946777 -153.936157226563 2.297412395477
22.565917968750 -75.474441528320 -152.532623291016 0.994372189045
113.639167785645 -70.769470214844 -166.647430419922 1.672374248505
29.930368423462 -71.115447998047 -164.137283325195 2.793329238892
-1.131201982498 -74.472801208496 -158.038574218750 3.641784429550
31.809436798096 -73.302886962891 -156.053802490234 1.854166626930
-67.288696289063 -70.032669067383 -145.408203125000 3.180347442627
-66.961959838867 -71.988327026367 -149.127059936523 2.396930217743
-70.609306335449 -68.674385070801 -156.609146118164 3.710227966309
113.902191162109 -67.830009460449 -163.186508178711 3.609027385712
-45.111995697021 -72.721565246582 -154.448501586914 2.122731685638
14.905141830444 -72.384338378906 -159.807113647461 2.131050825119
-64.501319885254 -69.638084411621 -160.342483520508 2.945082664490
-66.312751770020 -68.407287597656 -161.904067993164 4.645134925842
-44.250072479248 -74.242988586426 -152.526657104492 2.339506626129
-35.976108551025 -76.723770141602 -158.982727050781 2.210015296936
115.163009643555 -77.111946105957 -172.695220947266 2.981491565704
-39.020740509033 -63.868686676025 -174.979843139648 6.004204273224
10.613771438599 -73.861373901367 -166.621734619141 5.014797687531
108.377471923828 -77.740661621094 -187.748107910156 2.868782758713
-147.872314453125 -73.779525756836 -161.135238647461 13.503114700317
-147.230255126953 -70.147033691406 -156.212829589844 17.749979019165
-147.237091064453 -68.452728271484 -167.703750610352 6.287752628326
-143.405334472656 -74.974723815918 -170.324447631836 5.306829929352
-34.930915832520 -70.138160705566 -176.483596801758 1.713704705238
-25.175868988037 -73.542724609375 -177.766647338867 2.094354629517
21.592140197754 -66.356880187988 -188.675216674805 3.181283712387
-141.852813720703 -70.551643371582 -171.956787109375 3.414550542831
-149.993179321289 -72.260848999023 -173.942352294922 1.995812177658
-24.165523529053 -70.117416381836 -177.456878662109 1.945067286491
7.053407192230 -72.107330322266 -177.207458496094 8.205792427063
-152.884811401367 -71.333663940430 -181.026718139648 1.931495904922
-33.632244110107 -72.163215637207 -182.144042968750 2.841972351074
97.484741210938 -74.240409851074 -188.264144897461 3.144641637802
102.462501525879 -70.931495666504 -190.174850463867 1.594884037971
23.119384765625 -65.957298278809 -189.062271118164 3.355403184891
-10.617824554443 -72.409194946289 -181.870132446289 4.711688041687
-31.341484069824 -75.159324645996 -184.542663574219 2.021877527237
-159.444732666016 -74.663467407227 -186.800643920898 7.828398227692
-135.290786743164 -73.165916442871 -182.549591064453 6.885704040527
-128.092361450195 -67.423149108887 -180.814315795898 12.719619750977
-129.272674560547 -70.164772033691 -183.581512451172 9.943806648254
-23.834659576416 -66.980560302734 -187.184097290039 1.847304821014
12.825225830078 -76.677215576172 -186.652404785156 2.239325284958
87.887512207031 -81.425155639648 -200.613510131836 7.626011848450
-154.084518432617 -65.497749328613 -178.449157714844 3.047971725464
-146.160125732422 -67.612121582031 -184.288177490234 2.085917472839
-154.814025878906 -71.970260620117 -186.307174682617 2.720366716385
-156.902374267578 -68.131347656250 -180.374816894531 3.400923252106
-26.117616653442 -71.072723388672 -192.280441284180 1.243081212044
-9.349155426025 -67.527862548828 -188.202239990234 9.935459136963
-146.704788208008 -64.798156738281 -188.699981689453 1.014950871468
-23.948698043823 -71.768836975098 -195.780639648438 2.086138486862
-162.795074462891 -70.939758300781 -186.844787597656 8.527824401855
-137.158676147461 -71.216293334961 -184.776290893555 5.199217796326
11.412476539612 -77.899765014648 -201.534439086914 1.888362646103
-161.268112182617 -65.962661743164 -188.926391601563 6.409846782684
-149.396850585938 -74.781257629395 -191.819107055664 1.020701169968
2.982115983963 -69.928512573242 -199.695724487305 4.423765182495
-157.076110839844 -67.504081726074 -186.742355346680 4.282285690308
-28.773397445679 -71.146965026855 -195.799285888672 2.355334997177
89.387748718262 -75.561538696289 -198.292617797852 5.762206077576
-163.852935791016 -73.917594909668 -193.628036499023 5.174070358276
-167.014785766602 -77.620735168457 -189.355407714844 11.310208320618
-77.971519470215 -69.186752319336 -195.069091796875 14.192718505859
87.287597656250 -73.140808105469 -207.031539916992 4.575979709625
-7.858100891113 -72.512565612793 -214.418746948242 2.478202819824
-160.939437866211 -70.121383666992 -197.117507934570 2.290748119354
-90.230361938477 -73.691291809082 -200.834625244141 10.972493171692
-13.623022079468 -77.856040954590 -203.940246582031 1.759928822517
12.584301948547 -72.716621398926 -212.067703247070 1.040916085243
-147.390319824219 -72.897659301758 -206.694274902344 1.679422020912
-8.243460655212 -80.714294433594 -214.349624633789 1.614045023918
-20.050064086914 -76.576675415039 -208.270538330078 2.929100513458
-18.520536422729 -69.341888427734 -215.181472778320 3.116635322571
88.045120239258 -74.602378845215 -221.955902099609 2.530654668808
-23.102817535400 -71.309562683105 -208.410140991211 3.202803850174
-38.396923065186 -72.204162597656 -210.388900756836 4.949859619141
-111.973129272461 -64.564193725586 -213.756317138672 8.479282379150
-20.908315658569 -70.913955688477 -217.270248413086 2.344434261322
90.919731140137 -71.823028564453 -218.684921264648 1.713389873505
69.524925231934 -76.065193176270 -220.748016357422 8.997503280640
5.417166233063 -75.168876647949 -212.696136474609 2.293236732483
-15.936148643494 -68.548500061035 -219.042633056641 3.121626138687
75.247993469238 -74.215629577637 -220.261154174805 4.881683826447
