# This PCD file was generated using the MATLAB® pcwrite function
# from Computer Vision Toolbox®.
# .PCD v.7 - Point Cloud Data file format
VERSION .7
FIELDS x y z
SIZE 4 4 4
TYPE F F F
COUNT 1 1 1
WIDTH 1413
HEIGHT 1
VIEWPOINT 0 0 0 1 0 0 0
POINTS 1413
DATA ascii
-70.268379 -87.293213 -67.737366
-49.564510 -86.820717 -78.581352
-53.729565 -86.637207 -87.300079
-60.403393 -86.983627 -99.465340
-15.537109 -87.693825 -173.855453
-16.604048 -86.692337 -181.390900
-53.882195 -83.592682 -171.811539
-152.674515 -88.297104 -184.799011
-42.472115 -85.375389 -190.281570
-156.915451 -89.798485 -186.807678
-137.551849 -88.579720 -182.779510
-35.900543 -94.645767 -195.461777
-147.744690 -84.378181 -184.351395
-143.472534 -81.729721 -196.669052
-50.645683 -82.418785 -191.745209
-154.523956 -89.613731 -190.137634
-63.332253 -83.999565 -193.129028
-151.864441 -88.746117 -192.411819
-69.337143 -83.417030 -200.539246
19.171183 -87.409828 -230.436829
6.417830 -85.275780 -237.640732
-150.077042 -87.455963 -226.083710
12.684840 -95.144135 -242.878540
9.428238 -85.942390 -241.737869
4.726551 -91.095322 -249.541306
8.506166 -86.523651 -250.350571
-162.172379 -93.530090 -244.148209
-138.597122 -83.213051 -243.430420
9.820383 -85.828667 -259.488190
-155.758911 -94.563316 -261.246765
-152.119064 -89.801308 -262.109344
-3.697504 -86.145073 -267.826233
-150.666870 -87.117058 -263.370819
-151.021744 -94.397499 -276.842285
-154.619812 -93.466156 -275.201294
-157.849594 -95.053009 -274.667938
-161.698792 -89.773697 -284.632355
-139.332428 -88.415062 -285.717590
-160.947006 -85.431061 -283.371002
-51.638165 -78.171364 -60.930157
-54.368645 -87.151405 -66.838127
-40.556820 -85.920715 -69.572830
-78.740662 -85.249100 -74.052574
-35.402012 -86.792427 -72.629135
-46.069874 -80.481010 -79.682236
-83.287949 -90.580627 -99.780228
-73.887482 -80.520912 -93.181679
28.055906 -84.361084 -121.920128
33.384560 -81.357491 -139.374573
-16.632273 -86.345001 -180.951828
-22.454931 -83.827576 -178.408035
-24.947828 -88.895554 -174.324509
-40.536854 -88.995529 -184.049698
-56.518013 -87.011925 -185.818695
-36.931965 -86.529289 -191.182693
-141.461075 -82.033524 -177.299606
-157.244568 -85.656334 -186.994003
-156.728012 -86.403923 -190.005615
-152.682755 -85.200531 -190.041595
-75.799492 -92.289360 -204.232178
-64.209839 -84.339966 -197.543625
-154.543945 -86.677155 -204.930588
-76.820892 -88.584045 -205.442551
-75.982292 -89.724831 -206.928772
-79.969269 -83.339630 -203.046036
-147.180023 -89.192329 -215.218811
-151.209930 -89.185570 -221.980911
-156.935944 -90.990288 -244.277252
8.613988 -82.588722 -242.524124
5.921041 -82.699867 -243.237183
-141.411606 -90.546829 -251.025162
7.622636 -91.830170 -249.472488
3.135890 -87.361542 -250.787384
-156.921951 -91.943718 -255.057632
-162.686142 -85.333961 -265.035187
-15.146767 -85.595573 -269.196625
4.584174 -89.598930 -276.865662
-161.416840 -94.243454 -272.470673
-146.017059 -93.403557 -263.867950
-150.558350 -89.100853 -295.695190
-40.220863 -87.252831 -66.484741
-67.762695 -79.986069 -64.653938
-40.046124 -87.219490 -66.706795
-27.414246 -86.243446 -71.773445
-68.984665 -80.827049 -62.454014
-32.051361 -86.718887 -68.322433
-44.611164 -76.569588 -78.336578
-53.591610 -78.016319 -83.843719
-63.974106 -89.567589 -82.393806
-59.977955 -84.399017 -94.574982
-93.292679 -84.205902 -105.150131
39.797970 -81.466934 -119.659439
38.033329 -88.815994 -117.031677
-44.158337 -89.553627 -162.876480
-45.052574 -84.257629 -153.470657
-6.113338 -84.853333 -168.922195
-64.303345 -92.909111 -160.732529
-63.767166 -86.186554 -174.834686
-59.836308 -85.397118 -168.074020
-35.772991 -85.605247 -167.086182
-61.817806 -84.211731 -174.389069
-35.665333 -82.956108 -175.302368
-148.982697 -83.840897 -173.631699
-55.050381 -85.195724 -175.884232
-50.911350 -83.481804 -189.646820
-32.314720 -86.354553 -176.312134
-35.738270 -89.693146 -182.491180
-37.850288 -81.755997 -187.668991
-24.191248 -88.164764 -183.771835
-51.897518 -85.586868 -195.987244
-147.904297 -78.330498 -182.356232
-43.764683 -78.274376 -188.269623
-42.631058 -81.786064 -198.911240
-42.347557 -88.936562 -198.250031
-48.072662 -81.983040 -195.877808
-135.865082 -84.851669 -184.070831
-139.280991 -83.742111 -190.243118
-53.823643 -83.789780 -198.518433
-64.324203 -91.482864 -199.606232
-46.026966 -85.516640 -197.665390
-144.947983 -87.662651 -195.659271
-73.631927 -78.393402 -201.775665
-42.448231 -89.821014 -204.196121
12.558290 -87.447578 -203.267380
-77.055626 -87.512947 -206.408539
-32.937313 -81.984543 -209.624054
7.815530 -83.986137 -217.573151
-158.399567 -86.271828 -206.616135
0.709378 -83.725594 -224.609879
7.386706 -86.719063 -222.442108
13.617662 -81.844887 -221.826675
-144.005188 -91.484085 -216.091049
-149.379593 -84.834320 -218.949997
7.075251 -86.766731 -233.049011
12.020167 -83.016457 -233.946747
10.624882 -84.628036 -234.338165
-153.887039 -89.923660 -231.452591
-150.958313 -98.413422 -227.794815
5.322855 -86.897408 -230.630142
-49.306747 -86.696579 -239.052216
11.933125 -85.268974 -245.329300
-50.426228 -88.877823 -237.135147
-150.645416 -91.761139 -248.729294
13.254046 -87.868988 -249.962128
-150.466095 -89.184601 -245.669800
-161.583542 -88.243187 -249.370132
5.676641 -84.869331 -251.987259
-15.121567 -80.793228 -247.549744
-15.865044 -84.271843 -260.571991
-150.047836 -94.395653 -250.276764
-162.871933 -80.652939 -252.185272
-149.981140 -89.894684 -253.994278
-157.115479 -83.678833 -262.725616
-153.323456 -88.790604 -257.479828
-14.119553 -89.475311 -266.408844
-14.099429 -85.716217 -267.903046
7.112998 -85.119499 -262.944336
-5.538201 -89.635529 -273.874359
-5.893821 -83.429062 -285.177063
-147.311737 -84.310333 -279.708923
-154.874695 -87.160713 -283.749359
-56.993881 -80.043388 -56.487007
-43.223095 -80.013390 -60.208969
-41.081436 -74.777054 -61.611885
-41.679890 -77.294502 -60.737141
-62.945835 -88.081589 -60.741661
-72.644684 -78.864243 -63.334236
-39.782097 -81.171814 -70.780441
-40.255775 -86.222252 -81.201096
-46.713184 -89.265884 -82.273003
-82.864639 -79.148277 -80.976898
-70.508797 -86.768120 -102.386360
44.898663 -79.819740 -106.343468
-84.203323 -81.303925 -101.841064
44.896858 -82.267227 -120.613487
41.227570 -79.262299 -122.467491
33.881741 -79.757767 -120.337433
28.235640 -87.174576 -125.455421
28.681520 -80.046631 -130.570236
22.167448 -77.838570 -143.862076
-50.358521 -87.545074 -152.015762
29.366993 -81.575462 -139.416336
23.139826 -86.547821 -153.749985
-42.692265 -86.130943 -145.177338
24.269855 -82.604645 -152.811783
-51.411076 -79.569084 -153.205505
23.307934 -82.771675 -164.023468
-64.236748 -85.330635 -164.196732
-4.994118 -86.968613 -169.652008
-34.338596 -82.528023 -168.651672
-9.152813 -84.810295 -167.426697
-60.771168 -83.621773 -170.002151
21.887640 -86.690071 -169.958084
-16.172028 -81.170280 -181.805023
-27.665756 -76.868469 -182.918930
-54.245537 -79.357010 -176.880157
-32.862125 -85.012650 -183.098923
12.847927 -87.671181 -189.997803
-151.506195 -88.367661 -178.070496
-33.618389 -84.504974 -184.543945
-53.186161 -80.132523 -183.997940
-153.763702 -89.474274 -177.695694
-145.831894 -85.842522 -186.285110
-28.521700 -83.849503 -193.547760
-27.836161 -84.547829 -190.321823
-48.628891 -82.367569 -189.125961
-21.118010 -86.959747 -190.011826
-51.517818 -84.276489 -191.747208
-51.396732 -85.044388 -190.750046
-56.867130 -87.732964 -193.673477
-24.109680 -79.448067 -202.430740
-148.420135 -85.333344 -207.661362
-62.783352 -82.271492 -204.767105
-64.873177 -80.144836 -205.044662
-37.979710 -75.694229 -204.391266
-15.094543 -79.543991 -203.790710
-37.950035 -81.333694 -205.766068
-85.048988 -83.833397 -202.244110
-147.813980 -92.864304 -199.312973
-37.861012 -85.709908 -204.983917
0.678311 -88.443161 -205.355362
-72.891693 -87.592628 -206.044693
-67.244904 -83.427124 -209.138046
-29.709278 -77.911736 -210.091309
-13.498023 -93.397804 -209.693466
-32.447582 -87.630234 -211.459732
15.552383 -83.015884 -212.577194
-155.743820 -78.908974 -207.226700
-17.071043 -92.247070 -215.411713
-163.523361 -88.136215 -215.382507
1.716987 -85.648018 -228.265305
7.753192 -78.606537 -223.766846
-5.280855 -83.668121 -219.175659
10.310600 -85.609367 -226.852798
-145.787994 -92.701767 -225.481918
6.998281 -85.882622 -225.375122
-159.221344 -82.632004 -217.711121
-150.532349 -86.168045 -224.408981
-4.712963 -85.863182 -217.958588
13.345390 -89.283745 -230.805466
-36.240566 -80.264069 -233.316345
-151.395172 -86.425186 -229.041992
-41.849648 -83.148895 -240.675385
-52.483681 -82.614258 -235.247620
-44.533226 -81.566765 -234.932709
13.781080 -85.168678 -242.233078
-56.226803 -77.548050 -241.794922
12.915808 -84.901543 -243.062088
8.879224 -81.025772 -237.860107
2.919050 -86.362137 -247.672668
-44.296154 -90.046494 -242.222580
19.211132 -87.762283 -244.603134
-148.114975 -86.700623 -236.982956
14.387810 -81.743668 -249.790878
-6.004742 -90.253983 -246.118057
4.379661 -84.223152 -236.935791
-156.091156 -80.240028 -244.690964
-152.501648 -90.997772 -247.329620
-147.783020 -87.244041 -246.555649
-158.010101 -86.108566 -248.962814
8.121964 -78.675613 -260.254822
-162.656448 -80.780418 -262.396912
-14.373280 -85.839455 -270.495300
-159.096329 -89.684227 -255.322235
-151.205978 -84.122444 -273.110291
-161.755692 -81.751961 -264.941895
-160.864700 -90.406036 -273.484955
-137.349228 -90.793739 -280.113220
-161.915649 -87.583275 -279.259399
-153.598999 -90.522682 -281.190826
-154.804749 -87.229614 -278.610016
-161.667023 -90.139198 -286.523956
-152.405548 -83.664795 -281.582550
-160.938339 -87.386742 -291.276337
-155.886139 -88.924698 -294.077881
-155.305801 -81.726425 -296.961517
-53.698608 -70.705879 -56.700802
-62.086525 -79.932243 -59.377396
-43.658043 -80.298340 -56.546803
-21.146107 -82.594421 -73.007217
-49.852142 -85.296249 -82.007141
-86.990150 -91.125351 -89.853218
41.009899 -81.806808 -106.532829
-71.815063 -83.876610 -92.517662
46.003807 -84.560951 -113.627213
42.274002 -81.300896 -123.094765
41.954185 -82.270279 -122.835426
34.656342 -82.670601 -133.954880
31.604958 -79.500572 -133.034454
33.361534 -91.044930 -133.251999
31.779444 -78.237579 -149.867935
-46.923592 -77.291092 -145.505783
29.233356 -84.384483 -138.099747
-67.493187 -77.790924 -147.042267
-35.937420 -85.663498 -147.458267
-62.427204 -85.295311 -157.169220
-39.964523 -84.941475 -153.682205
30.602917 -83.515411 -156.462448
-37.370541 -90.334114 -151.750641
-2.603219 -83.426102 -172.669815
33.550671 -74.862816 -165.047379
-12.910695 -83.485268 -168.313629
-59.645927 -82.812996 -156.993759
-40.098011 -78.696884 -166.224991
-35.360622 -78.912498 -170.378265
21.122902 -84.843079 -176.464691
-55.213528 -84.991417 -170.671005
-29.018812 -77.132515 -170.837677
19.496813 -82.057838 -184.704941
-54.748951 -84.923584 -180.634857
-27.075003 -76.001526 -175.581863
-57.626980 -79.360062 -179.618347
-44.546932 -82.001411 -190.791153
-32.028519 -81.217003 -186.009598
-43.840992 -85.764679 -191.018906
-25.621471 -82.457779 -188.969345
-141.663742 -85.461525 -187.464828
18.202587 -82.500488 -199.991470
-136.756027 -82.768219 -190.126633
-23.644215 -79.670578 -192.618729
-24.298990 -79.830032 -193.085587
-45.505714 -84.231483 -188.961197
7.333003 -79.395020 -197.452377
-19.852238 -87.011559 -194.965897
-57.706577 -85.762024 -199.737885
-38.111168 -83.785713 -198.926697
-62.971523 -80.405785 -201.254639
-72.254829 -82.571663 -205.277527
12.772822 -80.612808 -207.832535
-90.697495 -82.572182 -204.312180
-32.107475 -84.046432 -211.128510
-84.325615 -84.989563 -202.042908
-154.038559 -85.624069 -202.925125
-11.035968 -83.824104 -211.362396
-9.500337 -81.231575 -215.164963
8.434217 -84.384201 -215.616318
7.527995 -75.592812 -225.433914
-5.486996 -85.715683 -225.030502
-148.133118 -83.718277 -208.379318
-154.816315 -90.274200 -225.422012
-160.065964 -81.562202 -223.236008
-5.700692 -87.232262 -234.231827
-2.342204 -81.567352 -235.160995
-29.441891 -90.176178 -239.077698
-155.695999 -82.834389 -228.238846
4.424196 -85.673874 -240.622086
-28.185247 -77.095512 -237.469543
14.079369 -83.559692 -233.437424
-57.732658 -82.924675 -237.951767
-56.061302 -84.625984 -245.058258
-152.389496 -91.549667 -235.430847
-67.252441 -86.258430 -242.849915
-7.913502 -83.997803 -243.182907
-16.363892 -80.614937 -250.350159
-152.976456 -90.485458 -249.515808
-137.245438 -83.429558 -246.594589
-141.151871 -83.333099 -247.463486
10.457080 -82.582069 -255.399979
-152.419571 -87.828003 -262.347565
11.495243 -85.073616 -263.543121
-150.079300 -83.873009 -265.720428
-4.005862 -86.681770 -274.461426
-148.266052 -86.889038 -272.037567
-9.442367 -88.034492 -280.207977
-160.773834 -83.352531 -274.430115
-151.299911 -82.544685 -272.579712
-143.277679 -91.658455 -276.491608
-157.395325 -88.643700 -284.724121
-28.996643 -82.350838 -286.517242
-158.222336 -85.169632 -281.677887
-154.109467 -91.156685 -285.053986
-160.615295 -85.672867 -296.494354
-52.024117 -76.912697 -51.463593
-36.016495 -86.289986 -58.693260
-72.297951 -84.160820 -62.406475
-28.511515 -77.627953 -62.359585
-24.453503 -81.374100 -66.263016
-84.569176 -81.477486 -71.901115
86.608025 -81.854401 -85.884094
-32.298035 -77.392586 -81.727303
84.500687 -84.289688 -87.450905
81.528412 -80.322433 -90.352081
87.222214 -79.105484 -86.765800
88.789055 -76.521622 -92.359406
91.413330 -78.162285 -96.722939
-88.793167 -77.253632 -86.150696
58.214420 -80.156326 -105.462448
-96.762314 -68.717186 -103.862076
49.232437 -83.235847 -106.292168
51.400177 -81.337006 -112.763649
38.508827 -78.810921 -113.430199
34.519714 -81.120201 -137.462662
26.678871 -79.644379 -139.565582
21.079927 -72.788948 -141.854324
32.171268 -75.697510 -141.312988
-46.704147 -84.621819 -148.732819
-50.588772 -83.043823 -145.736252
-41.764313 -80.330841 -153.894165
21.357323 -77.938721 -153.430420
29.533247 -79.432549 -166.841385
-34.613426 -77.284172 -165.147354
-36.697102 -75.145683 -154.068344
-47.053665 -84.413116 -154.403580
0.133627 -77.587189 -160.418106
24.371469 -81.383850 -148.510742
32.318745 -75.945343 -157.920441
27.796442 -78.507423 -169.506195
-7.014763 -80.462463 -169.868912
-7.297895 -82.434792 -167.406570
-60.034588 -79.188820 -160.204895
-62.581055 -81.179276 -165.568848
-46.423473 -83.071327 -164.066772
-39.219322 -79.156296 -162.847748
19.476122 -74.837700 -168.909393
-25.770639 -86.456200 -174.213318
-31.747395 -77.672806 -177.539368
-65.242439 -86.192230 -173.184723
93.966446 -82.015343 -183.985199
19.334583 -85.093895 -174.230423
-27.691521 -81.182808 -175.502777
-54.079113 -81.879807 -172.021484
-24.478951 -77.308746 -176.882614
111.041397 -80.152466 -185.508865
-59.401794 -84.299042 -179.930496
8.699594 -83.566223 -189.064056
13.831251 -80.845840 -176.175507
-57.883789 -88.499763 -170.506485
-27.398687 -79.724625 -178.570724
-57.907196 -85.974495 -171.749283
-38.653847 -84.049492 -171.456497
-31.597597 -81.584839 -183.184021
16.401493 -81.600449 -186.869980
-50.079987 -83.948418 -183.387970
100.435165 -78.950089 -192.573273
-53.159901 -77.740257 -183.792023
2.602954 -80.631554 -200.617508
18.147917 -79.695900 -196.175705
-52.679867 -82.192253 -186.283447
-17.924475 -82.517738 -185.255676
95.886581 -80.055069 -196.654419
92.109650 -85.247559 -196.605057
-53.162266 -80.283745 -180.764816
-153.141037 -90.494637 -189.615540
-48.419735 -81.589188 -190.336136
-147.759415 -84.213821 -186.316254
-137.692703 -78.277618 -186.810501
-50.378613 -85.683044 -190.099716
5.859702 -83.729927 -204.129669
-19.278809 -78.495041 -201.383667
12.818185 -78.164429 -198.659546
87.415665 -85.638779 -215.271912
-37.758408 -79.830307 -197.984329
-18.640335 -79.066429 -199.127396
-21.313763 -78.995338 -210.881714
-38.070107 -80.419052 -198.660416
1.491376 -81.969810 -203.673157
-84.054581 -84.542862 -203.757767
12.523363 -82.803879 -213.052246
-38.581448 -80.812378 -200.548737
-148.770126 -88.444061 -195.982910
-144.457397 -79.159004 -199.724136
-92.553879 -83.574532 -205.173737
-38.595131 -79.481987 -203.939316
-16.193743 -87.806854 -208.375931
-37.815804 -83.322334 -199.685760
-94.654556 -86.270432 -209.363098
-90.447525 -85.108353 -205.489197
1.293782 -88.716187 -217.719833
-153.290100 -76.887337 -201.584213
-19.121212 -86.673691 -208.403503
5.081197 -89.595863 -216.415512
-148.435257 -81.962769 -210.165527
-27.937212 -83.952965 -210.728867
-2.331963 -76.479027 -216.416595
-13.812555 -83.000175 -216.342697
-156.981415 -78.687347 -212.312439
-145.255905 -71.629257 -216.185776
-8.267609 -82.325363 -223.268509
-152.567505 -89.400986 -215.843597
-4.089480 -76.387100 -226.102966
12.637784 -80.788612 -234.068741
-7.341051 -85.348114 -225.615952
-7.688336 -75.335098 -228.465485
3.839256 -79.875015 -229.072113
-158.003769 -84.835342 -229.535568
-24.853041 -79.361458 -228.483978
-39.706947 -85.162079 -233.640137
-4.557680 -80.544037 -232.237839
-1.590982 -88.496284 -241.027893
-4.032611 -79.794762 -229.718826
-64.886124 -82.253983 -235.979370
-154.532410 -79.456566 -239.192520
-159.308594 -83.707718 -236.384140
6.627558 -84.145561 -244.687347
20.501976 -84.607475 -243.877701
-67.376671 -79.123871 -240.817230
-147.435211 -89.223022 -241.648544
-159.367630 -88.022133 -243.627899
-160.997391 -88.078629 -245.728775
-149.685165 -80.565971 -252.090500
-148.808838 -85.149239 -246.057770
-12.008797 -84.578835 -252.472946
-152.211121 -85.512215 -251.242966
-21.811575 -83.711716 -265.064514
-154.447464 -82.489944 -260.056854
-155.562912 -83.569778 -271.590576
-155.191727 -82.008163 -273.896362
-11.475495 -77.501320 -281.926331
-157.098145 -79.727936 -271.587830
-32.045284 -85.007271 -281.483246
-32.482689 -79.419968 -280.029144
-20.998955 -79.630966 -290.923523
-23.369713 -79.223267 -290.043732
3.384835 -85.576851 -288.315277
-132.642532 -86.535339 -280.761505
-70.502060 -84.002380 -280.271698
-50.499821 -79.379181 -285.264618
-41.330082 -83.784393 -282.227173
-16.586552 -80.293419 -291.048401
-2.045080 -84.035408 -284.667999
-149.461472 -84.679306 -288.603455
3.062247 -83.242058 -294.235474
-162.536148 -81.305038 -292.182861
-163.354294 -89.785370 -290.197510
-162.539841 -79.579842 -301.719421
-150.831116 -83.348419 -298.786621
-47.098099 -78.965126 -43.645546
-49.503849 -84.007202 -50.476704
-64.597221 -76.963562 -47.955009
-36.385014 -76.494637 -58.235992
-31.707958 -79.435204 -54.599552
-15.530803 -78.156380 -66.989243
-78.122002 -76.091309 -62.463200
88.520149 -78.747780 -79.621269
-88.155167 -77.548531 -64.486885
82.326401 -75.363380 -77.189186
90.923790 -72.472534 -85.977318
100.753342 -74.625450 -92.594460
-59.786835 -82.451233 -90.524269
83.413483 -80.376144 -97.911774
78.070938 -83.967018 -91.096916
88.171562 -77.933975 -91.677307
-56.414753 -79.409508 -91.508156
49.328617 -76.200325 -97.639061
46.864620 -77.858772 -105.729065
40.494350 -79.770706 -102.120255
36.975960 -79.332336 -98.932823
-90.706520 -74.796524 -94.398361
35.830223 -76.770691 -115.946442
-83.569748 -80.261391 -99.071182
39.833427 -80.412613 -127.131340
32.778831 -80.165222 -118.812027
34.641693 -69.923355 -120.017746
45.585766 -76.161209 -115.969658
42.051811 -82.421303 -127.462616
-50.934879 -72.792267 -129.328751
37.890728 -84.457222 -132.416275
34.852661 -79.025032 -143.208740
-57.263699 -78.112915 -138.791168
-44.555058 -80.369728 -134.576401
34.523579 -77.120445 -140.781906
109.603813 -72.586418 -142.615509
111.077332 -74.021835 -149.885132
26.030399 -81.054092 -138.893219
-40.547520 -83.435188 -144.590256
116.906227 -86.893631 -154.558334
-37.435116 -77.584625 -147.251587
-69.184509 -79.191734 -156.683929
109.439018 -83.959564 -156.555283
20.932533 -81.045998 -164.884689
-0.305968 -80.551109 -159.440170
109.728249 -78.614830 -153.899063
-65.782715 -79.982414 -160.233841
-40.717266 -81.939995 -161.412994
109.329445 -79.943764 -167.201355
25.811096 -73.153160 -156.689774
-62.857296 -72.753128 -157.711472
111.367096 -79.016129 -167.907059
-67.284958 -82.073326 -162.437393
-50.629215 -83.997688 -177.512451
104.114815 -78.248390 -173.090256
-61.392162 -78.766029 -166.730286
110.514595 -77.555298 -181.000488
-63.748928 -79.292908 -170.557205
-18.544018 -77.004395 -173.383118
-11.644125 -86.411377 -179.341019
105.965042 -81.007133 -167.397964
19.810146 -81.291489 -168.828430
29.364635 -73.496864 -167.056671
-60.582367 -79.426987 -171.459717
14.562346 -77.429085 -179.194702
-59.370655 -81.479256 -168.072647
-55.731251 -78.870361 -189.639191
7.416788 -77.121086 -182.452042
-57.658466 -74.535507 -173.056778
102.981674 -75.821083 -191.260178
24.121738 -83.285339 -180.141205
-38.517540 -77.487961 -183.096115
-45.916496 -83.649033 -183.718307
8.479052 -82.889313 -188.101334
-22.793139 -81.588570 -182.888824
-49.890789 -82.319366 -190.286789
98.994347 -83.919716 -183.739365
5.532260 -84.393715 -187.104050
-134.990906 -89.163826 -190.718002
-53.123821 -83.231239 -190.219131
90.630035 -78.134544 -199.979416
-153.256607 -88.287842 -191.926315
14.954467 -80.714279 -199.160889
-47.357605 -77.039406 -200.814453
-33.296902 -84.381989 -202.951675
-40.524998 -82.151970 -195.377762
-49.283760 -88.540306 -192.545288
97.274765 -79.024391 -206.890076
-24.695389 -85.505280 -195.106171
-153.383575 -81.955437 -189.435333
12.417073 -83.365517 -198.003372
-80.856918 -86.127586 -197.748184
-146.413742 -79.339966 -204.423492
89.210274 -82.725250 -215.715805
-36.724144 -79.055550 -201.998871
-32.624008 -81.650497 -205.442688
6.627146 -80.926659 -206.772614
-75.397491 -86.298172 -199.673676
-30.038847 -90.303139 -200.034012
-13.111594 -82.691895 -213.674591
-73.101578 -82.297920 -207.156662
-18.018705 -81.461807 -213.517517
3.638774 -70.679253 -207.985916
7.380325 -84.072693 -218.800720
-156.325165 -84.686577 -207.372437
-13.427495 -80.724831 -210.210037
-107.380585 -77.851501 -211.610413
-26.265306 -80.628304 -214.817856
84.041588 -86.533676 -213.041412
5.382215 -78.316399 -221.150742
18.256105 -80.305191 -213.958191
75.606308 -81.791771 -212.930862
-3.303832 -86.338982 -227.202774
80.895554 -80.386757 -217.313705
-26.565145 -75.904610 -220.685135
12.576530 -76.437309 -215.467331
-153.193146 -83.994133 -207.190781
-31.950743 -82.827934 -221.891815
-2.804826 -77.436218 -228.465530
-160.974518 -88.888031 -213.727661
-142.197342 -86.433464 -217.658203
-2.259921 -80.400581 -219.501328
-8.106270 -76.498199 -220.080383
-142.045151 -78.195747 -218.708359
-152.824036 -83.089737 -232.924683
-154.196457 -83.615211 -224.940979
-36.326500 -83.003380 -231.409073
-146.429092 -86.953148 -233.278229
9.042694 -82.931534 -238.516510
0.502621 -80.663857 -242.047882
-155.999222 -76.205223 -228.129929
-155.114182 -82.245110 -234.683838
-50.543972 -84.200005 -241.076477
-37.145340 -82.357025 -242.701645
-1.440045 -80.652374 -238.533340
-40.900112 -84.085854 -240.210876
16.234634 -81.203201 -243.832108
-11.966668 -83.982185 -249.844193
-148.736481 -84.365700 -242.758301
-16.220850 -87.533890 -249.392303
-154.064133 -80.173767 -235.295181
-70.285896 -84.595894 -243.836197
-152.009079 -90.834641 -248.247437
-133.716110 -83.150940 -248.374634
-159.524353 -83.521713 -245.486038
-16.411375 -78.925583 -263.865326
-152.008331 -90.763664 -263.370087
-155.340744 -83.872574 -259.571198
-18.808481 -82.030342 -267.006622
-150.028198 -83.603081 -259.428497
-13.838548 -80.092041 -272.145721
-52.553448 -81.537201 -277.584381
-142.393723 -80.358101 -278.471710
-143.313538 -83.035133 -275.752045
-129.344742 -79.214615 -271.329865
-58.651691 -81.596649 -280.228271
-118.151596 -81.885155 -273.919281
9.091610 -81.008270 -290.500977
-63.459961 -80.169250 -282.306702
-147.977570 -83.531052 -283.735565
-70.920067 -81.227394 -284.062805
-152.527344 -89.888458 -283.633728
-123.525253 -80.206322 -282.183563
-52.807728 -85.794846 -284.545288
-40.409458 -82.262337 -286.669312
-146.436096 -78.225227 -287.327820
-21.838543 -75.213173 -276.383850
-1.442668 -81.163757 -283.227661
-0.526292 -79.677643 -286.920685
7.806719 -82.924767 -293.220001
-157.231079 -89.251984 -287.911987
-151.408615 -80.801521 -281.306793
-62.125492 -76.193794 -56.439545
92.332336 -79.226440 -72.922783
81.571312 -78.699776 -78.225555
-25.341787 -81.367439 -71.710396
86.264801 -75.312935 -74.867783
-35.843708 -81.691025 -74.581406
83.906334 -72.397034 -83.519341
99.525833 -72.235794 -80.821259
-62.510788 -72.572975 -90.369751
73.978119 -78.311966 -94.616234
81.481377 -74.884514 -98.419495
99.692329 -80.785370 -96.794968
57.193874 -80.083641 -96.012123
-63.233372 -75.399086 -94.996605
-72.024040 -75.350090 -94.202347
52.593822 -80.348076 -102.144402
-85.153328 -80.683586 -94.079895
48.578789 -74.304657 -117.325691
111.334587 -76.714737 -122.249626
113.406105 -80.170479 -131.964264
19.172997 -76.186226 -134.246536
110.653740 -79.859756 -128.717346
29.288166 -75.186089 -131.152557
112.603813 -70.667633 -135.139679
36.754333 -75.439758 -133.085297
-57.632690 -78.518890 -133.683014
36.139046 -83.574097 -144.450073
108.579323 -75.425690 -135.775696
-45.280872 -77.147934 -138.172668
31.286064 -76.869370 -148.928192
-57.143532 -72.782722 -135.762970
-60.855701 -78.921432 -137.654221
-53.660378 -83.245842 -144.226044
-65.040245 -83.031914 -149.159256
110.665649 -82.927856 -148.621399
-50.401154 -87.320930 -149.440292
22.517515 -84.779213 -154.477448
105.893074 -79.048622 -165.100281
-65.779388 -79.812096 -147.797531
-43.490673 -80.857239 -152.189346
8.359413 -76.353981 -151.348358
-69.331306 -80.471191 -147.227127
-65.569443 -83.050827 -151.373581
-0.483083 -79.306267 -159.051605
-46.016220 -75.082085 -162.586639
26.964945 -76.448570 -166.132492
-65.021622 -75.024956 -162.533279
-56.959080 -82.304848 -160.085754
12.730922 -82.910385 -156.814819
-31.463776 -78.119453 -163.420303
-29.550224 -82.535095 -161.568344
12.820986 -80.943512 -171.915787
-45.901730 -83.266876 -167.404724
-11.804676 -81.291252 -168.226456
-68.471695 -76.169685 -164.752914
-9.770917 -76.708672 -170.917450
-23.357067 -79.769501 -175.399094
19.694557 -75.852814 -182.333237
-40.422462 -82.010948 -167.101273
19.682659 -74.446342 -172.818024
-25.135595 -75.686684 -181.715378
-33.847126 -82.798119 -171.998032
-151.038086 -77.828476 -183.121109
-19.163687 -85.016342 -179.040466
-142.260925 -79.309631 -179.865585
-156.872498 -81.927475 -176.512558
-52.599930 -78.133102 -183.277252
95.532158 -77.976379 -196.136093
-147.341537 -82.781242 -179.716080
-147.437897 -78.760818 -185.380402
20.093643 -77.310928 -193.636887
-141.713516 -82.019997 -185.697296
9.502455 -75.091766 -196.520859
-140.441086 -85.049904 -189.946274
10.267561 -74.984795 -195.172913
-135.180481 -77.274261 -185.197205
1.568386 -75.513824 -198.275879
-155.291534 -81.622009 -191.118973
92.293121 -78.910004 -208.038544
-20.614035 -83.054520 -205.114624
-33.925110 -78.990051 -204.286560
-15.810408 -73.929886 -201.184906
-147.926407 -87.019012 -200.042130
-38.576328 -80.189407 -197.552399
-87.528145 -83.039337 -194.701675
-30.161381 -81.868439 -203.262726
10.192687 -80.545021 -211.619324
-149.708572 -78.846786 -205.242874
-92.497261 -83.978485 -212.092178
-33.046707 -79.070450 -215.860214
-31.583368 -80.500809 -216.285385
-10.603737 -82.004616 -204.575409
-30.585148 -79.265251 -202.306961
-88.605812 -81.532516 -215.137909
-94.259148 -87.469475 -212.147095
-26.646612 -79.469994 -217.600998
-5.930274 -90.153160 -221.880646
-160.996201 -84.542625 -206.314713
-6.408250 -81.902733 -218.459900
84.049683 -84.508270 -228.856140
-142.584244 -84.592270 -212.630142
-6.790959 -80.720497 -217.074905
-142.851212 -83.633865 -215.424866
-150.977234 -90.616470 -214.106094
-9.797778 -79.204277 -224.161133
19.171158 -81.112946 -210.489410
-142.693024 -79.596771 -219.268311
-22.524488 -82.546761 -223.028519
66.723824 -80.660583 -224.736816
69.827827 -80.080002 -234.419479
6.715547 -82.695206 -226.640411
-39.914555 -82.073395 -230.189789
-29.622000 -89.898323 -237.835052
-2.856282 -78.664490 -239.785736
-51.472458 -75.729622 -238.232910
-25.345575 -78.212837 -238.436569
5.999873 -76.522194 -234.911469
-68.030083 -81.889336 -239.022720
-42.073647 -86.894188 -238.527405
-42.586975 -79.692795 -240.201752
-152.339737 -79.409050 -235.316681
-49.509285 -84.656982 -243.004639
-57.476082 -72.103897 -241.164001
-70.539719 -80.997597 -241.819229
-15.312748 -85.987709 -240.710587
-83.828796 -83.450142 -248.368256
-161.980682 -89.377289 -241.648056
-145.353485 -80.448235 -242.714203
-125.981873 -84.213219 -248.617676
-164.916351 -78.803368 -246.037750
12.701547 -88.579956 -264.326721
-21.016285 -83.861816 -264.637299
-161.902054 -85.949615 -263.736023
-159.398239 -90.495598 -267.785553
-152.849289 -85.157288 -275.253723
-65.343109 -76.310883 -272.319946
-45.636654 -75.310028 -279.908264
-24.140181 -78.804985 -285.600861
-14.996722 -76.315468 -273.344025
-72.945923 -85.722984 -277.811035
-88.030151 -87.486130 -278.201935
-8.224442 -82.269157 -277.734100
-5.087462 -83.123360 -289.370331
-147.241898 -81.057404 -274.904175
-87.876709 -78.057487 -277.966125
-153.619110 -81.426781 -276.620300
-101.186913 -92.882469 -276.401733
-85.461624 -81.364174 -277.501984
-93.686584 -79.091805 -288.961243
-70.701157 -81.488953 -285.359253
-38.767067 -74.006966 -290.883575
-16.390694 -80.803764 -286.050720
-157.847549 -74.986984 -289.517212
-155.451965 -80.235252 -290.337860
-150.980011 -81.200775 -295.521423
-165.867172 -82.619011 -293.130280
-52.465416 -72.893494 -50.470280
-44.967091 -76.561996 -47.179916
-35.794308 -79.051735 -48.019688
-74.106628 -80.882858 -56.110069
-26.110231 -75.341072 -60.609589
-32.820522 -76.400543 -74.862541
76.587563 -81.087494 -83.614594
77.688751 -76.265831 -79.089157
74.352333 -73.104790 -83.293427
103.064148 -71.923210 -91.852875
69.560410 -79.215523 -88.676483
49.192707 -80.315773 -86.740967
54.462589 -83.387802 -100.748810
-64.554878 -75.976410 -96.183777
-72.958015 -73.326935 -95.857414
46.431465 -78.443588 -101.680344
-80.558723 -84.541168 -103.104088
-91.333229 -76.335350 -102.330994
52.602310 -76.982780 -108.088501
108.192131 -75.305534 -118.543266
33.821609 -79.640846 -124.854332
42.891808 -79.119736 -117.056480
40.195385 -75.299385 -120.831909
30.928276 -79.314880 -119.420868
110.014130 -76.680763 -123.260262
39.446121 -81.026871 -130.510056
35.789948 -72.683388 -131.130188
-44.009205 -76.835983 -136.039169
-69.769318 -82.735741 -135.902115
-53.085556 -77.651695 -144.115997
-75.719360 -84.529800 -138.804016
-38.223213 -78.433296 -142.806839
104.506905 -78.366844 -159.238953
-72.440613 -81.811165 -149.847122
22.991671 -84.187592 -143.214249
27.042604 -81.034561 -146.675766
109.179359 -81.305321 -165.051086
8.959312 -82.455032 -156.212906
32.732914 -74.947182 -153.615738
-63.383690 -82.261436 -153.083755
-41.270130 -81.720634 -169.415604
20.908880 -78.537109 -160.763092
-66.323822 -77.991310 -148.667084
-71.815468 -79.244476 -159.021362
114.028542 -79.984322 -168.027237
-9.713863 -80.622086 -160.454590
-67.928329 -77.340630 -164.354172
-37.485928 -81.443718 -160.939850
-55.592079 -77.926353 -165.265320
29.246510 -77.418884 -174.381378
109.895203 -74.275894 -174.510162
99.798538 -75.815552 -184.628250
101.701553 -77.189476 -190.621521
104.461220 -74.464233 -177.171066
-53.350430 -77.874290 -187.201477
-49.103626 -75.372986 -177.765442
25.547562 -78.142570 -181.639664
-49.707241 -78.031586 -179.282318
-23.115089 -79.282555 -179.084579
-53.599270 -83.290131 -185.400314
-154.878906 -79.394913 -181.777954
98.227272 -80.786217 -193.310150
-46.932640 -76.155212 -189.697159
-14.429083 -81.088844 -195.455856
-141.724121 -79.568001 -181.947281
-43.638611 -76.651245 -193.936371
97.710922 -76.157974 -197.342133
105.668098 -75.153282 -186.077759
-45.134182 -79.126709 -189.590912
-24.907789 -88.236122 -195.150833
-149.600418 -83.692657 -189.930878
-27.852798 -78.655510 -190.080017
-163.492294 -81.192322 -185.258469
-155.689499 -89.566231 -194.917801
-148.318237 -83.261765 -191.422256
-41.623451 -80.579758 -195.992493
98.765381 -79.644699 -205.052917
-45.656326 -77.263474 -194.419357
-145.016159 -85.023857 -194.524002
-40.442886 -74.804993 -199.946732
-26.171257 -86.176125 -205.112900
94.784943 -81.807701 -206.887405
85.980270 -80.602196 -215.946274
-42.094135 -77.508614 -211.849686
-91.987541 -82.214508 -201.865799
-79.236580 -81.783279 -204.490463
-22.990236 -79.598816 -203.732986
-152.900848 -83.969467 -189.515411
88.417038 -77.410095 -214.877899
84.282555 -74.043877 -218.350525
85.567986 -79.347260 -221.598145
-106.732536 -82.326469 -209.346542
-159.148651 -84.030220 -209.563461
-24.655117 -77.314224 -219.891357
76.563469 -74.215714 -228.217209
-154.377701 -86.108711 -210.042282
-33.476734 -81.664322 -211.372742
-139.133194 -79.169434 -223.764038
-15.479342 -83.099899 -228.150436
12.501020 -77.912300 -227.512024
15.719878 -80.506340 -231.016205
-160.380096 -84.835228 -224.966812
-131.395538 -76.547058 -223.150497
-13.105058 -79.574188 -231.786072
-4.697035 -78.627289 -234.374359
64.457214 -78.542725 -229.967987
63.511906 -74.723450 -239.394363
-5.259538 -76.716980 -236.660690
10.729217 -74.421555 -237.453690
-37.126789 -70.269615 -236.901398
-36.812866 -91.423454 -237.377899
-54.401680 -80.506348 -228.779678
-46.100399 -77.648735 -233.875778
-21.046606 -81.479286 -238.747437
-56.861637 -78.125549 -238.531433
-3.617564 -80.699234 -241.863510
-73.544785 -83.957581 -235.246933
16.533045 -81.390465 -244.695114
-146.496246 -84.653702 -233.065231
-78.838615 -84.179039 -247.443024
11.462863 -80.563934 -247.622009
-166.327194 -80.673782 -238.009827
6.474776 -85.025223 -251.156815
-86.208328 -73.299271 -243.631912
-81.552513 -81.340744 -243.007172
12.249842 -82.276436 -250.994110
-95.128265 -80.394203 -242.421555
-131.535324 -77.005379 -244.662048
-137.626114 -87.013908 -250.999664
-142.172150 -85.677589 -241.201141
-152.633911 -84.997292 -251.294250
-152.483398 -77.630646 -240.394363
-139.825226 -79.989822 -251.741653
-167.694351 -77.701141 -248.860428
-134.852692 -82.352882 -258.074188
-143.087112 -74.941177 -253.099609
-168.168198 -78.469795 -260.229279
-161.120804 -78.947701 -253.816620
-153.565506 -79.907692 -255.215607
-155.324463 -83.245216 -254.937256
10.634197 -82.853188 -276.458893
-172.693939 -82.618134 -253.468689
-157.679276 -84.670349 -262.520508
-11.162472 -89.672279 -268.425690
-160.511444 -79.256813 -265.549286
4.730704 -84.136604 -281.070007
-159.833679 -81.824188 -270.277069
-173.985733 -84.554367 -277.429047
-162.300385 -86.268860 -265.548798
-171.501755 -79.647316 -278.390961
-7.146402 -85.214104 -283.225433
0.347034 -86.722786 -277.378510
-114.484917 -79.435341 -284.988464
-164.394073 -90.893463 -276.458099
-154.936539 -79.343231 -273.925629
-112.669640 -80.623810 -283.960602
-161.173477 -86.949562 -282.584076
-155.327240 -88.186432 -277.432892
-84.069366 -86.304810 -286.545685
-176.222458 -85.839905 -276.740601
-129.646530 -77.554962 -282.134430
-49.726311 -86.906502 -278.875031
-157.361481 -82.105560 -276.361237
-138.007324 -76.298958 -284.043640
-28.530424 -78.056938 -290.822021
-137.163696 -77.116257 -283.082733
-1.162585 -82.192368 -292.190735
7.482516 -77.210701 -289.586090
-140.513000 -76.711922 -280.429871
-153.014938 -85.191185 -288.742401
-164.757156 -87.807693 -304.902344
-67.507416 -71.168304 -46.467350
-18.211329 -68.933609 -63.031548
-15.538382 -80.165916 -60.902050
73.037727 -72.583755 -79.779205
92.757896 -74.119766 -77.141655
-33.088783 -76.907486 -75.588348
79.101257 -74.079460 -82.140007
93.054420 -79.664391 -84.453537
67.783745 -76.136810 -84.706940
75.658119 -73.758835 -92.187950
-47.680954 -77.251053 -78.792130
-89.388168 -80.888824 -82.544907
61.733368 -79.727905 -93.730659
52.262363 -79.184700 -100.031075
93.805641 -70.552261 -104.072731
-88.321808 -71.034409 -94.236443
80.687683 -69.050713 -101.839661
72.609840 -76.847321 -102.411011
92.854828 -78.991333 -99.211067
85.888100 -76.169113 -96.621750
81.091805 -79.108002 -100.019829
-88.326752 -79.774834 -95.255188
46.457222 -72.326042 -102.994293
105.689751 -77.418808 -112.774910
107.301750 -76.724525 -112.703079
51.464764 -80.793968 -120.558273
115.015602 -80.239410 -121.118706
117.761757 -80.634346 -137.758041
-49.841049 -74.095604 -122.757065
27.954121 -76.451813 -133.351944
41.439667 -81.570427 -132.676483
23.877962 -73.995140 -139.694534
112.559265 -81.336052 -138.497253
111.450653 -78.225937 -131.570160
-74.136147 -77.779861 -141.653854
-43.546761 -76.225189 -133.970352
-72.277008 -75.804558 -146.806915
17.298832 -74.476128 -144.957169
110.988693 -72.447388 -149.672775
-55.197247 -80.371544 -147.055527
-73.795723 -77.066208 -146.387573
-40.164165 -81.422241 -145.694031
30.214775 -70.445374 -152.817215
107.076927 -71.322433 -152.144028
116.145691 -75.106308 -165.245026
-69.358482 -74.370438 -150.300659
-77.346985 -81.600670 -152.811996
20.655336 -83.251205 -161.429016
-62.031239 -75.202721 -161.259583
-33.729923 -74.769157 -159.435654
7.533467 -79.856392 -161.704285
105.020355 -72.715714 -163.491333
9.591919 -82.610832 -166.497696
-33.697147 -78.228073 -161.349243
-5.866673 -70.484398 -160.939926
104.359818 -71.426872 -168.183411
-43.359676 -75.209862 -157.406799
28.992170 -74.501816 -172.609787
113.437119 -82.552628 -174.680588
-59.071236 -74.210739 -169.540405
-29.614851 -82.352173 -171.692383
98.815117 -77.838501 -176.346268
27.836590 -74.115959 -165.096436
100.637947 -78.642136 -178.067291
-39.088634 -72.633148 -175.104584
108.203255 -81.837875 -182.984467
-66.217369 -73.973740 -171.412674
-27.917009 -83.374344 -172.662292
-150.479492 -71.285988 -174.903503
-56.011108 -77.024910 -172.274902
-149.895950 -79.945587 -175.381607
-37.886898 -75.256172 -177.724228
28.404982 -84.322441 -175.181107
102.871216 -78.393723 -185.608475
-40.059998 -76.829414 -175.872406
7.426954 -78.367889 -188.329971
11.946785 -77.487801 -204.204208
-152.319336 -79.971878 -176.584244
104.389175 -81.325783 -198.087784
-27.415142 -75.855949 -188.338593
97.536346 -78.964165 -188.057037
8.560080 -74.126274 -188.473053
-145.212387 -79.502724 -196.860779
-140.009979 -78.045105 -189.298843
100.187065 -82.276070 -203.424286
-14.794124 -83.510750 -195.747421
-21.241894 -78.708344 -201.044861
8.407283 -81.122108 -204.851746
-153.180161 -79.082260 -195.914917
-150.107544 -80.960426 -200.016006
98.036530 -69.674011 -208.077347
-89.493675 -78.709259 -199.666428
-37.846485 -80.209869 -194.897552
17.024229 -82.734093 -213.872452
-27.806108 -79.268936 -206.226196
-77.338318 -76.387100 -197.676041
87.372993 -77.621765 -209.729691
-82.106941 -75.461502 -205.027908
-152.282593 -79.229630 -209.115540
-84.172066 -76.555771 -204.952118
-14.252570 -70.806175 -202.545212
-24.491402 -75.008965 -216.600601
14.436110 -79.190063 -213.010010
-9.174706 -80.430168 -219.915222
-92.369957 -86.762863 -211.729187
89.382637 -76.236572 -215.163162
-104.827950 -76.984833 -207.100235
-159.000015 -77.064117 -215.284973
-35.445107 -77.894531 -220.286255
15.787552 -79.845695 -213.148026
-106.234810 -80.457451 -211.759109
3.310499 -72.041573 -213.864578
-31.796036 -78.248085 -209.418381
77.709053 -74.768929 -225.919266
-147.794296 -77.213844 -206.096069
11.995607 -77.645119 -223.371811
-13.874884 -82.977585 -225.286224
13.495386 -68.725441 -221.819443
79.848373 -79.411934 -223.722397
-19.372740 -83.389603 -225.501709
-134.598602 -82.406837 -217.618423
-19.850861 -77.955612 -219.963638
12.219776 -77.570648 -225.712585
-132.528503 -83.385078 -217.402496
-158.927277 -75.827072 -221.260315
-147.853897 -78.371201 -219.083832
-131.310959 -76.717995 -216.146698
-14.753483 -74.442772 -219.819672
67.519012 -77.412651 -226.706528
-150.058258 -74.270905 -230.944366
62.924767 -78.707161 -227.804398
-26.136953 -83.526611 -227.671295
-146.923035 -82.657417 -217.257141
71.646896 -87.630272 -229.641754
5.963318 -84.584084 -228.269699
-143.876587 -83.615768 -226.569016
-153.802444 -78.857040 -222.241699
13.573041 -72.963943 -227.821609
-7.241373 -83.416679 -236.421646
-35.478313 -77.433014 -231.780670
-6.267254 -72.818359 -232.206284
-165.076111 -84.316986 -226.904663
-0.479161 -75.341499 -239.149933
-169.753616 -82.006226 -230.779007
-16.251104 -79.866646 -233.411636
52.316650 -79.178230 -238.512527
-18.584221 -76.558807 -231.709457
-30.455362 -78.759872 -244.310425
-29.063643 -78.272026 -237.205505
-14.608959 -83.880524 -235.567825
-150.608917 -80.928604 -216.387619
2.670244 -76.800240 -237.986374
58.736897 -77.709976 -245.063187
10.893844 -74.649155 -242.707306
-175.490936 -77.832542 -232.027924
-57.014271 -77.685379 -231.876022
0.359743 -86.345146 -246.130600
12.360867 -79.034958 -240.141602
-58.854218 -78.930199 -241.648239
-7.066573 -72.065300 -247.787079
15.144053 -87.385887 -246.709290
-178.648972 -77.047188 -237.747040
-69.441093 -84.468155 -243.122162
-58.160995 -76.498611 -242.053146
-89.125839 -76.986664 -246.439941
-167.527725 -82.327072 -234.956146
-155.901596 -68.608292 -236.688705
-66.221649 -81.822990 -243.648788
-73.899933 -78.594315 -241.684158
-159.092743 -76.838234 -241.234467
-157.527069 -81.961967 -241.439713
-79.793732 -73.157486 -248.541290
-99.340813 -75.240074 -249.679749
-168.234772 -71.659180 -243.403854
-163.555298 -80.940170 -251.264923
-141.581741 -82.772034 -251.457947
-88.752693 -78.411972 -241.741577
-167.045639 -74.925255 -243.128586
-147.257202 -76.403809 -247.481232
-89.832016 -77.948959 -239.947708
-103.874527 -77.549339 -254.658218
-147.629623 -81.550476 -244.718674
-97.551056 -79.236687 -247.887329
-161.233673 -77.208122 -244.361725
-110.189255 -78.978531 -245.866852
-178.082138 -78.673721 -247.063019
-168.663956 -83.134827 -256.721619
-134.312637 -85.427925 -246.345856
-158.720978 -80.901756 -249.105057
-114.805328 -74.702858 -254.959122
-19.800707 -75.884529 -258.241119
-146.188644 -79.473564 -250.423965
-133.336823 -78.503792 -250.786057
-158.915543 -77.215935 -253.247543
18.777916 -79.965759 -270.933136
-156.851181 -83.633354 -269.344604
-176.363037 -81.052361 -272.003387
-16.221813 -77.103607 -276.221649
-151.250931 -79.043839 -268.747650
-18.458755 -76.668495 -280.086823
5.636306 -80.667274 -284.423645
-144.414993 -76.715340 -276.079315
-72.120277 -83.047714 -281.329865
-40.550091 -83.596718 -285.087097
-118.923851 -80.389175 -273.123322
-105.154755 -86.458824 -281.822876
-95.295357 -80.847298 -284.230103
-58.934448 -81.699066 -287.307861
-122.970078 -87.704826 -277.506622
-123.822685 -82.304192 -281.455811
-41.290504 -75.289246 -282.382935
-124.698753 -82.389244 -285.498291
-136.336990 -73.609177 -278.994751
-152.517075 -84.245811 -284.791626
-0.440404 -79.836601 -287.499237
11.601260 -81.589073 -290.229248
-169.808960 -80.053284 -280.904572
-169.399155 -85.975319 -289.804962
-157.415054 -82.823982 -299.232025
-161.744568 -80.199738 -299.368805
-161.160095 -80.960312 -304.459534
33.782482 -79.576546 -11.564253
42.183388 -70.322136 -19.085695
26.459501 -74.415771 -24.231018
34.184910 -70.363907 -37.764145
-55.093906 -74.473442 -44.883442
-60.341839 -75.336189 -44.999222
-34.979141 -80.735764 -43.293564
-84.461319 -67.397133 -60.476826
82.734253 -78.718025 -77.025368
-8.506633 -69.951218 -68.255981
93.047089 -75.025429 -62.834511
104.271912 -74.413551 -76.935112
-88.597778 -72.418800 -66.818794
67.644562 -75.040962 -80.883072
-36.700985 -79.903130 -82.536850
104.636124 -74.929352 -82.181946
-55.966877 -71.957954 -82.455887
51.435043 -76.158051 -90.339355
71.864601 -84.343147 -89.916061
55.098221 -73.453857 -95.072571
54.428936 -77.136063 -98.701149
77.911209 -79.914230 -97.161278
48.827595 -74.507118 -109.562668
98.238403 -76.109116 -104.593147
106.166649 -82.095833 -110.479118
77.881065 -73.147964 -105.003754
96.347427 -76.993904 -107.488205
101.778862 -75.703934 -94.538040
111.754112 -77.296776 -107.077843
41.311756 -74.309547 -105.912399
114.911629 -72.330566 -120.024933
115.605927 -77.657318 -122.532631
29.892445 -73.180153 -123.751701
45.327446 -77.931625 -117.044632
115.442123 -77.230621 -136.060562
33.245560 -75.095848 -125.616127
118.105972 -83.014435 -129.306656
107.916443 -77.989838 -125.069855
27.687876 -79.400002 -131.328659
-46.098320 -77.450768 -127.741669
-51.871391 -74.396790 -129.027374
111.561409 -75.947350 -138.316193
-66.754395 -83.480606 -132.624298
-70.772598 -77.512047 -134.143646
-60.615116 -77.252327 -132.416397
29.650347 -78.043816 -144.310120
120.153618 -80.216980 -150.640411
-71.139931 -72.117828 -141.977890
-50.121460 -77.837883 -135.219070
31.586153 -77.163155 -152.246719
-68.850983 -78.869560 -141.421188
114.197632 -74.666969 -141.518951
109.873032 -73.769669 -160.550110
115.442566 -78.130066 -157.835052
-39.286522 -81.534935 -147.186203
-64.729179 -76.921677 -160.116837
-66.840469 -71.011269 -152.089859
27.955442 -78.156281 -141.330536
-3.166728 -79.849487 -158.666702
109.129097 -74.811249 -165.727890
111.589554 -73.692764 -154.535767
111.737907 -81.995949 -162.596207
-63.176678 -74.385597 -151.144791
-46.011749 -80.367455 -163.746811
-5.583150 -76.845085 -162.027481
-33.722885 -78.952599 -170.625626
103.887589 -75.133911 -170.531494
-32.662117 -82.925529 -155.127625
106.948380 -74.376465 -169.292847
-43.476421 -77.919495 -169.746841
105.936264 -73.309380 -173.023117
-155.926712 -79.871841 -167.861572
-26.884821 -71.643875 -173.851242
-21.134308 -78.529785 -180.477188
22.801357 -82.586777 -174.883255
11.694851 -75.721336 -182.164383
27.189157 -78.345795 -181.124451
99.459244 -85.164673 -187.016006
-154.491974 -73.220772 -172.585327
-20.777077 -80.597923 -176.852585
98.719620 -79.854073 -180.459320
100.306366 -71.583900 -190.880524
107.989418 -79.726318 -178.093613
98.293274 -79.652390 -194.665726
-153.273392 -76.452080 -188.763168
96.114395 -78.437775 -208.805496
-30.968126 -75.522049 -195.419266
93.076508 -77.407524 -195.502975
-120.854675 -84.664223 -193.681076
-32.513550 -83.878036 -182.889938
-145.617126 -71.534744 -188.561295
93.555908 -77.464798 -198.858810
5.295234 -77.893913 -197.461517
22.492517 -74.647636 -189.262665
-152.197815 -81.541855 -194.888458
-139.702789 -78.097290 -193.326874
-12.495216 -77.706314 -206.336868
-127.314041 -77.867302 -197.535812
-147.246155 -79.841118 -185.552170
-2.813724 -78.750473 -195.136520
-29.614115 -80.829475 -195.301849
18.471262 -82.926735 -198.698074
1.385111 -80.676369 -210.968140
77.774765 -72.127731 -210.399353
-20.961224 -74.638947 -208.303864
86.781326 -74.007942 -210.591354
95.500023 -81.753403 -208.705948
-150.977844 -81.327850 -203.104462
91.432442 -81.377312 -213.138748
0.539802 -75.318230 -202.558746
-1.715689 -80.835106 -211.500214
-34.468716 -77.653030 -200.574432
-92.802917 -77.907310 -205.368973
-27.495623 -81.548187 -205.105011
81.928040 -75.817665 -219.716400
87.705063 -76.474724 -216.167404
-34.467045 -76.713203 -206.670532
-87.158577 -73.594269 -213.418381
-3.299037 -80.641594 -216.848694
73.158409 -71.400360 -211.663528
-156.590088 -87.058655 -210.583054
-170.095108 -76.640114 -203.406693
-168.034317 -84.747406 -210.495605
-25.916767 -81.177757 -222.892410
-158.981827 -85.654671 -211.568405
-7.683608 -78.670258 -220.282944
1.705548 -80.990395 -215.736511
-174.440811 -79.477882 -215.526154
-160.108185 -79.579140 -218.348267
73.992294 -83.467758 -233.190872
-6.478317 -78.057693 -222.273483
-164.485138 -70.847145 -216.166611
-146.757858 -82.889519 -212.537094
-22.507153 -75.890907 -219.681915
-6.809481 -83.340927 -216.294571
75.308273 -73.554497 -228.418152
-164.965622 -76.402962 -217.266830
-145.170166 -75.140083 -224.264603
-130.594467 -76.378723 -223.261810
73.376465 -81.755371 -226.349777
-120.191475 -79.594330 -221.059067
-146.864761 -79.122368 -219.835861
-155.922745 -77.378609 -222.232544
-154.737610 -80.613144 -222.244949
-159.882202 -80.818001 -218.820175
-168.864716 -80.481522 -217.346802
-136.715408 -81.089546 -228.727463
-137.587936 -80.668816 -224.511826
-155.668396 -87.117615 -223.777710
-150.294296 -74.315948 -228.828064
-155.082367 -80.793793 -225.824387
71.408989 -82.388489 -234.521393
62.358429 -69.691910 -234.366699
-158.840210 -76.862000 -225.148254
68.835197 -70.733330 -233.587357
-25.643538 -75.374786 -232.346832
8.418399 -81.250191 -236.462570
3.671183 -79.376091 -233.181534
-161.207153 -79.839050 -230.169342
11.693144 -77.733063 -239.245148
53.396996 -75.830856 -238.700638
8.295529 -74.440239 -236.166672
-0.614806 -78.520226 -238.373871
-11.548706 -74.085464 -235.952759
-27.175117 -76.292542 -238.988129
-7.705212 -78.918274 -236.848450
0.204024 -83.009979 -244.060226
