-54.661785125732 -81.313690185547 -173.872528076172 2.060602664948
-28.521589279175 -73.361434936523 -172.687057495117 0.720792949200
20.567899703979 -77.718238830566 -184.585281372070 2.100982666016
-53.769809722900 -80.959465026855 -183.801162719727 2.157661676407
-26.381086349487 -72.088500976563 -177.309020996094 1.166842699051
-56.715164184570 -75.437393188477 -182.751968383789 1.560845017433
-43.154731750488 -77.712432861328 -193.421325683594 1.914968132973
-30.857196807861 -77.021125793457 -188.084457397461 0.742334246635
-42.421848297119 -81.465156555176 -193.725250244141 1.660463333130
-24.323080062866 -78.154327392578 -190.799438476563 1.389254331589
-140.307342529297 -81.606712341309 -194.382324218750 2.285896301270
19.933855056763 -77.728309631348 -199.919784545898 1.547806143761
-135.302581787109 -78.821243286133 -196.752609252930 2.270731687546
-22.204048156738 -75.257034301758 -194.279586791992 1.741491436958
-22.837394714355 -75.405380249023 -194.778579711914 1.031804442406
-44.180698394775 -79.997253417969 -191.698455810547 1.255661368370
8.950622558594 -74.734809875488 -197.764205932617 2.351315498352
-18.280006408691 -82.514587402344 -196.668777465820 2.381621122360
-55.899829864502 -81.261909484863 -203.029983520508 1.192149758339
-36.366943359375 -79.240898132324 -201.319412231445 0.692823886871
-61.120033264160 -75.883003234863 -204.619430541992 3.828864574432
-70.211547851563 -77.965538024902 -209.098480224609 1.074090600014
14.837167739868 -75.636329650879 -207.930740356445 2.624075412750
-88.678451538086 -78.058319091797 -208.929107666016 3.765897035599
-29.843305587769 -79.131690979004 -213.253677368164 1.347342491150
-82.398597717285 -80.517219543457 -206.456970214844 5.607708454132
-152.005493164063 -81.370689392090 -210.359848022461 0.885710895061
-8.782490730286 -78.828880310059 -212.572998046875 1.873022556305
-7.097166061401 -76.123359680176 -216.230697631836 1.661649584770
10.854944229126 -79.198890686035 -215.998214721680 0.937685251236
10.329828262329 -70.133712768555 -225.592056274414 1.027822971344
-2.642420053482 -80.309547424316 -226.037536621094 1.991970419884
-145.880203247070 -79.289077758789 -215.498184204102 2.001050233841
-151.793792724609 -85.378593444824 -232.992355346680 2.117862939835
-157.173706054688 -76.751091003418 -230.787994384766 1.795757889748
-2.453347921371 -81.563247680664 -235.278884887695 4.076959133148
0.915114998817 -75.862350463867 -235.901184082031 1.216801404953
-25.950195312500 -84.450675964355 -241.224884033203 5.638048648834
-152.586822509766 -77.864433288574 -235.632019042969 2.293793916702
7.929296016693 -79.787353515625 -241.180099487305 2.546072959900
-24.825742721558 -71.416999816895 -239.193176269531 2.071275234222
17.256708145142 -77.845550537109 -233.528930664063 0.357314497232
-54.297229766846 -77.333564758301 -241.113479614258 1.758922100067
-52.314010620117 -78.825187683105 -248.186813354492 2.261061191559
-148.933105468750 -86.358940124512 -242.919540405273 3.007357358932
-63.581859588623 -80.559318542480 -246.509994506836 2.329618215561
-4.294764041901 -78.082046508789 -244.221511840820 1.421953797340
-12.445285797119 -74.525344848633 -251.647232055664 2.409921884537
-148.919311523438 -84.894638061523 -256.980773925781 0.327639818192
-133.361923217773 -77.870002746582 -253.185211181641 4.420684814453
-137.227813720703 -77.762451171875 -254.218521118164 0.530091106892
14.576928138733 -76.253280639648 -255.590530395508 4.527923107147
-147.824142456055 -81.869567871094 -269.695953369141 2.038946628571
15.975832939148 -78.507408142090 -263.748840332031 2.656715393066
-145.359832763672 -77.811607360840 -272.851165771484 2.702706336975
0.965995013714 -79.857170104980 -275.366210937500 2.430928707123
-143.262557983398 -80.639457702637 -279.167419433594 3.741293907166
-4.212090969086 -81.064140319824 -281.377777099609 3.495814085007
-155.672576904297 -77.079895019531 -281.995269775391 2.281486988068
-146.290847778320 -76.292053222656 -279.716156005859 1.177401900291
-138.064880371094 -85.262100219727 -283.536071777344 2.759197473526
-151.829833984375 -82.062789916992 -292.280273437500 2.112492084503
-23.503881454468 -75.271072387695 -288.359741210938 3.041785955429
-152.803421020508 -78.680130004883 -289.175048828125 1.878986358643
-148.520980834961 -84.553779602051 -292.539489746094 2.058754205704
-154.555084228516 -78.768051147461 -304.089172363281 1.927393794060
-56.636047363281 -76.634422302246 -54.457023620605 2.302333354950
-40.288337707520 -85.745048522949 -61.253681182861 6.075849056244
-76.386398315430 -83.637847900391 -66.464782714844 5.088541030884
-32.673824310303 -76.955497741699 -64.345695495605 2.522846698761
-28.434139251709 -80.574295043945 -68.175483703613 2.395779132843
-88.250869750977 -80.727272033691 -76.399299621582 5.331192016602
83.369003295898 -80.104141235352 -82.998596191406 2.102274656296
-35.625671386719 -76.179924011230 -83.844085693359 2.492182970047
81.342491149902 -82.501029968262 -84.723297119141 4.149673938751
78.478881835938 -78.462913513184 -87.635993957520 2.430622339249
84.007499694824 -77.329017639160 -83.774589538574 1.384239673615
85.801002502441 -74.580848693848 -89.219833374023 4.445662498474
88.618103027344 -76.086898803711 -93.511077880859 0.893421351910
-91.878593444824 -76.112686157227 -90.691917419434 2.328584432602
55.835201263428 -77.946731567383 -103.726074218750 2.551727533340
-99.119621276855 -67.101486206055 -108.480590820313 3.003023147583
46.911842346191 -81.032752990723 -105.029182434082 2.773838043213
49.346652984619 -78.942115783691 -111.344696044922 1.679623961449
36.484035491943 -76.443237304688 -112.494071960449 2.893375873566
33.542282104492 -78.078636169434 -136.732009887695 1.858983397484
25.792142868042 -76.570800781250 -139.128051757813 1.340201735497
20.264333724976 -69.672431945801 -141.460250854492 3.661259174347
31.335815429688 -72.556365966797 -140.524353027344 1.873451352119
-47.104812622070 -81.541465759277 -151.586410522461 2.735225677490
-51.122043609619 -80.063392639160 -148.716384887695 3.463998794556
-41.968120574951 -77.087417602539 -156.406143188477 1.937186956406
21.063280105591 -74.488220214844 -153.155258178711 1.766686439514
29.814916610718 -75.569435119629 -166.238494873047 1.922908425331
-34.354774475098 -73.695297241211 -167.249679565430 1.638611912727
-36.922698974609 -71.881668090820 -156.214462280273 1.702648758888
-47.211311340332 -81.171989440918 -157.258758544922 2.643831729889
0.158021003008 -74.011520385742 -161.038146972656 1.756370902061
23.879512786865 -78.061973571777 -148.210113525391 2.187337875366
32.197963714600 -72.328895568848 -157.110366821289 1.702537417412
28.189863204956 -74.574615478516 -168.948318481445 0.772618830204
-6.563970088959 -76.640541076660 -170.866043090820 0.455510377884
-6.943309783936 -78.683425903320 -168.475204467773 1.570356607437
-59.955547332764 -75.829559326172 -163.463256835938 2.080715179443
-62.259719848633 -77.674804687500 -168.986328125000 2.041602611542
-46.172824859619 -79.552345275879 -166.843795776367 1.844973802567
-39.046321868896 -75.648521423340 -165.204772949219 2.839429378510
19.834304809570 -70.952651977539 -168.606582641602 2.644346475601
-25.087265014648 -82.573379516602 -176.183074951172 3.155684709549
-30.957084655762 -73.719520568848 -179.512725830078 1.776379585266
-64.567626953125 -82.477325439453 -176.849136352539 5.681139469147
94.936813354492 -77.435211181641 -180.656509399414 8.629543304443
19.970092773438 -81.052993774414 -174.217941284180 2.326246500015
-26.975900650024 -77.272048950195 -177.403793334961 1.571539044380
-53.485130310059 -78.160797119141 -175.083938598633 0.436765313148
-23.725378036499 -73.348899841309 -178.533325195313 2.108121156693
112.052459716797 -75.469680786133 -181.389495849609 1.109653830528
-58.451526641846 -80.371627807617 -183.280471801758 2.411676645279
9.975226402283 -79.139259338379 -189.446670532227 4.698731899261
14.535379409790 -76.770401000977 -176.276901245117 3.554434537888
-57.320018768311 -84.834648132324 -173.922943115234 4.923026561737
-26.558412551880 -75.725753784180 -180.413619995117 2.158297777176
-57.301948547363 -82.274986267090 -175.093353271484 2.995862960815
-38.088287353516 -80.291641235352 -173.916671752930 3.811361789703
-30.546354293823 -77.468063354492 -185.254531860352 0.987504184246
17.566341400146 -77.210006713867 -186.867813110352 1.461554646492
-48.991519927979 -79.889633178711 -186.321716308594 1.524633049965
101.754013061523 -74.103073120117 -188.867340087891 1.705054402351
-52.080577850342 -73.683303833008 -186.681594848633 1.604642510414
4.366857051849 -75.896957397461 -201.164062500000 4.379486083984
19.701993942261 -75.034141540527 -196.031784057617 1.668775677681
-51.472862243652 -78.060562133789 -189.275466918945 2.174952507019
-16.792573928833 -78.293418884277 -186.760772705078 2.485276699066
97.390281677246 -75.106895446777 -193.170440673828 2.260252237320
93.639335632324 -80.311889648438 -193.431381225586 7.827584266663
-52.200984954834 -76.312271118164 -183.730773925781 1.523102641106
-151.657669067383 -86.616508483887 -197.167663574219 5.311198711395
-47.045417785645 -77.326965332031 -193.122070312500 2.008655071259
-146.452575683594 -80.413734436035 -193.462493896484 1.255496382713
-136.402145385742 -74.430572509766 -193.353698730469 3.052350282669
-48.993247985840 -81.432754516602 -193.086669921875 2.642171144485
7.786147117615 -78.882240295410 -204.619216918945 2.563708305359
-17.471647262573 -73.816154479980 -202.811355590820 3.216898202896
14.476726531982 -73.451004028320 -198.698471069336 2.638784646988
89.753723144531 -80.185852050781 -212.286727905273 2.885336160660
-36.073730468750 -75.312828063965 -200.250747680664 2.972261190414
-16.928020477295 -74.449554443359 -200.546813964844 2.051809549332
-19.094192504883 -74.051895141602 -212.398651123047 0.817143738270
-36.353298187256 -75.883102416992 -200.956085205078 2.667024612427
3.393954992294 -77.151214599609 -204.301544189453 2.827856540680
-82.056243896484 -80.020744323730 -208.145172119141 4.053089618683
14.822608947754 -77.678169250488 -213.216491699219 1.901291370392
-36.781154632568 -76.224075317383 -202.875091552734 2.055842399597
-147.026931762695 -84.369461059570 -203.279968261719 1.615705490112
-142.601409912109 -74.966201782227 -206.566650390625 2.211823463440
-90.491333007813 -79.042144775391 -209.897979736328 4.455932140350
-36.655426025391 -74.797378540039 -206.223953247070 1.450244545937
-14.044924736023 -82.913429260254 -209.925888061523 1.593365907669
-36.041431427002 -78.754974365234 -202.051574707031 0.778585314751
-92.397262573242 -81.624542236328 -214.248855590820 4.435279846191
-88.366134643555 -80.558921813965 -210.165832519531 3.049186944962
3.832077026367 -83.493988037109 -218.529663085938 5.471403598785
-151.356704711914 -72.673278808594 -208.740310668945 1.511006116867
-16.973838806152 -81.790214538574 -210.047378540039 2.818378210068
7.564067840576 -84.397308349609 -217.088867187500 4.088365077972
-146.113616943359 -77.484306335449 -217.245162963867 1.809896945953
-25.694553375244 -79.035064697266 -212.672225952148 1.805705189705
0.095798000693 -71.311874389648 -217.036788940430 2.488531827927
-11.346375465393 -77.872680664063 -217.642898559570 0.830043196678
-154.575042724609 -74.178848266602 -219.664428710938 1.207796335220
-142.727447509766 -66.971855163574 -222.826873779297 2.303252220154
-5.512196063995 -76.980743408203 -224.301391601563 2.314362049103
-149.962799072266 -84.771629333496 -223.305007934570 2.099620819092
-1.244279980659 -70.949279785156 -226.783370971680 1.394664406776
15.830483436584 -75.062629699707 -234.142807006836 0.987580478191
-4.471323966980 -79.931900024414 -226.691650390625 1.319888353348
-4.743233203888 -69.842803955078 -229.267929077148 0.911687195301
6.821143150330 -74.323081970215 -229.505996704102 1.142581105232
-154.827255249023 -79.835594177246 -237.083282470703 4.700468063354
-21.872043609619 -73.927154541016 -230.140365600586 4.742947101593
-36.463047027588 -79.630073547363 -236.094451904297 3.706023454666
-1.428745031357 -74.930778503418 -233.048309326172 2.232990503311
1.950536966324 -82.618080139160 -241.924728393555 4.842953681946
-1.015957951546 -74.251983642578 -230.488769531250 3.038754940033
-61.531940460205 -76.744613647461 -239.432891845703 5.772211551666
-150.969619750977 -74.170852661133 -246.425018310547 1.654191374779
-155.841888427734 -78.517257690430 -243.946929931641 3.375656127930
10.298053741455 -78.135749816895 -245.101593017578 1.930316805840
24.126901626587 -78.571968078613 -243.708328247070 2.955799579620
-63.827087402344 -73.486251831055 -244.282714843750 1.332089781761
-143.727279663086 -83.838172912598 -248.849380493164 3.157327890396
-155.569183349609 -82.623039245605 -251.306121826172 3.180055856705
-157.106872558594 -82.625175476074 -253.476043701172 2.646510839462
-145.567413330078 -74.894134521484 -259.128448486328 1.214179635048
-144.929443359375 -79.644859313965 -253.196197509766 1.423961400986
-7.984279155731 -78.411659240723 -253.692138671875 0.887386023998
-148.104019165039 -79.871414184570 -258.531402587891 2.614738702774
-17.240930557251 -77.219367980957 -266.664672851563 4.500577449799
-149.973846435547 -76.606315612793 -267.344055175781 1.716366529465
-150.587524414063 -77.359939575195 -278.941162109375 0.782660722733
-150.124984741211 -75.731773376465 -281.183502197266 2.222924947739
-6.219337940216 -70.493347167969 -282.882232666016 1.335867643356
-152.139602661133 -73.525154113770 -278.895416259766 2.688233375549
-26.753416061401 -78.080978393555 -283.539306640625 2.675103902817
-27.279340744019 -72.539085388184 -281.947265625000 3.593298912048
-15.337198257446 -72.398338317871 -292.338317871094 1.317276954651
-17.745475769043 -72.024269104004 -291.550262451172 1.169316291809
8.939868927002 -78.330810546875 -288.851776123047 1.395925998688
-127.280433654785 -79.981773376465 -287.196502685547 4.020698070526
-65.231063842773 -77.245979309082 -283.957855224609 3.760174512863
-45.054855346680 -72.411842346191 -287.950927734375 1.488975048065
-36.003356933594 -76.869903564453 -284.647552490234 1.935769915581
-10.920417785645 -73.041473388672 -292.291717529297 1.800759077072
3.351005077362 -76.913291931152 -285.399536132813 1.319438695908
-143.755462646484 -77.961334228516 -295.699981689453 3.489790439606
8.860927581787 -75.828903198242 -294.711669921875 3.231263160706
-156.680084228516 -74.532005310059 -299.742126464844 2.711083412170
-157.542633056641 -83.068435668945 -298.035552978516 4.822744369507
-156.282150268555 -72.534957885742 -309.217132568359 1.056809186935
-144.692550659180 -76.344741821289 -305.890777587891 1.381770730019
-52.040870666504 -78.892189025879 -46.495441436768 8.184119224548
-54.126964569092 -83.745353698730 -53.564380645752 7.343105316162
-69.347930908203 -76.829635620117 -51.496315002441 3.721801757813
-40.722522735596 -75.968124389648 -60.534664154053 0.913481354713
-36.192180633545 -78.995010375977 -56.785068511963 3.903721809387
-19.503801345825 -77.305870056152 -68.424873352051 1.291996002197
-82.240768432617 -75.590484619141 -66.543159484863 1.322248220444
84.995521545410 -77.171119689941 -76.573486328125 2.741356134415
-92.170700073242 -77.024444580078 -69.037857055664 5.094236373901
78.687034606934 -73.879356384277 -74.315391540527 1.690417051315
87.640342712402 -70.708374023438 -82.639244079590 4.772748947144
97.755241394043 -72.636795043945 -88.885185241699 1.530849695206
-62.686824798584 -81.081420898438 -93.957473754883 2.983897447586
80.687294006348 -78.293914794922 -95.105911254883 2.260420084000
75.073898315430 -82.096817016602 -88.632339477539 6.591142654419
85.161468505859 -76.014274597168 -88.605369567871 3.224073648453
-59.290012359619 -78.001007080078 -94.708351135254 2.655240774155
46.602802276611 -74.247138977051 -96.183616638184 2.317873239517
44.496589660645 -75.682304382324 -104.416114807129 1.427735209465
37.986251831055 -77.718925476074 -101.140907287598 4.887591838837
34.332103729248 -77.384185791016 -98.096870422363 9.364063262939
-93.447372436523 -73.427566528320 -98.941238403320 4.032927513123
33.906406402588 -74.341323852539 -115.064422607422 2.292191505432
-86.090606689453 -78.731582641602 -103.455558776855 1.813043355942
38.403732299805 -77.648002624512 -126.165382385254 1.626762866974
30.997070312500 -77.663238525391 -118.154098510742 2.644089221954
32.861522674561 -67.384628295898 -118.987014770508 3.710451602936
43.650943756104 -73.697227478027 -114.649955749512 1.888756155968
40.643783569336 -79.638610839844 -126.457687377930 1.850164890289
-52.221397399902 -70.286277770996 -132.054458618164 1.545265197754
36.709091186523 -81.546684265137 -131.641876220703 3.651862621307
34.111911773682 -75.818923950195 -142.396560668945 2.839393854141
-58.112506866455 -75.356445312500 -141.928100585938 1.823567867279
-45.586174011230 -77.688232421875 -137.235473632813 1.194364905357
33.669837951660 -73.985641479492 -139.933029174805 1.537735700607
108.737243652344 -69.137832641602 -138.400314331055 3.173558235168
110.528556823730 -70.359703063965 -145.637542724609 1.819490790367
25.122056961060 -78.001426696777 -138.524566650391 2.008751392365
-41.137565612793 -80.452140808105 -147.150375366211 3.170175552368
116.613739013672 -83.072143554688 -150.418991088867 6.163719177246
-37.941402435303 -74.517028808594 -149.507873535156 3.003114700317
-69.248199462891 -75.965194702148 -160.341323852539 1.700630545616
109.225440979004 -80.108398437500 -152.651687622070 3.582766532898
21.145795822144 -77.268302917480 -164.700836181641 2.633900165558
-0.309157013893 -77.003707885742 -160.164642333984 2.071509361267
109.374961853027 -74.840789794922 -149.834716796875 0.833136916161
-65.693305969238 -76.642150878906 -163.762390136719 1.572829604149
-40.591342926025 -78.477325439453 -163.915542602539 1.908939480782
109.554428100586 -75.790351867676 -163.174224853516 0.918826639652
25.630296707153 -69.595863342285 -156.082427978516 2.235886096954
-62.913223266602 -69.477699279785 -160.911987304688 3.168866634369
111.616111755371 -74.835784912109 -163.764831542969 1.539905309677
-67.089553833008 -78.674476623535 -166.087127685547 2.874494791031
-49.792480468750 -80.108757019043 -180.479095458984 0.862325966358
104.589698791504 -73.945640563965 -169.231811523438 2.780114889145
-61.033451080322 -75.225189208984 -170.026458740234 0.643272340298
111.320121765137 -73.004302978516 -176.836059570313 1.569954872131
-63.221073150635 -75.650726318359 -173.964782714844 0.531335890293
-17.947809219360 -73.123886108398 -174.774108886719 2.909114837646
-10.753821372986 -82.332481384277 -180.693984985352 3.172355890274
106.206649780273 -76.859458923340 -163.545730590820 3.098152875900
20.195085525513 -77.404899597168 -168.694656372070 2.014796733856
29.627616882324 -69.630653381348 -166.292160034180 3.163354635239
-60.018054962158 -75.747848510742 -174.733459472656 2.573797702789
15.379353523254 -73.266204833984 -179.163513183594 1.467211961746
-58.943309783936 -77.891830444336 -171.356979370117 1.593982577324
-54.392917633057 -74.654823303223 -192.663879394531 3.426378488541
8.378989219666 -72.890281677246 -182.715667724609 4.848629474640
-57.051414489746 -70.802497863770 -176.063461303711 2.322618484497
104.226905822754 -71.003974914551 -187.357406616211 1.748970985413
24.998207092285 -79.059455871582 -179.863220214844 1.626620650291
-37.482997894287 -73.399658203125 -185.348526000977 3.031231403351
-44.819141387939 -79.566337585449 -186.463714599609 1.585641384125
9.710316658020 -78.490921020508 -188.475494384766 4.798170566559
-21.762792587280 -77.449356079102 -184.580459594727 0.826828122139
-48.513763427734 -78.063415527344 -193.156936645508 1.554988026619
99.958465576172 -79.328193664551 -180.248458862305 4.036225795746
6.730545997620 -80.033538818359 -187.649246215820 7.658260345459
-133.483413696289 -85.191101074219 -197.448822021484 3.837581396103
-51.742366790771 -78.988174438477 -193.254562377930 2.295503854752
92.272438049316 -73.110565185547 -196.662948608398 4.069921493530
-151.684280395508 -84.344985961914 -199.417678833008 2.198294878006
16.644626617432 -75.977966308594 -199.179519653320 0.585110664368
-45.555553436279 -72.475852966309 -203.411437988281 2.774101018906
-31.381399154663 -79.704994201660 -205.148513793945 1.189327597618
-38.938755035400 -77.717727661133 -197.832809448242 1.950572490692
-47.780807495117 -84.215087890625 -195.562957763672 2.216268301010
99.212127685547 -73.779212951660 -203.303375244141 2.095815181732
-23.119733810425 -81.021911621094 -196.974746704102 2.042124748230
-151.948135375977 -78.086853027344 -196.755599975586 1.243174314499
14.072413444519 -78.670089721680 -198.208190917969 1.390184640884
-79.112304687500 -81.765365600586 -202.050827026367 5.396281242371
-144.353149414063 -75.019630432129 -211.349182128906 1.628574252129
91.551933288574 -77.254547119141 -212.569946289063 0.834454774857
-34.871593475342 -74.420021057129 -204.193374633789 1.935794591904
-30.615020751953 -76.901077270508 -207.529632568359 1.457531809807
8.653175354004 -76.001899719238 -207.145965576172 2.294156312943
-73.574432373047 -81.861694335938 -203.743362426758 3.503090858459
-28.223735809326 -85.695663452148 -202.262542724609 7.899248123169
-10.762179374695 -77.638328552246 -214.939392089844 0.802730679512
-70.978042602539 -77.641174316406 -211.003829956055 1.726499915123
-15.677275657654 -76.430458068848 -214.959014892578 2.283099651337
5.671227931976 -65.734542846680 -208.195327758789 5.487901210785
9.937400817871 -78.800186157227 -219.214950561523 1.364658355713
-154.103286743164 -80.314483642578 -214.873138427734 5.234334945679
-11.235969543457 -75.772224426270 -211.437179565430 2.279638051987
-105.054687500000 -73.189498901367 -216.802368164063 2.698519229889
-23.864240646362 -75.589042663574 -216.589294433594 0.944901466370
86.291191101074 -81.155967712402 -210.230010986328 6.175531864166
8.014893531799 -72.986122131348 -221.484420776367 1.132882475853
20.577096939087 -75.134529113770 -213.803237915039 3.454191207886
77.836593627930 -76.448760986328 -210.348373413086 7.416672229767
-0.365002006292 -80.862846374512 -228.130538940430 2.139488935471
83.302581787109 -74.900505065918 -214.457550048828 2.466444969177
-23.934034347534 -70.700660705566 -222.327484130859 1.504212379456
14.949370384216 -71.245025634766 -215.445220947266 1.576419353485
-150.985275268555 -79.616539001465 -214.537094116211 3.050315618515
-29.229976654053 -77.605506896973 -223.961288452148 1.204599976540
0.145659998059 -71.925933837891 -229.117233276367 1.546686172485
-158.455307006836 -84.348846435547 -221.539566040039 7.350191593170
-139.538406372070 -81.717109680176 -224.586074829102 2.725061893463
0.318888008595 -75.143379211426 -220.225708007813 2.537577390671
-5.515585899353 -71.246566772461 -220.945053100586 3.396399259567
-139.380218505859 -73.452262878418 -225.394271850586 1.669273257256
-149.514984130859 -77.975669860840 -240.195114135742 2.438462972641
-151.226699829102 -78.733940124512 -232.296127319336 1.077113628387
-33.191848754883 -77.524185180664 -233.659393310547 4.117307662964
-143.092529296875 -81.804954528809 -240.382385253906 1.245354413986
12.440019607544 -77.090141296387 -238.800415039063 2.384658336639
4.048941135406 -74.752410888672 -242.630661010742 1.412120699883
-152.925827026367 -71.242202758789 -235.348007202148 1.378186702728
-151.731384277344 -77.089149475098 -242.026626586914 2.982248544693
-46.974952697754 -78.493850708008 -243.960510253906 1.212303996086
-33.527732849121 -76.558197021484 -244.953826904297 1.839293360710
1.957013010979 -74.848205566406 -239.204177856445 1.451869130135
-37.377841949463 -78.370666503906 -242.677291870117 1.598059654236
19.845474243164 -75.185371398926 -243.749969482422 2.088114500046
-8.057973861694 -77.890251159668 -251.048126220703 1.467088699341
-145.002639770508 -78.955703735352 -249.875762939453 0.690365254879
-12.310788154602 -81.468307495117 -250.881027221680 5.527019023895
-150.665863037109 -74.997505187988 -242.533065795898 2.336723089218
-66.577964782715 -78.879913330078 -247.578445434570 1.890113711357
-148.005691528320 -85.276542663574 -255.682342529297 1.139594435692
-129.760726928711 -77.528244018555 -254.802886962891 3.753822326660
-155.667221069336 -78.071929931641 -253.040710449219 2.738818168640
-11.919960021973 -72.450561523438 -265.098449707031 2.103574037552
-147.355438232422 -84.773338317871 -270.782806396484 1.630398869514
-150.880599975586 -78.005378723145 -266.936828613281 2.941660404205
-14.165146827698 -75.472648620605 -268.427032470703 1.660581588745
-145.580429077148 -77.721450805664 -266.557739257813 1.579258561134
-8.988200187683 -73.370834350586 -273.290100097656 4.491397857666
-47.426376342773 -74.795692443848 -280.430725097656 4.270431041718
-137.150146484375 -73.906738281250 -285.154449462891 2.088910341263
-138.173294067383 -76.663619995117 -282.554077148438 4.249385356903
-124.425666809082 -72.922103881836 -277.427368164063 7.292915821075
-53.405029296875 -74.800926208496 -283.335540771484 3.323077678680
-113.119064331055 -75.478279113770 -279.606903076172 6.693451881409
14.713607788086 -73.681640625000 -290.658905029297 1.530731678009
-58.126251220703 -73.331573486328 -285.577850341797 2.660001039505
-142.487564086914 -76.947494506836 -290.742004394531 1.249970316887
-65.498908996582 -74.365249633789 -287.683105468750 1.535229206085
-147.007369995117 -83.321128845215 -291.016937255859 1.376619338989
-118.140525817871 -73.582763671875 -288.044036865234 1.328145861626
-47.361148834229 -78.853500366211 -287.514251708984 3.183871030807
-34.899917602539 -75.218276977539 -289.000885009766 1.935045957565
-140.818283081055 -71.535789489746 -294.112335205078 2.519306898117
-16.821697235107 -68.400909423828 -277.728698730469 4.702939987183
3.877368927002 -74.081893920898 -283.853576660156 2.271801233292
4.944547176361 -72.487617492676 -287.459991455078 2.439261436462
13.555828094482 -75.524124145508 -293.484100341797 0.668850183487
-151.525878906250 -82.579132080078 -295.474090576172 2.679807901382
-146.032684326172 -74.300552368164 -288.386779785156 2.517461061478
-66.517562866211 -75.809013366699 -59.841178894043 1.270849347115
88.518569946289 -77.827667236328 -69.733261108398 3.557701826096
77.992980957031 -77.187393188477 -75.477684020996 2.845575332642
-29.087545394897 -80.415046691895 -73.653694152832 1.188155412674
82.521759033203 -73.881469726563 -71.825942993164 1.437735199928
-39.454750061035 -80.693260192871 -76.982582092285 2.890055894852
80.523460388184 -70.727767944336 -80.484771728516 5.068855762482
96.011657714844 -70.588943481445 -77.112686157227 2.465388298035
-65.461631774902 -71.221221923828 -93.639930725098 1.812399029732
71.109367370605 -76.357872009277 -92.162689208984 2.187705039978
78.752815246582 -72.796829223633 -95.540222167969 1.537367343903
96.904876708984 -78.677810668945 -93.300788879395 2.971584320068
54.409175872803 -78.147773742676 -94.330245971680 2.831861495972
-65.971336364746 -73.916442871094 -98.372032165527 2.436115026474
-74.788154602051 -73.920997619629 -97.956214904785 2.747609376907
50.078186035156 -78.252944946289 -100.660072326660 2.066432952881
-87.885192871094 -79.301818847656 -98.551147460938 3.878048896790
46.690650939941 -71.792190551758 -115.822479248047 1.799626588821
109.610794067383 -73.840484619141 -118.104263305664 1.800044059753
112.114181518555 -77.009857177734 -127.814857482910 2.165821075439
18.048351287842 -73.292442321777 -134.041275024414 7.944255352020
109.223396301270 -76.801719665527 -124.682044982910 2.119478464127
28.016380310059 -72.345687866211 -130.487152099609 1.837185978889
111.404106140137 -67.423004150391 -130.750671386719 2.104508876801
35.559825897217 -72.517822265625 -132.102828979492 0.649676382542
-58.698734283447 -75.909553527832 -136.854187011719 1.144250154495
35.471969604492 -80.326103210449 -143.710037231445 2.367990016937
107.433235168457 -72.175018310547 -131.694427490234 2.346755981445
-46.172023773193 -74.367523193359 -140.766708374023 1.801737308502
30.784215927124 -73.513183593750 -148.200851440430 2.178594589233
-58.147804260254 -70.114601135254 -138.747360229492 0.729809641838
-61.746181488037 -76.209724426270 -140.970413208008 2.566106081009
-54.254718780518 -80.319267272949 -147.346298217773 2.396016120911
-65.412979125977 -80.004325866699 -152.757186889648 3.520062208176
110.105110168457 -79.299591064453 -144.646209716797 3.183218717575
-50.755187988281 -84.232192993164 -152.528915405273 6.000926971436
22.299757003784 -81.291877746582 -154.345199584961 2.389903068542
106.026748657227 -74.967681884766 -161.198593139648 2.520321130753
-66.225181579590 -76.827354431152 -151.337661743164 1.238541364670
-43.763629913330 -77.668380737305 -154.792938232422 1.455626130104
7.980546951294 -73.009223937988 -151.591018676758 3.286548852921
-69.795173645020 -77.514930725098 -150.939788818359 3.250307798386
-65.846435546875 -79.961791992188 -154.991912841797 2.377230405807
-0.508695006371 -75.771102905273 -159.748870849609 2.386652708054
-45.867370605469 -71.607299804688 -165.121154785156 0.741573929787
27.204427719116 -72.615959167480 -165.556442260742 1.327162623405
-64.857574462891 -71.618354797363 -165.885147094727 1.987072587013
-56.873283386230 -78.936912536621 -163.300262451172 3.900276422501
12.613903045654 -79.391326904297 -157.048065185547 4.279586315155
-31.278326034546 -74.568542480469 -165.412948608398 2.808647155762
-29.425243377686 -79.028587341309 -163.606430053711 3.041681528091
13.343476295471 -76.993324279785 -172.069168090820 4.493132114410
-45.507209777832 -79.650573730469 -170.160369873047 3.099046945572
-11.416060447693 -77.532722473145 -169.455703735352 1.687815308571
-68.203628540039 -72.711265563965 -168.283004760742 2.803371667862
-9.290258407593 -72.867996215820 -171.925308227539 1.945259690285
-22.656642913818 -75.847091674805 -177.073348999023 1.114632010460
20.634174346924 -71.582885742188 -182.031967163086 2.966589689255
-40.052047729492 -78.384628295898 -169.585556030273 0.843534231186
20.206754684448 -70.449012756348 -172.489990234375 1.466672420502
-24.181417465210 -71.591674804688 -183.341857910156 1.503445029259
-33.268714904785 -79.008453369141 -174.214828491211 1.282567858696
-149.895706176758 -74.133865356445 -190.231491088867 1.926667094231
-18.285875320435 -80.972984313965 -180.678207397461 1.665451407433
-141.259628295898 -75.676681518555 -186.644195556641 1.205937147141
-155.989242553711 -78.440505981445 -183.999572753906 7.627946376801
-51.541393280029 -74.088737487793 -186.154556274414 1.198640823364
97.004074096680 -73.045127868652 -192.609024047852 2.466070890427
-146.325485229492 -79.168937683105 -186.812408447266 2.421501636505
-146.197387695313 -74.988609313965 -192.359130859375 2.121155738831
21.525518417358 -72.715896606445 -193.344772338867 2.473910331726
-140.449310302734 -78.217308044434 -192.521545410156 1.426245689392
11.057652473450 -70.452369689941 -196.618225097656 2.184361219406
-138.981140136719 -81.120056152344 -196.796081542969 2.190032958984
11.763612747192 -70.381278991699 -195.236068725586 1.773990511894
-133.966323852539 -73.464935302734 -191.605804443359 3.640890121460
3.208409070969 -70.851905822754 -198.724761962891 4.368137359619
-153.783554077148 -77.712135314941 -198.509735107422 2.510995149612
94.283950805664 -73.649513244629 -204.661697387695 2.130612373352
-18.623722076416 -78.271781921387 -206.724411010742 2.210396766663
-31.977178573608 -74.279342651367 -206.355529785156 1.701028585434
-14.036637306213 -69.246414184570 -202.333755493164 2.441708564758
-146.016326904297 -82.826026916504 -207.256958007813 2.694664239883
-36.907749176025 -75.686988830566 -199.864837646484 2.705802440643
-85.922821044922 -78.788864135742 -199.208099365234 12.001116752625
-28.247337341309 -77.172607421875 -205.252655029297 1.736660838127
12.421845436096 -75.469383239746 -211.821746826172 3.199649333954
-147.612030029297 -74.514785766602 -212.295425415039 1.850582599640
-90.135566711426 -79.247978210449 -216.816238403320 2.622233867645
-30.601884841919 -74.025825500488 -217.878204345703 1.376389622688
-29.114873886108 -75.438301086426 -218.280395507813 2.574273586273
-8.650918960571 -77.202629089355 -205.724746704102 3.469068050385
-28.724100112915 -74.599296569824 -204.242477416992 3.003907918930
-86.128448486328 -76.702323913574 -219.620758056641 2.496535062790
-91.876922607422 -82.742126464844 -217.046157836914 5.337786674500
-24.131076812744 -74.352996826172 -219.352249145508 1.219840407372
-3.199631929398 -84.836769104004 -223.037017822266 4.820655822754
-158.816085815430 -80.217201232910 -214.014007568359 7.149393558502
-3.863205909729 -76.689216613770 -219.407073974609 0.675585389137
86.969261169434 -78.679336547852 -225.965774536133 3.327400922775
-140.149719238281 -80.021759033203 -219.529083251953 5.052557468414
-4.310667991638 -75.548400878906 -218.006835937500 0.713490784168
-140.300872802734 -78.984802246094 -222.304367065430 3.168738842010
-148.442932128906 -86.030700683594 -221.535827636719 2.347484827042
-7.017351150513 -73.840805053711 -225.170104980469 2.109825611115
21.346059799194 -76.037879943848 -210.322601318359 3.221729516983
-139.996795654297 -74.838973999023 -226.021194458008 1.410410284996
-19.765016555786 -77.258903503418 -224.682312011719 1.008214473724
69.464370727539 -75.011741638184 -222.489196777344 7.240067958832
72.978797912598 -74.143760681152 -232.008712768555 2.265627622604
9.603601455688 -77.201522827148 -227.033706665039 2.488964319229
-36.833347320557 -76.642021179199 -232.569915771484 6.427620410919
-26.184846878052 -84.209091186523 -239.983764648438 5.626048564911
0.586507022381 -72.830314636230 -240.459472656250 1.597409248352
-48.064857482910 -70.111511230469 -240.920120239258 2.871292829514
-21.941883087158 -72.496261596680 -240.068283081055 1.066872596741
9.214793205261 -70.797172546387 -235.149230957031 1.056747555733
-64.543907165527 -76.304145812988 -242.597290039063 3.640909433365
-38.609325408936 -81.230072021484 -241.126388549805 2.044367551804
-39.084316253662 -73.985610961914 -242.616058349609 1.159821033478
-148.945770263672 -74.226448059082 -242.458511352539 1.492956876755
-45.856216430664 -78.891899108887 -245.854492187500 2.363878965378
-53.954078674316 -66.424560546875 -244.003021240234 5.960379600525
-66.935256958008 -75.341651916504 -245.472885131836 1.757903814316
-11.783913612366 -80.167732238770 -242.127822875977 6.571300506592
-79.918884277344 -77.652580261230 -252.655456542969 1.614944815636
-158.258453369141 -84.043388366699 -249.480010986328 5.297412872314
-141.643249511719 -75.029266357422 -249.574661254883 3.512357473373
-122.018241882324 -78.556022644043 -254.742538452148 3.949059963226
-161.052810668945 -73.358673095703 -253.690002441406 1.424246430397
17.231277465820 -81.985656738281 -264.579040527344 2.543090105057
-16.464031219482 -77.378829956055 -266.208038330078 4.425175189972
-157.246978759766 -79.985519409180 -271.437805175781 1.847482681274
-154.549972534180 -84.405090332031 -275.503173828125 2.753740310669
-147.711502075195 -78.832572937012 -282.527587890625 1.761991381645
-60.455043792725 -69.766860961914 -275.575927734375 9.564200401306
-40.445659637451 -68.480422973633 -282.276580810547 4.608955860138
-18.708118438721 -71.735847473145 -287.134643554688 3.358606576920
-10.111676216125 -69.565643310547 -274.429443359375 3.529486417770
-67.770240783691 -79.044769287109 -281.654663085938 4.473824501038
-82.815231323242 -80.848899841309 -282.745056152344 5.183977603912
-3.128899097443 -75.367630004883 -278.690948486328 3.064985036850
0.509212970734 -75.877891540527 -290.200805664063 2.455584287643
-142.143783569336 -74.724716186523 -281.820434570313 3.425904273987
-82.716690063477 -71.430374145508 -282.235137939453 4.810162067413
-148.439529418945 -75.067253112793 -283.819549560547 2.058742523193
-96.011512756348 -86.340591430664 -281.667449951172 11.135276794434
-80.308158874512 -74.740486145020 -281.761505126953 3.460921525955
-88.043777465820 -72.170364379883 -293.495300292969 2.484720468521
-65.223258972168 -74.588874816895 -288.975799560547 2.042238473892
-33.117042541504 -66.840110778809 -292.904266357422 5.164645671844
-10.937082290649 -73.693771362305 -287.306732177734 1.841648459435
-152.140319824219 -68.276321411133 -296.698547363281 0.405104517937
-149.686874389648 -73.490562438965 -297.563934326172 0.763617634773
-144.991775512695 -74.291839599609 -302.575347900391 2.211338043213
-159.961059570313 -75.830039978027 -300.869140625000 5.165053367615
-57.138641357422 -72.646820068359 -53.369884490967 2.735453128815
-49.771350860596 -76.381561279297 -49.865020751953 4.389412879944
-40.559272766113 -78.814102172852 -50.379150390625 5.662234783173
-78.479469299316 -80.547561645508 -60.161586761475 5.877369880676
-30.360807418823 -74.711166381836 -62.429603576660 3.541854143143
-36.447349548340 -75.386337280273 -76.982803344727 0.784455358982
73.256759643555 -79.437553405762 -81.142105102539 5.117597103119
74.139633178711 -74.743385314941 -76.438293457031 2.641889333725
70.972030639648 -71.475181579590 -80.690933227539 1.321326136589
100.019233703613 -69.948760986328 -87.968261718750 1.336448192596
66.444824218750 -77.446319580078 -86.446868896484 5.194822311401
46.018196105957 -78.672851562500 -85.422790527344 8.704761505127
51.899620056152 -81.324752807617 -99.272163391113 4.282892227173
-67.237869262695 -74.464233398438 -99.630958557129 3.572715997696
-75.659713745117 -71.854652404785 -99.591850280762 1.534607529640
43.892627716064 -76.384117126465 -100.408065795898 1.531139492989
-82.888839721680 -82.883750915527 -107.474914550781 2.103892803192
-93.725341796875 -74.741210937500 -106.934020996094 2.361247777939
50.326156616211 -74.719116210938 -106.500297546387 2.307494878769
106.305343627930 -72.548820495605 -114.498214721680 1.557867050171
32.296031951904 -76.962715148926 -124.128524780273 2.031651973724
41.020206451416 -76.632904052734 -115.935440063477 1.807314872742
38.470455169678 -72.715682983398 -119.713500976563 2.611621856689
29.170379638672 -76.802337646484 -118.817710876465 3.693966150284
108.334846496582 -73.782264709473 -119.169479370117 1.738292932510
38.164878845215 -78.166793823242 -129.573730468750 2.855833292007
34.499279022217 -69.821861267090 -130.113586425781 1.778776288033
-44.994697570801 -74.112228393555 -138.572387695313 1.253618001938
-70.708702087402 -80.103782653809 -139.713058471680 5.481320858002
-53.711639404297 -74.728569030762 -147.052703857422 1.748641133308
-76.519996643066 -81.835014343262 -142.918441772461 6.636252403259
-38.915740966797 -75.495155334473 -145.127105712891 4.883793830872
104.386779785156 -74.458580017090 -155.385437011719 5.779954910278
-72.782653808594 -78.790374755859 -153.728332519531 1.140580534935
22.286678314209 -81.020774841309 -143.059783935547 5.144265651703
26.467647552490 -77.755905151367 -146.252563476563 0.662684917450
109.318534851074 -77.213333129883 -161.071960449219 2.380291461945
8.817797660828 -78.966598510742 -156.596542358398 2.197321653366
32.422042846680 -71.452735900879 -152.765197753906 2.303548812866
-63.592979431152 -79.116180419922 -156.583206176758 0.187421888113
-40.800846099854 -78.031257629395 -171.925094604492 1.966494679451
20.933179855347 -74.878341674805 -160.514480590820 1.391185402870
-66.740364074707 -74.984382629395 -152.177795410156 1.442411065102
-71.776008605957 -75.960327148438 -162.790512084961 3.568307638168
114.284812927246 -75.790809631348 -163.797668457031 2.089453458786
-9.664334297180 -77.078643798828 -161.585098266602 5.412199497223
-67.672363281250 -73.891212463379 -167.894638061523 2.268227577209
-37.385704040527 -77.983451843262 -163.289703369141 1.943275332451
-55.305713653564 -74.407394409180 -168.289657592773 3.607616186142
29.842914581299 -73.342094421387 -173.723602294922 2.701519012451
110.406898498535 -69.913948059082 -170.287918090820 0.681613326073
100.761734008789 -71.199165344238 -180.871292114258 3.742114067078
102.927017211914 -72.394538879395 -186.813629150391 2.707771778107
105.093223571777 -70.045204162598 -173.184768676758 2.164189577103
-52.123786926270 -73.720497131348 -190.098526000977 2.076414823532
-48.298267364502 -71.475051879883 -180.421020507813 5.208106040955
26.462745666504 -73.870986938477 -181.152145385742 1.751180887222
-48.823554992676 -74.091300964355 -182.037399291992 2.182909488678
-22.258829116821 -75.254165649414 -180.729660034180 0.724399149418
-52.424160003662 -79.186439514160 -188.464324951172 1.902194142342
-153.783233642578 -75.751510620117 -189.100112915039 4.410218715668
99.588539123535 -75.925117492676 -189.750534057617 1.812436223030
-45.612892150879 -71.908294677734 -192.265518188477 2.266178846359
-12.868900299072 -76.561309814453 -196.756164550781 3.256211757660
-140.632644653320 -75.873558044434 -188.707321166992 2.856529474258
-42.137428283691 -72.271408081055 -196.371231079102 4.017703533173
99.224021911621 -71.185371398926 -193.667938232422 1.231775999069
106.684967041016 -70.475158691406 -182.047164916992 1.260649919510
-43.806617736816 -74.875289916992 -192.166336059570 1.303159952164
-23.317092895508 -83.751083374023 -197.106079101563 4.244962215424
-148.139007568359 -79.795928955078 -197.136825561523 1.849959492683
-26.522594451904 -74.329711914063 -191.896774291992 2.499552011490
-162.230514526367 -77.478889465332 -192.998199462891 7.136881351471
-153.980300903320 -85.545867919922 -202.546310424805 3.238100051880
-146.795974731445 -79.318084716797 -198.558731079102 2.013292789459
-40.017208099365 -76.132446289063 -198.449386596680 2.807821989059
100.625343322754 -74.446548461914 -201.422042846680 0.464741468430
-44.129604339600 -72.876640319824 -196.957916259766 3.944736003876
-143.355346679688 -80.979217529297 -201.564102172852 1.525151729584
-38.695159912109 -70.242919921875 -202.183441162109 3.201236486435
-24.161048889160 -81.411628723145 -207.050796508789 3.797124862671
96.737686157227 -76.570175170898 -203.487045288086 1.728634357452
88.324806213379 -75.137115478516 -212.878967285156 0.743441045284
-39.820587158203 -72.610984802246 -214.218490600586 7.376861095428
-90.074104309082 -77.775245666504 -206.531402587891 6.453830242157
-77.224327087402 -77.224456787109 -208.590911865234 1.083065986633
-21.073429107666 -74.865333557129 -205.348831176758 2.792149305344
-151.452880859375 -80.096069335938 -196.871978759766 0.960636794567
90.698280334473 -71.968338012695 -211.616348266602 0.909381806850
86.700950622559 -68.518745422363 -215.166885375977 2.020718574524
88.149833679199 -73.722595214844 -218.505447387695 1.723699092865
-104.483345031738 -77.725036621094 -214.640701293945 6.971343994141
-156.833084106445 -79.605674743652 -217.164245605469 6.745445728302
-22.053228378296 -72.125679016113 -221.492507934570 1.556845784187
79.413871765137 -68.435569763184 -225.357910156250 1.730942964554
-152.036193847656 -81.652885437012 -217.495910644531 2.146134614944
-31.212064743042 -76.748382568359 -213.488922119141 0.945600569248
-136.249130249023 -74.270828247070 -230.345413208008 1.743910551071
-12.503743171692 -77.640716552734 -229.509567260742 2.635863542557
15.398484230042 -72.375396728516 -227.519012451172 2.239295005798
18.777191162109 -74.856918334961 -230.953521728516 2.068430900574
-157.397674560547 -79.974395751953 -232.623016357422 3.971854925156
-128.557479858398 -71.639945983887 -229.324798583984 2.174934625626
-9.992139816284 -74.004219055176 -232.937896728516 0.688633263111
-1.485234022141 -72.954246520996 -235.133560180664 1.155846595764
67.414642333984 -72.753189086914 -227.750900268555 3.253606796265
66.857200622559 -68.669380187988 -237.096969604492 1.524236440659
-1.958006978035 -70.981361389160 -237.386810302734 1.521227478981
14.039015769958 -68.608154296875 -237.424621582031 2.270236015320
-33.815650939941 -64.641525268555 -238.817169189453 9.685791015625
-33.381420135498 -85.771873474121 -239.880386352539 5.470975875854
-51.374942779541 -75.166725158691 -231.741394042969 7.934905529022
-42.875965118408 -72.135528564453 -236.391845703125 5.621315479279
-17.618110656738 -75.737403869629 -240.286285400391 0.715721607208
-53.424827575684 -72.516807556152 -241.518524169922 2.346511125565
-0.075148999691 -74.807495117188 -242.625076293945 2.453100681305
-70.205924987793 -78.498794555664 -239.122909545898 7.990584373474
20.181577682495 -75.346847534180 -244.604263305664 1.453113436699
-143.179656982422 -79.512786865234 -240.107238769531 2.522008419037
-74.969673156738 -78.390129089355 -251.537139892578 2.388081073761
15.237992286682 -74.454772949219 -247.722259521484 2.828944206238
-162.798431396484 -75.462722778320 -245.786697387695 2.870736598969
10.427577018738 -78.830665588379 -251.594009399414 2.423976421356
-82.547767639160 -67.649642944336 -247.739624023438 2.530086994171
-77.885086059570 -75.689315795898 -247.143524169922 2.893656969070
16.177244186401 -76.067420959473 -251.104598999023 1.790380597115
-91.477798461914 -74.807510375977 -247.116744995117 4.053867340088
-127.770591735840 -71.483703613281 -250.826721191406 1.424251556396
-133.535995483398 -81.328292846680 -257.702636718750 1.338725566864
-138.505157470703 -80.288543701172 -248.075088500977 6.389883041382
-148.526641845703 -79.356719970703 -258.586212158203 2.230449438095
-148.879516601563 -72.304145812988 -247.485107421875 1.676954507828
-135.734405517578 -74.293624877930 -258.338867187500 1.459298491478
-163.712142944336 -72.185966491699 -256.597320556641 2.616173267365
-130.483230590820 -76.457267761230 -264.515808105469 2.840849876404
-138.958801269531 -69.219696044922 -259.692138671875 3.065615177155
-163.693359375000 -72.631004333496 -267.993255615234 4.008465290070
-156.925857543945 -73.267295837402 -261.299072265625 2.249123573303
-149.312957763672 -74.160415649414 -262.397888183594 2.355197429657
-151.066421508789 -77.510681152344 -262.290527343750 2.066131591797
15.660083770752 -75.921745300293 -276.621429443359 2.679055690765
-168.485748291016 -76.986732482910 -261.554504394531 3.898334026337
-153.086441040039 -78.726722717285 -270.005615234375 2.035876035690
-6.429131984711 -83.044044494629 -269.731842041016 2.992420673370
-155.811431884766 -73.238800048828 -272.998626708984 2.089323282242
9.966326713562 -77.093536376953 -281.517242431641 1.439968824387
-154.918991088867 -75.667594909668 -277.763824462891 4.346025943756
-168.737579345703 -78.241844177246 -285.593597412109 2.694985866547
-157.565536499023 -80.254219055176 -273.274383544922 2.652068138123
-166.237808227539 -73.300621032715 -286.307830810547 1.285869359970
-1.801957964897 -78.150619506836 -284.212188720703 2.565218687057
5.440367221832 -79.799530029297 -278.093017578125 2.165165901184
-108.991752624512 -72.700233459473 -290.433746337891 1.659388303757
-159.166595458984 -84.572425842285 -284.390747070313 5.744637489319
-149.881393432617 -73.066215515137 -281.126068115234 3.080178737640
-107.216712951660 -73.911224365234 -289.362792968750 1.527860403061
-155.704437255859 -80.443771362305 -290.257751464844 0.704334914684
-150.079162597656 -81.806869506836 -284.896667480469 1.565630674362
-78.505203247070 -79.415695190430 -290.873474121094 2.828778266907
-170.995697021484 -79.554367065430 -285.038970947266 4.209740161896
-124.270736694336 -70.955375671387 -288.183410644531 1.654968023300
-44.521007537842 -80.115966796875 -281.750335693359 4.946798801422
-152.186325073242 -75.766281127930 -283.741363525391 1.296484589577
-132.547622680664 -69.674636840820 -290.414642333984 1.766776442528
-22.873441696167 -70.854270935059 -292.516754150391 2.617164134979
-131.742202758789 -70.516098022461 -289.441864013672 1.399881601334
4.547210216522 -74.852905273438 -292.821868896484 1.819151163101
13.048729896545 -69.917434692383 -289.706695556641 2.626340866089
-135.204299926758 -70.199508666992 -286.925384521484 1.897024512291
-147.297225952148 -78.481491088867 -296.006408691406 1.481537580490
