-110.506881713867 -66.389396667480 -172.938629150391 2.881955385208
-110.680175781250 -77.441810607910 -182.850753784180 8.440034866333
-35.359527587891 -59.544937133789 -185.203002929688 10.460736274719
-28.415592193604 -73.736503601074 -181.122314453125 2.843743801117
7.435637950897 -64.060836791992 -188.958847045898 8.291552543640
10.930429458618 -60.731143951416 -199.693206787109 7.249642372131
8.735214233398 -66.459159851074 -187.813354492188 6.666656970978
-146.640563964844 -67.914070129395 -183.872909545898 1.524554729462
20.737846374512 -59.104629516602 -189.808090209961 6.366136074066
0.442234009504 -64.265327453613 -196.738082885742 8.337716102600
-138.432174682617 -67.952621459961 -190.439712524414 3.629751682281
-116.328056335449 -68.700141906738 -193.195098876953 1.650460481644
10.322967529297 -62.075553894043 -205.052185058594 5.862170696259
-124.056900024414 -67.228660583496 -194.732177734375 1.500801086426
-112.120285034180 -60.426113128662 -190.470947265625 3.928023576736
-171.761627197266 -73.067359924316 -199.532821655273 5.587233066559
-28.976900100708 -63.976299285889 -199.281982421875 4.736084938049
5.252870082855 -62.534885406494 -199.415008544922 6.071821689606
-150.355941772461 -71.478164672852 -201.775451660156 2.451234340668
-142.981414794922 -74.800880432129 -205.383743286133 1.485662102699
-27.259994506836 -63.131225585938 -207.664520263672 7.957510471344
-17.210952758789 -66.684463500977 -205.504745483398 0.967998445034
-17.853128433228 -67.679191589355 -205.567138671875 1.337226152420
-141.931610107422 -76.480087280273 -199.759552001953 1.473492383957
-22.457651138306 -65.137542724609 -212.490127563477 6.250076293945
-12.944986343384 -72.797080993652 -214.717422485352 2.291644573212
13.428370475769 -59.951904296875 -211.487258911133 4.609098434448
-22.526269912720 -72.674484252930 -211.752243041992 1.909596204758
5.618299961090 -66.701385498047 -208.812438964844 4.892147541046
-16.183586120605 -67.583999633789 -214.783523559570 2.712131500244
-29.373668670654 -60.967201232910 -210.828918457031 10.564286231995
6.651650905609 -73.224037170410 -220.931671142578 1.725305557251
-7.455928802490 -72.957786560059 -218.956069946289 3.381236791611
6.014407157898 -58.711212158203 -220.055694580078 9.028826713562
-11.656135559082 -69.151008605957 -228.982559204102 0.915911734104
-166.063995361328 -72.479400634766 -224.745635986328 1.592403531075
75.605911254883 -66.172195434570 -220.746688842773 5.970436573029
-140.955734252930 -66.368896484375 -221.266510009766 3.088269948959
-140.115310668945 -73.304985046387 -219.002471923828 3.949887275696
-12.746537208557 -66.208312988281 -224.895294189453 2.451592445374
0.516739010811 -63.642147064209 -236.114624023438 0.568717122078
-163.943450927734 -70.218055725098 -229.543685913086 2.389154911041
85.173248291016 -59.377315521240 -221.477203369141 9.026015281677
-6.379405021667 -62.860057830811 -226.674484252930 4.986839771271
-4.100351810455 -65.571502685547 -220.526596069336 2.989626646042
68.933349609375 -66.520606994629 -233.014007568359 1.357268929482
-5.299448013306 -60.524356842041 -236.863143920898 3.177608728409
-18.235679626465 -67.006179809570 -223.660568237305 3.095957279205
-133.282653808594 -64.457473754883 -231.376983642578 0.941406190395
-11.045843124390 -64.164848327637 -238.335311889648 1.747140288353
-2.612221956253 -61.343177795410 -229.330307006836 6.224397659302
60.753273010254 -58.053256988525 -238.854248046875 7.894331932068
-162.992385864258 -73.732856750488 -234.426712036133 2.077942132950
-19.218368530273 -62.144390106201 -245.599014282227 6.235239028931
-175.881668090820 -74.785110473633 -236.648269653320 8.118039131165
5.316888809204 -57.494670867920 -241.079193115234 1.844785213470
-168.199340820313 -72.937355041504 -236.229125976563 2.136532783508
-164.971603393555 -72.988807678223 -245.187088012695 2.568068981171
53.160282135010 -63.244419097900 -245.616714477539 1.398131728172
55.144100189209 -65.406242370605 -242.881072998047 2.900437116623
49.799545288086 -63.781494140625 -247.239776611328 2.786702394485
45.707229614258 -62.457214355469 -250.345138549805 2.551641941071
-157.204879760742 -72.314529418945 -240.168975830078 2.565293312073
-161.669998168945 -64.961273193359 -243.368743896484 2.133491516113
-17.490200042725 -70.945198059082 -249.389205932617 1.600063681602
-155.871749877930 -68.867584228516 -245.411590576172 1.355766296387
11.816216468811 -63.616798400879 -251.211929321289 6.926197052002
-177.072616577148 -78.706756591797 -249.210021972656 10.987282752991
-175.076324462891 -68.182266235352 -248.602600097656 8.882895469666
-87.532730102539 -70.363754272461 -245.260040283203 4.476788997650
-176.897048950195 -68.935256958008 -254.574371337891 8.097176551819
-90.709365844727 -66.871803283691 -257.513916015625 2.208373069763
37.426506042480 -61.087234497070 -254.418228149414 2.236424446106
15.914349555969 -67.141189575195 -258.024810791016 5.915929794312
-163.321701049805 -71.568313598633 -261.583129882813 2.008949041367
-107.451225280762 -58.426345825195 -258.448669433594 6.677659034729
34.414768218994 -62.040248870850 -254.832855224609 1.809209823608
-113.323272705078 -79.009292602539 -256.614135742188 5.402042865753
-159.233001708984 -65.714378356934 -264.062988281250 3.004590034485
-109.047203063965 -66.947387695313 -254.409713745117 1.663030743599
-175.553268432617 -74.529014587402 -256.914978027344 7.602937221527
-118.992912292480 -69.012191772461 -262.611877441406 0.783151745796
-159.486068725586 -72.615631103516 -264.358551025391 2.501375913620
-165.717758178711 -65.775367736816 -259.944183349609 3.114366531372
-171.344451904297 -68.806640625000 -261.406524658203 2.554898738861
-171.765258789063 -67.897666931152 -259.771728515625 3.596455097198
-171.604248046875 -70.205772399902 -261.488128662109 3.167650938034
-175.655044555664 -71.539062500000 -256.200012207031 6.747920036316
21.224803924561 -64.421051025391 -266.238464355469 3.464103221893
-152.806549072266 -75.958625793457 -260.201934814453 3.420682191849
-158.533966064453 -69.022575378418 -283.484710693359 1.781084775925
23.348892211914 -62.019081115723 -275.679748535156 1.811293363571
-18.624664306641 -68.052154541016 -274.634185791016 4.703008174896
-131.332672119141 -64.398178100586 -283.102416992188 3.857005596161
-142.684753417969 -68.326423645020 -284.687774658203 2.134389638901
-139.505523681641 -67.582984924316 -288.007781982422 2.472967863083
-134.940917968750 -68.199218750000 -283.946228027344 1.912887692451
-118.720184326172 -65.577217102051 -291.240356445313 2.679970979691
-109.906921386719 -61.451450347900 -281.769439697266 8.909126281738
0.748525977135 -67.655357360840 -296.363800048828 3.353396892548
-90.290069580078 -67.954139709473 -289.989105224609 1.755507826805
-154.724105834961 -69.497192382813 -283.561859130859 2.469050645828
-109.036987304688 -68.381736755371 -289.806365966797 1.822420358658
-140.403991699219 -65.027885437012 -290.760375976563 1.863497853279
4.019032001495 -65.269828796387 -287.422760009766 4.335124015808
-117.051139831543 -58.209033966064 -284.490447998047 9.378828048706
-1.361024975777 -63.347938537598 -294.398834228516 3.104729652405
-149.470474243164 -68.291770935059 -283.565765380859 2.886298656464
-158.485641479492 -68.664077758789 -292.585296630859 2.942851781845
-166.942871093750 -66.614021301270 -315.467254638672 10.790025711060
-163.049911499023 -65.461914062500 -308.425598144531 7.516929626465
44.704051971436 -72.049331665039 -25.958297729492 2.187772035599
24.002141952515 -67.582977294922 -38.334812164307 3.256064414978
26.620914459229 -69.365318298340 -36.952125549316 1.957931756973
-42.579235076904 -74.450408935547 -46.584880828857 4.408963203430
-12.157902717590 -65.676773071289 -63.233280181885 1.566416859627
93.068992614746 -65.698745727539 -69.308692932129 4.435538291931
65.746452331543 -58.730712890625 -69.446144104004 1.890071511269
-28.101348876953 -67.622741699219 -73.734436035156 1.257059693336
-103.628898620605 -76.919998168945 -87.802978515625 8.996922492981
-45.351631164551 -68.832420349121 -85.959617614746 2.278672933578
54.435943603516 -65.925270080566 -80.611122131348 5.266527175903
63.652809143066 -69.970306396484 -85.465721130371 1.924047350883
48.071987152100 -62.685363769531 -88.591239929199 4.134149074554
-62.237319946289 -68.936805725098 -90.118309020996 2.339350938797
65.001846313477 -59.216308593750 -90.168144226074 1.552749633789
39.941493988037 -71.356079101563 -99.809288024902 2.814474582672
67.061508178711 -68.778083801270 -96.556427001953 2.391445875168
-62.336345672607 -67.623077392578 -95.916572570801 3.477128505707
49.283306121826 -68.297370910645 -91.995559692383 3.386765718460
44.633193969727 -69.604469299316 -98.904762268066 1.914204716682
100.158340454102 -58.934406280518 -105.144096374512 2.721121311188
-67.121238708496 -69.794029235840 -97.023002624512 2.255515336990
109.274368286133 -62.856391906738 -101.363159179688 4.451186656952
-81.582260131836 -75.069335937500 -100.849174499512 2.228728771210
50.574207305908 -69.059913635254 -108.543472290039 2.092374324799
45.400028228760 -63.913284301758 -102.347381591797 3.584048509598
87.420852661133 -58.603462219238 -105.874526977539 1.776054024696
79.832000732422 -65.566406250000 -107.211059570313 1.790245652199
54.556816101074 -67.047172546387 -106.391380310059 4.136159896851
-80.272865295410 -71.009407043457 -111.754592895508 1.934521555901
-82.142364501953 -69.510879516602 -116.741127014160 2.587696790695
-84.507530212402 -71.119453430176 -116.320831298828 1.723086714745
-97.166877746582 -78.178298950195 -115.794189453125 7.945777893066
98.578620910645 -55.090423583984 -119.617469787598 10.080192565918
-94.389656066895 -74.612541198730 -116.757034301758 3.530657052994
-77.904235839844 -63.626773834229 -120.569633483887 0.757088899612
105.493980407715 -62.300304412842 -118.950035095215 5.642803192139
-62.492259979248 -58.319538116455 -115.603500366211 1.919734835625
109.942710876465 -69.189216613770 -133.815017700195 1.538332581520
106.585784912109 -65.823081970215 -131.891326904297 3.539500713348
101.102203369141 -66.085494995117 -130.697967529297 6.409889221191
-97.340522766113 -70.995155334473 -134.946014404297 6.728097438812
-48.377841949463 -68.198608398438 -141.267471313477 1.015177488327
-85.916847229004 -65.137588500977 -141.608840942383 2.381492137909
-72.999282836914 -68.524650573730 -146.957382202148 1.054325222969
-71.669006347656 -67.503700256348 -149.187057495117 1.420662879944
-58.532543182373 -67.711174011230 -143.000152587891 2.353706359863
-48.753318786621 -74.861557006836 -142.858779907227 1.257961273193
8.580558776855 -66.167610168457 -148.228988647461 4.041960239410
-97.296318054199 -63.957126617432 -138.613723754883 1.957741260529
-50.490818023682 -65.789604187012 -145.070587158203 1.864605903625
-54.577663421631 -57.158058166504 -145.052993774414 7.451263904572
-46.568672180176 -64.522399902344 -153.064941406250 4.228434085846
22.710754394531 -68.791946411133 -160.368286132813 2.380509614944
-55.126670837402 -70.220947265625 -151.251159667969 2.776144742966
-107.218986511230 -62.402153015137 -145.798095703125 7.829462528229
-52.562885284424 -62.957225799561 -153.053100585938 4.999782562256
21.506912231445 -70.115982055664 -145.211746215820 2.707991361618
-98.333610534668 -78.714790344238 -162.777847290039 9.667982101440
19.417360305786 -69.123893737793 -158.751800537109 3.627143621445
-112.707489013672 -64.420791625977 -166.146652221680 3.347443103790
-105.834983825684 -70.269073486328 -162.488418579102 3.271615982056
17.852403640747 -65.756576538086 -167.441131591797 3.151996374130
22.531660079956 -62.575977325439 -167.607940673828 4.236434459686
-115.990623474121 -73.723388671875 -171.017410278320 8.240846633911
-146.932998657227 -66.316307067871 -170.091186523438 4.196841716766
-21.888813018799 -66.651756286621 -191.065292358398 1.575313806534
-32.084552764893 -65.342468261719 -179.177642822266 4.530311584473
-122.210029602051 -72.094734191895 -184.663482666016 9.229664802551
-148.184677124023 -65.225334167480 -182.832901000977 2.737224817276
-105.034156799316 -64.392257690430 -179.101181030273 2.603373289108
-164.868576049805 -71.365844726563 -185.068969726563 11.266798019409
-135.259887695313 -76.657661437988 -193.522872924805 3.303222656250
-137.151626586914 -73.513465881348 -194.197006225586 2.863166332245
-23.563842773438 -63.810138702393 -185.840774536133 4.348533630371
-122.666885375977 -70.291366577148 -197.925491333008 0.568058073521
-124.289184570313 -63.661369323730 -198.817626953125 1.484647154808
-33.895221710205 -70.372703552246 -191.534469604492 3.794453144073
-158.930969238281 -66.957115173340 -191.453079223633 3.146515369415
-137.617462158203 -70.845932006836 -202.777679443359 2.216256618500
-129.725753784180 -65.608039855957 -201.010787963867 1.009752988815
14.313948631287 -69.055732727051 -202.133071899414 1.618045568466
-167.374237060547 -71.774711608887 -198.325927734375 3.124255418777
9.069846153259 -61.254985809326 -217.813583374023 6.471845149994
9.800427436829 -66.493240356445 -216.036911010742 1.869282126427
-19.618764877319 -59.340011596680 -210.661712646484 8.323450088501
-9.842183113098 -64.616752624512 -216.870605468750 2.943582296371
-178.535247802734 -66.607505798340 -208.062393188477 10.885040283203
-164.485549926758 -64.054176330566 -208.990234375000 2.294041156769
-99.974594116211 -66.800117492676 -217.591461181641 3.036317586899
-100.573829650879 -71.061439514160 -219.059112548828 1.608793854713
-165.893310546875 -72.132766723633 -224.933578491211 1.832797527313
-115.284797668457 -64.616989135742 -216.672683715820 8.230504989624
-16.415199279785 -62.644557952881 -210.061294555664 4.651659965515
-133.591430664063 -71.704437255859 -218.457778930664 5.932618618011
-148.636062622070 -69.688446044922 -219.878738403320 2.541796684265
-8.103192329407 -68.102249145508 -221.257019042969 0.560523271561
-139.277618408203 -66.288009643555 -221.297409057617 3.786197185516
-128.309555053711 -75.208251953125 -219.332519531250 5.251274585724
-119.117019653320 -73.078094482422 -221.256835937500 4.233845233917
-8.138851165771 -55.287582397461 -229.482788085938 7.125609874725
-113.140571594238 -64.427658081055 -230.512603759766 1.941508889198
-167.642578125000 -61.296794891357 -219.272445678711 5.934419155121
-150.299362182617 -68.706298828125 -223.315063476563 2.056113243103
-169.704956054688 -69.571960449219 -223.357269287109 3.300945758820
-13.701835632324 -61.646759033203 -224.494003295898 4.852132320404
-13.192525863647 -65.225517272949 -234.068466186523 3.390985488892
73.404899597168 -65.931358337402 -226.189117431641 2.703345775604
-7.138518810272 -68.183784484863 -228.604217529297 1.856951951981
-148.794906616211 -68.958656311035 -236.670394897461 2.750311136246
-20.134910583496 -61.315212249756 -229.246963500977 8.101573944092
68.650329589844 -62.351902008057 -228.539016723633 6.061442375183
68.440086364746 -62.217449188232 -234.501708984375 4.345929145813
-139.592391967773 -66.309661865234 -229.193069458008 2.456616163254
-160.545700073242 -75.592514038086 -225.918502807617 3.165563106537
-118.958206176758 -65.069137573242 -230.747848510742 1.831514358521
-131.296508789063 -61.523162841797 -234.740066528320 4.739127635956
-167.465728759766 -67.998771667480 -232.482910156250 2.984334468842
-166.575393676758 -70.984062194824 -232.505447387695 2.569251298904
-154.182403564453 -61.764148712158 -229.255172729492 1.035763382912
-21.624311447144 -60.916606903076 -233.508575439453 9.528705596924
-11.851968765259 -62.098800659180 -242.735321044922 5.215255737305
-165.588607788086 -67.972564697266 -240.798858642578 0.388315171003
0.392181992531 -64.327072143555 -236.492019653320 1.206287980080
-5.646969795227 -66.009147644043 -238.941802978516 1.919948816299
-163.989501953125 -69.194015502930 -233.840454101563 1.385641455650
13.990771293640 -69.415145874023 -240.193618774414 1.578045129776
45.514675140381 -65.506187438965 -247.552566528320 2.841666460037
42.935771942139 -66.942604064941 -244.138275146484 4.335095405579
-23.414819717407 -65.462478637695 -247.013549804688 8.597671508789
41.174091339111 -60.820537567139 -250.873474121094 3.922353744507
-164.929122924805 -63.319690704346 -245.347579956055 4.018927097321
-161.197479248047 -70.133049011230 -243.566284179688 2.590383052826
-166.881393432617 -76.285774230957 -246.477279663086 2.971301078796
50.737537384033 -60.570316314697 -247.737274169922 3.269764184952
-100.459846496582 -64.900688171387 -251.013900756836 3.022926092148
-129.788238525391 -65.549537658691 -252.613677978516 3.623835802078
-112.010940551758 -74.164413452148 -250.414871215820 7.135723114014
18.268798828125 -68.950767517090 -258.281707763672 4.829895019531
32.996837615967 -58.668445587158 -252.296371459961 3.375912904739
-106.337295532227 -63.134754180908 -252.520126342773 5.000518798828
-98.785102844238 -60.265621185303 -246.218353271484 5.532091617584
40.119049072266 -68.899162292480 -257.020507812500 1.883540511131
34.265632629395 -59.221107482910 -257.963378906250 3.815638303757
-159.507995605469 -76.445465087891 -254.605407714844 2.874944925308
21.784872055054 -62.583404541016 -260.974731445313 3.147519588470
-149.896301269531 -71.518928527832 -262.895202636719 2.796555995941
-118.318420410156 -67.229179382324 -260.912628173828 1.586713314056
-144.934265136719 -64.262062072754 -259.158233642578 2.224502801895
27.598600387573 -60.650798797607 -263.490966796875 2.657981634140
-132.367462158203 -66.207153320313 -260.053955078125 1.537600874901
-17.675186157227 -61.711612701416 -255.370223999023 3.993128061295
13.388149261475 -66.738113403320 -271.645751953125 8.119110107422
-8.948822021484 -71.917007446289 -263.706665039063 4.265251636505
12.323065757751 -65.499320983887 -281.064239501953 5.414876937866
-161.477310180664 -72.349052429199 -279.736755371094 3.553071737289
-18.726251602173 -60.200340270996 -280.609832763672 6.390294551849
-158.538116455078 -72.633728027344 -278.456878662109 4.075368404388
-128.007110595703 -71.516250610352 -282.801055908203 2.441133737564
-171.345779418945 -77.349494934082 -283.247589111328 3.392974138260
-121.879653930664 -66.235542297363 -284.596160888672 3.035195112228
-109.729354858398 -67.380149841309 -288.706756591797 1.916204929352
-13.692406654358 -60.800598144531 -283.708648681641 5.533075809479
-113.875457763672 -69.480369567871 -285.866363525391 2.049368858337
-123.873519897461 -64.083496093750 -279.829162597656 7.697828769684
-131.012619018555 -62.266380310059 -289.618621826172 3.118354797363
-147.125564575195 -68.375549316406 -287.697540283203 1.193102240562
-134.590393066406 -61.612514495850 -288.095855712891 3.306118965149
-165.489990234375 -75.563346862793 -286.369201660156 1.987960815430
-154.329833984375 -63.104404449463 -287.735961914063 0.959841489792
-168.327728271484 -63.736293792725 -300.511657714844 11.804265022278
-161.933166503906 -65.332489013672 -307.697082519531 7.142593383789
-168.691726684570 -64.376541137695 -298.208465576172 10.007506370544
-145.359878540039 -68.456703186035 -307.293060302734 3.129701614380
-155.479476928711 -71.611343383789 -312.618896484375 1.105289936066
34.163852691650 -68.675880432129 -6.420053958893 4.879103183746
48.633258819580 -73.925468444824 -18.449266433716 1.998072981834
21.960536956787 -67.099502563477 -21.165336608887 3.247848272324
50.024501800537 -68.018539428711 -25.809694290161 1.858157634735
25.924985885620 -70.726867675781 -34.150936126709 2.316816806793
29.495872497559 -68.622413635254 -32.629478454590 2.445042610168
-59.317211151123 -64.893539428711 -47.983116149902 4.871058464050
73.460159301758 -59.480804443359 -59.472949981689 1.049692153931
81.450675964355 -66.818511962891 -69.345840454102 4.866649627686
-91.210586547852 -74.238380432129 -61.903087615967 4.522583484650
-15.272060394287 -65.282943725586 -58.278335571289 2.655725479126
-94.641868591309 -73.018836975098 -70.971260070801 3.177788019180
94.798133850098 -68.366905212402 -67.867294311523 1.515344977379
-13.373678207397 -65.010612487793 -66.362243652344 0.386285305023
65.316360473633 -69.541328430176 -83.672142028809 2.043008804321
-47.462398529053 -74.255401611328 -81.179412841797 4.259776592255
-27.812694549561 -71.719451904297 -72.672111511230 3.596249341965
52.688610076904 -58.654285430908 -87.353950500488 4.011194705963
-44.560535430908 -80.139381408691 -82.617027282715 2.208326578140
62.110675811768 -53.059139251709 -88.236320495605 1.226193070412
49.586612701416 -72.248703002930 -92.818000793457 2.238249540329
53.561897277832 -63.727886199951 -95.589431762695 1.002048373222
55.040954589844 -74.524429321289 -91.345237731934 2.019989252090
52.837680816650 -58.790744781494 -96.121070861816 3.099700450897
95.461753845215 -58.672718048096 -99.937103271484 2.837775945663
104.597190856934 -56.224498748779 -101.700004577637 1.578022956848
58.527046203613 -68.408607482910 -102.122047424316 2.860283613205
105.128372192383 -57.624382019043 -102.576881408691 2.287220001221
-81.051002502441 -69.102645874023 -96.942436218262 2.965579509735
-76.575073242188 -70.468711853027 -102.358558654785 2.187394380569
97.265029907227 -58.837779998779 -99.555007934570 3.254749536514
50.536056518555 -66.709671020508 -101.785148620605 0.973136603832
67.564353942871 -67.389068603516 -97.517593383789 1.008375644684
-73.594848632813 -69.868804931641 -108.332000732422 1.139377355576
-89.001800537109 -68.365684509277 -106.884696960449 2.477707862854
83.011772155762 -69.386718750000 -103.824440002441 1.272024154663
35.518924713135 -68.946304321289 -102.385948181152 5.678115367889
103.520751953125 -57.990821838379 -109.687248229980 5.043290615082
46.142227172852 -69.289550781250 -114.409591674805 2.021284103394
108.541709899902 -64.325119018555 -102.954971313477 3.022110700607
-80.251731872559 -70.194091796875 -111.346115112305 1.368946552277
98.970184326172 -57.000869750977 -110.169799804688 1.453827977180
-85.905891418457 -66.113761901855 -120.317787170410 1.492547631264
-61.314079284668 -71.701805114746 -126.653884887695 3.270783185959
-60.791397094727 -68.418777465820 -122.221183776855 0.815918147564
-73.842742919922 -72.028503417969 -129.581146240234 2.542114496231
-53.480339050293 -69.894409179688 -130.371475219727 1.781356334686
-87.069854736328 -71.391952514648 -133.291107177734 1.577125549316
-81.112373352051 -63.768295288086 -129.474029541016 2.732920885086
-81.847564697266 -70.468193054199 -132.254806518555 3.112955331802
-65.082046508789 -74.714286804199 -141.707504272461 2.648088455200
-73.666763305664 -69.453300476074 -140.584762573242 0.773767650127
-63.857822418213 -76.018203735352 -131.003036499023 5.490491390228
-59.925006866455 -67.650680541992 -142.223159790039 2.028777599335
6.969840049744 -59.868930816650 -146.109985351563 7.861346244812
-94.876235961914 -70.960548400879 -138.243377685547 4.355352878571
-52.287158966064 -74.831581115723 -149.206436157227 1.067152261734
-97.518524169922 -67.603782653809 -148.264175415039 2.648150682449
-106.054901123047 -65.716918945313 -144.632843017578 7.257755279541
17.012805938721 -68.370056152344 -155.523269653320 1.827480792999
11.352616310120 -66.708755493164 -159.444885253906 1.390077233315
-98.586296081543 -72.825401306152 -159.497985839844 3.617376089096
-108.140983581543 -70.911239624023 -148.392227172852 8.529765129089
-103.391510009766 -67.308158874512 -165.330596923828 2.720765829086
17.053264617920 -64.040908813477 -170.828811645508 4.951307296753
-117.044265747070 -69.293823242188 -171.725006103516 7.586273670197
21.805004119873 -64.199897766113 -164.166091918945 4.245275020599
-152.340744018555 -71.302871704102 -174.348327636719 0.917055666447
13.921739578247 -63.722908020020 -175.889129638672 5.788885593414
20.943611145020 -65.533653259277 -186.324737548828 2.588584423065
-155.954193115234 -68.477836608887 -182.875381469727 4.206972599030
16.668489456177 -67.125007629395 -174.256301879883 1.789473533630
14.368238449097 -54.712989807129 -181.525207519531 12.804369926453
-150.278182983398 -75.718482971191 -179.173751831055 2.168498039246
-156.597518920898 -65.792594909668 -186.724761962891 4.035676956177
15.213408470154 -65.345237731934 -187.363708496094 3.339846134186
14.281139373779 -68.650428771973 -190.590667724609 1.832240462303
-145.774322509766 -73.249130249023 -192.089599609375 2.784276962280
-114.572830200195 -69.266860961914 -195.487518310547 1.775670766830
22.483613967896 -64.059806823730 -200.109634399414 3.875212192535
-130.396499633789 -70.624328613281 -192.330917358398 3.049256801605
4.205112934113 -68.421203613281 -201.616531372070 3.810791969299
-132.961639404297 -60.940738677979 -191.104354858398 5.557128429413
-168.286026000977 -67.956703186035 -184.165069580078 13.877870559692
-164.564010620117 -68.349281311035 -193.146301269531 4.689315795898
-160.118789672852 -73.714721679688 -189.176147460938 6.039503574371
-26.945470809937 -66.353454589844 -208.184036254883 5.660699367523
-174.224060058594 -74.166481018066 -195.713378906250 9.739924430847
-33.568004608154 -60.207550048828 -192.167968750000 9.152386665344
-20.569044113159 -67.346931457520 -191.876815795898 2.278023242950
-0.072103001177 -56.722026824951 -195.819488525391 13.801282882690
-161.179809570313 -71.485336303711 -205.071609497070 1.502708435059
-110.773323059082 -66.234695434570 -200.957824707031 2.327867031097
-21.283170700073 -60.530605316162 -197.667419433594 5.908823490143
-167.134643554688 -62.197063446045 -197.452224731445 5.497129917145
12.887545585632 -65.208786010742 -202.867889404297 3.827687501907
-177.432785034180 -67.897766113281 -203.388549804688 10.245416641235
-123.947219848633 -71.835334777832 -199.905151367188 2.299107074738
-121.488433837891 -65.075866699219 -207.577133178711 3.191607475281
-127.520004272461 -69.063140869141 -201.021865844727 2.542243003845
-21.567525863647 -63.492733001709 -201.383972167969 5.480747699738
-25.105087280273 -66.652732849121 -202.369766235352 2.141138315201
-169.065795898438 -69.856864929199 -209.122955322266 3.071522712708
-164.776718139648 -66.854011535645 -207.984283447266 2.217223167419
-169.927444458008 -71.188491821289 -216.324798583984 2.699710369110
-143.346801757813 -72.917304992676 -210.854019165039 2.872814178467
-151.023910522461 -67.967651367188 -222.714370727539 2.274155616760
-5.482631206512 -61.761661529541 -218.031036376953 6.408229351044
-13.452241897583 -71.896476745605 -216.886520385742 1.344480514526
-106.923965454102 -64.343177795410 -218.100433349609 3.823724269867
-13.881307601929 -61.281677246094 -236.353195190430 5.365379810333
-175.620285034180 -65.591247558594 -228.289337158203 8.769556045532
-109.508056640625 -64.684020996094 -232.876037597656 3.907208919525
-2.636018037796 -64.512062072754 -226.243759155273 2.188674688339
-3.999650001526 -63.204608917236 -228.829956054688 4.864163875580
-117.560111999512 -67.364433288574 -232.099563598633 2.827853202820
-7.015220165253 -65.858695983887 -226.044342041016 3.280189514160
-124.904106140137 -63.285099029541 -231.376861572266 2.143774509430
-14.106334686279 -59.236286163330 -230.124298095703 7.608206272125
-7.125431060791 -62.116069793701 -234.614746093750 2.609965324402
-8.888701438904 -62.036430358887 -239.285537719727 4.576130390167
67.053787231445 -55.599605560303 -237.569259643555 11.602474212646
-14.339534759521 -67.728996276855 -237.325805664063 2.496348619461
6.076787948608 -64.118827819824 -235.082489013672 1.665142536163
5.668077945709 -62.079891204834 -236.803558349609 2.749713897705
-0.692884027958 -65.380310058594 -238.424011230469 1.758495330811
-0.471955001354 -65.844749450684 -241.834060668945 1.308456778526
56.470504760742 -53.825958251953 -240.742248535156 10.925684928894
62.731811523438 -54.538684844971 -241.588775634766 10.767164230347
-0.423925012350 -61.699348449707 -249.388854980469 2.754112243652
44.702480316162 -64.105552673340 -243.384017944336 5.271050453186
49.489311218262 -67.420120239258 -240.866958618164 2.627614736557
40.657302856445 -55.428337097168 -252.386398315430 7.337423801422
36.813812255859 -56.449825286865 -252.083755493164 6.159203529358
34.591297149658 -59.528667449951 -260.400634765625 4.939981937408
-135.404190063477 -59.496974945068 -258.326202392578 5.527900218964
-13.893472671509 -61.960422515869 -245.762573242188 4.583669662476
25.537076950073 -58.404090881348 -257.277923583984 2.224636316299
36.908184051514 -59.403591156006 -244.428390502930 6.828955173492
24.779273986816 -65.817237854004 -252.281753540039 2.462472915649
-110.784217834473 -70.123771667480 -258.145874023438 0.929999411106
23.304624557495 -63.522148132324 -256.000701904297 2.292819261551
-149.980087280273 -70.453964233398 -259.812133789063 2.214084625244
-122.641059875488 -71.023216247559 -253.237426757813 2.816188573837
-118.193504333496 -67.046348571777 -256.674224853516 2.617688894272
-6.619808197021 -67.192352294922 -258.391540527344 1.487128973007
-158.976348876953 -69.915931701660 -254.086730957031 1.534880638123
31.892969131470 -61.944511413574 -263.992767333984 4.204231262207
-112.979652404785 -64.944053649902 -252.873229980469 4.846568584442
19.595075607300 -68.432037353516 -258.600189208984 3.795905113220
-140.541229248047 -72.111358642578 -263.373229980469 2.006128549576
-123.104942321777 -66.217720031738 -265.423400878906 2.471993207932
-118.193466186523 -66.296501159668 -261.025238037109 0.753210067749
-119.044181823730 -76.308975219727 -258.824279785156 3.822499513626
-148.573867797852 -70.855819702148 -250.786071777344 2.999659776688
24.063875198364 -62.475212097168 -258.306396484375 2.762142896652
-122.906288146973 -64.188461303711 -259.683288574219 2.671442985535
-151.100418090820 -69.636032104492 -260.801574707031 2.076866626740
-11.367668151855 -59.121444702148 -269.757080078125 1.071507096291
-155.654861450195 -70.614967346191 -276.648132324219 3.466141462326
-15.945331573486 -63.529716491699 -290.177185058594 6.544536113739
-12.303099632263 -59.316928863525 -279.637664794922 3.403021097183
-141.125076293945 -65.797492980957 -287.733795166016 1.348356604576
-137.170288085938 -67.057754516602 -290.708160400391 2.055825948715
-142.286285400391 -65.283721923828 -292.969024658203 2.712415695190
-133.681976318359 -62.427265167236 -286.169708251953 3.029839754105
-163.297500610352 -66.777091979980 -291.126647949219 3.789717674255
-165.765853881836 -68.261360168457 -296.577575683594 5.415877819061
-155.523330688477 -71.990570068359 -299.237731933594 2.400184631348
-155.821334838867 -69.776168823242 -302.779266357422 3.100800991058
-151.737060546875 -66.052642822266 -294.418029785156 2.278385400772
-158.541015625000 -66.403846740723 -304.144744873047 5.502146720886
-152.561630249023 -62.466445922852 -314.540649414063 2.180588960648
17.782123565674 -70.999435424805 -24.930660247803 3.269862413406
49.732990264893 -70.159049987793 -37.375232696533 2.857620000839
22.435634613037 -75.363037109375 -35.914745330811 3.277288198471
29.855674743652 -66.548851013184 -44.651123046875 2.119940519333
-43.447910308838 -60.495552062988 -47.698856353760 3.038667201996
-75.787734985352 -65.359199523926 -48.246200561523 0.503532230854
77.805023193359 -64.705146789551 -62.150623321533 2.442836284637
71.067390441895 -66.249176025391 -62.060119628906 1.164410829544
71.007728576660 -68.496047973633 -64.768615722656 2.425921440125
-104.000839233398 -70.964752197266 -68.914756774902 9.843469619751
95.794166564941 -69.668937683105 -76.597854614258 3.186433315277
-29.224195480347 -71.144737243652 -85.983810424805 7.364251613617
58.137565612793 -62.259185791016 -74.781196594238 4.773570537567
-44.376255035400 -63.582790374756 -83.226478576660 1.577488064766
-59.636848449707 -66.783958435059 -79.294059753418 5.499822616577
49.185081481934 -64.979278564453 -90.879135131836 1.675565481186
99.537528991699 -60.209487915039 -91.876945495605 4.719592571259
59.572032928467 -62.203113555908 -92.456039428711 1.475590229034
52.918331146240 -62.779190063477 -90.917472839355 1.552218794823
44.403980255127 -60.201511383057 -102.607391357422 5.672815799713
52.803253173828 -59.645698547363 -103.391281127930 3.201709270477
99.200668334961 -60.435317993164 -98.672386169434 2.783527851105
65.349693298340 -63.089981079102 -109.338027954102 6.415710449219
49.917282104492 -64.738204956055 -106.540283203125 0.965029716492
72.390464782715 -70.991943359375 -108.908294677734 4.475448608398
97.330268859863 -58.012691497803 -108.301689147949 2.569478750229
-76.367080688477 -65.359695434570 -95.723869323730 4.090080738068
-89.562248229980 -69.023880004883 -108.224678039551 3.941492080688
-84.925582885742 -69.427261352539 -109.944618225098 1.970911622047
-64.082817077637 -68.319892883301 -117.619232177734 1.605552196503
-60.667465209961 -72.386520385742 -125.403923034668 4.660163879395
-98.156799316406 -68.255584716797 -119.234100341797 2.708587646484
-76.448287963867 -72.045158386230 -117.077445983887 3.195221662521
-80.574996948242 -73.045776367188 -131.718811035156 2.502715826035
-63.908508300781 -63.291633605957 -125.780914306641 1.785481691360
-91.442008972168 -64.098983764648 -128.761047363281 4.214279174805
-93.440414428711 -66.966552734375 -129.316238403320 2.869440317154
-52.186584472656 -70.596511840820 -133.770294189453 1.624975085258
-53.918262481689 -69.687271118164 -136.755249023438 2.929249048233
-81.415313720703 -72.913780212402 -136.608749389648 2.186761856079
-58.739433288574 -70.448181152344 -139.984848022461 1.242641568184
-76.796638488770 -73.908615112305 -144.335113525391 1.781439304352
14.716815948486 -61.754657745361 -139.555099487305 1.712440490723
-61.799171447754 -73.288002014160 -142.617187500000 3.391203641891
-60.218826293945 -62.851104736328 -145.021148681641 3.586230754852
4.932806968689 -69.950614929199 -155.164001464844 1.053984165192
13.777458190918 -62.716125488281 -150.352722167969 2.091367483139
-145.252563476563 -71.165931701660 -170.096343994141 4.760735034943
-114.417457580566 -66.109092712402 -175.215377807617 3.979407548904
-116.889656066895 -63.220237731934 -188.180465698242 5.490590572357
-157.821075439453 -72.507087707520 -186.548202514648 5.648982048035
-117.965782165527 -67.636093139648 -184.102996826172 4.863348484039
-155.919021606445 -63.304077148438 -193.869094848633 3.416921377182
-119.067230224609 -67.100891113281 -196.986953735352 3.648377418518
-156.324493408203 -65.162925720215 -198.516967773438 2.080564737320
-154.122787475586 -68.291328430176 -203.977554321289 2.350051403046
-158.829238891602 -75.389198303223 -201.252334594727 4.892236709595
-155.041671752930 -68.673866271973 -222.087753295898 1.956546545029
-153.768981933594 -72.439224243164 -224.168182373047 1.751605987549
-110.937812805176 -62.819057464600 -227.290267944336 2.724832534790
-104.176940917969 -67.068756103516 -217.796554565430 3.172780990601
-128.417587280273 -60.870334625244 -230.569381713867 4.894340515137
-111.847549438477 -67.432998657227 -222.992645263672 3.381785392761
-162.966720581055 -68.947914123535 -227.695755004883 3.511500358582
-8.821548461914 -62.650684356689 -223.386123657227 4.705889701843
-137.861389160156 -72.678039550781 -227.042404174805 3.306977748871
-159.155151367188 -68.827919006348 -232.808944702148 3.125225543976
-145.077026367188 -72.769599914551 -229.382034301758 0.877374947071
-15.632344245911 -60.943988800049 -232.396072387695 8.039771080017
3.293617963791 -61.914268493652 -244.442916870117 0.442147165537
56.901985168457 -53.030235290527 -240.329483032227 11.902773857117
12.035180091858 -67.160987854004 -250.022476196289 5.616663932800
47.565883636475 -60.227363586426 -241.947341918945 7.086319446564
34.446506500244 -64.591491699219 -250.206390380859 3.828159570694
57.171043395996 -54.862491607666 -253.644439697266 11.081154823303
-159.483596801758 -68.321800231934 -245.079132080078 2.005567550659
-151.668182373047 -72.025413513184 -252.230712890625 1.436730027199
38.209487915039 -58.850738525391 -256.397644042969 1.858157634735
21.057989120483 -61.507518768311 -253.515991210938 3.027678012848
42.780853271484 -55.669235229492 -254.579010009766 6.834516525269
-151.364379882813 -70.917068481445 -261.837493896484 2.778127670288
-144.343322753906 -65.753799438477 -251.315948486328 2.168545246124
-129.653167724609 -63.657878875732 -257.433746337891 2.237695455551
-138.768386840820 -66.752731323242 -253.163452148438 2.942013263702
-145.331054687500 -68.951721191406 -255.519989013672 0.980911850929
-128.698913574219 -65.685829162598 -257.686187744141 0.716720461845
-149.391387939453 -64.898780822754 -257.175231933594 0.796954929829
-133.643112182617 -70.546234130859 -254.823471069336 1.556085109711
-124.936561584473 -68.053695678711 -263.141357421875 1.482962965965
-136.088668823242 -67.165679931641 -263.085784912109 1.417058467865
-129.462661743164 -61.800857543945 -261.704711914063 3.251086473465
-11.273915290833 -62.680820465088 -266.346282958984 4.810964107513
23.860527038574 -55.439453125000 -260.872314453125 1.510878801346
-151.805587768555 -59.693645477295 -264.672241210938 2.721684932709
20.056911468506 -63.036422729492 -272.309082031250 4.758985519409
-13.402402877808 -54.156848907471 -276.660156250000 1.315230131149
11.495646476746 -67.971565246582 -282.942199707031 4.588399410248
-147.302810668945 -67.238098144531 -286.924346923828 1.224101305008
-130.620635986328 -69.660362243652 -284.540130615234 2.421314001083
-136.761383056641 -60.061664581299 -288.142425537109 5.017441749573
-167.172073364258 -61.583732604980 -290.163116455078 8.397274017334
-133.938034057617 -59.038234710693 -286.790527343750 5.689528942108
-124.634727478027 -63.515830993652 -286.343261718750 2.488547563553
-130.628829956055 -69.722427368164 -296.267272949219 3.388875246048
-159.609848022461 -71.111686706543 -288.099945068359 1.730552673340
28.362054824829 -71.335227966309 -11.005691528320 1.529725074768
26.733467102051 -72.275070190430 -18.121366500854 1.545334458351
35.372451782227 -64.882377624512 -21.973886489868 1.849091649055
45.257259368896 -61.271209716797 -23.293844223022 2.820226669312
27.904886245728 -73.966514587402 -28.313468933105 2.109705924988
16.440069198608 -70.859542846680 -32.995655059814 3.188187837601
-35.323215484619 -71.632713317871 -44.247154235840 5.277907848358
-82.356674194336 -73.647315979004 -52.311321258545 4.887794017792
-19.903436660767 -68.150230407715 -59.215854644775 2.690868616104
72.246383666992 -61.751377105713 -65.281440734863 2.741361141205
102.323814392090 -62.047935485840 -70.133529663086 1.917028903961
61.443031311035 -60.394256591797 -84.879646301270 2.362303256989
57.776470184326 -57.488986968994 -85.230934143066 0.776134550571
93.741714477539 -64.269966125488 -85.934165954590 6.683433532715
-67.812049865723 -65.443138122559 -89.834861755371 3.619215011597
-69.466247558594 -69.448539733887 -87.350219726563 8.060115814209
48.653366088867 -60.450771331787 -91.489418029785 4.138125419617
-71.134254455566 -72.979705810547 -94.565414428711 4.599539279938
-77.088127136230 -68.217994689941 -100.826049804688 1.336323380470
-97.373130798340 -70.005027770996 -101.600051879883 2.774942636490
-79.737808227539 -63.275062561035 -97.194427490234 5.332683086395
43.539470672607 -58.640659332275 -102.798393249512 6.547027587891
-67.613433837891 -71.743759155273 -102.198013305664 3.120668888092
43.644523620605 -61.040714263916 -105.260826110840 6.083458423615
91.740013122559 -60.638462066650 -106.238410949707 3.402038335800
85.510231018066 -62.408897399902 -116.043685913086 7.526217937469
-74.430015563965 -67.406623840332 -114.771949768066 0.571113109589
-91.149147033691 -71.202987670898 -110.196083068848 2.364588737488
-65.529731750488 -67.169647216797 -117.415489196777 2.091032266617
-99.203048706055 -62.717929840088 -116.067970275879 2.164901733398
-79.533645629883 -71.149017333984 -125.731765747070 2.335687398911
-98.350540161133 -58.895164489746 -125.359443664551 3.959676027298
-68.144966125488 -66.435264587402 -114.863662719727 3.282201290131
-64.163581848145 -59.644954681396 -120.751472473145 1.926170349121
-94.354980468750 -70.866088867188 -129.223236083984 4.959461688995
-67.556198120117 -70.757766723633 -124.746459960938 6.543805599213
-87.586273193359 -66.804321289063 -132.305725097656 1.628091931343
-89.441024780273 -68.441970825195 -133.722152709961 1.850695371628
-64.207138061523 -73.684814453125 -136.784896850586 3.629372119904
-64.000457763672 -62.820247650146 -132.234954833984 2.723742961884
-59.536174774170 -58.200401306152 -131.350891113281 0.967581689358
-104.513900756836 -64.411239624023 -128.349075317383 8.728549957275
-101.884971618652 -62.111709594727 -143.033309936523 6.310099124908
-96.089027404785 -68.186401367188 -135.080780029297 4.554474830627
14.472318649292 -66.851432800293 -151.760848999023 1.312009215355
-54.381168365479 -67.353675842285 -138.477874755859 1.620514512062
16.504732131958 -64.317337036133 -152.280807495117 1.168988108635
-102.220252990723 -68.672660827637 -164.220352172852 1.772918343544
-107.620346069336 -74.894798278809 -168.669174194336 6.293644428253
-107.125549316406 -62.681282043457 -169.029891967773 1.844298243523
-113.621040344238 -58.580429077148 -173.324920654297 4.172487258911
-114.314056396484 -68.154640197754 -176.146850585938 4.065439224243
-115.145393371582 -67.166633605957 -177.227157592773 4.853218555450
-147.551605224609 -64.962501525879 -183.490341186523 2.978913784027
-116.103195190430 -65.914604187012 -183.243637084961 3.654673576355
-139.483673095703 -64.183189392090 -200.308639526367 0.718124151230
-156.332412719727 -71.912391662598 -195.788711547852 2.012282371521
-134.854446411133 -68.188003540039 -196.285781860352 0.082537509501
-163.818344116211 -71.580520629883 -191.961822509766 5.516038417816
-151.981948852539 -73.523574829102 -200.063568115234 0.439526170492
-132.684524536133 -60.233303070068 -193.688049316406 4.802864074707
-139.936645507813 -64.780509948730 -196.454208374023 1.838360905647
-143.305740356445 -75.992767333984 -204.443176269531 0.596145391464
-135.472763061523 -69.256950378418 -220.104248046875 3.701571226120
-113.354698181152 -69.394218444824 -229.261932373047 1.717506289482
-146.630905151367 -68.080757141113 -224.358276367188 2.607924461365
-126.581642150879 -64.591171264648 -230.613235473633 0.889584183693
-123.177482604980 -59.212574005127 -228.168197631836 4.568165779114
-126.304794311523 -68.506065368652 -229.763214111328 2.355909109116
-140.271163940430 -65.831222534180 -231.233062744141 3.205501079559
-120.557289123535 -61.439903259277 -237.277770996094 4.578159809113
0.159876003861 -60.116451263428 -236.816192626953 0.754080235958
-158.520874023438 -69.805053710938 -236.973342895508 1.777601718903
-0.117911003530 -61.440734863281 -237.397293090820 1.207145094872
-2.938247919083 -55.785163879395 -245.460418701172 4.512060642242
-3.126313924789 -64.606163024902 -243.193710327148 1.078584313393
6.541859149933 -57.223575592041 -241.170883178711 1.013960838318
-148.504776000977 -63.124023437500 -231.858322143555 0.560415208340
-12.295832633972 -65.005043029785 -248.999450683594 2.341980218887
13.503545761108 -60.779441833496 -238.621841430664 2.910889387131
46.166095733643 -56.465892791748 -251.672073364258 6.400022029877
44.496650695801 -57.124660491943 -253.067047119141 6.089240074158
-152.626007080078 -69.247215270996 -249.815490722656 1.962980270386
-10.822414398193 -63.599334716797 -250.481430053711 1.697305917740
14.046149253845 -61.641658782959 -253.861709594727 6.945918560028
-136.926773071289 -57.909248352051 -255.046539306641 7.269353389740
-127.242713928223 -64.120521545410 -253.594558715820 2.140852212906
-129.114944458008 -68.793289184570 -256.039428710938 1.894900918007
21.267440795898 -59.117382049561 -257.514770507813 0.744076848030
-139.549346923828 -60.699329376221 -264.661560058594 4.390415668488
28.381181716919 -56.203334808350 -259.029998779297 2.477802276611
28.874057769775 -58.890655517578 -263.335998535156 2.955054759979
-160.790771484375 -68.974266052246 -265.998748779297 0.970851659775
-151.627792358398 -72.253738403320 -283.488311767578 2.092408180237
-154.661682128906 -59.681018829346 -284.131896972656 3.713439226151
-151.063262939453 -63.503902435303 -294.031066894531 2.515615701675
9.161722183228 -63.280811309814 -292.401611328125 2.112692117691
-161.535018920898 -62.927238464355 -303.026550292969 9.007880210876
45.600326538086 -70.250816345215 -26.867630004883 2.332494258881
34.317276000977 -72.782524108887 -40.235126495361 2.583663940430
-60.318397521973 -64.368362426758 -46.040042877197 3.572010040283
-73.319892883301 -66.371116638184 -46.466182708740 2.484326124191
-28.875516891479 -63.340911865234 -50.770519256592 2.225190401077
-25.541790008545 -72.029808044434 -54.561370849609 3.337878227234
-11.357619285583 -62.280406951904 -67.010009765625 1.814102292061
-31.633083343506 -61.455162048340 -69.997520446777 1.383408069611
61.391712188721 -63.644012451172 -76.222923278809 3.266147136688
-98.619544982910 -61.256214141846 -78.069404602051 2.827848672867
-48.519134521484 -67.998252868652 -88.139656066895 2.681257009506
51.490531921387 -65.397209167480 -86.893096923828 2.970221519470
58.792709350586 -63.847827911377 -86.132987976074 1.382432818413
56.293155670166 -64.110237121582 -89.162292480469 1.708699226379
104.657913208008 -59.941234588623 -92.221771240234 2.073831558228
49.291572570801 -61.085880279541 -88.838211059570 4.319919109344
93.993217468262 -51.815979003906 -101.003105163574 2.639968633652
-87.709541320801 -70.783523559570 -103.404258728027 3.257079124451
-93.908256530762 -67.403686523438 -99.056365966797 3.989006996155
69.986984252930 -56.782920837402 -115.838401794434 6.951833724976
-82.728096008301 -68.804244995117 -103.026367187500 2.381472587585
-80.989356994629 -73.522125244141 -110.463935852051 4.215613842010
-87.993774414063 -76.413803100586 -118.786460876465 1.766550183296
-59.071151733398 -67.762680053711 -125.427772521973 2.019699573517
-79.768028259277 -65.931243896484 -128.673416137695 1.868324995041
-68.039367675781 -60.465957641602 -126.378379821777 1.955787658691
-91.595573425293 -69.482604980469 -135.104141235352 1.113074660301
-80.737098693848 -65.236114501953 -131.832901000977 2.178714752197
-83.054718017578 -65.750152587891 -123.992027282715 2.048211336136
-94.540359497070 -65.941352844238 -127.847839355469 4.566627025604
-72.455718994141 -62.513751983643 -135.019744873047 3.069525241852
-94.448730468750 -68.477584838867 -129.605239868164 3.586477994919
-54.574363708496 -68.981163024902 -131.524383544922 1.849181413651
-58.585052490234 -73.314323425293 -138.467559814453 2.483274936676
23.831420898438 -62.413307189941 -143.491699218750 1.091415166855
-60.057033538818 -58.194679260254 -134.815216064453 1.874431133270
11.732458114624 -69.412414550781 -142.637451171875 4.285727500916
8.644285202026 -60.194221496582 -147.311737060547 6.037622928619
12.724158287048 -57.357364654541 -155.052474975586 6.318163871765
-103.546554565430 -65.553565979004 -144.012496948242 5.926447868347
-93.407005310059 -66.867805480957 -146.762039184570 1.048219203949
-101.374366760254 -63.210758209229 -148.175201416016 1.735831618309
-111.495468139648 -67.843025207520 -163.359863281250 4.148917198181
-103.534744262695 -64.818717956543 -158.908462524414 1.872582435608
-157.687316894531 -64.174728393555 -173.449783325195 5.971675395966
-158.998275756836 -68.387809753418 -172.688919067383 7.304250717163
-119.694671630859 -63.754753112793 -180.301834106445 7.805542945862
-145.610900878906 -66.131401062012 -174.338882446289 1.027627348900
-114.846832275391 -61.976882934570 -180.866165161133 5.282550334930
-152.808868408203 -57.431156158447 -184.578933715820 4.943901538849
-116.645133972168 -61.701137542725 -188.083328247070 5.647594451904
-116.048088073730 -68.706855773926 -178.335113525391 5.525357723236
-152.098083496094 -66.498275756836 -198.759552001953 1.987218618393
-131.928466796875 -68.941932678223 -194.812179565430 2.070759534836
-110.265945434570 -66.310661315918 -196.077255249023 0.565157592297
