-45.714267730713 -76.826492309570 -140.020385742188 1.767611145973
11.928591728210 -70.724426269531 -145.647247314453 1.919813990593
-93.762794494629 -63.768188476563 -136.256256103516 3.474475860596
-47.075431823730 -67.781684875488 -142.579650878906 2.157355785370
-50.801425933838 -58.994068145752 -142.897262573242 5.937247276306
-43.106834411621 -66.984657287598 -150.611694335938 2.563767194748
25.934005737305 -74.393753051758 -157.659591674805 2.739728689194
-51.892814636230 -72.250602722168 -148.592071533203 1.965143561363
-103.614959716797 -62.079925537109 -143.507278442383 6.683302402496
-49.031108856201 -65.173461914063 -150.667221069336 2.504426479340
24.681396484375 -75.085998535156 -142.465026855469 1.733122587204
-95.418167114258 -79.383941650391 -159.839660644531 10.807744979858
22.630228042603 -74.527038574219 -156.035705566406 3.008683681488
-109.189056396484 -64.646736145020 -163.770614624023 2.852619409561
-102.563346862793 -70.630157470703 -159.882812500000 3.087759971619
21.203144073486 -71.432754516602 -164.849411010742 0.951341807842
26.010007858276 -68.457229614258 -165.131851196289 0.743121564388
-112.856117248535 -73.985023498535 -168.286209106445 7.341605186462
-143.464996337891 -65.273826599121 -167.682678222656 6.192169189453
-18.548871994019 -71.585754394531 -188.471862792969 2.496967792511
-28.677732467651 -69.401832580566 -176.655761718750 1.642382621765
-119.007278442383 -72.623664855957 -181.992355346680 8.039015769958
-144.674667358398 -64.620269775391 -180.458358764648 3.737389802933
-101.525413513184 -65.431404113770 -176.707138061523 2.406817436218
-161.599212646484 -70.146148681641 -182.478897094727 8.358592987061
-132.237792968750 -76.978256225586 -190.687118530273 4.219065666199
-133.997955322266 -73.786560058594 -191.483367919922 3.781080007553
-20.103094100952 -68.479461669922 -183.361923217773 3.904975891113
-119.393478393555 -71.311637878418 -195.314178466797 1.842826604843
-120.740196228027 -64.659187316895 -196.461227416992 3.297503709793
-30.699188232422 -74.821891784668 -188.813446044922 2.533433675766
-155.486282348633 -66.234382629395 -189.019454956055 2.044746398926
-134.355789184570 -71.432273864746 -200.160354614258 2.084492206573
-126.253417968750 -66.461685180664 -198.585159301758 2.990417480469
17.519657135010 -75.907501220703 -199.394226074219 0.915195882320
-164.124038696289 -70.957870483398 -195.713638305664 1.786205053329
12.597809791565 -68.502052307129 -215.368118286133 0.466867595911
13.111490249634 -73.694236755371 -213.391525268555 2.539574861526
-15.984552383423 -65.129310607910 -208.330688476563 2.894371509552
-6.436864852905 -71.039772033691 -214.320983886719 2.260837793350
-175.064773559570 -65.709518432617 -205.654556274414 7.580457210541
-160.921722412109 -63.777149200439 -206.661743164063 3.601284265518
-96.582618713379 -69.517387390137 -215.070816040039 2.161082029343
-97.358238220215 -73.803283691406 -216.375183105469 2.080381393433
-162.667999267578 -72.394599914551 -222.286270141602 0.999042689800
-111.789009094238 -66.669006347656 -214.255386352539 8.092145919800
-12.920342445374 -68.538200378418 -207.600326538086 1.394817948341
-130.373947143555 -73.055923461914 -215.791091918945 7.611675739288
-145.322677612305 -70.474914550781 -217.306961059570 1.905007600784
-4.845116138458 -74.759513854980 -218.568725585938 0.859407067299
-135.831970214844 -67.521430969238 -218.842880249023 4.808197021484
-125.241943359375 -76.806205749512 -216.524597167969 8.681870460510
-115.969741821289 -75.133453369141 -218.517425537109 7.257177352905
-4.352942943573 -62.278450012207 -227.278549194336 4.636567115784
-109.643356323242 -67.098205566406 -228.089721679688 2.262741804123
-163.965301513672 -61.286884307861 -217.045822143555 5.109817504883
-146.945037841797 -69.556976318359 -220.780410766602 2.300810337067
-166.369842529297 -69.619827270508 -220.813812255859 2.366595268250
-10.172774314880 -68.206443786621 -222.057205200195 1.818583011627
-9.815230369568 -72.166893005371 -231.487182617188 1.761961221695
76.681320190430 -76.153739929199 -223.478073120117 2.541886568069
-3.887078046799 -75.161933898926 -225.906219482422 2.822858333588
-145.456726074219 -70.382141113281 -234.114425659180 2.132818222046
-16.588178634644 -67.791053771973 -226.827438354492 1.585827350616
72.078239440918 -72.473121643066 -225.969070434570 2.543907165527
71.871765136719 -72.558303833008 -231.932800292969 2.059169292450
-136.149978637695 -67.832107543945 -226.732330322266 1.463251590729
-157.468536376953 -76.107826232910 -223.131469726563 3.978449821472
-115.482643127441 -67.506919860840 -228.307540893555 1.895079493523
-127.664878845215 -63.608734130859 -232.447906494141 2.654385328293
-164.070419311523 -68.490936279297 -229.990112304688 2.044402360916
-163.304443359375 -71.509185791016 -229.897369384766 1.934433221817
-150.539306640625 -62.692428588867 -226.986495971680 2.489737510681
-18.061210632324 -67.494483947754 -231.103027343750 2.908764362335
-8.349246025085 -69.432205200195 -240.265579223633 1.238713979721
-162.196594238281 -68.860603332520 -238.298629760742 2.836287498474
3.794222116470 -71.924758911133 -233.926284790039 2.488909482956
-2.310199022293 -73.447975158691 -236.317520141602 1.802231431007
-160.647109985352 -69.880073547363 -231.296600341797 3.493199586868
17.169281005859 -77.709098815918 -237.413574218750 1.307340145111
48.825542449951 -75.392425537109 -244.877075195313 4.063490867615
46.190517425537 -76.589210510254 -241.413604736328 6.220949649811
-20.042852401733 -72.475715637207 -244.426528930664 2.193798542023
44.681568145752 -70.661651611328 -248.380172729492 2.041656494141
-161.346527099609 -64.416442871094 -243.021118164063 2.603844881058
-157.899566650391 -71.305252075195 -240.975891113281 3.796548128128
-163.834304809570 -77.324340820313 -243.656616210938 4.552684307098
54.248210906982 -70.687599182129 -245.243850708008 1.215288639069
-96.999877929688 -68.879585266113 -248.542022705078 4.801812171936
-126.330505371094 -68.374938964844 -250.152572631836 3.952836513519
-108.924377441406 -77.627662658691 -247.603668212891 10.017242431641
21.456876754761 -78.114517211914 -255.500808715820 1.323557138443
36.599952697754 -68.229026794434 -249.894577026367 2.863399267197
-102.799674987793 -66.930862426758 -250.122039794922 5.705478668213
-95.133087158203 -64.137725830078 -243.925109863281 6.463803291321
43.290943145752 -78.918945312500 -254.215103149414 7.596209049225
37.842903137207 -69.050125122070 -255.534713745117 1.403339743614
-156.476516723633 -78.099884033203 -251.763442993164 3.190020799637
25.232652664185 -72.005805969238 -258.430938720703 2.927589654922
-146.671859741211 -73.896080017090 -260.223510742188 0.701078057289
-114.942810058594 -70.844055175781 -258.366851806641 0.985930502415
-141.412399291992 -66.713127136230 -256.760559082031 2.108563184738
31.120569229126 -70.413124084473 -261.011932373047 1.700775861740
-128.937210083008 -69.209426879883 -257.565490722656 3.354344367981
-14.155621528625 -69.288047790527 -252.913330078125 2.358175754547
16.667593002319 -76.214691162109 -268.945800781250 3.972144842148
-5.861999988556 -80.157272338867 -260.842498779297 2.996105432510
15.651591300964 -75.294136047363 -278.406097412109 2.174040317535
-158.282882690430 -74.889976501465 -277.035491943359 2.433520555496
-15.151573181152 -68.701309204102 -278.193542480469 4.134458541870
-155.357574462891 -75.246856689453 -275.741973876953 3.542746782303
-124.807922363281 -75.560791015625 -280.087432861328 4.052394866943
-168.351074218750 -79.608406066895 -280.364929199219 6.546681880951
-118.467689514160 -70.610725402832 -282.075500488281 5.341243267059
-106.376564025879 -72.413581848145 -286.124084472656 1.689245104790
-10.147921562195 -69.627479553223 -281.260833740234 1.886758685112
-110.605117797852 -74.230216979980 -283.210632324219 4.781920433044
-120.369178771973 -68.197212219238 -277.396789550781 9.637977600098
-127.430168151855 -66.462081909180 -287.257507324219 1.821050286293
-143.781570434570 -71.821258544922 -285.124420166016 1.465549588203
-130.977294921875 -65.602943420410 -285.765319824219 2.304421663284
-162.427383422852 -78.186851501465 -283.545196533203 3.032164573669
-150.761459350586 -66.261833190918 -285.373413085938 0.681945621967
-164.777725219727 -66.802238464355 -298.133117675781 7.397312641144
-158.457122802734 -68.935417175293 -305.244232177734 4.774774551392
-165.167160034180 -67.338287353516 -295.807586669922 5.338748455048
-142.027252197266 -72.725044250488 -304.700256347656 2.606029272079
-152.270523071289 -75.659652709961 -309.914245605469 2.455749511719
37.433040618896 -68.862007141113 -3.814172029495 7.147009372711
51.668724060059 -75.162246704102 -15.615697860718 6.330180168152
25.300571441650 -67.347267150879 -18.624231338501 2.892969608307
53.300884246826 -69.603874206543 -23.194868087769 4.111657619476
29.107151031494 -71.629737854004 -31.456644058228 2.287039279938
32.762599945068 -69.618186950684 -30.012298583984 5.226387500763
-55.825031280518 -62.807380676270 -45.608608245850 1.345893740654
77.058761596680 -63.337432861328 -57.130573272705 2.523514747620
84.735382080078 -71.371856689453 -66.705627441406 2.357951164246
-88.082534790039 -71.350105285645 -59.201023101807 1.826093316078
-11.837176322937 -65.412719726563 -55.826190948486 1.936806678772
-91.463394165039 -70.337440490723 -68.313491821289 1.244086146355
98.007781982422 -73.413574218750 -65.152229309082 5.756413936615
-9.931822776794 -65.528656005859 -63.912208557129 2.216967105865
68.497436523438 -73.970779418945 -80.937538146973 2.911609172821
-44.378944396973 -73.914970397949 -78.407745361328 3.294497013092
-24.638290405273 -71.870727539063 -69.979019165039 4.333547592163
56.330017089844 -62.719341278076 -85.048797607422 2.886204957962
-41.723644256592 -79.964675903320 -79.615669250488 2.753263235092
65.975349426270 -57.556751251221 -86.132667541504 3.008933305740
52.666065216064 -76.372817993164 -89.992897033691 2.240245103836
56.989784240723 -68.136093139648 -93.083145141602 1.282354116440
58.022003173828 -78.814300537109 -88.427352905273 5.234605312347
56.470409393311 -63.197170257568 -93.804092407227 2.128112077713
99.061553955078 -64.989196777344 -97.568412780762 1.403528809547
108.289932250977 -62.990356445313 -99.412193298340 2.817324399948
61.754730224609 -73.264762878418 -99.425765991211 3.909086704254
108.762413024902 -64.443542480469 -100.234230041504 3.307206392288
-77.730644226074 -67.983512878418 -94.398368835449 4.630365848541
-73.316894531250 -69.739837646484 -99.752670288086 1.622758269310
100.856582641602 -65.213996887207 -97.178031921387 0.866383492947
53.841041564941 -71.224960327148 -99.164093017578 2.365629911423
70.828018188477 -72.444664001465 -94.852340698242 1.834817528725
-70.316375732422 -69.492752075195 -105.740951538086 2.662112712860
-85.647407531738 -67.299079895020 -104.371490478516 0.618648946285
86.177406311035 -75.319679260254 -101.058815002441 2.690847158432
38.743991851807 -72.859580993652 -99.697753906250 4.254744529724
107.138641357422 -65.014907836914 -107.327392578125 2.482631206512
49.339992523193 -74.101905822754 -111.686149597168 1.983798742294
111.895278930664 -71.289344787598 -100.351531982422 2.694685697556
-76.982009887695 -69.657356262207 -108.748764038086 1.074188947678
102.632804870605 -63.856678009033 -107.853149414063 3.528447628021
-82.465370178223 -65.692779541016 -117.876976013184 1.026791453362
-58.128082275391 -72.532005310059 -123.963928222656 3.514037609100
-57.468463897705 -69.106239318848 -119.659355163574 2.445237636566
-70.660491943359 -72.451713562012 -126.892265319824 4.499332427979
-50.227466583252 -71.193885803223 -127.738082885742 3.514681339264
-83.851142883301 -71.410751342773 -130.640411376953 3.207443475723
-77.581886291504 -63.899711608887 -127.110191345215 2.426599264145
-78.594741821289 -70.664924621582 -129.633651733398 0.825675129890
-62.022514343262 -75.959701538086 -138.896041870117 3.308712720871
-70.381698608398 -70.308868408203 -137.986068725586 1.025480031967
-60.849781036377 -76.902671813965 -128.148025512695 5.890272140503
-56.577640533447 -69.140464782715 -139.674972534180 2.007321119308
10.580718994141 -64.288032531738 -143.772674560547 5.090199947357
-91.634605407715 -70.846458435059 -135.615341186523 2.214779853821
-49.245937347412 -76.893180847168 -146.368972778320 2.007899761200
-94.138977050781 -67.769058227539 -145.760482788086 0.982553005219
-102.588714599609 -65.393013000488 -142.214660644531 6.043045520782
20.260013580322 -73.551376342773 -152.841384887695 2.314077615738
14.672157287598 -71.808525085449 -156.830764770508 1.058701038361
-95.425727844238 -73.367973327637 -156.787719726563 6.058170318604
-104.889289855957 -70.636581420898 -145.775283813477 7.909960269928
-100.000335693359 -67.883804321289 -162.833068847656 2.890217304230
20.474596023560 -69.816345214844 -168.301223754883 2.228634119034
-113.725708007813 -69.545967102051 -169.163986206055 6.211824417114
25.217884063721 -69.916816711426 -161.631347656250 2.011302232742
-149.075958251953 -70.191551208496 -171.752792358398 3.055821895599
17.357246398926 -69.562866210938 -173.373916625977 1.949992775917
24.294679641724 -72.060562133789 -183.723831176758 1.547117590904
-152.572174072266 -67.547706604004 -180.386169433594 2.486505508423
19.961336135864 -73.010757446289 -171.608734130859 3.102788448334
18.174505233765 -60.801380157471 -179.349853515625 6.083523273468
-147.199569702148 -74.870101928711 -176.403259277344 2.819980382919
-153.105056762695 -64.987380981445 -184.336212158203 2.518149375916
18.576847076416 -71.675064086914 -184.776443481445 1.588564157486
17.507474899292 -75.059883117676 -187.875823974609 0.815972745419
-142.601608276367 -73.085197448730 -189.398422241211 1.708622217178
-111.263137817383 -70.530441284180 -192.907028198242 1.652406454086
25.889816284180 -71.180175781250 -197.553070068359 2.994823455811
-127.128402709961 -71.110168457031 -189.720657348633 3.549289941788
7.445930957794 -74.835884094238 -198.914993286133 3.386069059372
-129.290023803711 -61.288894653320 -188.868499755859 7.843787193298
-164.872299194336 -66.566429138184 -181.710296630859 11.561163902283
-161.172683715820 -67.456008911133 -190.665267944336 4.474020957947
-156.952087402344 -72.844978332520 -186.487274169922 4.888328075409
-23.594511032104 -71.733612060547 -205.595809936523 2.085181713104
-171.066131591797 -72.962425231934 -193.020126342773 8.915782928467
-29.951625823975 -64.710678100586 -189.834793090820 3.413095712662
-17.259283065796 -72.365493774414 -189.254547119141 2.942266225815
3.658643007278 -62.756526947021 -193.574935913086 7.885910034180
-157.925170898438 -71.183372497559 -202.457687377930 1.002956986427
-107.343170166016 -67.869613647461 -198.484512329102 2.719042062759
-17.692520141602 -65.751991271973 -195.302459716797 1.839372396469
-163.487838745117 -61.371936798096 -195.206527709961 7.112617015839
16.253496170044 -72.035751342773 -200.277404785156 1.578501701355
-174.015121459961 -66.864532470703 -200.933410644531 7.073115348816
-120.737281799316 -72.875915527344 -197.234954833984 1.533858060837
-118.003303527832 -66.522460937500 -205.156707763672 1.837397933006
-124.192604064941 -70.002998352051 -198.461334228516 1.260547757149
-18.100492477417 -68.839828491211 -198.903381347656 1.583282232285
-21.766170501709 -71.886131286621 -199.772048950195 2.111778020859
-165.738311767578 -69.386146545410 -206.578216552734 2.349593400955
-161.328231811523 -66.521995544434 -205.549835205078 3.616869926453
-166.656738281250 -70.955528259277 -213.724945068359 3.252620935440
-140.168655395508 -73.572257995605 -208.158752441406 5.022103309631
-147.638183593750 -68.766532897949 -220.209320068359 2.057899951935
-1.963235020638 -68.414031982422 -215.584274291992 1.112919211388
-10.345212936401 -78.159149169922 -214.063049316406 0.932687580585
-103.424476623535 -66.796241760254 -215.682067871094 5.154273986816
-10.340903282166 -68.288230895996 -233.921920776367 1.399486303329
-172.116928100586 -65.589347839355 -225.901901245117 5.529398441315
-106.025360107422 -67.594909667969 -230.437057495117 1.973268270493
0.764352023602 -71.592056274414 -223.682250976563 1.219657659531
-0.544839024544 -70.329200744629 -226.318252563477 1.848165750504
-114.181213378906 -69.908142089844 -229.568740844727 1.478425383568
-3.666779041290 -72.747703552246 -223.436965942383 2.729386091232
-121.349792480469 -65.503730773926 -229.011779785156 0.820709168911
-10.478997230530 -65.998466491699 -227.776062011719 1.615564703941
-3.624788045883 -69.334358215332 -232.144363403320 2.074778318405
-5.384796142578 -69.360572814941 -236.816986083984 1.740631222725
70.759620666504 -66.010978698730 -235.252899169922 1.760139346123
-11.065976142883 -74.743553161621 -234.647842407227 1.095755100250
9.483040809631 -71.898162841797 -232.518630981445 2.743093013763
9.158523559570 -69.911399841309 -234.316909790039 1.787828803062
2.665843009949 -73.005340576172 -235.817947387695 2.599549770355
2.866225957870 -73.608642578125 -239.207458496094 1.582006931305
60.257789611816 -63.923583984375 -238.504669189453 3.613911867142
66.483940124512 -64.926666259766 -239.315475463867 3.274891853333
3.083333015442 -69.760856628418 -246.915191650391 3.237703800201
48.073413848877 -73.800918579102 -240.766174316406 3.566932916641
52.719749450684 -77.212005615234 -238.118209838867 6.473564624786
44.387958526611 -65.314521789551 -250.098831176758 2.366582393646
40.505577087402 -66.163757324219 -249.762161254883 0.884426295757
38.154750823975 -69.463920593262 -257.958007812500 0.635104715824
-131.692962646484 -62.318153381348 -256.099395751953 2.278568506241
-10.384272575378 -69.325378417969 -243.298446655273 2.573184728622
29.155883789063 -67.846977233887 -254.891937255859 2.149945497513
40.480113983154 -68.823844909668 -241.999343872070 7.273587703705
28.093482971191 -75.025840759277 -249.616912841797 5.260090827942
-107.533988952637 -73.939979553223 -255.481994628906 2.326024532318
26.713884353638 -72.815650939941 -253.422744750977 3.531094312668
-146.710464477539 -72.711387634277 -257.183532714844 0.751904845238
-119.416275024414 -74.159545898438 -250.557586669922 5.331439971924
-114.809028625488 -70.504531860352 -254.138366699219 2.297370672226
-3.337625026703 -75.333160400391 -255.708999633789 4.974917411804
-155.674850463867 -71.582885742188 -251.494171142578 2.633602142334
35.357528686523 -71.901687622070 -261.458496093750 3.642753362656
-109.511360168457 -68.475921630859 -250.414016723633 4.397224903107
22.803386688232 -77.663673400879 -255.837203979492 2.046085596085
-137.349502563477 -74.892990112305 -260.666809082031 1.598506808281
-119.684844970703 -69.808708190918 -262.918975830078 0.791432917118
-114.779388427734 -69.922340393066 -258.514892578125 1.372676134109
-116.043159484863 -79.799484252930 -255.933731079102 5.313777923584
-145.319107055664 -72.825477600098 -248.146942138672 3.594604969025
27.515062332153 -71.890014648438 -255.765823364258 2.348444700241
-119.400451660156 -67.571289062500 -257.260437011719 2.922416687012
-147.796295166016 -71.886245727539 -258.204925537109 1.250489830971
-7.751042842865 -67.513427734375 -267.380767822266 1.000723242760
-152.392608642578 -73.281417846680 -274.008148193359 1.608804702759
-12.514039993286 -72.506500244141 -287.623107910156 2.242100477219
-8.697034835815 -68.047912597656 -277.247833251953 1.537717461586
-137.679519653320 -69.497001647949 -285.251708984375 2.420360565186
-133.781280517578 -71.032707214355 -288.170745849609 1.549492359161
-138.820190429688 -69.136283874512 -290.504211425781 2.298231124878
-130.102752685547 -66.380302429199 -283.808319091797 2.512607574463
-159.874603271484 -69.687301635742 -288.632415771484 1.866969823837
-162.404098510742 -71.275604248047 -294.025665283203 1.354560494423
-152.325622558594 -75.524520874023 -296.528442382813 2.187308311462
-152.532867431641 -73.436805725098 -300.152404785156 3.527014255524
-148.295166015625 -69.568328857422 -291.934600830078 1.337732791901
-155.111053466797 -70.009544372559 -301.649291992188 2.704381227493
-148.977233886719 -66.723564147949 -312.180633544922 1.255785942078
20.963039398193 -71.212150573730 -22.242904663086 0.989510953426
52.917179107666 -72.171394348145 -34.670452117920 1.919887781143
25.428272247314 -76.181617736816 -33.046253204346 4.705083370209
33.203964233398 -68.022735595703 -42.103981018066 1.714694261551
-39.787166595459 -59.062213897705 -45.472843170166 0.383537590504
-72.300796508789 -62.600784301758 -45.874340057373 1.644551634789
81.182731628418 -68.835708618164 -59.601062774658 2.540298223495
74.386978149414 -70.095001220703 -59.460029602051 4.156421184540
74.233451843262 -72.439460754395 -62.080699920654 4.744444370270
-100.728614807129 -67.820655822754 -66.348777770996 5.446125984192
98.946166992188 -75.088760375977 -73.825355529785 2.529424667358
-26.029193878174 -71.747795104980 -83.304710388184 3.304804563522
61.629219055176 -66.062988281250 -72.340568542480 3.800884723663
-40.854286193848 -63.465358734131 -80.857559204102 2.411134243011
-56.233020782471 -65.879470825195 -76.824737548828 3.884157419205
52.566474914551 -69.024162292480 -88.333930969238 1.484088420868
103.072883605957 -66.383819580078 -89.450286865234 2.891613721848
63.058925628662 -66.742576599121 -90.002815246582 1.513715386391
56.387592315674 -66.983528137207 -88.451690673828 2.461353778839
47.983386993408 -64.504844665527 -100.242286682129 2.439913749695
56.398208618164 -64.327484130859 -101.036331176758 1.817420601845
102.724708557129 -66.855331420898 -96.232536315918 0.881585359573
68.789329528809 -68.513000488281 -106.831291198730 3.537510871887
53.302841186523 -69.412948608398 -103.991912841797 2.046938657761
75.497062683105 -76.677314758301 -106.090881347656 6.739070415497
100.953025817871 -64.727561950684 -105.949775695801 3.210660457611
-72.895378112793 -64.393722534180 -93.317955017090 4.509066104889
-86.235061645508 -67.984298706055 -105.686027526855 1.085723876953
-81.619636535645 -68.644714355469 -107.383468627930 2.609790086746
-60.751449584961 -68.695243835449 -115.068687438965 3.748173713684
-57.509956359863 -73.194572448730 -122.687889099121 4.639503479004
-94.794075012207 -67.282768249512 -116.727539062500 2.755004644394
-73.260353088379 -71.882148742676 -114.400344848633 4.990395069122
-77.429801940918 -73.270561218262 -128.997894287109 2.991166591644
-60.371822357178 -63.994441986084 -123.416450500488 2.987349510193
-87.916122436523 -63.775131225586 -126.398040771484 1.125548362732
-90.031715393066 -66.576690673828 -126.845672607422 2.848221540451
-48.965011596680 -72.078445434570 -131.105941772461 1.833508372307
-50.658546447754 -71.213188171387 -134.125656127930 1.605001807213
-78.265548706055 -73.291084289551 -133.890350341797 1.677149176598
-55.508155822754 -71.896942138672 -137.329849243164 2.452444076538
-73.694580078125 -74.771064758301 -141.567230224609 1.239886760712
18.245153427124 -66.240570068359 -137.140762329102 3.686310291290
-58.683712005615 -74.706336975098 -139.855499267578 1.276410460472
-56.673431396484 -64.443405151367 -142.654815673828 2.383457660675
8.125058174133 -74.615783691406 -152.437088012695 2.430227518082
17.263221740723 -67.574729919434 -147.894882202148 1.181284189224
-141.986770629883 -70.185478210449 -167.500274658203 7.548446178436
-110.970458984375 -66.608543395996 -172.770294189453 3.008398532867
-113.325233459473 -64.117996215820 -185.839447021484 3.470409154892
-154.605484008789 -71.633811950684 -183.904571533203 2.387887001038
-114.581901550293 -68.326301574707 -181.597457885742 2.628364324570
-152.326477050781 -62.804229736328 -191.569625854492 3.450512170792
-115.664512634277 -68.239295959473 -194.493820190430 2.255068063736
-152.810089111328 -64.821159362793 -196.143524169922 2.026933193207
-150.741607666016 -68.244621276855 -201.477722167969 2.723401784897
-155.736953735352 -75.032173156738 -198.488983154297 1.000440239906
-151.681533813477 -69.281394958496 -219.561187744141 3.166297674179
-150.566513061523 -73.173019409180 -221.494506835938 2.247672319412
-107.374832153320 -65.460037231445 -224.928482055664 2.069683551788
-100.792541503906 -69.619544982910 -215.270751953125 3.654213428497
-124.760025024414 -62.916519165039 -228.301620483398 1.230407238007
-108.473381042480 -69.864570617676 -220.458724975586 3.394169330597
-159.612976074219 -69.441596984863 -225.164535522461 1.928218841553
-5.337866783142 -69.368347167969 -220.905639648438 2.597280502319
-134.683395385742 -74.179710388184 -224.337554931641 2.402166843414
-155.801422119141 -69.675148010254 -230.273788452148 0.889653444290
-141.897415161133 -74.062034606934 -226.680999755859 3.109569072723
-12.075148582458 -67.727226257324 -229.982803344727 0.932677447796
6.790428161621 -69.940048217773 -241.959991455078 1.494180560112
60.721981048584 -63.131191253662 -238.122085571289 3.880255460739
15.305434226990 -75.753631591797 -247.323867797852 2.942538976669
51.095390319824 -69.992424011230 -239.475250244141 3.611116170883
37.803855895996 -74.122680664063 -247.577819824219 5.289695262909
60.910549163818 -65.481079101563 -251.356903076172 4.337173938751
-156.112686157227 -69.625679016113 -242.554748535156 3.312496662140
-148.459655761719 -73.920433044434 -249.549682617188 3.107069969177
41.799228668213 -68.783645629883 -253.979324340820 1.066149950027
24.553401947021 -70.616195678711 -251.019699096680 1.702320098877
46.498989105225 -65.726799011230 -252.277969360352 1.462706565857
-148.113418579102 -73.193954467773 -259.191436767578 1.012793183327
-140.881134033203 -67.926910400391 -248.866226196289 4.233358860016
-126.118843078613 -66.676284790039 -255.041290283203 1.394444108009
-135.352951049805 -69.225639343262 -250.667190551758 4.727783679962
-142.001800537109 -71.239707946777 -252.946151733398 2.693319320679
-125.249435424805 -68.750160217285 -255.214782714844 2.887441635132
-145.891418457031 -67.088516235352 -254.760253906250 1.490544795990
-130.389663696289 -73.288711547852 -252.174499511719 2.746266126633
-121.590148925781 -71.478660583496 -260.570709228516 3.152517318726
-132.695907592773 -70.128433227539 -260.563110351563 1.998843550682
-125.853034973145 -64.993499755859 -259.379882812500 0.510228395462
-7.803597927094 -70.940536499023 -263.836242675781 3.827048778534
27.602315902710 -64.955192565918 -258.599182128906 1.616080045700
-148.090530395508 -62.078575134277 -262.453826904297 1.184337735176
23.483665466309 -72.820228576660 -269.741821289063 1.663692712784
-9.580783843994 -62.736625671387 -274.471221923828 4.179972171783
14.721910476685 -77.800048828125 -280.189178466797 3.217559099197
-143.911331176758 -70.648696899414 -284.395507812500 0.429172694683
-127.342948913574 -73.666236877441 -281.899505615234 3.093586921692
-133.082229614258 -63.966503143311 -285.873901367188 2.477332830429
-163.530532836914 -64.305000305176 -287.873046875000 4.151107788086
-130.218490600586 -63.009815216064 -284.558563232422 3.953614234924
-121.108383178711 -67.848167419434 -283.928741455078 3.640194892883
-127.357582092285 -74.176521301270 -293.615661621094 1.871190071106
-156.368560791016 -74.051818847656 -285.437561035156 3.097425699234
31.524602890015 -71.452476501465 -8.302032470703 4.376260757446
29.856149673462 -72.595664978027 -15.378599166870 1.797286629677
38.792507171631 -65.719612121582 -19.500160217285 2.646384716034
48.817901611328 -62.573741912842 -20.944849014282 1.407545804977
30.953165054321 -74.722831726074 -25.497089385986 4.521680831909
19.625257492065 -71.325492858887 -30.309024810791 1.254779219627
-32.129371643066 -70.385826110840 -41.587604522705 7.245340824127
-79.208572387695 -70.759414672852 -49.627784729004 1.491534352303
-16.583597183228 -68.119667053223 -56.659183502197 2.449781179428
75.750106811523 -65.776390075684 -62.849506378174 2.085479974747
105.787864685059 -67.502777099609 -67.649002075195 5.787117004395
65.005714416504 -64.724159240723 -82.498802185059 1.071679592133
61.462459564209 -61.685218811035 -82.965522766113 0.855984091759
97.115898132324 -69.970642089844 -83.363861083984 3.876344203949
-64.349182128906 -64.605751037598 -87.419342041016 2.858958482742
-66.166969299316 -68.441268920898 -84.785430908203 6.418486118317
52.222492218018 -64.504203796387 -89.117599487305 2.557972192764
-67.982124328613 -72.173843383789 -91.862403869629 3.528138637543
-73.735824584961 -67.412841796875 -98.307998657227 1.799638271332
-94.077674865723 -68.387207031250 -99.038520812988 3.670439720154
-76.177391052246 -62.229179382324 -94.871368408203 5.370470046997
47.184173583984 -62.918006896973 -100.493919372559 2.273967504501
-64.415672302246 -71.377571105957 -99.532249450684 2.663886308670
47.188961029053 -65.412803649902 -102.862640380859 1.868052482605
95.259536743164 -67.038879394531 -103.794601440430 1.833884835243
88.958557128906 -68.923835754395 -113.532814025879 6.715548038483
-71.051017761230 -67.246307373047 -112.271377563477 4.006478309631
-87.911468505859 -70.169700622559 -107.574653625488 3.093668460846
-62.149433135986 -67.479148864746 -114.910888671875 2.825613021851
-95.609123229980 -61.589488983154 -113.776794433594 1.915263891220
-76.308830261230 -71.190856933594 -123.086456298828 3.329299926758
-94.602165222168 -58.163558959961 -123.206573486328 0.878402948380
-64.731178283691 -66.540084838867 -112.392288208008 3.570309162140
-60.474033355713 -60.150588989258 -118.530456542969 2.330228805542
-91.106903076172 -70.428619384766 -126.604766845703 2.864897966385
-64.325134277344 -71.258186340332 -122.101821899414 5.220857143402
-84.176856994629 -66.771339416504 -129.831848144531 1.157056808472
-86.098297119141 -68.383827209473 -131.186920166016 1.735122680664
-61.104106903076 -74.779739379883 -134.015319824219 4.526385784149
-60.446308135986 -63.766925811768 -129.883911132813 0.555694282055
-55.794303894043 -59.305339813232 -129.171554565430 1.607247591019
-100.989593505859 -63.530189514160 -125.990821838379 4.455382347107
-98.272575378418 -61.904903411865 -140.748931884766 3.267246007919
-92.730461120605 -67.905532836914 -132.562667846680 1.582096099854
17.785820007324 -71.786087036133 -149.142974853516 1.731026649475
-51.025016784668 -68.930053710938 -135.936843872070 2.280643463135
19.921228408813 -69.360023498535 -149.756927490234 2.279786825180
-98.886199951172 -69.252128601074 -161.669998168945 1.643860340118
-104.540733337402 -75.411109924316 -165.884384155273 6.093098640442
-103.540847778320 -63.251289367676 -166.711257934570 2.063248157501
-109.862419128418 -59.052478790283 -171.168106079102 4.301492214203
-110.952140808105 -68.690757751465 -173.622726440430 1.264735698700
-111.742218017578 -67.711250305176 -174.741058349609 1.896088361740
-144.031463623047 -64.409202575684 -181.124557495117 3.845062732697
-112.649360656738 -66.651756286621 -180.802215576172 1.377440452576
-135.943756103516 -64.608436584473 -197.950241088867 3.087860107422
-153.096527099609 -71.455192565918 -193.159179687500 1.875876784325
-131.482955932617 -68.644538879395 -193.771392822266 2.519406318665
-160.561035156250 -70.667655944824 -189.357162475586 5.155219078064
-148.817916870117 -73.407394409180 -197.363845825195 2.710283756256
-128.984725952148 -60.692901611328 -191.477005004883 6.287950038910
-136.419799804688 -65.038604736328 -194.076354980469 2.281503438950
-140.252822875977 -76.399261474609 -201.634948730469 1.109107255936
-132.152893066406 -70.597465515137 -217.532318115234 6.343033790588
-110.062507629395 -72.000160217285 -226.650314331055 1.805712938309
-143.254165649414 -69.124137878418 -221.842193603516 0.645610868931
-123.079704284668 -66.709091186523 -228.200866699219 1.660009026527
-119.454978942871 -61.386371612549 -225.959030151367 4.803041458130
-122.964889526367 -70.596702575684 -227.201416015625 2.720849990845
-136.809020996094 -67.404388427734 -228.789978027344 3.218601226807
-116.932258605957 -64.067108154297 -234.973464965820 2.570392608643
3.736325979233 -67.723625183105 -234.411514282227 2.145986795425
-155.209503173828 -70.836303710938 -234.396987915039 2.725889682770
3.403759956360 -69.056533813477 -234.941894531250 1.153402328491
0.817312002182 -63.601730346680 -243.218933105469 1.307437777519
0.264970004559 -72.314201354980 -240.616806030273 1.925540685654
10.231159210205 -65.266052246094 -238.865646362305 0.972553789616
-144.923706054688 -64.384689331055 -229.528625488281 2.109280586243
-8.915119171143 -72.555107116699 -246.414535522461 2.220021486282
17.040508270264 -69.006828308105 -236.173767089844 1.059180617332
49.849308013916 -66.551063537598 -249.338455200195 1.194781064987
48.153560638428 -67.193069458008 -250.709304809570 1.093770623207
-149.300857543945 -71.014610290527 -247.243652343750 2.512285470963
-7.385259151459 -71.269309997559 -247.947341918945 3.321427583694
17.541906356812 -70.473182678223 -251.368835449219 2.386938571930
-133.147430419922 -60.544464111328 -252.884750366211 4.419784069061
-123.728332519531 -67.091064453125 -251.184188842773 3.767817735672
-125.793212890625 -71.772453308105 -253.450927734375 2.612250566483
24.860301971436 -68.391510009766 -255.106689453125 1.936352849007
-135.886428833008 -63.589439392090 -262.389343261719 1.424145460129
32.088081359863 -65.834449768066 -256.723327636719 2.609723806381
32.467853546143 -68.702629089355 -260.922790527344 1.457600712776
-157.452667236328 -71.023368835449 -263.435729980469 1.751585245132
-148.439102172852 -75.345932006836 -280.775604248047 1.693746924400
-150.950103759766 -62.692272186279 -281.903289794922 1.573896288872
-147.516296386719 -67.036720275879 -291.644531250000 1.664125680923
12.581051826477 -73.382080078125 -289.823944091797 2.151647567749
-157.958190917969 -66.371780395508 -300.668609619141 4.143329620361
48.787738800049 -71.689994812012 -24.172214508057 2.062294483185
37.405128479004 -74.262184143066 -37.447254180908 1.700162887573
-56.802970886230 -62.167270660400 -43.688297271729 2.927696228027
-69.876373291016 -63.645111083984 -44.053836822510 2.258128643036
-25.346084594727 -62.623600006104 -48.415184020996 2.192291736603
-22.376188278198 -71.581672668457 -51.866821289063 4.201894283295
-7.804677963257 -62.911006927490 -64.661376953125 2.813463211060
-28.029579162598 -61.362331390381 -67.703674316406 2.132148981094
64.822769165039 -67.635429382324 -73.724212646484 2.277811527252
-94.953033447266 -58.700481414795 -75.861221313477 3.199012517929
-45.178035736084 -67.890327453613 -85.603485107422 2.424764156342
54.853961944580 -69.384338378906 -84.331939697266 2.218655109406
62.214275360107 -68.110519409180 -83.622482299805 1.528974175453
59.704998016357 -68.384971618652 -86.642662048340 3.799735307693
108.199859619141 -66.341072082520 -89.798706054688 2.973472595215
52.834732055664 -65.063278198242 -86.443252563477 1.968262434006
97.877784729004 -58.123371124268 -98.897674560547 2.476155996323
-84.455200195313 -69.633392333984 -100.799530029297 4.124925136566
-90.507232666016 -65.836067199707 -96.591827392578 6.007838249207
73.681602478027 -62.656562805176 -113.562271118164 3.456556081772
-79.395957946777 -67.848945617676 -100.491355895996 1.860295295715
-77.856491088867 -72.915824890137 -107.740882873535 3.910684585571
-84.977371215820 -75.831451416016 -115.955528259277 2.256027698517
-55.723594665527 -68.645050048828 -122.886528015137 2.072677612305
-76.327972412109 -66.084220886230 -126.225784301758 1.087373733521
-64.382354736328 -61.025173187256 -124.126708984375 1.975818395615
-88.294532775879 -69.386520385742 -132.530822753906 1.769942045212
-77.268486022949 -65.470970153809 -129.410736083984 2.387155532837
-79.602798461914 -65.588302612305 -121.558853149414 1.917248249054
-91.087783813477 -65.451416015625 -125.418930053711 3.291690587997
-68.882553100586 -63.217559814453 -132.688964843750 4.728653430939
-91.101814270020 -68.054649353027 -127.077949523926 2.414847850800
-51.283123016357 -70.280929565430 -128.926452636719 1.820551753044
-55.472064971924 -74.706863403320 -135.703872680664 2.135178089142
27.323369979858 -67.425956726074 -141.037872314453 2.302285671234
-56.315624237061 -59.410614013672 -132.634216308594 2.576577901840
14.945304870605 -73.880569458008 -139.931777954102 6.997471332550
12.239863395691 -64.728073120117 -144.958999633789 3.389380931854
16.431119918823 -62.360710144043 -152.797439575195 2.328493356705
-100.075553894043 -65.309989929199 -141.597869873047 3.476978302002
-90.000015258789 -67.146926879883 -144.282440185547 1.667972922325
-97.809616088867 -63.220054626465 -145.844390869141 2.888322353363
-108.118835449219 -68.007064819336 -160.853485107422 2.782368898392
-100.038261413574 -65.146697998047 -156.511016845703 0.894618868828
-154.122558593750 -62.819114685059 -171.134185791016 4.766858100891
-155.606536865234 -66.942138671875 -170.214431762695 6.663679599762
-116.147361755371 -64.234161376953 -177.949661254883 5.964646339417
-142.137786865234 -65.306442260742 -171.932693481445 3.076553106308
-111.230262756348 -62.681327819824 -178.575485229492 1.602297067642
-148.972778320313 -56.713924407959 -182.506942749023 4.764441013336
-113.017997741699 -62.607719421387 -185.800155639648 4.046875476837
-112.708267211914 -69.254051208496 -175.790435791016 3.347639799118
-148.642684936523 -66.338569641113 -196.329559326172 1.603742599487
-128.590225219727 -69.461975097656 -192.266357421875 2.319988489151
-106.837753295898 -67.779731750488 -193.603973388672 2.328142166138
-118.095764160156 -59.152454376221 -193.780639648438 4.853332519531
-115.732116699219 -69.851577758789 -195.974075317383 1.552080392838
-119.011222839355 -60.493824005127 -198.335220336914 2.572078943253
-136.156311035156 -63.784812927246 -191.403747558594 3.026449441910
-144.725814819336 -67.344474792480 -198.993652343750 2.115639209747
-131.320129394531 -64.939231872559 -205.508880615234 2.091201305389
-131.520355224609 -60.413303375244 -195.092102050781 3.509327650070
-123.368331909180 -64.207168579102 -200.333480834961 0.870303332806
-112.667610168457 -66.604148864746 -201.157806396484 1.891661405563
-152.139068603516 -65.506332397461 -206.976806640625 0.926622152328
-155.721588134766 -65.967628479004 -212.148147583008 2.358113765717
-155.646347045898 -67.332969665527 -215.936798095703 2.484080553055
-140.851074218750 -73.233428955078 -219.876724243164 3.349159717560
-133.765243530273 -60.978881835938 -223.394332885742 4.927224159241
-121.976203918457 -69.755874633789 -211.647659301758 6.394005775452
-142.628524780273 -70.291099548340 -225.572113037109 0.821643531322
-154.686157226563 -68.793281555176 -218.521347045898 2.044663906097
-135.492156982422 -68.680244445801 -220.846740722656 2.961320161819
-135.859695434570 -63.294658660889 -223.220809936523 4.449442386627
-149.242050170898 -65.147811889648 -223.096328735352 2.458403110504
-138.661636352539 -57.552433013916 -222.650543212891 6.679265499115
-132.295837402344 -66.458374023438 -228.198791503906 1.569955587387
-16.235563278198 -69.630905151367 -234.440170288086 2.667500019073
2.995275974274 -65.923324584961 -240.153259277344 0.716328382492
11.966833114624 -60.273223876953 -241.729354858398 2.167735338211
6.605883121490 -71.233886718750 -241.103073120117 2.133950948715
-9.523955345154 -71.621490478516 -233.675140380859 1.538950204849
-16.690778732300 -68.480682373047 -243.642913818359 3.714137315750
31.646118164063 -65.739837646484 -246.660934448242 7.263888835907
43.485179901123 -66.766693115234 -252.748733520508 2.395395755768
-150.675231933594 -66.583198547363 -248.696212768555 0.885433793068
39.988842010498 -64.817863464355 -252.334304809570 1.498137950897
38.071590423584 -69.846542358398 -251.906112670898 2.326479673386
-163.597763061523 -73.977432250977 -250.152328491211 2.984870433807
-153.075973510742 -68.243164062500 -250.738510131836 2.368955612183
-156.506866455078 -69.803733825684 -253.018768310547 2.163494825363
0.185333997011 -70.326995849609 -260.306274414063 4.118359088898
-153.771102905273 -69.182510375977 -262.592315673828 1.623535990715
-4.197100162506 -68.530586242676 -271.166351318359 2.658038854599
-148.856216430664 -72.001998901367 -270.396789550781 3.142091989517
-151.400680541992 -68.969993591309 -275.359405517578 3.107774496078
-154.297103881836 -67.895339965820 -282.473754882813 2.215444803238
-153.364074707031 -56.092407226563 -277.524322509766 7.429758071899
-149.807678222656 -65.238700866699 -288.863464355469 1.757035851479
-158.179702758789 -66.849624633789 -279.172546386719 3.988127231598
-154.829238891602 -69.119422912598 -280.953765869141 2.156946659088
-157.205337524414 -63.064868927002 -283.161071777344 3.025361061096
-152.052536010742 -67.215827941895 -283.905944824219 1.869623422623
-147.889038085938 -67.954788208008 -281.519927978516 2.329438447952
6.255987167358 -70.264328002930 -278.884460449219 6.687312602997
-149.859329223633 -66.870277404785 -291.725006103516 0.918364048004
-162.400970458984 -61.850898742676 -287.944549560547 5.349125385284
-161.527893066406 -59.861110687256 -282.390686035156 6.838065147400
-152.872985839844 -64.634506225586 -287.456420898438 2.580898523331
-150.652969360352 -58.041885375977 -281.846893310547 3.475586414337
-150.676910400391 -71.053558349609 -287.101348876953 1.528985738754
4.261983871460 -70.794586181641 -289.872863769531 1.759975194931
-147.201171875000 -63.366432189941 -289.924682617188 1.509947299957
-151.887741088867 -62.784805297852 -287.145690917969 1.372910976410
31.120950698853 -58.844520568848 -11.626020431519 4.872255325317
44.760753631592 -71.336502075195 -19.925075531006 1.541389703751
44.195278167725 -62.509399414063 -19.245792388916 1.601350545883
16.376354217529 -69.783760070801 -29.733190536499 3.527868270874
24.855504989624 -54.492771148682 -33.121150970459 2.071825265884
37.120716094971 -63.726512908936 -34.782196044922 1.535685777664
-53.881107330322 -64.126609802246 -42.394603729248 3.503853559494
-49.017101287842 -65.117225646973 -36.830974578857 7.802168846130
91.866439819336 -66.076148986816 -66.366523742676 4.275378227234
-94.182983398438 -63.155982971191 -61.223651885986 2.340885400772
98.702529907227 -78.261505126953 -59.194080352783 12.783251762390
69.384323120117 -69.360633850098 -71.170814514160 2.877790927887
98.611831665039 -68.980476379395 -78.530677795410 3.859931230545
62.863361358643 -73.358543395996 -75.299125671387 5.814025402069
-42.155143737793 -65.491661071777 -74.275596618652 2.414385557175
59.516323089600 -63.612197875977 -80.680458068848 2.106208324432
-48.306941986084 -62.009357452393 -72.855232238770 5.295865535736
54.400436401367 -65.975769042969 -81.154785156250 4.963189125061
63.807594299316 -61.339717864990 -85.799018859863 2.557336807251
-98.007759094238 -64.499526977539 -80.495429992676 4.750581741333
51.939083099365 -63.732292175293 -81.418159484863 5.877959251404
51.896411895752 -73.170677185059 -91.700622558594 1.517961978912
66.236114501953 -67.190673828125 -90.250885009766 2.151804685593
52.202796936035 -65.504669189453 -95.332923889160 1.374364018440
-80.156936645508 -63.427024841309 -103.052299499512 1.895931243896
82.475311279297 -71.721466064453 -105.381851196289 1.636806488037
-84.682769775391 -71.300292968750 -117.161376953125 1.263460159302
-77.627906799316 -63.115512847900 -100.103118896484 2.838486194611
-80.009689331055 -66.947151184082 -120.503883361816 1.250940918922
-84.726310729980 -63.828773498535 -113.235221862793 2.048723220825
-96.596206665039 -59.471042633057 -115.513977050781 1.278461217880
-82.492530822754 -67.000328063965 -115.884284973145 2.776724338531
-50.195838928223 -64.331924438477 -120.391326904297 5.189387798309
-78.974754333496 -62.268352508545 -131.855987548828 1.848683595657
-57.490371704102 -59.573181152344 -124.449188232422 0.310440510511
-89.334243774414 -61.834255218506 -133.418136596680 3.560679912567
29.167560577393 -65.444702148438 -136.178421020508 2.681513071060
18.646230697632 -66.104171752930 -139.146392822266 1.943338155746
-95.824813842773 -52.358394622803 -141.282257080078 9.706110000610
22.091083526611 -69.258399963379 -146.050857543945 2.747282266617
-90.302452087402 -69.718978881836 -143.574234008789 2.337854385376
-95.426856994629 -59.442646026611 -143.592895507813 4.502752304077
16.878732681274 -67.155700683594 -162.007369995117 3.614106178284
-97.195091247559 -64.525810241699 -144.661987304688 3.164314746857
-100.466758728027 -62.734542846680 -141.589141845703 4.344332218170
-105.745994567871 -64.475830078125 -150.232894897461 5.261241436005
-94.427070617676 -65.681953430176 -158.863998413086 2.750124931335
-103.999313354492 -69.959777832031 -177.105407714844 2.607220411301
-112.133598327637 -74.569702148438 -165.371566772461 8.939086914063
-97.266677856445 -67.446327209473 -161.201309204102 1.682464838028
-105.598609924316 -67.372451782227 -162.428909301758 1.035172104836
-141.350067138672 -66.508438110352 -174.346099853516 1.437529921532
-113.685920715332 -65.597152709961 -172.922821044922 4.335731983185
-140.924209594727 -65.826553344727 -182.873443603516 2.601704835892
-150.017166137695 -60.454776763916 -186.565139770508 2.326114416122
-157.305999755859 -58.314113616943 -181.298416137695 6.881018638611
-122.862464904785 -62.214080810547 -192.061920166016 3.845227718353
-129.144622802734 -71.182136535645 -187.781723022461 5.970838069916
-123.773872375488 -62.281612396240 -197.164703369141 1.539940476418
-146.885665893555 -68.403442382813 -195.974426269531 1.804841876030
-124.757720947266 -70.529327392578 -198.594024658203 1.702269434929
-149.214340209961 -65.789840698242 -197.454208374023 1.131525158882
-154.592941284180 -64.696197509766 -199.803634643555 1.897288799286
-156.474716186523 -63.517051696777 -220.932922363281 4.174489498138
-146.349365234375 -73.146759033203 -226.474960327148 2.318677425385
-131.213394165039 -62.176914215088 -226.112274169922 2.723036050797
-154.940383911133 -64.049613952637 -223.905395507813 2.670835971832
-5.140476226807 -72.714881896973 -237.682830810547 1.439856052399
9.052597045898 -62.766300201416 -235.196334838867 2.621648073196
-3.246315956116 -71.763305664063 -241.254913330078 1.533288002014
-154.575439453125 -64.137580871582 -239.645507812500 4.559712886810
-11.606250762939 -64.020324707031 -237.506637573242 2.076498746872
-157.712646484375 -73.203620910645 -248.394653320313 1.630055665970
-10.079381942749 -73.718894958496 -247.827560424805 0.624467492104
-150.652862548828 -68.829689025879 -249.798507690430 2.281951904297
17.203517913818 -67.545272827148 -249.007614135742 2.364901304245
-154.551284790039 -59.444259643555 -250.153701782227 4.298967361450
-152.923599243164 -65.548324584961 -250.402038574219 3.151110172272
-153.702362060547 -65.389686584473 -248.674880981445 3.661764621735
-152.115158081055 -64.295501708984 -253.652496337891 1.538215160370
28.916467666626 -67.745620727539 -258.366027832031 1.622795581818
29.375795364380 -67.103324890137 -263.441802978516 1.692119956017
-147.638244628906 -66.360649108887 -248.304626464844 1.663498163223
-155.583206176758 -59.143310546875 -253.964202880859 3.406815052032
-156.142868041992 -71.071006774902 -254.385696411133 2.971268653870
-149.303878784180 -62.617603302002 -252.850830078125 1.656652927399
24.965286254883 -65.290206909180 -260.911590576172 1.166687130928
26.724302291870 -65.807861328125 -266.073852539063 1.697038650513
-160.556472778320 -67.673934936523 -256.820617675781 2.408513545990
-146.581100463867 -65.082252502441 -258.784149169922 1.296231746674
-150.393035888672 -60.882446289063 -257.017669677734 1.934457063675
-146.059219360352 -65.010665893555 -260.715820312500 0.807811677456
-145.290878295898 -69.477981567383 -256.510101318359 0.689979016781
-146.486770629883 -73.086784362793 -260.578674316406 1.327317118645
-151.048995971680 -62.724143981934 -261.640625000000 0.845018446445
-153.563629150391 -60.465782165527 -282.278472900391 3.441227912903
-148.585327148438 -65.411773681641 -276.905395507813 3.724479675293
-150.663223266602 -66.157089233398 -272.968872070313 2.966040372849
12.851070404053 -65.729118347168 -278.839904785156 6.193109989166
