6.494711875916 -71.985015869141 -233.761688232422 1.480911493301
-155.055633544922 -80.544944763184 -240.558456420898 4.244137287140
-22.204011917114 -72.147789001465 -234.224502563477 4.805129528046
-36.715065002441 -77.996421813965 -240.232376098633 0.871347069740
-1.763002991676 -72.672157287598 -237.271087646484 1.799170017242
1.713861942291 -80.074539184570 -246.349685668945 1.712469935417
-1.348119974136 -72.047019958496 -234.698242187500 0.757623732090
-61.856258392334 -75.533340454102 -243.358657836914 2.091572523117
-151.368484497070 -74.581062316895 -249.782104492188 3.069472551346
-156.138244628906 -79.082389831543 -247.382400512695 3.941116809845
9.951136589050 -75.351036071777 -249.464263916016 3.426284313202
23.794179916382 -75.544036865234 -248.159957885742 2.355700254440
-64.245277404785 -72.205772399902 -248.115264892578 1.464420914650
-143.950607299805 -84.040489196777 -252.480285644531 2.611744642258
-155.829101562500 -83.003639221191 -254.840133666992 1.915755271912
-157.379699707031 -82.984313964844 -257.000762939453 2.410868644714
-146.030822753906 -74.890304565430 -262.529571533203 2.184869289398
-145.262359619141 -79.768684387207 -256.717590332031 3.394962549210
-8.374333381653 -75.785697937012 -257.955749511719 2.854278802872
-148.464401245117 -79.930229187012 -262.038726806641 1.803573250771
-17.732038497925 -74.466957092285 -270.843261718750 3.220439195633
-150.452575683594 -76.492080688477 -270.759185791016 0.389994382858
-151.122116088867 -76.978561401367 -282.367462158203 1.923205614090
-150.705734252930 -75.287986755371 -284.572387695313 1.507292270660
-6.945613861084 -67.133613586426 -286.955352783203 2.063581943512
-152.749740600586 -73.177795410156 -282.220275878906 1.375270247459
-27.328620910645 -75.112335205078 -287.679901123047 0.476839244366
-27.954723358154 -69.621978759766 -285.951385498047 3.400188684464
-16.081544876099 -68.992477416992 -296.403167724609 4.586247444153
-18.491905212402 -68.685707092285 -295.592742919922 4.691854953766
8.329396247864 -74.520469665527 -293.197998046875 2.870956897736
-127.818542480469 -78.934410095215 -290.815063476563 1.780944705009
-65.817092895508 -75.037094116211 -287.861175537109 2.245486259460
-45.765659332275 -69.705795288086 -291.849884033203 5.120451927185
-36.607391357422 -74.060150146484 -288.706359863281 1.682286858559
-11.652665138245 -69.548095703125 -296.397003173828 4.941626548767
2.734721899033 -73.298469543457 -289.681060791016 2.647665262222
-144.382156372070 -77.039802551270 -299.174194335938 2.045028448105
8.164938926697 -71.880371093750 -298.995178222656 5.344594001770
-157.396804809570 -73.773338317871 -303.059295654297 1.525604963303
-158.079238891602 -82.363899230957 -301.554809570313 5.701730728149
-157.096588134766 -71.541336059570 -312.485351562500 1.784949660301
-145.413497924805 -75.197532653809 -309.317474365234 2.127915620804
-51.143951416016 -82.132423400879 -50.586135864258 8.177116394043
-53.176490783691 -86.854843139648 -57.758476257324 6.977932453156
-68.518821716309 -80.296638488770 -55.438011169434 5.230815887451
-39.972019195557 -78.645660400391 -64.614151000977 1.449565529823
-35.359615325928 -81.670700073242 -60.964443206787 4.602002143860
-18.779607772827 -79.368591308594 -72.653915405273 2.419977903366
-81.525558471680 -78.953865051270 -70.377563476563 2.591991901398
85.644577026367 -76.948204040527 -81.385986328125 1.716234207153
-91.440132141113 -80.525657653809 -72.850166320801 5.892818450928
79.285911560059 -73.838531494141 -79.013427734375 1.960556030273
88.123390197754 -70.289787292480 -87.308525085449 7.185231685638
98.236175537109 -71.864707946777 -93.656204223633 1.785308837891
-62.034572601318 -83.391464233398 -98.026435852051 1.691891670227
81.246170043945 -77.710678100586 -99.915557861328 3.538786649704
75.749107360840 -81.779739379883 -93.504280090332 4.578031063080
85.713890075684 -75.499099731445 -93.387123107910 1.401923537254
-58.704250335693 -80.226570129395 -98.721755981445 3.242539644241
47.082103729248 -74.321533203125 -100.702888488770 2.254803180695
44.954463958740 -75.600028991699 -108.955680847168 2.256186962128
38.506011962891 -77.844642639160 -105.694015502930 1.349869966507
34.864639282227 -77.656379699707 -102.622215270996 5.819976329803
-92.970932006836 -76.236557006836 -102.650161743164 4.531609535217
34.274784088135 -74.215263366699 -119.508567810059 0.486986100674
-85.538070678711 -81.282241821289 -107.332817077637 2.054016113281
38.768863677979 -77.163284301758 -130.711410522461 1.743441343307
31.413127899170 -77.519386291504 -122.661201477051 0.733105182648
33.067996978760 -67.188484191895 -123.255859375000 1.293182969093
44.006961822510 -73.386589050293 -119.133590698242 1.005199790001
41.046165466309 -79.101089477539 -131.064392089844 1.731847524643
-52.018871307373 -71.475669860840 -135.909683227539 0.835977137089
37.118484497070 -80.962173461914 -136.270919799805 2.352791786194
34.342330932617 -75.030380249023 -146.869171142578 1.425097107887
-57.868457794189 -76.423583984375 -145.869659423828 2.347991228104
-45.269821166992 -78.616653442383 -141.305480957031 3.404395341873
33.879028320313 -73.266113281250 -144.359573364258 2.844371318817
108.843322753906 -66.956451416016 -143.133392333984 4.078435897827
110.614227294922 -67.967765808105 -150.408035278320 4.064870834351
25.421447753906 -77.484748840332 -143.000427246094 1.380152821541
-40.827972412109 -81.051689147949 -151.309234619141 1.486894249916
116.921241760254 -80.437248229980 -155.529678344727 4.714852809906
-37.764766693115 -74.998840332031 -153.540527343750 1.251607537270
-69.102333068848 -76.811660766602 -164.229125976563 2.960758686066
109.462028503418 -77.568977355957 -157.648361206055 1.556983113289
21.271308898926 -76.201652526855 -169.128494262695 1.564891457558
-0.156499996781 -76.475364685059 -164.466323852539 1.708473443985
109.524169921875 -72.368736267090 -154.705749511719 2.620141029358
-65.555702209473 -77.334884643555 -167.685546875000 1.375213027000
-40.423667907715 -78.663520812988 -168.024566650391 0.879415273666
109.640823364258 -72.993278503418 -168.065109252930 1.968173623085
25.655242919922 -68.650665283203 -160.352508544922 1.260267257690
-62.901031494141 -70.186935424805 -164.678466796875 1.757860064507
111.679489135742 -71.983741760254 -168.644088745117 0.819382667542
-66.925521850586 -79.338195800781 -170.050827026367 1.857635855675
-49.691780090332 -80.079597473145 -184.570571899414 1.945488691330
104.603462219238 -71.102996826172 -174.048233032227 1.149970412254
-60.963321685791 -75.674713134766 -173.939697265625 1.933077931404
111.267219543457 -69.844558715820 -181.665328979492 1.520755887032
-63.166122436523 -76.049026489258 -177.874755859375 3.446336507797
-17.957771301270 -72.598632812500 -178.878021240234 3.551904439926
-10.618729591370 -81.516418457031 -185.059280395508 5.743659973145
106.312721252441 -74.119865417480 -168.443481445313 1.524667859077
20.299076080322 -76.261093139648 -173.119033813477 2.220566987991
29.589912414551 -68.359848022461 -170.582489013672 3.416551589966
-59.966571807861 -76.063552856445 -178.663619995117 1.572536110878
15.338150978088 -71.968833923340 -183.457427978516 1.997161388397
-58.828826904297 -78.266235351563 -175.346069335938 1.879554033279
-54.474075317383 -74.427146911621 -196.593780517578 6.509936809540
8.310098648071 -71.647613525391 -186.959930419922 4.797540187836
-57.106899261475 -71.029304504395 -179.890365600586 2.743645906448
104.071434020996 -67.733894348145 -192.095062255859 3.911299705505
25.065666198730 -77.550064086914 -184.351226806641 2.496051549911
-37.547969818115 -73.010475158691 -189.345703125000 5.203244209290
-44.766910552979 -79.293998718262 -190.568283081055 1.804403185844
9.717093467712 -77.080291748047 -192.860900878906 2.547368049622
-21.746055603027 -76.762313842773 -188.764419555664 1.030468821526
-48.531532287598 -77.704643249512 -197.202255249023 2.143416166306
100.012695312500 -76.310440063477 -185.165512084961 4.695033073425
6.773651123047 -78.701622009277 -192.055404663086 5.620981693268
-133.367553710938 -86.424682617188 -201.186050415039 4.873366832733
-51.741672515869 -78.691169738770 -197.304000854492 3.194320440292
92.104431152344 -69.854598999023 -201.381271362305 2.224707126617
-151.593322753906 -85.895568847656 -203.031219482422 2.963819026947
16.534505844116 -74.172355651855 -203.539978027344 2.396511793137
-45.747653961182 -71.813926696777 -207.335174560547 6.485178947449
-31.443660736084 -78.714294433594 -209.326431274414 1.078426837921
-38.994068145752 -77.055152893066 -201.922317504883 1.183269023895
-47.691318511963 -83.780754089355 -199.760421752930 1.082305788994
99.015258789063 -70.224365234375 -208.074951171875 3.091717004776
-23.107616424561 -80.062026977539 -201.233612060547 1.921245217323
-151.965103149414 -79.709831237793 -200.217147827148 0.539720177650
14.022244453430 -76.937965393066 -202.619537353516 1.468819618225
-79.104377746582 -81.802650451660 -206.010391235352 4.101849079132
-144.521942138672 -76.141090393066 -214.774902343750 2.126459836960
91.369026184082 -73.628219604492 -217.379501342773 0.900563180447
-35.032184600830 -73.524681091309 -208.224121093750 1.153121113777
-30.747690200806 -75.839134216309 -211.643356323242 1.550693511963
8.496509552002 -74.164390563965 -211.459472656250 1.154923677444
-73.576148986816 -81.747474670410 -207.735946655273 2.365359544754
-28.150074005127 -84.708320617676 -206.604003906250 5.130678653717
-10.929845809937 -76.000740051270 -219.180587768555 1.410400986671
-71.108551025391 -77.302398681641 -214.906768798828 2.064237594604
-15.867981910706 -74.891273498535 -219.143295288086 1.433758020401
5.304927825928 -63.936443328857 -212.243453979492 6.498249530792
9.762162208557 -76.645233154297 -223.599639892578 1.830578327179
-154.186416625977 -81.543525695801 -218.370819091797 4.256869792938
-11.419155120850 -74.229293823242 -215.631668090820 3.244947671890
-105.301689147949 -73.394798278809 -220.403747558594 2.191654682159
-24.079858779907 -74.174758911133 -220.706558227539 2.169170379639
86.201194763184 -77.689224243164 -215.104965209961 2.742907762527
7.710745811462 -70.817848205566 -225.716995239258 1.816314339638
20.359891891479 -72.898826599121 -218.160964965820 2.270973682404
77.654243469238 -73.150535583496 -215.061798095703 5.372477531433
-0.551614999771 -78.698371887207 -232.504257202148 3.591255426407
83.063156127930 -71.394866943359 -219.163101196289 1.873631834984
-24.281808853149 -69.152091979980 -226.324386596680 3.148388385773
14.646109580994 -69.084259033203 -219.676651000977 0.903777599335
-151.080871582031 -80.791664123535 -218.035583496094 1.709533572197
-29.449508666992 -76.120147705078 -228.094772338867 5.043583869934
-0.224543005228 -69.731880187988 -233.277450561523 2.182685136795
-158.498184204102 -85.502540588379 -225.108200073242 6.334227085114
-139.656265258789 -82.420516967773 -228.196792602539 2.287626743317
0.066938996315 -73.158233642578 -224.467422485352 1.603477239609
-5.848045825958 -69.362686157227 -225.059432983398 0.633107781410
-139.667160034180 -74.137107849121 -228.805816650391 1.413647890091
-149.800491333008 -78.504829406738 -243.654312133789 2.119643449783
-151.448455810547 -79.487014770508 -235.766433715820 2.191563606262
-33.471485137939 -75.884742736816 -237.765579223633 1.353558301926
-143.304550170898 -82.199302673340 -243.970321655273 2.434492349625
12.110437393188 -74.414718627930 -243.151840209961 0.719216763973
3.651319980621 -72.153778076172 -246.877059936523 2.890501022339
-153.314636230469 -71.959495544434 -238.626663208008 2.798617362976
-152.045227050781 -77.618988037109 -245.451324462891 0.898465514183
-47.295391082764 -76.881690979004 -248.009246826172 1.663296341896
-33.895587921143 -74.654182434082 -249.031295776367 5.386425971985
1.582713961601 -72.373794555664 -243.442153930664 2.293491601944
-37.694950103760 -76.597534179688 -246.777557373047 2.569442749023
19.446184158325 -72.243705749512 -248.095550537109 1.882278680801
-8.442184448242 -75.329635620117 -255.299530029297 2.471352338791
-145.328903198242 -79.161216735840 -253.381118774414 1.989912390709
-12.622014045715 -78.995002746582 -255.195007324219 2.268589735031
-151.024566650391 -75.494880676270 -245.913055419922 1.587845444679
-66.908645629883 -77.572509765625 -251.524871826172 2.785651206970
-148.241348266602 -85.399299621582 -259.321807861328 0.461127787828
-130.148788452148 -77.311119079590 -258.358154296875 1.887440323830
-156.028091430664 -78.414978027344 -256.463592529297 3.589690446854
-12.497318267822 -69.631767272949 -269.192230224609 0.724002063274
-147.693634033203 -84.520004272461 -274.409088134766 0.991861701012
-151.328872680664 -77.918388366699 -270.380798339844 1.408954620361
-14.702385902405 -72.617179870605 -272.580200195313 2.476146221161
-146.033157348633 -77.537734985352 -270.024841308594 0.707670629025
-9.598048210144 -70.295860290527 -277.420135498047 1.960418462753
-48.043315887451 -72.316841125488 -284.376281738281 3.169770002365
-137.794250488281 -73.108848571777 -288.571105957031 2.849409580231
-138.746520996094 -75.947410583496 -286.032440185547 2.255531549454
-125.044776916504 -72.056175231934 -280.894378662109 3.833408355713
-54.038349151611 -72.371742248535 -287.246612548828 1.621437311172
-113.703208923340 -74.332557678223 -283.198791503906 3.046460151672
13.998519897461 -69.714645385742 -294.924713134766 3.279783725739
-58.801445007324 -70.943565368652 -289.426055908203 1.555143952370
-143.104324340820 -76.120399475098 -294.200378417969 2.417829275131
-66.164871215820 -72.073501586914 -291.514099121094 2.287625789642
-147.498275756836 -82.574676513672 -294.603851318359 1.210185289383
-118.812843322754 -72.335372924805 -291.559173583984 2.434377670288
-47.940883636475 -76.200920104980 -291.556091308594 2.397578001022
-35.563617706299 -72.282531738281 -293.024627685547 2.703638315201
-141.563476562500 -70.596870422363 -297.448242187500 2.468980550766
-17.555690765381 -65.378219604492 -281.693023681641 7.609343528748
3.214215040207 -70.495132446289 -288.070098876953 2.813364267349
4.227438926697 -68.793525695801 -291.642852783203 1.491265654564
12.860284805298 -71.511398315430 -297.787078857422 4.255459785461
-152.057815551758 -81.816154479980 -299.016204833984 1.165481567383
-146.686813354492 -73.602310180664 -291.761901855469 1.675522565842
-65.760398864746 -79.019134521484 -63.771583557129 2.630546569824
89.221755981445 -77.698570251465 -74.583610534668 2.514664888382
78.650573730469 -77.130867004395 -80.251426696777 2.305000305176
-28.331544876099 -82.542083740234 -77.902259826660 2.736968755722
83.135086059570 -73.823867797852 -76.546417236328 2.130103349686
-38.711353302002 -82.947372436523 -81.178390502930 2.253940105438
81.021621704102 -70.503318786621 -85.115058898926 5.826275825500
96.524345397949 -70.135993957520 -81.827987670898 4.728564262390
-65.002609252930 -73.599227905273 -97.454948425293 2.083712339401
71.649879455566 -76.037933349609 -96.872421264648 1.488520503044
79.200309753418 -72.244522094727 -100.205909729004 1.354499816895
97.478912353516 -77.813529968262 -98.211715698242 2.973109960556
54.975574493408 -78.108749389648 -98.988426208496 1.805684804916
-65.487648010254 -76.189460754395 -102.247879028320 1.863204717636
-74.299919128418 -76.380325317383 -101.782585144043 2.479140043259
50.608875274658 -78.148178100586 -105.294418334961 2.231011629105
-87.290939331055 -82.006088256836 -102.433586120605 1.945932269096
47.001014709473 -71.393493652344 -120.276832580566 1.675136923790
109.934257507324 -72.127685546875 -122.962219238281 1.312368035316
112.440605163574 -75.011795043945 -132.760574340820 1.583775162697
18.283208847046 -73.027389526367 -138.364791870117 5.575442314148
109.565490722656 -74.936943054199 -129.607391357422 1.512526392937
28.252033233643 -71.967285156250 -134.845077514648 1.339283227921
111.522377014160 -65.373199462891 -135.459686279297 3.894237995148
35.787376403809 -71.949623107910 -136.506942749023 0.848111450672
-58.412528991699 -77.110229492188 -140.807373046875 2.382913351059
35.783546447754 -79.476554870605 -148.298873901367 2.512965679169
107.640937805176 -70.179580688477 -136.495651245117 2.397626876831
-45.943088531494 -75.224319458008 -144.752029418945 2.274255752563
30.934055328369 -72.652648925781 -152.597137451172 2.526139259338
-57.988361358643 -71.261543273926 -142.562957763672 1.638090968132
-61.478549957275 -77.372146606445 -144.912399291992 5.151280879974
-53.946125030518 -81.176460266113 -151.427917480469 4.747588634491
-65.141334533691 -80.954605102539 -156.766616821289 2.233449697495
110.374435424805 -76.935592651367 -149.630767822266 1.174806952477
-50.401374816895 -84.892791748047 -156.723281860352 6.126516819000
22.568277359009 -80.449348449707 -158.879852294922 2.480277776718
106.109657287598 -72.289093017578 -166.050308227539 1.877530813217
-66.007759094238 -77.829589843750 -155.266128540039 1.339484214783
-43.555507659912 -78.137908935547 -158.867324829102 2.937154293060
8.104566574097 -72.523361206055 -155.845504760742 1.241656780243
-69.560890197754 -78.597793579102 -154.864868164063 2.686504125595
-65.589218139648 -80.866996765137 -158.997177124023 2.118859767914
-0.377923995256 -75.257362365723 -164.019744873047 1.674987316132
-45.842334747314 -71.873352050781 -169.033950805664 2.788107156754
27.231021881104 -71.409851074219 -169.905517578125 0.663713335991
-64.832893371582 -72.245765686035 -169.690887451172 1.866062283516
-56.689197540283 -79.463272094727 -167.328781127930 1.333257794380
12.830243110657 -78.678382873535 -161.481307983398 4.819720745087
-31.199438095093 -74.534393310547 -169.479507446289 2.314083576202
-29.247146606445 -78.998664855957 -167.791839599609 2.430190563202
13.420126914978 -75.905540466309 -176.443908691406 4.106843948364
-45.353389739990 -79.784233093262 -174.268112182617 4.045097351074
-11.307353019714 -77.002670288086 -173.704681396484 0.396234929562
-68.171195983887 -73.347351074219 -172.095581054688 2.089752674103
-9.289742469788 -72.238288879395 -176.072738647461 3.491638898849
-22.625587463379 -75.359344482422 -181.215835571289 1.187702655792
20.540859222412 -70.112243652344 -186.313919067383 1.504405498505
-39.921028137207 -78.423652648926 -173.693634033203 1.241822600365
20.149408340454 -69.217063903809 -176.745071411133 0.324302822351
-24.272882461548 -70.985671997070 -187.370925903320 1.554520726204
-33.155101776123 -78.800140380859 -178.374801635742 2.441962480545
-149.951675415039 -75.874710083008 -193.611053466797 1.271080017090
-18.176050186157 -80.308578491211 -184.968185424805 1.787984371185
-141.264877319336 -77.330398559570 -190.110855102539 3.025740146637
-155.920242309570 -80.451049804688 -187.450836181641 5.519371509552
-51.594573974609 -73.960945129395 -190.088867187500 2.074127197266
96.858551025391 -69.792121887207 -197.353698730469 1.968264341354
-146.261322021484 -80.918197631836 -190.334899902344 2.885331392288
-146.250198364258 -76.603897094727 -195.779556274414 2.206075191498
21.385278701782 -70.954673767090 -197.655670166016 1.590294957161
-140.440261840820 -79.712165832520 -196.052398681641 2.819745063782
10.854701995850 -68.822807312012 -200.814361572266 0.840215623379
-138.940933227539 -82.481277465820 -200.404083251953 1.213576674461
11.567558288574 -68.770896911621 -199.434890747070 0.927451372147
-134.047424316406 -74.854507446289 -195.058593750000 1.743569612503
3.002199888229 -69.328430175781 -202.885650634766 5.564565181732
-153.818283081055 -79.329788208008 -201.951354980469 2.116770029068
94.077255249023 -70.160598754883 -209.401931762695 1.894010901451
-18.726840972900 -76.988754272461 -210.939117431641 0.786876678467
-32.154422760010 -73.274169921875 -210.398544311523 1.984577059746
-14.293078422546 -67.981719970703 -206.357467651367 1.871347069740
-146.004730224609 -84.075386047363 -210.863311767578 1.081382274628
-37.016258239746 -74.935897827148 -203.916076660156 2.409055233002
-85.955131530762 -79.032196044922 -203.058166503906 8.323449134827
-28.361194610596 -76.117965698242 -209.386993408203 2.232348442078
12.225178718567 -73.444267272949 -216.142181396484 2.909460067749
-147.795944213867 -75.678886413574 -215.690277099609 1.117448449135
-90.265594482422 -79.151649475098 -220.648223876953 4.538030147552
-30.854970932007 -72.716018676758 -221.919281005859 5.008102893829
-29.342697143555 -74.088394165039 -222.363876342773 3.375441074371
-8.771305084229 -75.744750976563 -209.970153808594 1.927960157394
-28.882764816284 -73.579765319824 -208.312210083008 2.056717634201
-86.327049255371 -76.459632873535 -223.412918090820 4.709243774414
-91.938598632813 -82.673377990723 -220.952728271484 6.575508117676
-24.388086318970 -72.878173828125 -223.437271118164 1.836403608322
-3.275561094284 -82.849594116211 -227.492416381836 4.110155105591
-158.894866943359 -81.561210632324 -217.483032226563 8.218845367432
-4.078547954559 -74.806640625000 -223.662841796875 1.744015932083
86.733657836914 -74.821617126465 -230.779815673828 4.847519874573
-140.270156860352 -80.859893798828 -223.096923828125 3.325414896011
-4.539995193481 -73.709022521973 -222.232925415039 1.435576200485
-140.458862304688 -79.759689331055 -225.845428466797 1.481100320816
-148.454559326172 -86.983444213867 -225.201583862305 2.940518140793
-7.323832988739 -71.884033203125 -229.337448120117 1.097554326057
21.167924880981 -73.870109558105 -214.707565307617 4.091787338257
-140.259902954102 -75.520385742188 -229.462600708008 2.014103412628
-19.997890472412 -75.567100524902 -228.860580444336 3.325674057007
69.180999755859 -71.589515686035 -227.116928100586 3.738120555878
72.619186401367 -70.422622680664 -236.632339477539 1.026233553886
9.348848342896 -74.865890502930 -231.375442504883 1.722886085510
-37.123043060303 -75.102043151855 -236.634582519531 3.007530450821
-26.371971130371 -82.274085998535 -244.289154052734 3.661203622818
0.164756998420 -70.354095458984 -244.640533447266 2.125977516174
-48.532882690430 -68.598411560059 -244.760986328125 3.317209959030
-22.362998962402 -70.480117797852 -244.114364624023 3.344880342484
8.783305168152 -68.277183532715 -239.331436157227 1.469338536263
-64.895683288574 -75.077186584473 -246.494445800781 2.445708036423
-38.859901428223 -79.517478942871 -245.289337158203 1.950079083443
-39.487743377686 -72.250221252441 -246.600708007813 2.989897489548
-149.319702148438 -74.691596984863 -245.829559326172 0.692482769489
-46.180583953857 -77.211601257324 -249.918594360352 3.749196052551
-54.512905120850 -64.956848144531 -247.720581054688 6.892482280731
-67.323219299316 -74.093788146973 -249.332397460938 1.771992325783
-12.067513465881 -77.895149230957 -246.416030883789 4.091145038605
-80.302108764648 -76.490394592285 -256.495422363281 2.486218690872
-158.478424072266 -84.521003723145 -253.033752441406 3.120195150375
-142.046356201172 -75.176773071289 -253.004119873047 2.111766576767
-122.387199401855 -78.185020446777 -258.366333007813 3.978939056396
-161.510070800781 -73.796104431152 -256.968353271484 1.415268778801
16.840112686157 -78.591766357422 -269.067901611328 2.489845037460
-16.949346542358 -74.621795654297 -270.394989013672 2.347463130951
-157.682098388672 -79.916564941406 -274.892364501953 3.907896041870
-154.922805786133 -84.182220458984 -279.078552246094 5.149748802185
-148.239440917969 -78.306671142578 -286.004608154297 2.517618417740
-61.139305114746 -67.667823791504 -279.327911376953 6.828697204590
-41.200794219971 -65.820671081543 -286.108215332031 4.469955921173
-19.433046340942 -68.522926330566 -291.166046142578 3.983333349228
-10.803804397583 -66.487586975098 -278.460784912109 1.511504769325
-68.305908203125 -76.941200256348 -285.587829589844 0.824074804783
-83.318496704102 -79.019065856934 -286.636688232422 3.710203886032
-3.733417034149 -72.044563293457 -282.900634765625 3.748550891876
-0.156394004822 -72.204872131348 -294.439788818359 2.681250095367
-142.750152587891 -74.106506347656 -285.229736328125 1.264651298523
-83.403861999512 -69.615447998047 -285.899780273438 2.226810216904
-149.049972534180 -74.526664733887 -287.201019287109 2.248390913010
-96.396286010742 -84.797866821289 -285.617797851563 9.125287055969
-80.927230834961 -72.887176513672 -285.519866943359 3.406897783279
-88.784004211426 -70.190666198730 -297.144317626953 4.253605365753
-65.892753601074 -72.260398864746 -292.813354492188 3.135120630264
-33.971366882324 -63.778896331787 -296.734283447266 9.388243675232
-11.625868797302 -70.320350646973 -291.429260253906 1.191131830215
-152.963592529297 -67.503181457520 -299.890991210938 0.871995747089
-150.412460327148 -72.644981384277 -300.896026611328 3.034125566483
-145.733139038086 -73.231391906738 -305.951751708984 3.369817972183
-160.658203125000 -75.109230041504 -304.198852539063 4.797486782074
-56.406688690186 -75.826652526855 -57.278713226318 1.973594427109
-48.945388793945 -79.496574401855 -53.906768798828 3.762535095215
-39.690151214600 -81.731338500977 -54.531501770020 6.606461524963
-77.627593994141 -83.986846923828 -64.139015197754 5.804383277893
-29.649097442627 -77.136528015137 -66.536544799805 0.866128921509
-35.809974670410 -77.582901000977 -81.067253112793 0.973357737064
73.925392150879 -79.338340759277 -85.941810607910 4.132122516632
74.743659973145 -74.741996765137 -81.130920410156 1.537696599960
71.485832214355 -71.436408996582 -85.285369873047 2.539110422134
100.451911926270 -69.154785156250 -92.687339782715 1.673380613327
67.042938232422 -77.356658935547 -91.158378601074 4.500357151031
46.651344299316 -79.015693664551 -90.049095153809 6.170628547668
52.499401092529 -81.215446472168 -103.991485595703 2.304921627045
-66.750732421875 -76.732009887695 -103.512519836426 0.955652475357
-75.222335815430 -74.293060302734 -103.362838745117 2.835749149323
44.389095306396 -76.410018920898 -104.962425231934 0.797777771950
-82.279151916504 -85.271636962891 -111.469383239746 4.094938755035
-93.271667480469 -77.362800598145 -110.670677185059 3.245801210403
50.750892639160 -74.470588684082 -111.048805236816 2.593882083893
106.625938415527 -70.989517211914 -119.307418823242 1.921689748764
32.661342620850 -76.649475097656 -128.624176025391 0.972816228867
41.427215576172 -76.342506408691 -120.474830627441 2.435557603836
38.777122497559 -72.387283325195 -124.142639160156 0.594988703728
29.565677642822 -76.679466247559 -123.293495178223 2.111868143082
108.650909423828 -72.069374084473 -124.018508911133 1.693601250648
38.519504547119 -77.604583740234 -134.129898071289 1.581907749176
34.685707092285 -69.324058532715 -134.447143554688 0.879570066929
-44.757656097412 -74.998405456543 -142.558853149414 0.569672226906
-70.354118347168 -81.473770141602 -143.699050903320 5.638877391815
-53.512371063232 -75.584709167480 -151.002304077148 1.871356010437
-76.149398803711 -83.243240356445 -146.912521362305 7.587040424347
-38.692668914795 -76.101379394531 -149.179275512695 3.046874046326
104.495513916016 -71.952903747559 -160.217391967773 4.679965019226
-72.539459228516 -79.865249633789 -157.666549682617 4.009532928467
22.618879318237 -80.450187683105 -147.591262817383 3.822629213333
26.714582443237 -77.026489257813 -150.727706909180 1.352444291115
109.446090698242 -74.470855712891 -165.996582031250 0.567694485188
9.029288291931 -78.340637207031 -160.998245239258 2.719450235367
32.502689361572 -70.450637817383 -157.119506835938 0.895692348480
-63.362777709961 -79.938446044922 -160.580230712891 1.172603607178
-40.690998077393 -78.029136657715 -176.019668579102 2.441271543503
21.036903381348 -73.917846679688 -164.884445190430 0.621434628963
-66.564559936523 -75.977607727051 -156.058532714844 0.511317253113
-71.644676208496 -76.798408508301 -166.663192749023 4.525866031647
114.366378784180 -72.884147644043 -168.715057373047 2.838637828827
-9.516858100891 -76.703163146973 -165.835403442383 2.589632034302
-67.614234924316 -74.525436401367 -171.738845825195 1.873769402504
-37.224697113037 -78.120841979980 -167.405059814453 0.973942577839
-55.242431640625 -74.784568786621 -172.215957641602 2.477545022964
29.833377838135 -71.886352539063 -178.102584838867 3.701545953751
110.332901000977 -66.931541442871 -175.039337158203 3.509516716003
100.650581359863 -68.154350280762 -185.596145629883 3.102187871933
102.802757263184 -69.162857055664 -191.577743530273 2.643380403519
105.005256652832 -67.099281311035 -177.908508300781 2.665946245193
-52.208290100098 -73.509635925293 -194.019439697266 4.095064163208
-48.368957519531 -71.421638488770 -184.312194824219 3.521254777908
26.418983459473 -72.303840637207 -185.522567749023 1.831675529480
-48.852077484131 -74.008224487305 -185.988372802734 2.068170309067
-22.262004852295 -74.670776367188 -184.858932495117 2.248552083969
-52.390068054199 -79.018226623535 -192.516204833984 3.235782384872
-153.799316406250 -77.596527099609 -192.497222900391 3.560354709625
99.517127990723 -72.687797546387 -194.580291748047 0.833715319633
-45.748043060303 -71.515975952148 -196.178649902344 4.560828208923
-12.946226119995 -75.403892517090 -200.965042114258 1.050207257271
-140.646743774414 -77.465003967285 -192.181640625000 1.597023367882
-42.291244506836 -71.710624694824 -200.311477661133 2.078447341919
99.034614562988 -67.863403320313 -198.379837036133 3.446940422058
106.550956726074 -67.283958435059 -186.787536621094 3.002230644226
-43.882640838623 -74.447784423828 -196.161422729492 2.807674646378
-23.251546859741 -82.790649414063 -201.429779052734 3.547561407089
-148.125183105469 -81.332717895508 -200.661071777344 1.159409880638
-26.611539840698 -73.563339233398 -195.976211547852 2.972201585770
-162.234329223633 -79.398185729980 -196.388244628906 7.701996326447
-153.884155273438 -87.066497802734 -206.174987792969 6.344902515411
-146.800628662109 -80.794044494629 -202.078552246094 2.661305189133
-40.107540130615 -75.477378845215 -202.494293212891 1.595424413681
100.452926635742 -70.908386230469 -206.218307495117 2.804102659225
-44.274562835693 -72.341285705566 -200.901382446289 0.523986339569
-143.346160888672 -82.313247680664 -205.142562866211 2.230660676956
-38.925563812256 -69.474449157715 -206.092269897461 3.014778614044
-24.202627182007 -80.229934692383 -211.310104370117 2.128700256348
96.595649719238 -73.059028625488 -208.312088012695 1.190382719040
88.098663330078 -71.568916320801 -217.619033813477 1.020896792412
-40.077373504639 -71.574279785156 -218.174514770508 8.886688232422
-90.170455932617 -77.925880432129 -210.331298828125 3.981137275696
-77.346984863281 -77.068855285645 -212.449310302734 1.530172944069
-21.235235214233 -73.666061401367 -209.467788696289 1.332114934921
-151.430770874023 -81.705352783203 -200.384872436523 1.528033733368
90.416427612305 -68.384605407715 -216.293579101563 2.240349292755
86.329742431641 -64.931213378906 -219.737075805664 3.258735656738
87.861206054688 -70.023208618164 -223.208587646484 2.877502441406
-104.627189636230 -77.968711853027 -218.355636596680 5.675369262695
-156.943710327148 -80.834533691406 -220.628692626953 5.140758991241
-22.368007659912 -70.558898925781 -225.534729003906 2.698949098587
78.980232238770 -64.748580932617 -229.881851196289 3.990995168686
-152.109237670898 -82.776832580566 -221.036788940430 3.631661415100
-31.384101867676 -75.555061340332 -217.593734741211 2.226081371307
-136.550796508789 -74.773521423340 -233.792861938477 2.812520503998
-12.760145187378 -75.687370300293 -233.736511230469 2.484939098358
15.043686866760 -69.914581298828 -231.776596069336 0.820232808590
18.449914932251 -72.244674682617 -235.289093017578 1.829517602921
-157.595458984375 -80.842399597168 -236.088424682617 6.643432617188
-128.906799316406 -72.014686584473 -232.752334594727 1.862922668457
-10.342266082764 -71.919944763184 -237.090011596680 1.336319088936
-1.871484041214 -70.647544860840 -239.307586669922 2.554605484009
67.054679870605 -69.246452331543 -232.310836791992 2.059331893921
66.359077453613 -64.950912475586 -241.552139282227 3.030613183975
-2.397114992142 -68.630859375000 -241.509780883789 2.241047143936
13.549098014832 -65.938026428223 -241.580383300781 2.057542800903
-34.382499694824 -62.896766662598 -242.606765747070 10.964448928833
-33.535327911377 -83.982490539551 -244.183013916016 4.254694938660
-51.685718536377 -73.938194274902 -235.688644409180 4.806052684784
-43.277217864990 -70.626632690430 -240.312301635742 3.060913801193
-17.977144241333 -73.627960205078 -244.435043334961 2.261710643768
-53.847602844238 -71.095314025879 -245.387130737305 1.908220291138
-0.470750987530 -72.291427612305 -246.849548339844 1.437318682671
-70.491638183594 -77.467575073242 -243.042282104492 4.323571205139
19.780191421509 -72.377822875977 -248.955398559570 2.153637409210
-143.435485839844 -79.916618347168 -243.639358520508 2.864219188690
-75.332481384277 -77.155517578125 -255.423187255859 3.519090414047
14.800885200500 -71.510025024414 -252.022979736328 4.684220314026
-163.165191650391 -76.124198913574 -249.108505249023 1.602537870407
10.054700851440 -75.886802673340 -255.972213745117 6.545051574707
-83.098953247070 -66.663208007813 -251.324417114258 3.500093698502
-78.274002075195 -74.620040893555 -250.949188232422 1.399842977524
15.751254081726 -73.021720886230 -255.448562622070 5.347203731537
-91.881118774414 -74.011123657227 -250.824462890625 0.258558183908
-128.254760742188 -71.325416564941 -254.248275756836 2.140988111496
-133.865524291992 -81.115020751953 -261.327606201172 3.054374217987
-138.795349121094 -80.406806945801 -251.649856567383 4.216923713684
-148.897491455078 -79.422920227051 -262.078704833984 1.206722736359
-149.322387695313 -72.647972106934 -250.808502197266 2.177079916000
-136.207031250000 -74.112457275391 -261.781158447266 1.597649574280
-164.209899902344 -72.607200622559 -259.831420898438 1.811677694321
-130.951828002930 -76.021408081055 -268.038116455078 4.546100616455
-139.539749145508 -69.072929382324 -262.993164062500 2.525875329971
-164.252029418945 -72.777442932129 -271.234710693359 3.548266172409
-157.432388305664 -73.439163208008 -264.596130371094 2.200995683670
-149.810134887695 -74.153175354004 -265.759155273438 2.073175430298
-151.496047973633 -77.539443969727 -265.722930908203 3.014654159546
15.075167655945 -72.272483825684 -280.951110839844 3.034870386124
-168.917495727539 -77.381797790527 -264.876251220703 3.230853080750
-153.538681030273 -78.609649658203 -273.453643798828 2.127518415451
-6.825698852539 -79.998779296875 -274.111267089844 2.236788988113
-156.390365600586 -73.106887817383 -276.297668457031 3.107291460037
9.375948905945 -73.439750671387 -285.841613769531 3.041026115417
-155.479064941406 -75.401992797852 -281.125152587891 3.100831508636
-169.291458129883 -78.062904357910 -288.936859130859 4.181335926056
-158.006484985352 -80.147308349609 -276.733093261719 4.820318698883
-166.894699096680 -73.056930541992 -289.545471191406 2.620970726013
-2.385293960571 -74.666801452637 -288.494934082031 1.392342925072
4.925649166107 -76.317314147949 -282.458343505859 1.675151348114
-109.698196411133 -71.212837219238 -293.978393554688 1.085862398148
-159.589477539063 -84.227943420410 -287.941406250000 5.569002628326
-150.514770507813 -72.620246887207 -284.451873779297 2.313316583633
-107.892944335938 -72.413505554199 -292.947052001953 3.065037488937
-156.245956420898 -79.890914916992 -293.726287841797 2.630057573318
-150.562026977539 -81.269844055176 -288.431518554688 0.902142524719
-79.087600708008 -77.304794311523 -294.752258300781 4.188889026642
-171.519638061523 -79.433288574219 -288.401397705078 5.165949344635
-124.994750976563 -69.828506469727 -291.600402832031 1.039090037346
-45.041019439697 -77.544662475586 -285.840484619141 2.001468420029
-152.781600952148 -75.302154541016 -287.118652343750 2.107407808304
-133.308929443359 -68.660217285156 -293.753326416016 2.564713001251
-23.647909164429 -67.595573425293 -296.501708984375 6.421193599701
-132.481033325195 -69.508567810059 -292.805725097656 1.463611125946
3.844340085983 -71.036582946777 -297.058013916016 3.518784999847
12.265090942383 -66.008483886719 -293.872406005859 2.879720449448
-135.933258056641 -69.321914672852 -290.262847900391 1.955893516541
-147.914703369141 -77.623153686523 -299.473114013672 2.042468786240
-158.995498657227 -79.634956359863 -316.177551269531 7.746385097504
-71.621643066406 -74.655990600586 -53.757884979248 3.651989698410
-21.826250076294 -70.433074951172 -68.320037841797 3.666796684265
-18.958997726440 -81.700325012207 -66.685417175293 5.386602401733
70.032264709473 -71.133628845215 -81.800422668457 1.178571581841
89.675354003906 -72.365402221680 -78.509132385254 3.836285352707
-36.039272308350 -78.056221008301 -81.828269958496 1.436852216721
76.212150573730 -72.364509582520 -84.007408142090 2.974192619324
90.372207641602 -77.503166198730 -86.086212158203 1.907854318619
65.048805236816 -74.535209655762 -87.101882934570 3.238893270493
73.129043579102 -71.584564208984 -94.146705627441 0.782285809517
-50.492858886719 -78.555473327637 -85.591026306152 1.684777498245
-91.935234069824 -82.922668457031 -91.092407226563 4.838015079498
59.419265747070 -77.773681640625 -96.522666931152 4.558734416962
50.172664642334 -77.107170104980 -103.136764526367 1.851512193680
91.612167358398 -67.340721130371 -105.156997680664 1.087024569511
-90.686195373535 -72.435897827148 -102.201240539551 3.848036766052
78.389091491699 -66.255516052246 -103.341903686523 3.364307165146
70.529991149902 -74.189781188965 -104.625228881836 5.682626247406
90.691833496094 -76.046821594238 -100.785003662109 1.437949299812
83.568939208984 -73.524147033691 -98.314109802246 1.900012850761
78.972244262695 -76.384101867676 -102.039642333984 3.433064937592
-90.440849304199 -81.107269287109 -103.677719116211 3.544386863708
44.313201904297 -70.231948852539 -105.950927734375 1.447920560837
103.968238830566 -73.463768005371 -113.756164550781 0.512511491776
105.559143066406 -72.738311767578 -113.587471008301 1.568851113319
50.159889221191 -77.634300231934 -123.735649108887 5.831002712250
113.656745910645 -75.624252319336 -121.880897521973 1.759237408638
117.013633728027 -75.067390441895 -138.403182983398 3.192555904388
-51.132717132568 -73.103569030762 -129.379226684570 3.026103496552
27.029956817627 -73.143257141113 -137.156509399414 1.122715473175
40.603015899658 -77.986663818359 -136.245590209961 3.965296983719
23.127868652344 -70.443145751953 -143.509613037109 2.744488000870
111.860061645508 -75.845176696777 -139.373001098633 1.440771102905
110.425270080566 -73.135482788086 -132.338394165039 1.096092820168
-74.629035949707 -76.316780090332 -149.342010498047 2.567040681839
-44.385627746582 -74.488853454590 -140.444885253906 1.783467888832
-72.632904052734 -74.027595520020 -154.310653686523 2.197160482407
16.757713317871 -70.789672851563 -149.033432006836 1.081617951393
110.479537963867 -66.409309387207 -150.116638183594 5.225340843201
-55.449008941650 -78.190238952637 -154.157989501953 5.069141387939
-74.134597778320 -75.343635559082 -154.015533447266 2.895709514618
-40.454063415527 -78.974517822266 -152.290451049805 1.385073542595
29.848117828369 -66.055618286133 -156.180389404297 3.224250078201
106.633728027344 -65.241935729980 -152.670364379883 3.991837978363
116.261512756348 -68.115547180176 -165.602676391602 2.642675161362
-69.625411987305 -72.343620300293 -157.612152099609 1.962870955467
-77.338699340820 -79.606742858887 -160.798294067383 7.623541355133
20.922813415527 -78.594100952148 -165.806411743164 3.389070987701
-61.887245178223 -72.424194335938 -168.316986083984 0.935500979424
-33.689758300781 -71.453613281250 -165.412017822266 1.094471812248
7.740631103516 -75.484825134277 -166.394989013672 2.241529464722
105.024841308594 -66.072441101074 -164.144409179688 5.702700614929
10.038255691528 -77.932174682617 -171.246002197266 7.613018035889
-33.503170013428 -74.803680419922 -167.502288818359 1.909668803215
-5.903150081635 -66.470237731934 -165.642196655273 7.720661163330
104.503723144531 -64.549766540527 -168.783691406250 6.596325874329
-43.373157501221 -72.218185424805 -163.771942138672 1.374825000763
29.443813323975 -69.074607849121 -176.190826416016 2.464233398438
114.079605102539 -75.105735778809 -175.511795043945 1.034641981125
-58.653827667236 -70.924774169922 -176.417266845703 2.694313049316
-28.948846817017 -78.276290893555 -177.887527465820 0.954285502434
99.416976928711 -70.638694763184 -177.474761962891 5.553437709808
28.007314682007 -69.116989135742 -168.716247558594 1.689748883247
101.320121765137 -71.308059692383 -179.166061401367 3.985164165497
-38.526954650879 -68.603858947754 -181.136962890625 3.821965932846
109.134590148926 -74.065757751465 -183.957138061523 1.791541457176
-65.730979919434 -70.748489379883 -178.541320800781 7.062429428101
-27.192491531372 -79.206787109375 -178.845458984375 1.899615883827
-149.851440429688 -69.769981384277 -185.045578002930 2.161216974258
-55.428730010986 -73.519340515137 -179.179214477539 2.035137176514
-149.039764404297 -78.376358032227 -185.956222534180 2.562403917313
-37.167304992676 -71.055458068848 -183.843994140625 2.473862886429
29.190155029297 -78.754432678223 -179.295303344727 2.892678260803
103.818809509277 -70.606803894043 -186.594604492188 1.347658514977
-39.367122650146 -72.773826599121 -182.160339355469 2.734753370285
8.563950538635 -72.577873229980 -192.890762329102 3.467656850815
13.633945465088 -70.749214172363 -208.515945434570 2.058207273483
-151.416564941406 -78.392707824707 -187.248672485352 3.067981719971
105.859657287598 -72.832748413086 -199.145080566406 0.999825417995
-26.305809020996 -70.851753234863 -194.074768066406 1.392526268959
98.591804504395 -71.165145874023 -189.268264770508 2.606833934784
9.597666740417 -68.310302734375 -192.767944335938 2.545214653015
-143.592178344727 -76.680885314941 -207.191452026367 2.387559890747
-138.704681396484 -75.513198852539 -199.373443603516 1.081714987755
101.878387451172 -73.590484619141 -204.678115844727 1.974036097527
-13.241232872009 -77.814331054688 -201.397079467773 0.981020927429
-19.607831954956 -72.881546020508 -206.672851562500 1.807971239090
10.210018157959 -74.422233581543 -209.486083984375 1.433230042458
-151.596893310547 -76.490539550781 -206.524475097656 2.441232204437
-148.332580566406 -78.077346801758 -210.600463867188 0.475222885609
99.591171264648 -60.809162139893 -208.739395141602 9.824180603027
-87.844322204590 -74.488121032715 -207.858581542969 3.512845039368
-36.382938385010 -75.081863403320 -201.240463256836 3.195404052734
19.185359954834 -75.355873107910 -218.249374389648 2.682942867279
-25.964092254639 -73.311553955078 -212.119171142578 2.456114292145
-75.829475402832 -72.003433227539 -205.294082641602 3.482684850693
89.191749572754 -68.894561767578 -211.206436157227 2.145261764526
-80.349380493164 -70.793411254883 -212.760864257813 2.324325084686
-150.217636108398 -75.911849975586 -219.671585083008 2.730680465698
-82.388580322266 -71.936248779297 -212.820281982422 1.722187519073
-12.763609886169 -64.755584716797 -207.492187500000 3.395784139633
-22.380107879639 -68.429756164551 -222.123458862305 3.503247737885
16.481933593750 -71.922004699707 -217.299453735352 1.884535431862
-6.825492858887 -73.320854187012 -225.141494750977 2.578155994415
-90.083625793457 -81.947891235352 -220.427627563477 6.249285221100
91.362815856934 -67.176132202148 -216.480300903320 2.907090425491
-102.936286926270 -72.713394165039 -215.761627197266 3.468459129333
-156.757629394531 -73.570953369141 -225.966308593750 2.614756107330
-33.119186401367 -71.359306335449 -226.364242553711 8.135001182556
17.853090286255 -72.538818359375 -217.420944213867 3.060164928436
-104.088012695313 -75.962692260742 -220.646194458008 3.666998147964
5.223511219025 -64.989578247070 -218.193801879883 5.277693748474
-29.859294891357 -72.211326599121 -215.400726318359 2.561476469040
80.054840087891 -65.397987365723 -227.574813842773 2.167607784271
-145.892379760742 -73.960121154785 -216.383972167969 1.687991619110
14.382017135620 -69.880523681641 -227.649948120117 1.449231266975
-11.264127731323 -75.682357788086 -230.811645507813 0.261802762747
15.606350898743 -61.025169372559 -225.575439453125 8.094947814941
82.225715637207 -70.102600097656 -225.546447753906 1.022123932838
-16.738851547241 -76.205566406250 -231.254653930664 2.703932762146
-132.164520263672 -78.232223510742 -227.660171508789 1.546727299690
-17.550069808960 -71.087509155273 -225.460311889648 2.968737840652
14.689084053040 -69.676010131836 -229.973495483398 1.701512813568
-130.080352783203 -79.173904418945 -227.418457031250 2.119986772537
-156.498367309570 -72.014930725098 -231.861389160156 1.440433502197
-145.452453613281 -74.422576904297 -229.407714843750 0.666084349155
-129.072250366211 -72.557838439941 -225.768966674805 2.465280294418
-12.548522949219 -67.473854064941 -224.940612792969 2.412166118622
69.967628479004 -68.223899841309 -228.881866455078 3.152076244354
-147.324432373047 -69.744621276855 -241.110549926758 2.700735569000
65.449203491211 -69.560661315918 -230.217926025391 3.287396430969
-23.414533615112 -76.378196716309 -233.680740356445 2.980560541153
-144.484146118164 -78.778335571289 -227.775314331055 0.499517440796
74.447425842285 -78.174766540527 -232.193405151367 3.666319608688
8.702553749084 -76.681381225586 -233.128906250000 0.852451205254
-141.079360961914 -79.168899536133 -237.003814697266 4.092451572418
-151.268875122070 -74.872306823730 -232.807754516602 2.633319854736
16.005149841309 -64.933937072754 -231.785049438477 4.871155261993
-4.222220897675 -75.376548767090 -241.697952270508 1.988287687302
-32.746570587158 -70.284851074219 -237.811614990234 4.479786396027
-3.660633087158 -64.999542236328 -236.897460937500 1.310443282127
-162.229309082031 -80.326843261719 -238.171188354492 6.092019557953
2.435437917709 -67.017326354980 -243.742095947266 1.791703104973
-166.818176269531 -77.917846679688 -242.091445922852 3.184136390686
-13.419184684753 -72.195632934570 -238.845626831055 0.961499691010
55.251258850098 -69.696617126465 -241.326553344727 0.557930827141
-15.892559051514 -69.036712646484 -237.060607910156 2.071284055710
-27.241428375244 -70.826919555664 -250.196472167969 9.068036079407
-26.120733261108 -70.688468933105 -243.028518676758 2.910493850708
-11.602418899536 -76.050621032715 -241.146789550781 3.538501739502
-148.240249633789 -77.181648254395 -226.955017089844 2.252019405365
5.575212955475 -68.465126037598 -242.539489746094 2.487534523010
61.867206573486 -67.736549377441 -247.545379638672 0.555526614189
13.909738540649 -65.880699157715 -246.828842163086 3.198901176453
-172.606552124023 -73.813201904297 -243.333557128906 6.668846130371
-54.252311706543 -71.015090942383 -238.728210449219 4.941875457764
3.795363903046 -77.610458374023 -251.255401611328 4.192948818207
15.389303207397 -70.363349914551 -244.444076538086 2.523178100586
-55.705551147461 -71.776710510254 -248.614532470703 1.236514687538
-3.912247896194 -63.432781219482 -252.436096191406 3.279510259628
18.611928939819 -78.286666870117 -251.332809448242 1.529943943024
-175.573211669922 -72.794326782227 -249.117919921875 8.491940498352
-66.093666076660 -77.464187622070 -250.773910522461 2.482019662857
-55.057643890381 -69.312011718750 -248.864685058594 3.306582212448
-85.821792602539 -70.259773254395 -254.429992675781 1.280743479729
-164.435012817383 -77.964889526367 -246.193191528320 2.517642021179
-153.091964721680 -63.915618896484 -246.764358520508 4.079341411591
-62.922752380371 -74.723060607910 -251.039520263672 0.909432828426
-70.743766784668 -71.777191162109 -249.197326660156 2.136626720428
-155.914260864258 -71.960334777832 -251.853195190430 2.787352085114
-154.217590332031 -77.029335021973 -252.268737792969 2.904698133469
-76.515823364258 -66.115234375000 -255.975372314453 4.152392387390
-95.952072143555 -68.572212219238 -257.954498291016 1.535473346710
-165.095230102539 -66.879226684570 -254.088760375977 3.752623558044
-159.908508300781 -75.619331359863 -262.245910644531 1.995606422424
-137.904251098633 -76.944580078125 -261.710266113281 0.397127002478
