37.358467102051 -78.173896789551 -115.292732238770 1.666768431664
34.513324737549 -80.199653625488 -139.512710571289 1.812749981880
26.797290802002 -78.625595092773 -141.975296020508 1.353941559792
21.379560470581 -71.692604064941 -144.458282470703 2.896529674530
32.404224395752 -74.715324401855 -143.413940429688 2.823374271393
-46.100563049316 -82.788589477539 -154.720993041992 2.928257942200
-50.110500335693 -81.203033447266 -151.898544311523 4.074112415314
-40.877441406250 -78.494140625000 -159.592407226563 2.287764072418
22.167694091797 -76.726997375488 -156.061599731445 1.746829986572
30.967489242554 -78.164756774902 -169.078048706055 3.652853488922
-33.163330078125 -75.403709411621 -170.454895019531 3.157866001129
-35.759616851807 -73.357505798340 -159.467086791992 1.713953256607
-46.173839569092 -82.518875122070 -160.399490356445 4.840040206909
1.310438036919 -76.096046447754 -164.059951782227 2.249331951141
24.908479690552 -80.251365661621 -151.039230346680 1.180641531944
33.351276397705 -74.795883178711 -159.996688842773 1.982631325722
29.370107650757 -77.195602416992 -171.813491821289 2.002092599869
-5.399668216705 -78.804817199707 -173.874298095703 2.930869102478
-5.819760799408 -80.799179077148 -171.449554443359 2.099978685379
-58.810176849365 -77.108665466309 -166.763885498047 1.001265764236
-61.113059997559 -79.019424438477 -172.265167236328 1.356975793839
-45.065212249756 -81.085250854492 -170.006286621094 3.471194982529
-37.892166137695 -77.253761291504 -168.399948120117 1.779552102089
21.065242767334 -73.450584411621 -171.579452514648 3.695225954056
-23.978895187378 -84.569587707520 -179.181015014648 2.758186340332
-29.705907821655 -75.694580078125 -182.697799682617 2.846727848053
-63.450130462646 -83.928375244141 -180.053283691406 7.374687671661
96.126602172852 -81.206069946289 -183.122970581055 8.170042037964
21.085256576538 -83.650299072266 -177.009735107422 4.200232505798
-25.786020278931 -79.264755249023 -180.505508422852 1.418533205986
-52.316299438477 -79.737854003906 -178.307617187500 1.049135327339
-22.474586486816 -75.408630371094 -181.687683105469 1.333578944206
113.271827697754 -79.495620727539 -183.802047729492 5.418116569519
-57.273117065430 -82.024223327637 -186.489227294922 3.236114978790
11.193781852722 -81.867645263672 -192.321655273438 5.959826946259
15.722124099731 -79.328857421875 -179.172576904297 3.531559944153
-56.251247406006 -86.335159301758 -177.048156738281 5.328989982605
-25.331781387329 -77.778434753418 -183.540100097656 2.020066976547
-56.191062927246 -83.797286987305 -178.263732910156 4.322984218597
-36.957218170166 -82.064582824707 -177.022918701172 4.297008037567
-29.320144653320 -79.550361633301 -188.369903564453 0.845950543880
18.798717498779 -80.000007629395 -189.738174438477 1.569804787636
-47.792343139648 -81.730079650879 -189.489486694336 3.705150842667
103.030830383301 -78.117424011230 -191.356262207031 2.016365766525
-50.791149139404 -75.488182067871 -189.975555419922 1.923705220222
5.689858913422 -78.756027221680 -204.123703002930 3.292910337448
21.010206222534 -78.018280029297 -198.928161621094 2.830415725708
-50.232872009277 -79.919143676758 -192.488082885742 2.237877607346
-15.572216987610 -80.596427917480 -189.789962768555 4.665969371796
98.674552917480 -79.136161804199 -195.663391113281 4.295292377472
94.851402282715 -84.291534423828 -195.851272583008 8.381707191467
-50.963420867920 -78.062141418457 -186.979171752930 0.886669039726
-150.488906860352 -87.200035095215 -200.746139526367 4.055986404419
-45.776542663574 -79.316810607910 -196.324111938477 1.276914000511
-145.214599609375 -81.006225585938 -197.124801635742 2.026888847351
-135.080871582031 -75.164482116699 -197.070220947266 1.179758906364
-47.782630920410 -83.393424987793 -196.225875854492 1.944447278976
9.083406448364 -81.850402832031 -207.507522583008 3.530106067657
-16.108499526978 -76.397003173828 -205.920852661133 0.323883503675
15.821160316467 -76.409378051758 -201.649581909180 1.950940370560
91.060981750488 -84.446990966797 -214.725769042969 7.119985580444
-34.742355346680 -77.585151672363 -203.430480957031 1.262421250343
-15.585094451904 -76.997528076172 -203.642623901367 1.970569610596
-17.686941146851 -76.780784606934 -215.510726928711 2.653027534485
-35.026508331299 -78.163902282715 -204.127029418945 0.964599370956
4.714725971222 -80.052192687988 -207.243408203125 3.686051845551
-80.747589111328 -81.783828735352 -211.478225708008 2.905123710632
16.178556442261 -80.899261474609 -216.088241577148 2.575142383575
-35.449699401855 -78.532981872559 -206.041854858398 1.663059711456
-145.796646118164 -85.127922058105 -206.873306274414 2.863184690475
-141.221908569336 -75.848159790039 -210.303527832031 3.420655012131
-89.159179687500 -80.717727661133 -213.291839599609 2.488644838333
-35.287216186523 -77.168151855469 -209.414840698242 1.265777468681
-12.776270866394 -85.667160034180 -212.854797363281 5.351369857788
-34.750057220459 -81.058975219727 -205.169692993164 1.771101832390
-91.080116271973 -83.350166320801 -217.605972290039 6.120591640472
-87.054443359375 -82.268875122070 -213.521682739258 3.496160745621
5.132881164551 -86.653266906738 -221.354156494141 5.554337978363
-149.932922363281 -73.471061706543 -212.562927246094 1.361460924149
-15.688302993774 -84.505073547363 -213.011398315430 5.241412162781
8.844518661499 -87.583312988281 -219.878204345703 5.606085777283
-144.716827392578 -78.506507873535 -220.953689575195 2.878337860107
-24.355964660645 -81.674407958984 -215.729934692383 0.815506577492
1.562649965286 -74.394958496094 -220.097274780273 3.251299381256
-9.968400001526 -80.803428649902 -220.646041870117 2.273460149765
-153.118408203125 -75.125656127930 -223.475097656250 3.163783550262
-141.154235839844 -68.144111633301 -226.703628540039 2.732497930527
-4.089387893677 -80.112800598145 -227.289016723633 1.647577881813
-148.639160156250 -85.845710754395 -226.902999877930 1.927742004395
0.275927007198 -74.187377929688 -229.855590820313 3.263435840607
17.326629638672 -78.671844482422 -237.052215576172 2.290487051010
-3.078756093979 -83.120506286621 -229.621047973633 4.789315223694
-3.194667100906 -73.076133728027 -232.377502441406 1.438623666763
8.305952072144 -77.722671508789 -232.476013183594 1.886280059814
-153.365036010742 -81.088050842285 -240.791809082031 2.792353391647
-20.375232696533 -76.933296203613 -233.266021728516 3.166060686111
-35.016208648682 -82.535057067871 -239.193389892578 3.883776426315
0.065834000707 -78.276985168457 -236.049682617188 2.181372880936
3.379338026047 -86.168289184570 -244.770523071289 6.184684276581
0.475594013929 -77.558532714844 -233.500488281250 3.079639673233
-60.024829864502 -79.356163024902 -242.712417602539 3.894602060318
-149.381347656250 -75.645812988281 -250.212570190430 2.670202732086
-154.327011108398 -79.878150939941 -247.682952880859 3.317568302155
11.805220603943 -81.861557006836 -247.983200073242 1.904135107994
25.619438171387 -82.467941284180 -246.510757446289 5.104234695435
-62.249534606934 -76.152755737305 -247.631195068359 0.595868766308
-142.265167236328 -85.456054687500 -252.427261352539 4.350050926208
-154.076354980469 -84.117965698242 -254.966537475586 1.832099318504
-155.603195190430 -84.137115478516 -257.144012451172 2.293030977249
-143.927398681641 -76.671707153320 -262.872985839844 2.178219556808
-143.386215209961 -81.324401855469 -256.854064941406 1.046075820923
-6.436604022980 -82.032646179199 -256.662109375000 1.630089163780
-146.537338256836 -81.601249694824 -262.200775146484 2.203729629517
-15.611316680908 -80.941421508789 -269.701568603516 3.971532821655
-148.317123413086 -78.467788696289 -271.079589843750 1.305742621422
-148.884262084961 -79.419395446777 -282.664520263672 1.919986724854
-148.387603759766 -77.838165283203 -284.933013916016 1.370185732841
-4.415504932404 -74.661895751953 -285.978729248047 1.846553325653
-150.381942749023 -75.562889099121 -282.694946289063 1.124876141548
-25.051761627197 -81.969543457031 -286.607330322266 5.347887516022
-25.506780624390 -76.393272399902 -285.116729736328 0.709910988808
-13.512762069702 -76.606391906738 -295.446594238281 3.590692996979
-15.919340133667 -76.184379577637 -294.677825927734 3.142565011978
10.660122871399 -82.817687988281 -291.729461669922 3.456936359406
-125.576347351074 -82.516639709473 -290.751068115234 4.842983245850
-63.511131286621 -80.599304199219 -287.240051269531 5.799664020538
-43.248874664307 -76.122329711914 -291.213745117188 1.101896286011
-34.277992248535 -80.648033142090 -287.784820556641 0.611716449261
-9.105843544006 -77.310844421387 -295.365692138672 4.031339168549
5.075000762939 -81.260108947754 -288.331970214844 3.325957775116
-141.978897094727 -80.415931701660 -299.374389648438 4.552659034729
10.645608901978 -80.419830322266 -297.633209228516 5.921056270599
-154.833419799805 -76.877212524414 -303.543731689453 2.000353813171
-155.825515747070 -85.368827819824 -301.690277099609 3.895428895950
-154.360458374023 -75.055290222168 -313.050537109375 2.706470966339
-142.842681884766 -78.968284606934 -309.597015380859 4.331904411316
-51.516578674316 -78.196052551270 -49.720661163330 6.549915790558
-53.636497497559 -83.144607543945 -56.712989807129 4.914715766907
-68.767730712891 -75.979026794434 -54.847003936768 2.721090316772
-40.088771820068 -75.682830810547 -63.750766754150 2.103941202164
-35.620414733887 -78.705993652344 -59.924568176270 2.720113277435
-18.852550506592 -77.460350036621 -71.505905151367 2.710111856461
-81.567329406738 -74.826637268066 -69.980102539063 4.095268726349
85.677017211914 -78.945442199707 -79.113960266113 2.530409574509
-91.504196166992 -76.164604187012 -72.500358581543 2.740022659302
79.404853820801 -75.525245666504 -76.947418212891 1.566102266312
88.443214416504 -72.629875183105 -85.279777526855 4.757327556610
98.560386657715 -74.811912536621 -91.437980651855 2.149056434631
-61.958408355713 -81.080993652344 -97.190849304199 0.530907452106
81.444709777832 -80.337684631348 -97.645599365234 4.310394763947
75.746025085449 -83.944946289063 -91.134674072266 6.453796863556
85.918693542480 -78.005828857422 -91.163475036621 0.518934071064
-58.514533996582 -78.062698364258 -97.978713989258 4.389388561249
47.426853179932 -75.830253601074 -98.971641540527 1.896680355072
45.341091156006 -77.382148742676 -107.188156127930 2.358789443970
38.786422729492 -79.267974853516 -103.911071777344 2.272308588028
35.122436523438 -78.827468872070 -100.892433166504 6.702240943909
-92.582214355469 -73.083976745605 -102.469139099121 2.807969808578
34.823650360107 -76.082008361816 -117.913345336914 1.957626700401
-85.279342651367 -78.570930480957 -106.850341796875 3.355494499207
39.328243255615 -79.649269104004 -128.930358886719 3.317543268204
31.882705688477 -79.417114257813 -120.958557128906 1.941426277161
33.897006988525 -69.182327270508 -121.964256286621 1.759724497795
44.574184417725 -75.568176269531 -117.459884643555 1.712511301041
41.541213989258 -81.676185607910 -129.175643920898 4.764727115631
-51.153045654297 -71.115776062012 -135.418838500977 0.621902644634
37.605434417725 -83.620712280273 -134.345443725586 1.149675369263
35.142906188965 -78.049598693848 -145.213500976563 1.688384056091
-57.066802978516 -76.277603149414 -145.231262207031 2.537832260132
-44.598136901855 -78.701835632324 -140.433105468750 3.725708007813
34.714771270752 -76.166610717773 -142.785247802734 2.344192504883
109.834945678711 -72.351913452148 -140.949890136719 1.853280544281
111.644393920898 -73.727821350098 -148.154876708984 1.780445694923
26.103990554810 -80.035629272461 -141.349975585938 2.759685516357
-40.140396118164 -81.704635620117 -150.274154663086 2.756885290146
117.571945190430 -86.608108520508 -152.678146362305 9.489053726196
-36.848693847656 -75.858200073242 -152.720108032227 1.975726008415
-68.119094848633 -77.057464599609 -163.688232421875 2.041533708572
110.237571716309 -83.580703735352 -155.001403808594 6.932238578796
22.267646789551 -79.713439941406 -167.555389404297 1.898182034492
0.796518027782 -79.065284729004 -163.135864257813 1.810496926308
110.447990417480 -78.266326904297 -152.277709960938 2.465198516846
-64.557342529297 -77.845420837402 -167.078262329102 1.977039575577
-39.483531951904 -80.037048339844 -167.068695068359 2.088994503021
110.679718017578 -79.456085205078 -165.597137451172 2.970807313919
26.818096160889 -71.952560424805 -159.051513671875 1.646153092384
-61.689899444580 -70.671218872070 -164.341201782227 0.692309141159
112.757637023926 -78.541397094727 -166.193923950195 1.530544996262
-65.970832824707 -79.898986816406 -169.373733520508 2.601952791214
-48.625129699707 -81.833633422852 -183.648117065430 2.304617643356
105.771614074707 -77.649841308594 -171.712173461914 2.899495363235
-59.847015380859 -76.606300354004 -173.342269897461 2.530460119247
112.552139282227 -76.939331054688 -179.296981811523 3.032749176025
-62.021018981934 -77.071105957031 -177.283706665039 2.171693563461
-16.713010787964 -75.198150634766 -177.903152465820 2.376661062241
-9.621414184570 -84.611450195313 -183.621154785156 6.793909072876
107.318969726563 -80.484306335449 -165.966949462891 4.789350509644
21.334796905518 -79.907821655273 -171.551040649414 1.420126199722
30.864807128906 -72.225830078125 -169.238159179688 3.224281072617
-58.815952301025 -77.227104187012 -178.033935546875 1.252068996429
16.629995346069 -75.888961791992 -182.116577148438 1.445363283157
-57.788417816162 -79.325469970703 -174.614379882813 1.670290827751
-53.087528228760 -76.533515930176 -195.951538085938 4.502859115601
9.653273582458 -75.477714538574 -185.711074829102 2.939376115799
-55.772865295410 -72.348609924316 -179.436172485352 2.905165195465
105.540000915527 -75.027084350586 -189.888809204102 1.579536676407
26.168943405151 -81.828910827637 -182.663406372070 2.827205419540
-36.197769165039 -75.386810302734 -188.572113037109 3.542475938797
-43.615150451660 -81.468269348145 -189.615585327148 3.201818227768
10.933320045471 -81.198410034180 -191.363540649414 5.394891262054
-20.540636062622 -79.643569946289 -187.650756835938 1.992842555046
-47.255008697510 -80.032974243164 -196.353485107422 0.635918438435
101.118789672852 -83.162132263184 -182.655334472656 5.783722400665
7.927907943726 -82.683853149414 -190.525466918945 8.273550987244
-132.295089721680 -86.036445617676 -200.958374023438 5.223436832428
-50.495895385742 -80.913688659668 -196.451400756836 2.183952808380
93.602851867676 -77.130416870117 -199.217300415039 3.737203359604
-150.472167968750 -84.968856811523 -203.036239624023 2.613614559174
17.955301284790 -78.974861145020 -202.074432373047 2.163611888885
-44.167232513428 -74.671485900879 -206.690170288086 5.255049228668
-30.088775634766 -82.129737854004 -208.225082397461 3.604822397232
-37.653121948242 -79.905876159668 -200.985092163086 1.790971994400
-46.597625732422 -86.236312866211 -198.646041870117 1.705392718315
100.565002441406 -78.015243530273 -205.808746337891 1.550024390221
-21.887044906616 -83.417098999023 -199.986495971680 3.831847667694
-150.660263061523 -78.661140441895 -200.487152099609 1.171883940697
15.340364456177 -81.612670898438 -201.068771362305 3.218001604080
-77.858795166016 -83.460845947266 -205.338684082031 4.393932342529
-142.950607299805 -75.962150573730 -215.093368530273 2.985295772552
92.902015686035 -81.546867370605 -215.051696777344 4.481663227081
-33.508235931396 -76.779846191406 -207.382064819336 1.999772429466
-29.270927429199 -79.379829406738 -210.651626586914 0.978674292564
10.003694534302 -79.028106689453 -210.080490112305 1.777189970016
-72.314575195313 -83.665481567383 -207.000518798828 3.696490526199
-27.030765533447 -88.111938476563 -205.216827392578 8.655957221985
-9.394272804260 -80.529167175293 -217.944137573242 1.467993140221
-69.622756958008 -79.612174987793 -214.321258544922 1.817933320999
-14.291563987732 -79.252601623535 -218.010696411133 1.881869316101
7.173055171967 -68.740051269531 -211.327514648438 2.818728446960
11.307542800903 -82.059043884277 -222.091064453125 2.729074001312
-152.757461547852 -81.180908203125 -218.573196411133 2.985190391541
-9.858778953552 -78.594390869141 -214.478134155273 1.288607239723
-103.603736877441 -74.784248352051 -220.374481201172 2.605620861053
-22.457614898682 -78.324966430664 -219.698059082031 1.744918346405
87.574928283691 -85.331314086914 -212.670120239258 8.274331092834
9.479002952576 -76.259834289551 -224.473373413086 1.822887182236
21.971403121948 -78.447944641113 -216.690246582031 5.037239551544
79.188713073730 -80.508140563965 -212.915893554688 5.870419979095
1.020975947380 -84.134811401367 -231.021865844727 4.947764396667
84.696327209473 -79.110702514648 -217.023544311523 2.815918445587
-22.429695129395 -73.539199829102 -225.522460937500 1.067877292633
16.407640457153 -74.509323120117 -218.430191040039 2.245555162430
-149.631546020508 -80.521148681641 -218.233444213867 1.646059751511
-27.815029144287 -80.396675109863 -227.060775756836 4.987640857697
1.663347959518 -75.225013732910 -232.164489746094 2.456682205200
-157.133407592773 -85.271720886230 -225.189376831055 4.993153095245
-138.166259765625 -82.961914062500 -228.184066772461 1.519482612610
1.747030019760 -78.285491943359 -223.216445922852 2.606202602386
-4.027902126312 -74.320190429688 -224.035110473633 2.211044073105
-137.886749267578 -74.715858459473 -229.138122558594 2.915713071823
-148.011627197266 -79.359062194824 -243.908599853516 1.489191651344
-149.772857666016 -79.952102661133 -236.006362915039 2.280073881149
-31.727483749390 -80.432441711426 -236.779190063477 1.769296407700
-141.643356323242 -83.281318664551 -243.994537353516 3.039780616760
13.930724143982 -80.734054565430 -241.690582275391 1.757600188255
5.592676162720 -78.346855163574 -245.605178833008 1.634719610214
-151.350357055664 -72.492759704590 -239.199615478516 2.230319976807
-150.206161499023 -78.474159240723 -245.767028808594 1.937857627869
-45.472003936768 -81.391098022461 -247.132751464844 2.323812961578
-31.993927001953 -79.663398742676 -248.090606689453 5.420578002930
3.482732057571 -78.351989746094 -242.188415527344 1.182705879211
-35.880561828613 -81.380470275879 -245.802200317383 4.353730678558
21.386791229248 -79.022552490234 -246.634735107422 0.779026806355
-6.515923023224 -81.463172912598 -254.028198242188 1.699244856834
-143.465972900391 -80.575164794922 -253.546798706055 1.102422952652
-10.819886207581 -84.977317810059 -253.819610595703 2.106745243073
-149.108551025391 -76.407127380371 -246.305023193359 1.781824469566
-65.060447692871 -81.564994812012 -250.844802856445 2.341090917587
-146.529815673828 -86.955551147461 -259.255676269531 1.171848535538
-128.181228637695 -79.451019287109 -258.419464111328 2.024789094925
-154.101196289063 -79.597587585449 -256.782165527344 1.740589261055
-10.230954170227 -76.220993041992 -268.192779541016 2.868020772934
-145.798049926758 -86.730979919434 -274.359100341797 2.972465038300
-149.245666503906 -79.846435546875 -270.652282714844 0.298644155264
-12.502389907837 -79.269981384277 -271.478729248047 1.186034440994
-143.943923950195 -79.630599975586 -270.250854492188 3.193414688110
-7.272206783295 -77.328491210938 -276.351470947266 1.298925876617
-45.691051483154 -78.337974548340 -283.664764404297 3.497318267822
-135.368743896484 -76.267501831055 -288.868438720703 2.196531772614
-136.443740844727 -78.962860107422 -286.224853515625 2.208194255829
-122.669815063477 -75.324851989746 -281.094238281250 3.419973850250
-51.654781341553 -78.310661315918 -286.599975585938 2.218607425690
-111.390052795410 -78.078773498535 -283.169403076172 5.740799903870
16.508134841919 -78.283424377441 -293.588928222656 1.815810680389
-56.343547821045 -76.815063476563 -288.892456054688 0.447504937649
-140.721191406250 -79.331817626953 -294.428680419922 3.254143714905
-63.719669342041 -77.781982421875 -291.017211914063 3.300475358963
-145.329620361328 -85.644927978516 -294.613800048828 3.266660213470
-116.342430114746 -76.263374328613 -291.664764404297 3.318293333054
-45.648529052734 -82.521987915039 -290.674652099609 6.439426422119
-33.129760742188 -79.090049743652 -292.161010742188 1.380008935928
-138.958633422852 -74.005172729492 -297.885925292969 5.133319377899
-15.012359619141 -72.328483581543 -280.918182373047 4.535169124603
5.633889198303 -78.409301757813 -286.833862304688 1.629759192467
6.741364955902 -76.894821166992 -290.462432861328 1.823682188988
15.338253974915 -80.159484863281 -296.386932373047 3.091084241867
-149.815109252930 -84.918861389160 -299.106781005859 1.422974705696
-144.239929199219 -76.593528747559 -292.139251708984 2.236858129501
-65.882049560547 -75.147430419922 -63.193904876709 3.193318128586
89.156623840332 -79.529541015625 -72.244987487793 4.093942642212
78.669631958008 -78.843368530273 -78.054351806641 3.708801269531
-28.453578948975 -80.526756286621 -76.728263854980 1.782725214958
83.226844787598 -75.537071228027 -74.438491821289 1.652635216713
-38.807147979736 -80.717987060547 -80.105361938477 2.107938766479
81.316246032715 -72.510414123535 -83.162208557129 4.096908569336
96.788032531738 -72.530029296875 -79.712905883789 2.439088106155
-64.594451904297 -71.178535461426 -97.062896728516 2.186686038971
71.880844116211 -78.214508056641 -94.786911010742 3.563009262085
79.590652465820 -74.822479248047 -98.187507629395 2.271507501602
97.646095275879 -80.918121337891 -95.749923706055 5.864062786102
55.167816162109 -79.806968688965 -97.008850097656 4.234100818634
-65.119041442871 -73.950263977051 -101.748947143555 3.504487991333
-73.936973571777 -73.822990417480 -101.378814697266 1.808791279793
50.867031097412 -79.963897705078 -103.358161926270 1.693372249603
-87.106002807617 -79.028228759766 -101.945938110352 1.844238758087
47.646381378174 -73.727432250977 -118.650291442871 1.678202390671
110.541557312012 -76.703697204590 -120.569229125977 1.327772498131
113.047531127930 -80.080757141113 -130.208892822266 4.064392089844
19.075847625732 -75.148094177246 -136.987762451172 5.399259567261
110.144584655762 -79.776008605957 -127.095291137695 2.874749898911
29.038669586182 -74.278839111328 -133.399398803711 1.627239227295
112.488151550293 -70.538726806641 -133.318191528320 0.841720402241
36.586780548096 -74.586189270020 -134.972656250000 3.098251104355
-57.685832977295 -76.731803894043 -140.151428222656 2.595628976822
36.445285797119 -82.598228454590 -146.439620971680 4.859755992889
108.454902648926 -75.250320434570 -134.197937011719 2.769795894623
-45.119358062744 -75.436698913574 -144.025756835938 1.280047535896
31.876947402954 -75.801017761230 -151.074981689453 1.352071642876
-57.043346405029 -70.979888916016 -142.144363403320 1.038368940353
-60.716903686523 -77.062301635742 -144.277420043945 4.230093002319
-53.253208160400 -81.390205383301 -150.540374755859 4.534892082214
-64.379058837891 -81.014404296875 -156.013763427734 1.999844908714
111.089157104492 -82.641738891602 -147.007095336914 4.640310287476
-49.784088134766 -85.443931579590 -155.634460449219 6.054755210876
23.313285827637 -83.567565917969 -157.124084472656 4.622921943665
107.154380798340 -78.548622131348 -163.654739379883 2.969223737717
-65.153053283691 -77.801483154297 -154.655136108398 2.204314708710
-42.688953399658 -79.020843505859 -157.978469848633 3.223709821701
9.099733352661 -75.035888671875 -154.591705322266 1.132820367813
-68.734367370605 -78.431411743164 -154.263610839844 2.880651950836
-64.800842285156 -81.005622863770 -158.251098632813 2.003214120865
0.612455010414 -77.822776794434 -162.743087768555 2.061539888382
-44.655464172363 -73.115852355957 -168.423492431641 1.032933473587
28.395874023438 -75.163055419922 -168.462112426758 0.399025946856
-63.639911651611 -72.872581481934 -169.285552978516 1.021074175835
-55.773189544678 -80.255798339844 -166.529739379883 2.628362178802
13.668843269348 -81.579048156738 -159.910430908203 6.339610099792
-30.108686447144 -76.287384033203 -168.587020874023 1.184492230415
-28.328052520752 -80.740196228027 -166.691986083984 3.626717090607
14.506444931030 -79.459861755371 -174.967788696289 4.357912063599
-44.384712219238 -81.251998901367 -173.317092895508 3.520025968552
-10.270831108093 -79.603157043457 -172.473495483398 1.689376831055
-66.989280700684 -73.960762023926 -171.680938720703 1.196656703949
-8.066853523254 -75.013671875000 -175.014526367188 0.693682074547
-21.448646545410 -77.895217895508 -180.178024291992 1.724431276321
21.922266006470 -74.331382751465 -184.987197875977 3.070694923401
-38.915027618408 -80.053100585938 -172.736602783203 3.296432495117
21.463949203491 -73.021591186523 -175.469223022461 2.783158063889
-22.881916046143 -73.731185913086 -186.528961181641 0.757826030254
-32.118495941162 -80.855041503906 -177.318847656250 2.891341209412
-148.584091186523 -74.621772766113 -194.023757934570 2.204680442810
-17.133386611938 -83.145744323730 -183.668579101563 4.172128677368
-139.988586425781 -76.222068786621 -190.364898681641 3.824450492859
-154.768814086914 -78.730178833008 -187.747970581055 4.834649562836
-50.260379791260 -75.891716003418 -189.438598632813 2.231734991074
98.314895629883 -77.059455871582 -195.140701293945 3.397000074387
-145.102630615234 -79.644943237305 -190.497314453125 2.605694293976
-144.887832641602 -75.566429138184 -196.116683959961 0.903444349766
22.853195190430 -75.678443908691 -196.273330688477 3.271026134491
-139.185455322266 -78.878295898438 -196.191909790039 3.411827087402
12.434795379639 -73.326179504395 -199.640686035156 1.882035374641
-137.737594604492 -81.877243041992 -200.406555175781 1.951248526573
13.134872436523 -73.240425109863 -198.256362915039 1.404365301132
-132.640243530273 -74.202293395996 -195.327148437500 0.846392869949
4.591156005859 -73.652435302734 -201.780441284180 3.711600065231
-152.481491088867 -78.291908264160 -202.257171630859 0.911937236786
95.645919799805 -77.840270996094 -207.194686889648 1.758068799973
-17.304422378540 -80.905014038086 -209.760040283203 2.430767059326
-30.601490020752 -76.718612670898 -209.531356811523 1.003170251846
-12.611344337463 -71.868392944336 -205.506698608398 1.607174754143
-144.744628906250 -83.670074462891 -210.871795654297 1.299976229668
-35.583492279053 -77.940567016602 -203.042312622070 0.501160800457
-84.640296936035 -80.338317871094 -202.584609985352 9.202793121338
-26.918596267700 -79.644081115723 -208.357940673828 1.277327060699
13.802552223206 -78.632301330566 -214.745407104492 1.879299521446
-146.197296142578 -75.428329467773 -216.065307617188 2.020967721939
-88.772262573242 -81.051918029785 -220.203399658203 4.901037693024
-29.165943145752 -76.690071105957 -221.049423217773 2.441053628922
-27.697174072266 -78.130332946777 -221.418762207031 2.196233272552
-7.322495937347 -79.959022521973 -208.727874755859 3.604376554489
-27.363742828369 -77.046699523926 -207.396118164063 1.336411356926
-84.715629577637 -78.613479614258 -223.031890869141 5.823544025421
-90.561904907227 -84.524688720703 -220.380249023438 8.418497085571
-22.693246841431 -77.134750366211 -222.483871459961 2.161031007767
-1.894875049591 -87.976867675781 -225.873321533203 7.728757381439
-157.472579956055 -81.001831054688 -217.740356445313 7.568539142609
-2.460577011108 -79.757324218750 -222.392166137695 0.697228968143
88.365676879883 -83.145538330078 -228.443679809570 8.613006591797
-138.778350830078 -81.168182373047 -223.161224365234 3.701309442520
-2.898690938950 -78.585510253906 -221.014755249023 1.280192732811
-138.901092529297 -80.178863525391 -225.955245971680 2.076752901077
-147.146072387695 -87.094345092773 -225.103866577148 2.921774387360
-5.545504093170 -76.967933654785 -228.221160888672 1.320422291756
22.710290908813 -79.299835205078 -213.190170288086 6.298270225525
-138.519851684570 -76.104690551758 -229.743515014648 2.331660747528
-18.342666625977 -80.196571350098 -227.738800048828 2.262390136719
70.897705078125 -79.169898986816 -225.123550415039 7.530940055847
74.470993041992 -78.521507263184 -234.638656616211 4.839945316315
11.035031318665 -80.595527648926 -229.938598632813 0.596629679203
-35.361412048340 -79.479690551758 -235.724441528320 3.622040033340
-24.785018920898 -87.327278137207 -242.947433471680 8.538405418396
2.147222995758 -76.337669372559 -243.486434936523 1.376803159714
-46.457748413086 -72.941322326660 -244.247436523438 2.913912057877
-20.375797271729 -75.678855895996 -243.218017578125 2.047650337219
10.777221679688 -74.332092285156 -238.168518066406 1.337661027908
-63.014598846436 -78.929756164551 -245.899719238281 2.088513851166
-37.160152435303 -84.194099426270 -244.207168579102 3.497668504715
-37.524875640869 -76.971382141113 -245.827728271484 1.935321211815
-147.378082275391 -75.659210205078 -246.235260009766 1.469859838486
-44.349708557129 -81.838607788086 -249.013549804688 4.083140373230
-52.278747558594 -69.227210998535 -247.425811767578 4.087775230408
-65.377830505371 -77.985046386719 -248.804306030273 2.324086904526
-10.317760467529 -83.528404235840 -245.088287353516 8.089419364929
-78.357391357422 -80.240287780762 -256.011901855469 3.600525140762
-156.794494628906 -85.467437744141 -253.129440307617 1.728686690331
-140.052703857422 -76.691772460938 -253.298095703125 2.772993564606
-120.454513549805 -80.586692810059 -258.300720214844 5.919919013977
-159.416046142578 -74.821144104004 -257.542999267578 2.544491291046
18.779020309448 -86.155677795410 -267.352996826172 5.754098415375
-14.839020729065 -81.103660583496 -269.238159179688 3.828518867493
-155.617248535156 -81.816513061523 -275.150299072266 3.827886581421
-152.963272094727 -86.345497131348 -279.122497558594 3.629764080048
-146.011810302734 -80.996192932129 -286.209259033203 0.669935762882
-58.670772552490 -73.040031433105 -278.967651367188 6.380905628204
-38.612350463867 -72.155761718750 -285.586303710938 1.633959770203
-16.899547576904 -75.803703308105 -290.273040771484 1.784154534340
-8.335904121399 -73.528755187988 -277.564025878906 2.494247674942
-66.086914062500 -82.320724487305 -284.918426513672 5.266477584839
-81.150444030762 -83.931556701660 -286.054565429688 7.368701934814
-1.415295958519 -79.503768920898 -281.685577392578 2.234578371048
2.271904945374 -80.270507812500 -293.165527343750 2.513439416885
-140.389862060547 -76.955345153809 -285.546325683594 2.254668474197
-80.920684814453 -74.507766723633 -285.711547851563 2.669975519180
-146.679916381836 -77.244621276855 -287.571655273438 1.917166233063
-94.428520202637 -89.216407775879 -284.947998046875 13.804531097412
-78.561767578125 -77.842559814453 -285.166687011719 2.670253992081
-86.202156066895 -75.373222351074 -296.984252929688 6.006830692291
-63.440856933594 -78.032501220703 -292.304290771484 3.746818065643
-31.208873748779 -70.808822631836 -296.203308105469 3.549450874329
-9.156346321106 -77.873832702637 -290.370086669922 1.763505220413
-150.220336914063 -70.632926940918 -300.588256835938 2.207660436630
-147.836959838867 -75.895866394043 -301.348175048828 1.888607621193
-143.129058837891 -76.852561950684 -306.320159912109 2.335971593857
-158.126907348633 -78.148712158203 -304.664520263672 3.473281383514
-56.491195678711 -72.002983093262 -56.731285095215 2.879482984543
-49.195049285889 -75.778198242188 -53.122497558594 1.861644864082
-40.016021728516 -78.349258422852 -53.545589447021 4.548430442810
-77.908309936523 -79.721687316895 -63.492073059082 3.315526485443
-29.701040267944 -74.606208801270 -65.614013671875 3.527992248535
-35.724727630615 -75.454872131348 -80.184272766113 1.754428148270
73.929924011230 -81.127143859863 -83.702377319336 5.818024158478
74.856163024902 -76.362754821777 -79.078178405762 1.719135165215
71.756301879883 -73.126548767090 -83.404556274414 1.612902402878
100.857765197754 -72.140167236328 -90.557228088379 3.445100545883
67.173194885254 -79.134918212891 -89.076904296875 5.937869071960
46.726413726807 -80.054649353027 -88.137069702148 8.080614089966
52.637798309326 -83.035850524902 -101.906494140625 5.066945075989
-66.387001037598 -74.502487182617 -103.004501342773 2.246500730515
-74.771034240723 -71.774055480957 -103.055397033691 2.856069087982
44.707473754883 -78.003784179688 -103.171455383301 1.306247115135
-82.117088317871 -82.838890075684 -110.778663635254 2.711661338806
-92.839401245117 -74.535911560059 -110.438659667969 2.406473636627
51.193950653076 -76.538635253906 -109.258880615234 1.884326577187
107.237045288086 -75.301406860352 -117.003875732422 3.057702302933
33.220924377441 -78.841659545898 -126.937675476074 2.207875490189
41.908397674561 -78.488899230957 -118.706642150879 2.468976974487
39.433185577393 -74.604103088379 -122.566848754883 1.739158987999
30.071718215942 -78.542495727539 -121.646812438965 1.539520859718
109.271827697754 -76.646484375000 -121.641914367676 2.250500917435
39.098854064941 -80.225349426270 -132.330139160156 3.218399524689
35.554828643799 -71.840484619141 -133.037124633789 1.534692764282
-43.949356079102 -75.158950805664 -141.830245971680 1.311550736427
-69.739898681641 -80.806472778320 -142.997543334961 5.225223064423
-52.632251739502 -75.803382873535 -150.343338012695 1.668291330338
-75.559318542480 -82.512428283691 -146.201736450195 6.827741146088
-37.858409881592 -76.744194030762 -148.327774047852 3.737998247147
105.493171691895 -77.912834167480 -157.860107421875 3.730238914490
-71.725868225098 -79.714103698730 -157.044494628906 3.318278074265
23.248418807983 -83.095069885254 -145.845474243164 5.749873161316
27.491016387939 -79.946983337402 -149.074035644531 1.249551534653
110.413284301758 -80.837875366211 -163.471176147461 4.382917404175
9.876974105835 -81.092811584473 -159.486206054688 3.727574348450
33.566349029541 -73.845619201660 -155.666656494141 1.950415253639
-62.527786254883 -80.220413208008 -159.845474243164 1.301584720612
-39.647190093994 -79.730979919434 -175.085891723633 2.909714221954
22.068351745605 -77.246437072754 -163.413314819336 1.765560269356
-65.637863159180 -75.966697692871 -155.530517578125 0.738801836967
-70.634468078613 -77.060615539551 -166.150177001953 4.004835605621
115.412635803223 -79.534416198730 -166.195953369141 2.398350000381
-8.551659584045 -79.033538818359 -164.603225708008 3.443140745163
-66.476745605469 -75.140968322754 -171.268920898438 1.890331864357
-36.274330139160 -79.577362060547 -166.435134887695 2.012787818909
-54.116878509521 -75.838554382324 -171.590621948242 2.185476064682
31.064016342163 -76.071891784668 -176.601287841797 4.614740371704
111.650611877441 -73.720108032227 -172.809585571289 1.585318207741
102.040473937988 -75.057655334473 -183.418304443359 2.783331632614
104.217826843262 -76.389251708984 -189.327163696289 1.296195030212
106.349960327148 -73.828018188477 -175.731140136719 0.704592645168
-50.818035125732 -75.585700988770 -193.391464233398 1.883804082870
-47.008777618408 -73.222213745117 -183.735687255859 3.614442586899
27.713346481323 -76.685440063477 -184.036697387695 1.064783930779
-47.563182830811 -75.859207153320 -185.308029174805 0.643402338028
-21.024429321289 -77.373268127441 -183.842193603516 1.505376338959
-51.204044342041 -81.016845703125 -191.662017822266 3.511867046356
-152.499725341797 -76.163970947266 -192.883972167969 2.462910890579
100.844078063965 -79.924194335938 -192.218154907227 3.754785299301
-44.271461486816 -73.904479980469 -195.556533813477 2.723124027252
-11.575110435486 -79.098396301270 -199.794067382813 3.009227991104
-139.354293823242 -76.464538574219 -192.420928955078 2.556215763092
-40.781303405762 -74.389762878418 -199.637084960938 1.591872334480
100.566223144531 -75.250389099121 -196.220962524414 1.754087090492
107.979110717773 -74.438385009766 -184.576126098633 2.041649103165
-42.508007049561 -76.894424438477 -195.395309448242 1.338386416435
-22.122488021851 -86.145126342773 -200.070358276367 6.439931392670
-146.873931884766 -80.430313110352 -200.818222045898 1.963144183159
-25.219528198242 -76.588058471680 -195.045913696289 1.770258426666
-160.951354980469 -77.841232299805 -196.794479370117 6.327222347260
-152.769546508789 -86.192832946777 -206.154922485352 5.576180934906
-145.517257690430 -79.996910095215 -202.241409301758 2.869967460632
-38.705902099609 -78.316787719727 -201.635299682617 1.453104376793
101.959304809570 -78.668792724609 -203.908554077148 2.053268194199
-42.778957366943 -74.977195739746 -200.223236083984 2.743761062622
-142.085800170898 -81.759757995605 -205.198928833008 2.054062366486
-37.281963348389 -72.514038085938 -205.466506958008 2.045666456223
-22.884098052979 -83.971733093262 -210.059310913086 5.472279071808
98.052116394043 -80.773849487305 -205.955627441406 4.780841827393
89.706848144531 -79.389961242676 -215.415008544922 2.599140882492
-38.381553649902 -75.080253601074 -217.463256835938 7.059285163879
-88.740608215332 -79.397003173828 -209.946182250977 3.009791612625
-75.874305725098 -79.064399719238 -211.948532104492 2.143892288208
-19.712263107300 -77.440345764160 -208.457901000977 2.860923528671
-150.193008422852 -80.678894042969 -200.565261840820 1.744479656219
92.118812561035 -76.232971191406 -214.196594238281 0.724267542362
88.188430786133 -72.791198730469 -217.828506469727 1.141789793968
89.579711914063 -78.073684692383 -221.066543579102 2.224743127823
-103.107521057129 -79.288124084473 -218.129653930664 6.768043994904
-155.465591430664 -80.474632263184 -220.890655517578 4.307587623596
-20.573453903198 -74.975494384766 -224.652572631836 1.986637949944
80.953605651855 -72.786972045898 -228.057022094727 2.216011762619
-150.696670532227 -82.594909667969 -221.161026000977 3.325014114380
-29.836355209351 -79.325035095215 -216.615692138672 0.617579162121
-134.743225097656 -75.666687011719 -234.057647705078 2.217344284058
-11.063836097717 -80.766838073730 -232.520797729492 4.579822063446
16.900180816650 -75.861076354980 -230.479522705078 0.902739524841
20.260200500488 -78.450881958008 -233.851852416992 2.706250190735
-155.959136962891 -81.111000061035 -236.343139648438 6.047780513763
-127.020126342773 -73.126815795898 -233.044082641602 2.539578437805
-8.483977317810 -77.227867126465 -236.000122070313 2.931200504303
0.047699000686 -76.337356567383 -238.169967651367 2.180183172226
68.906227111816 -76.976844787598 -230.435089111328 3.032660245895
68.452911376953 -73.052917480469 -239.854995727539 1.012633919716
-0.385895997286 -74.398490905762 -240.460342407227 1.918267726898
15.643199920654 -72.252296447754 -240.457397460938 1.803669095039
-32.142852783203 -67.636306762695 -242.168167114258 7.434904575348
-32.003479003906 -88.786270141602 -242.853607177734 8.744799613953
-49.884498596191 -77.784820556641 -234.997634887695 5.862257480621
-41.320510864258 -74.957267761230 -239.657089233398 2.954983234406
-16.097465515137 -78.984054565430 -243.355987548828 3.428725719452
-51.848316192627 -75.281044006348 -244.830795288086 1.445198535919
1.468243956566 -78.343627929688 -245.619979858398 1.676358580589
-68.724266052246 -80.981971740723 -242.416290283203 6.100929737091
21.724773406982 -79.203956604004 -247.484283447266 1.238883972168
-141.699279785156 -80.983604431152 -243.760620117188 2.594016551971
-73.424728393555 -81.027526855469 -254.855010986328 4.115828990936
16.809789657593 -78.297973632813 -250.643203735352 0.967315971851
-161.230316162109 -76.759063720703 -249.612701416016 1.635133385658
11.956871986389 -82.673912048340 -254.461502075195 1.879845261574
-80.868171691895 -70.115173339844 -251.288208007813 2.195940971375
-76.323120117188 -78.207916259766 -250.525222778320 2.862909793854
17.742712020874 -79.983787536621 -253.991455078125 2.413552284241
-89.901901245117 -77.134071350098 -250.584564208984 3.212343454361
-126.125091552734 -73.365203857422 -254.541015625000 1.096821546555
-131.995727539063 -83.248527526855 -261.270782470703 4.269815444946
-136.997024536133 -81.967224121094 -251.689086914063 4.905410766602
-146.952331542969 -81.081703186035 -262.266906738281 1.971686005592
-147.259750366211 -73.827987670898 -251.294799804688 1.786299467087
-134.090866088867 -76.196006774902 -262.043243408203 2.719285964966
-162.044082641602 -73.663070678711 -260.484405517578 1.066118597984
-128.840545654297 -78.543350219727 -268.153503417969 6.784579753876
-137.236175537109 -71.102035522461 -263.503143310547 2.580769777298
-161.975448608398 -74.311508178711 -271.870422363281 3.635637998581
-155.250747680664 -74.923736572266 -265.130981445313 2.296568393707
-147.645980834961 -75.943634033203 -266.174316406250 1.440372467041
-149.447341918945 -79.266372680664 -266.016540527344 2.185553550720
17.353485107422 -80.285942077637 -279.509185791016 3.500367164612
-166.860885620117 -78.483657836914 -265.380218505859 2.585685729980
-151.446365356445 -80.591201782227 -273.719177246094 2.235988616943
-4.868331909180 -86.971847534180 -272.608734130859 5.256898880005
-154.078369140625 -75.119628906250 -276.823272705078 3.451936006546
11.667872428894 -81.464408874512 -284.412841796875 2.625729799271
-153.197021484375 -77.645370483398 -281.539886474609 3.229350328445
-167.011993408203 -80.163619995117 -289.394226074219 5.829267978668
-155.930511474609 -82.113395690918 -276.983459472656 5.254955291748
-164.438812255859 -75.271682739258 -290.183135986328 1.749981641769
-0.100803002715 -82.403236389160 -287.149536132813 6.136460781097
7.087118148804 -84.044769287109 -280.964599609375 3.887683868408
-107.170379638672 -75.552780151367 -294.022369384766 3.723210811615
-157.537902832031 -86.606163024902 -288.029510498047 4.455736637115
-148.106460571289 -75.175712585449 -284.921661376953 2.047674179077
-105.418022155762 -76.769401550293 -292.920867919922 4.168156147003
-153.988586425781 -82.632064819336 -293.950897216797 2.414112806320
-148.409744262695 -83.978561401367 -288.537384033203 0.459331601858
-76.780479431152 -82.704513549805 -294.184722900391 6.465938091278
-169.291229248047 -81.434051513672 -288.828063964844 6.660166740417
-122.433952331543 -73.552658081055 -291.882568359375 1.718884944916
-42.855056762695 -83.721397399902 -284.874603271484 5.849021911621
-150.436599731445 -77.889198303223 -287.500488281250 1.669577717781
-130.680709838867 -72.195251464844 -294.179046630859 2.634010314941
-21.025346755981 -74.959571838379 -295.691497802734 4.331385612488
-129.892135620117 -73.030517578125 -293.187347412109 2.843937873840
6.336922168732 -79.349510192871 -295.783416748047 4.057021617889
14.892203330994 -74.479721069336 -292.712402343750 1.372956871986
-133.361740112305 -72.620277404785 -290.694854736328 1.983393669128
-145.526123046875 -80.891448974609 -299.689849853516 2.683759212494
-156.498062133789 -83.228202819824 -316.423828125000 6.881767749786
-71.692230224609 -70.170875549316 -53.439872741699 2.698609828949
-21.635004043579 -68.252372741699 -67.584274291992 4.675136089325
-19.172836303711 -79.531440734863 -65.447837829590 4.322685718536
70.278419494629 -72.628356933594 -79.952445983887 0.918150484562
89.833015441895 -74.384704589844 -76.383979797363 1.373847723007
-35.962337493896 -75.951759338379 -80.927497863770 0.883438527584
76.434684753418 -74.159484863281 -82.034011840820 1.311256289482
90.430633544922 -79.857414245605 -83.731544494629 2.362936258316
65.235664367676 -76.079383850098 -85.165122985840 4.603854656219
73.483970642090 -73.703002929688 -92.232254028320 0.779594957829
-50.385318756104 -76.119415283203 -84.834320068359 1.988600611687
-91.894714355469 -79.309020996094 -90.631286621094 2.499429464340
59.594944000244 -79.519027709961 -94.507598876953 5.560877323151
50.444755554199 -78.818847656250 -101.251037597656 1.552298903465
92.213409423828 -70.554290771484 -103.193862915039 1.449653506279
-90.173141479492 -69.347305297852 -102.152526855469 4.435139179230
79.017471313477 -68.946723937988 -101.579803466797 1.871570825577
70.904335021973 -76.657394409180 -102.622573852539 5.802544116974
90.950286865234 -79.032554626465 -98.473571777344 4.753740787506
83.893241882324 -76.168495178223 -96.193206787109 1.784203052521
79.239471435547 -79.025459289551 -99.849525451660 4.342363834381
-90.210342407227 -78.076461791992 -103.263099670410 3.883235692978
44.853679656982 -71.873756408691 -104.417594909668 1.032395482063
104.439407348633 -77.448486328125 -111.385597229004 3.834945440292
106.052459716797 -76.770835876465 -111.228790283203 2.398237466812
50.624492645264 -80.211608886719 -121.808761596680 5.358643054962
114.130653381348 -80.275657653809 -119.299705505371 5.297273635864
117.673408508301 -80.528511047363 -135.790618896484 4.912562370300
-50.390068054199 -72.496475219727 -128.816284179688 3.420913219452
27.800662994385 -75.508995056152 -135.673858642578 1.715309858322
41.189552307129 -80.766418457031 -134.403625488281 4.629079818726
24.058656692505 -72.948097229004 -142.179092407227 1.051698923111
112.506370544434 -81.171539306641 -136.787124633789 3.679477453232
111.093544006348 -78.121208190918 -129.888854980469 2.336063623428
-73.777473449707 -75.749771118164 -148.900131225586 1.793884754181
-43.581695556641 -74.573768615723 -139.735183715820 2.113532543182
-71.653297424316 -73.740585327148 -153.936325073242 1.951719641685
17.737169265747 -73.310951232910 -147.757507324219 2.669579267502
111.560279846191 -72.154815673828 -147.930328369141 2.394376754761
-54.624771118164 -78.472358703613 -153.409957885742 4.683184623718
-73.202186584473 -74.991447448730 -153.604080200195 1.933676719666
-39.685436248779 -79.684448242188 -151.336730957031 1.879119873047
31.054656982422 -69.327636718750 -154.942672729492 0.929061412811
107.783088684082 -70.966445922852 -150.575164794922 3.780678987503
117.438331604004 -74.705940246582 -163.263305664063 1.842750787735
-68.556205749512 -72.299789428711 -157.269927978516 1.390176415443
-76.481147766113 -79.425315856934 -160.240005493164 6.713247299194
21.803335189819 -81.950805664063 -164.140701293945 3.573832511902
-60.716316223145 -73.092643737793 -167.871185302734 0.951040744781
-32.533302307129 -72.955650329590 -164.680847167969 1.912873148918
8.742286682129 -78.424652099609 -165.012008666992 3.836565017700
106.264045715332 -72.224121093750 -162.022552490234 2.258179903030
11.004074096680 -81.150337219238 -169.729629516602 7.295117855072
-32.440391540527 -76.395095825195 -166.627258300781 1.265069365501
-4.591189861298 -68.929733276367 -164.794891357422 5.113843441010
105.842933654785 -70.881256103516 -166.727066040039 3.063836574554
-42.253494262695 -73.322326660156 -163.123275756836 2.331418991089
30.751617431641 -73.170608520508 -174.813140869141 3.424938678741
115.119323730469 -82.029067993164 -172.897003173828 5.314291477203
-57.350723266602 -72.045722961426 -175.988723754883 1.337114334106
-27.901948928833 -80.453826904297 -176.804855346680 0.714977145195
100.639404296875 -77.154861450195 -175.215301513672 6.149122238159
29.238170623779 -72.849761962891 -167.360534667969 2.253370046616
102.535659790039 -77.958839416504 -176.854904174805 4.811547279358
-37.108875274658 -70.608055114746 -180.566284179688 1.694578409195
110.299499511719 -81.178627014160 -181.435424804688 5.358280181885
-64.395576477051 -71.719535827637 -178.200607299805 5.505817890167
-26.168848037720 -81.482719421387 -177.702621459961 1.559148550034
-148.362060546875 -68.168899536133 -185.719757080078 2.219546079636
-54.188465118408 -74.861892700195 -178.602294921875 0.963112175465
-147.836853027344 -76.828506469727 -186.261123657227 1.904608249664
-35.806526184082 -73.216011047363 -183.152679443359 2.124234199524
30.197782516479 -82.958366394043 -177.513916015625 5.610267162323
105.132743835449 -77.655784606934 -184.276626586914 2.144935369492
-38.081096649170 -74.786560058594 -181.424545288086 2.768716812134
9.935684204102 -76.664787292480 -191.594589233398 1.928120255470
15.224905014038 -75.667938232422 -207.222305297852 1.939488768578
-150.199462890625 -76.818771362305 -187.579376220703 2.258028268814
107.224235534668 -80.475700378418 -196.698715209961 2.657408237457
-24.840408325195 -73.810760498047 -193.255783081055 1.763235092163
99.917274475098 -78.148902893066 -186.985397338867 3.890137195587
11.113885879517 -72.433273315430 -191.637832641602 2.645065069199
-142.117492675781 -76.213508605957 -207.483688354492 2.732889413834
-137.272994995117 -74.883956909180 -199.664749145508 2.324364662170
