-148.385452270508 -76.423538208008 -242.875427246094 1.977695345879
-150.126754760742 -76.776901245117 -234.954437255859 1.114093542099
-32.134174346924 -80.220550537109 -236.151962280273 2.525818824768
-142.117034912109 -80.504348754883 -242.887542724609 1.997873902321
13.480820655823 -81.782302856445 -241.223281860352 1.987995743752
5.187829971313 -79.285369873047 -245.165054321289 0.939873456955
-151.532211303711 -69.361763000488 -238.326019287109 2.297402381897
-150.565338134766 -75.530387878418 -244.747116088867 1.307892084122
-45.942844390869 -81.091758728027 -246.427597045898 2.043134212494
-32.430263519287 -79.725006103516 -247.477905273438 5.018071174622
3.093180894852 -79.153396606445 -241.741424560547 1.458540678024
-36.348442077637 -81.287490844727 -245.133224487305 3.637267112732
20.955690383911 -80.380073547363 -246.235961914063 0.726104974747
-7.030710220337 -82.305992126465 -253.463241577148 2.421869516373
-143.913085937500 -77.990570068359 -252.497222900391 2.290908813477
-11.419712066650 -85.705451965332 -253.151550292969 3.067604780197
-149.419052124023 -73.505310058594 -245.340316772461 0.875359833241
-65.545402526855 -80.868713378906 -250.061660766602 1.998090744019
-147.159118652344 -84.431755065918 -258.034576416016 1.028572440147
-128.626312255859 -77.368850708008 -257.452819824219 2.260233163834
-154.534606933594 -76.828308105469 -255.716491699219 2.243252515793
-10.675480842590 -77.324584960938 -267.739746093750 1.737515926361
-146.487213134766 -84.598991394043 -273.141540527344 2.065738439560
-149.746688842773 -77.541046142578 -269.594024658203 1.703418850899
-13.036131858826 -80.396278381348 -270.940582275391 2.275694131851
-144.439544677734 -77.447669982910 -269.217681884766 2.460761308670
-7.780416011810 -78.706916809082 -275.879333496094 1.795593738556
-46.243705749512 -78.938285827637 -283.023101806641 4.349873542786
-135.863922119141 -74.760848999023 -287.944641113281 1.442297935486
-136.994125366211 -77.362365722656 -285.230987548828 1.457141160965
-123.112037658691 -73.943321228027 -280.243286132813 4.450488567352
-52.217533111572 -78.834800720215 -285.935974121094 2.672879934311
-111.913238525391 -77.028213500977 -282.291168212891 5.884534358978
15.894215583801 -80.680618286133 -293.175659179688 3.100687265396
-56.877548217773 -77.279846191406 -288.247497558594 0.708872675896
-141.314804077148 -77.827232360840 -293.407257080078 1.454452037811
-64.284523010254 -78.114723205566 -290.320281982422 3.673431873322
-146.079421997070 -84.026077270508 -293.418518066406 1.376180887222
-116.855621337891 -75.300445556641 -290.810607910156 2.724124431610
-46.335411071777 -83.294097900391 -289.927062988281 7.369956016541
-33.741775512695 -80.213287353516 -291.544464111328 1.221293687820
-139.435394287109 -72.633316040039 -297.002166748047 4.558724880219
-15.413603782654 -73.629837036133 -280.540069580078 4.165832042694
5.049465179443 -80.368156433105 -286.379333496094 2.448652267456
6.178548812866 -78.971946716309 -290.048461914063 2.192395925522
14.666014671326 -82.595520019531 -295.921875000000 4.918473243713
-150.564834594727 -83.299659729004 -297.911529541016 2.369551658630
-144.754501342773 -74.946258544922 -291.173492431641 1.026444911957
-65.397087097168 -69.795082092285 -62.626129150391 7.402051925659
89.444343566895 -78.265518188477 -72.139343261719 2.902655124664
78.952659606934 -77.461814880371 -77.925094604492 2.524131774902
-28.172599792480 -76.439323425293 -76.161201477051 2.126413822174
83.606170654297 -74.181838989258 -74.409317016602 1.433871150017
-38.542205810547 -76.455673217773 -79.494178771973 1.858966588974
81.733711242676 -71.325073242188 -83.198356628418 5.247811794281
97.214988708496 -71.645317077637 -79.806907653809 2.913997411728
-64.157524108887 -66.698135375977 -96.587745666504 2.439633607864
72.109405517578 -77.077713012695 -94.642875671387 2.652745723724
79.886344909668 -73.964157104492 -98.155143737793 2.053360462189
97.795135498047 -80.446151733398 -95.633827209473 5.612397193909
55.352527618408 -78.307235717773 -96.762733459473 2.950364828110
-64.771049499512 -69.570922851563 -101.201576232910 2.095013856888
-73.581413269043 -69.214630126953 -100.802085876465 1.311869144440
51.021800994873 -78.513778686523 -103.090240478516 1.345312595367
-86.878028869629 -74.102195739746 -101.191078186035 5.785947799683
47.891086578369 -72.578910827637 -118.520446777344 1.249980688095
110.684036254883 -77.169624328613 -120.597656250000 1.430707573891
113.063697814941 -80.845443725586 -130.159729003906 4.805895328522
19.215166091919 -73.739410400391 -136.711135864258 5.736438751221
110.182685852051 -80.391494750977 -127.043930053711 3.437407493591
29.211908340454 -73.030494689941 -133.182357788086 2.357652187347
112.728134155273 -71.372222900391 -133.502838134766 1.683415412903
36.743190765381 -73.564826965332 -134.775421142578 2.424464702606
-57.575119018555 -73.485641479492 -139.550415039063 1.647246003151
36.353176116943 -81.851905822754 -146.039367675781 4.312365531921
108.575309753418 -76.002052307129 -134.250427246094 2.939435482025
-44.997192382813 -72.600585937500 -143.502182006836 0.891540229321
31.935148239136 -75.059539794922 -150.825088500977 1.349749207497
-56.798538208008 -67.802566528320 -141.687896728516 2.802277326584
-60.631252288818 -73.842346191406 -143.655685424805 3.280624151230
-53.304492950439 -78.508590698242 -149.836868286133 1.735638976097
-64.441101074219 -77.990829467773 -155.276687622070 1.942989587784
110.969787597656 -83.771324157715 -146.881820678711 5.778872489929
-49.959182739258 -82.772300720215 -154.841552734375 3.919210910797
23.155136108398 -82.757247924805 -156.647796630859 3.822687864304
107.066070556641 -79.994186401367 -163.611267089844 4.162191390991
-65.129165649414 -74.726989746094 -153.995361328125 1.323899149895
-42.716850280762 -76.588111877441 -157.370529174805 2.974405050278
9.169000625610 -73.813682556152 -154.275405883789 0.314165353775
-68.723297119141 -75.257522583008 -153.575073242188 1.274662613869
-64.872200012207 -78.026855468750 -157.511978149414 1.864146947861
0.579986989498 -76.588684082031 -162.323638916016 1.079596400261
-44.581127166748 -70.895950317383 -167.951568603516 2.662611246109
28.395957946777 -74.765029907227 -168.209701538086 0.708565354347
-63.557216644287 -70.200607299805 -168.749145507813 1.937919855118
-55.864528656006 -77.707359313965 -165.840026855469 2.699626684189
13.551133155823 -80.598281860352 -159.446945190430 5.582090854645
-30.118473052979 -74.432426452637 -168.090148925781 2.007373571396
-28.440851211548 -78.880058288574 -166.091751098633 2.237567901611
14.376104354858 -78.873580932617 -174.555267333984 4.417164325714
-44.533729553223 -79.154830932617 -172.642654418945 2.246438980103
-10.386084556580 -78.337074279785 -171.966506958008 2.167754650116
-66.942901611328 -71.263786315918 -171.104370117188 2.119569778442
-8.079757690430 -73.868225097656 -174.628829956055 1.464786648750
-21.551179885864 -76.541862487793 -179.669647216797 1.845173716545
21.873720169067 -74.180961608887 -184.726272583008 3.251171112061
-39.033493041992 -78.078750610352 -172.112350463867 2.096924304962
21.489187240601 -72.625221252441 -175.242111206055 3.010744571686
-22.907960891724 -72.501670837402 -186.116638183594 1.217329025269
-32.278827667236 -79.163017272949 -176.698394775391 2.886574745178
-148.624664306641 -70.441520690918 -193.121765136719 2.037313461304
-17.382808685303 -81.983085632324 -183.044723510742 3.340298652649
-140.055847167969 -72.164772033691 -189.456161499023 2.864322423935
-154.882385253906 -74.237960815430 -186.723098754883 3.970668315887
-50.343959808350 -74.049888610840 -188.870407104492 2.239253282547
98.130447387695 -79.063919067383 -195.091567993164 4.688785076141
-145.253875732422 -75.461242675781 -189.484634399414 2.772511959076
-144.962081909180 -71.529541015625 -195.204269409180 0.937203526497
22.722158432007 -75.829452514648 -195.978866577148 3.469967603683
-139.344131469727 -74.983459472656 -195.218368530273 2.269949674606
12.350971221924 -73.302017211914 -199.364990234375 1.775867819786
-137.989440917969 -78.120880126953 -199.362594604492 1.677402496338
13.058933258057 -73.199554443359 -197.985824584961 1.288825631142
-132.681091308594 -70.452224731445 -194.494171142578 2.107131719589
4.492481231689 -73.485328674316 -201.466934204102 4.009650230408
-152.647552490234 -74.215736389160 -201.247055053711 1.764014244080
95.390876770020 -80.075698852539 -207.112487792969 3.997414827347
-17.610776901245 -80.384567260742 -209.182968139648 2.732027292252
-30.798622131348 -75.863410949707 -209.009063720703 1.334937572479
-12.676316261292 -71.365425109863 -205.172653198242 1.147746205330
-145.083969116211 -79.996566772461 -209.754089355469 1.913482546806
-35.781379699707 -76.799903869629 -202.473297119141 1.113787412643
-84.880187988281 -77.961204528809 -201.774658203125 9.316280364990
-27.184511184692 -78.849929809570 -207.777023315430 1.848052978516
13.521247863770 -79.012443542480 -214.338287353516 1.794674873352
-146.353836059570 -71.852073669434 -215.145187377930 1.734065175056
-89.104637145996 -79.006904602051 -219.354904174805 3.243627309799
-29.412553787231 -76.155471801758 -220.529525756836 3.135974407196
-27.981628417969 -77.640617370605 -220.868423461914 2.491921901703
-7.604063987732 -79.662628173828 -208.211532592773 3.370366573334
-27.560834884644 -76.219268798828 -206.878341674805 1.737721681595
-85.000923156738 -76.741088867188 -222.258041381836 4.227633476257
-90.980758666992 -82.437271118164 -219.438858032227 6.125558376312
-22.959156036377 -76.796798706055 -221.976440429688 1.914977431297
-2.451396942139 -88.234825134277 -225.172637939453 8.133051872253
-157.771240234375 -77.182312011719 -216.639633178711 5.915417671204
-2.797677993774 -79.920166015625 -221.894531250000 0.931582927704
87.889396667480 -85.721466064453 -228.196151733398 10.383500099182
-139.110488891602 -77.948890686035 -222.123840332031 3.395354270935
-3.200592994690 -78.704093933105 -220.545013427734 1.546587109566
-139.220687866211 -77.026199340820 -224.941085815430 1.593933463097
-147.631164550781 -83.710700988770 -223.887786865234 0.807305634022
-5.837491035461 -77.199661254883 -227.779510498047 1.796748161316
22.416286468506 -79.863304138184 -212.799942016602 6.387337207794
-138.754699707031 -73.057708740234 -228.830703735352 1.784968972206
-18.708717346191 -80.095176696777 -227.169799804688 1.805473208427
70.540084838867 -81.230468750000 -224.911117553711 9.300729751587
74.087265014648 -80.906867980957 -234.452545166016 6.712182998657
10.640232086182 -81.281066894531 -229.467727661133 1.467757582664
-35.738723754883 -79.151664733887 -235.107742309570 4.108273506165
-25.391845703125 -87.436813354492 -242.172790527344 8.272628784180
1.802538037300 -77.139099121094 -243.084106445313 1.648274898529
-46.705886840820 -72.551269531250 -243.749298095703 2.904140472412
-20.695796966553 -75.912246704102 -242.748764038086 2.135303020477
10.502581596375 -75.218544006348 -237.849578857422 0.802231729031
-63.413387298584 -78.163871765137 -245.191131591797 2.170972585678
-37.690643310547 -84.028030395508 -243.464111328125 2.841869831085
-37.882801055908 -76.840736389160 -245.262115478516 1.763086676598
-147.670242309570 -72.799293518066 -245.295547485352 1.797741770744
-44.840145111084 -81.613487243652 -248.300842285156 3.342128276825
-52.446487426758 -68.772834777832 -246.997329711914 4.394080162048
-65.764938354492 -77.232612609863 -248.109512329102 1.826725125313
-10.844049453735 -84.054077148438 -244.460800170898 8.878660202026
-78.827522277832 -79.340904235840 -255.210800170898 2.332905054092
-157.357101440430 -82.537040710449 -251.909225463867 3.494318246841
-140.403335571289 -74.188568115234 -252.357635498047 3.284933328629
-120.929748535156 -78.693626403809 -257.334533691406 5.287720680237
-159.732376098633 -71.941047668457 -256.575958251953 3.386702775955
18.082077026367 -87.956001281738 -266.760986328125 6.772637367249
-15.407902717590 -82.115142822266 -268.646545410156 5.130247116089
-156.184616088867 -79.462181091309 -274.018157958984 2.525475025177
-153.661148071289 -84.152793884277 -277.886474609375 3.734422445297
-146.609588623047 -79.155395507813 -285.129516601563 2.333288908005
-59.067394256592 -73.203712463379 -278.410919189453 6.936831951141
-39.021957397461 -72.983963012695 -285.123687744141 1.105301499367
-17.426923751831 -77.287124633789 -289.798736572266 2.074656963348
-8.754608154297 -74.912971496582 -277.181884765625 1.702359437943
-66.737442016602 -82.440826416016 -284.101989746094 5.333659648895
-81.841110229492 -83.703018188477 -285.142059326172 7.518411636353
-2.002440929413 -81.158836364746 -281.179412841797 1.448685169220
1.614971041679 -82.300903320313 -292.650360107422 4.126260757446
-140.886184692383 -75.240882873535 -284.587921142578 2.514951229095
-81.375816345215 -74.282279968262 -285.033905029297 2.185724020004
-147.190170288086 -75.423149108887 -286.582153320313 0.980313599110
-95.241485595703 -88.626037597656 -283.855499267578 13.115644454956
-79.098144531250 -77.660385131836 -284.415191650391 3.500791072845
-86.725784301758 -75.294174194336 -296.262023925781 5.528811454773
-64.017578125000 -78.403854370117 -291.601776123047 3.870157718658
-31.633211135864 -72.085029602051 -295.798187255859 2.543020248413
-9.738033294678 -79.551528930664 -289.873016357422 2.668228864670
-150.621414184570 -69.049049377441 -299.745666503906 2.607284784317
-148.372817993164 -74.386985778809 -300.383544921875 2.221414089203
-143.711654663086 -75.583450317383 -305.347625732422 1.603058576584
-158.729782104492 -76.463768005371 -303.604797363281 4.076560974121
-55.903194427490 -66.727027893066 -56.278354644775 6.337843894958
-48.687580108643 -70.592689514160 -52.603992462158 4.238915920258
-39.577171325684 -73.401580810547 -52.997097015381 2.675304651260
-77.534454345703 -74.073905944824 -62.766147613525 1.675628423691
-29.224582672119 -70.216514587402 -65.192810058594 6.018138885498
-35.330348968506 -71.274642944336 -79.715118408203 0.847697138786
74.133331298828 -79.765602111816 -83.497116088867 4.837580680847
75.197608947754 -74.912925720215 -78.996070861816 0.807992458344
72.160453796387 -71.708358764648 -83.389953613281 3.048586606979
101.246284484863 -71.625335693359 -90.672554016113 3.127039432526
67.405036926270 -77.738952636719 -88.894401550293 4.882610797882
46.945960998535 -78.124862670898 -87.856361389160 6.937038898468
52.721950531006 -81.592109680176 -101.569313049316 4.153421401978
-66.057746887207 -70.122230529785 -102.438331604004 2.686646699905
-74.371543884277 -67.187606811523 -102.525909423828 2.355206966400
44.913703918457 -76.396606445313 -102.929450988770 1.514778971672
-82.023506164551 -78.253334045410 -109.944885253906 3.051708221436
-92.534660339355 -69.679611206055 -109.771423339844 3.224437952042
51.408233642578 -75.244674682617 -109.075340270996 2.219927549362
107.430809020996 -75.597625732422 -117.056007385254 3.150040388107
33.307373046875 -77.535057067871 -126.624877929688 1.867066025734
42.036388397217 -77.195701599121 -118.437339782715 1.814112663269
39.641811370850 -73.347000122070 -122.383613586426 2.177957534790
30.189445495605 -77.026710510254 -121.331451416016 1.619790554047
109.411506652832 -77.107299804688 -121.666725158691 2.429831504822
39.125774383545 -79.197830200195 -132.003051757813 2.263879299164
35.788139343262 -70.747215270996 -132.904846191406 2.325690746307
-43.811183929443 -72.297904968262 -141.318588256836 2.305071830750
-69.738876342773 -77.327491760254 -142.249877929688 2.497911930084
-52.544082641602 -72.935836791992 -149.780868530273 1.214593529701
-75.612663269043 -78.966461181641 -145.389175415039 4.685514450073
-37.789611816406 -74.194747924805 -147.797256469727 2.889585256577
105.446205139160 -79.174079895020 -157.828094482422 4.601038455963
-71.757720947266 -76.533561706543 -156.312179565430 3.474813699722
23.150726318359 -82.004577636719 -145.384231567383 4.802151203156
27.456247329712 -79.044082641602 -148.705627441406 0.820621430874
110.267852783203 -82.358772277832 -163.382995605469 5.860052108765
9.774380683899 -80.007270812988 -159.020889282227 2.573978662491
33.652770996094 -73.261016845703 -155.470123291016 1.445966243744
-62.587238311768 -77.338241577148 -159.133743286133 2.376249790192
-39.767562866211 -77.796653747559 -174.466186523438 1.125839591026
22.040487289429 -76.564468383789 -163.087356567383 1.552039146423
-65.572013854980 -72.902893066406 -154.914230346680 1.296783924103
-70.640060424805 -74.134063720703 -165.484909057617 3.757687807083
115.286239624023 -81.248184204102 -166.157775878906 3.370806217194
-8.619326591492 -77.616104125977 -164.119216918945 3.093559741974
-66.458068847656 -72.445869445801 -170.665069580078 0.886403143406
-36.354606628418 -77.513374328613 -165.834442138672 2.333671808243
-54.120853424072 -73.459281921387 -171.015090942383 3.854448080063
31.005533218384 -75.941085815430 -176.333618164063 4.450738906860
111.641311645508 -75.507141113281 -172.899719238281 1.562086224556
101.955192565918 -76.866447448730 -183.436340332031 2.493537187576
104.073257446289 -78.397628784180 -189.318328857422 1.260306358337
106.327049255371 -75.555000305176 -175.798065185547 1.070519685745
-50.910903930664 -73.827873229980 -192.827560424805 2.786028385162
-47.002445220947 -71.322128295898 -183.247589111328 5.087355613708
27.608579635620 -76.654518127441 -183.739059448242 0.878457784653
-47.628982543945 -73.982543945313 -184.751922607422 2.490259885788
-21.129951477051 -76.121406555176 -183.347183227539 1.192664623260
-51.424259185791 -79.203285217285 -190.962402343750 2.977327108383
-152.572448730469 -71.856918334961 -191.929580688477 2.106247901917
100.600273132324 -81.917709350586 -192.108184814453 5.672256469727
-44.333992004395 -72.364517211914 -195.057907104492 3.473757743835
-11.795372009277 -78.475570678711 -199.286178588867 3.250305891037
-139.436660766602 -72.473747253418 -191.507858276367 4.398095607758
-40.874618530273 -73.037445068359 -199.138046264648 1.908123016357
100.421340942383 -77.338829040527 -196.224731445313 2.655298233032
107.902320861816 -76.424316406250 -184.631149291992 1.698867201805
-42.644687652588 -75.392616271973 -194.829025268555 2.541874885559
-22.515661239624 -85.261695861816 -199.348403930664 5.870319366455
-147.088699340820 -76.457130432129 -199.776229858398 1.908160209656
-25.352581024170 -75.509048461914 -194.551330566406 1.914181113243
-161.079940795898 -73.419013977051 -195.765945434570 2.734895467758
-153.148635864258 -82.200973510742 -204.946380615234 2.525362491608
-145.727828979492 -76.093017578125 -201.214752197266 2.401362895966
-38.906070709229 -77.063224792480 -201.045837402344 0.850840389729
101.695854187012 -80.979942321777 -203.830200195313 4.142264366150
-42.888763427734 -73.589187622070 -199.702041625977 2.031216144562
-142.354034423828 -78.013496398926 -204.140289306641 1.410347819328
-37.354961395264 -71.394294738770 -205.025131225586 2.191493511200
-23.266160964966 -83.317619323730 -209.385345458984 4.743815898895
97.728775024414 -83.036849975586 -205.809906005859 6.962601184845
89.379692077637 -81.679527282715 -215.269775390625 4.686787605286
-38.569751739502 -74.228111267090 -216.950347900391 6.897236347198
-88.987594604492 -77.100204467773 -209.142105102539 3.825187683105
-76.125762939453 -77.138244628906 -211.199691772461 1.620735406876
-19.926151275635 -76.829780578613 -207.958328247070 2.926947593689
-150.411804199219 -76.616508483887 -199.504898071289 2.746868133545
91.874595642090 -78.554527282715 -214.139038085938 1.939791798592
88.015281677246 -75.106628417969 -217.840713500977 2.341238021851
89.260902404785 -80.500625610352 -220.951736450195 4.356314182281
-103.382560729980 -76.835350036621 -217.272537231445 4.823189258575
-155.765380859375 -76.783386230469 -219.809448242188 2.831957817078
-20.795755386353 -74.745368957520 -224.205886840820 2.161921262741
80.738700866699 -75.174842834473 -228.039337158203 1.700767636299
-151.051834106445 -79.027999877930 -220.044754028320 3.267391920090
-30.129072189331 -78.662467956543 -216.029296875000 0.716441154480
-134.986999511719 -72.820846557617 -233.168334960938 0.273405313492
-11.467016220093 -80.964881896973 -231.963073730469 4.330471515656
16.618806838989 -76.709213256836 -230.147705078125 1.083722710609
19.898855209351 -79.464607238770 -233.467117309570 2.865806102753
-156.341308593750 -77.789100646973 -235.239456176758 4.173122882843
-127.198883056641 -70.450119018555 -232.246719360352 3.030617952347
-8.815075874329 -77.578468322754 -235.538696289063 2.862237691879
-0.273355990648 -76.954971313477 -237.761550903320 1.624477267265
68.580787658691 -79.120422363281 -230.268066406250 5.094097137451
68.184432983398 -75.420509338379 -239.780731201172 1.273333191872
-0.668533027172 -75.063117980957 -240.097732543945 1.871899962425
15.408801078796 -73.317993164063 -240.207382202148 2.271806478500
-32.254764556885 -67.555183410645 -241.855346679688 7.407968997955
-32.643852233887 -88.712524414063 -242.016067504883 8.573945999146
-50.211944580078 -77.077613830566 -234.369491577148 5.965973377228
-41.600547790527 -74.580619812012 -239.129364013672 3.290268182755
-16.501535415649 -79.325538635254 -242.820480346680 3.295130252838
-52.155391693115 -74.769508361816 -244.254440307617 1.692328095436
1.064725041389 -79.179634094238 -245.164672851563 2.409639596939
-69.157180786133 -79.986282348633 -241.636718750000 6.445365428925
21.285390853882 -80.590805053711 -247.081985473633 1.010500550270
-142.114837646484 -78.200874328613 -242.710525512695 3.880671262741
-73.910987854004 -80.222099304199 -254.052993774414 3.119051933289
16.380840301514 -79.640884399414 -250.244216918945 1.946606040001
-161.559982299805 -73.636451721191 -248.593353271484 2.395876646042
11.404259681702 -83.987480163574 -253.934707641602 1.792816519737
-81.065551757813 -69.042610168457 -250.730651855469 1.880355834961
-76.719711303711 -77.224876403809 -249.783843994141 2.523160219193
17.257123947144 -81.431709289551 -253.553009033203 2.327395915985
-90.267761230469 -75.814453125000 -249.819580078125 2.720784425735
-126.402885437012 -71.242187500000 -253.734283447266 2.499768257141
-132.546249389648 -81.139366149902 -260.194854736328 2.696308374405
-137.472763061523 -79.497200012207 -250.629470825195 4.280991077423
-147.448577880859 -78.625434875488 -261.189086914063 2.402467250824
-147.528305053711 -71.097251892090 -250.399383544922 2.234620809555
-134.468841552734 -74.058036804199 -261.134399414063 1.023271918297
-162.343521118164 -70.790863037109 -259.535491943359 1.096893191338
-129.304901123047 -76.685966491699 -267.203887939453 4.666244029999
-137.492889404297 -68.924842834473 -262.708648681641 2.224259614944
-162.340164184570 -71.722122192383 -270.902069091797 2.542529582977
-155.603713989258 -72.335083007813 -264.174438476563 2.606606245041
-148.031219482422 -73.569839477539 -265.220275878906 2.698191165924
-149.913879394531 -76.841697692871 -264.973388671875 2.854258060455
16.750337600708 -82.354873657227 -279.053771972656 4.458350658417
-167.299682617188 -75.609367370605 -264.292266845703 1.543831944466
-151.978424072266 -78.306289672852 -272.633331298828 1.926990985870
-5.600728988647 -88.311752319336 -271.907287597656 6.205574989319
-154.487060546875 -72.849174499512 -275.862518310547 2.280510187149
11.016080856323 -83.512031555176 -283.905609130859 4.571407794952
-153.689117431641 -75.511970520020 -280.518218994141 3.136688232422
-167.596160888672 -77.878257751465 -288.256439208984 3.998275279999
-156.513076782227 -79.796401977539 -275.842193603516 4.287792682648
-164.905685424805 -73.073028564453 -289.176055908203 2.419955968857
-0.783993005753 -84.224388122559 -286.574554443359 6.141425132751
6.387564182281 -85.891288757324 -280.377410888672 4.605440139771
-107.679016113281 -74.877365112305 -293.219024658203 2.841461896896
-158.279266357422 -84.519401550293 -286.767272949219 4.325963973999
-148.553421020508 -73.254417419434 -283.979064941406 2.773985624313
-105.952682495117 -76.109710693359 -292.094177246094 3.121040821075
-154.657913208008 -80.782691955566 -292.798583984375 2.509715557098
-149.090911865234 -82.133674621582 -287.373992919922 2.208709716797
-77.477149963379 -82.786735534668 -293.316284179688 6.086221694946
-169.903793334961 -79.077056884766 -287.650482177734 4.050741195679
-122.878799438477 -72.444839477539 -291.073089599609 0.519818365574
-43.547580718994 -84.419044494629 -284.109375000000 6.717948913574
-150.961364746094 -75.971870422363 -286.481109619141 1.801460385323
-131.099136352539 -70.939346313477 -293.372009277344 2.339775085449
-21.553833007813 -76.474571228027 -295.221160888672 3.756639003754
-130.327270507813 -71.769241333008 -292.362792968750 3.304140329361
5.690273761749 -81.546600341797 -295.305358886719 5.624624252319
14.377081871033 -76.817283630371 -292.387847900391 1.199977755547
-133.774810791016 -71.211082458496 -289.868438720703 2.315156936646
-146.179672241211 -79.396125793457 -298.610290527344 1.537228941917
-157.278427124023 -81.871498107910 -315.240356445313 6.292943954468
-71.039665222168 -64.435501098633 -52.977207183838 5.872588634491
-21.011758804321 -64.116508483887 -67.350036621094 3.348850727081
-18.821372985840 -75.397216796875 -64.943382263184 1.776066780090
70.710327148438 -71.088256835938 -79.945823669434 1.661604166031
90.230476379395 -73.243064880371 -76.407257080078 2.514725685120
-35.583438873291 -71.783676147461 -80.444900512695 1.729377508163
76.817604064941 -72.823471069336 -82.011512756348 2.489542961121
90.660217285156 -78.908966064453 -83.618858337402 1.515576004982
65.560920715332 -74.540260314941 -85.052536010742 3.432532072067
73.835136413574 -72.545814514160 -92.206954956055 1.599581122398
-50.022869110107 -71.688056945801 -84.292953491211 0.795728981495
-91.623336791992 -73.983619689941 -89.855293273926 3.805733442307
59.796203613281 -78.068061828613 -94.285804748535 4.128807067871
50.637203216553 -77.306800842285 -101.010635375977 1.769279599190
92.589515686035 -70.137245178223 -103.312583923340 1.614296317101
-89.704566955566 -64.355842590332 -101.626571655273 5.763899803162
79.444686889648 -68.161598205566 -101.690109252930 2.411271095276
71.138053894043 -75.690933227539 -102.511116027832 5.310450553894
91.136535644531 -78.462066650391 -98.378639221191 4.347052097321
84.162742614746 -75.367362976074 -96.143974304199 2.034856557846
79.423683166504 -78.196884155273 -99.710998535156 3.791752576828
-89.963424682617 -73.106147766113 -102.519958496094 4.190665721893
45.206779479980 -70.304817199707 -104.327911376953 0.930702567101
104.604980468750 -77.534690856934 -111.375846862793 3.849601030350
106.235031127930 -76.893814086914 -111.241874694824 2.355183124542
50.693519592285 -79.211463928223 -121.527976989746 5.099847316742
114.188728332520 -80.797515869141 -119.253143310547 5.689020633698
117.652877807617 -81.546318054199 -135.745697021484 5.876365184784
-50.127510070801 -69.154655456543 -128.350997924805 2.881673336029
27.933912277222 -74.285240173340 -135.420989990234 1.550280570984
41.193412780762 -79.841987609863 -134.070190429688 3.773391485214
24.228633880615 -71.793418884277 -141.973892211914 1.862296819687
112.467201232910 -82.084693908691 -136.706802368164 4.342639923096
111.160392761230 -78.830451965332 -129.881210327148 3.031318902969
-73.675018310547 -72.319129943848 -148.261184692383 1.919269204140
-43.420051574707 -71.670455932617 -139.240066528320 1.814947485924
-71.523345947266 -70.488685607910 -153.353530883789 0.930461704731
17.876054763794 -72.136291503906 -147.518142700195 2.380430221558
111.697311401367 -73.325439453125 -148.066833496094 1.755203843117
-54.615520477295 -75.629280090332 -152.772903442383 3.506757259369
-73.101387023926 -71.691932678223 -152.984619140625 2.027848005295
-39.702095031738 -77.162010192871 -150.725524902344 2.404987573624
31.257247924805 -68.665267944336 -154.849212646484 1.379027843475
107.939430236816 -72.108978271484 -150.726348876953 2.753820419312
117.443908691406 -76.400718688965 -163.353393554688 3.030062198639
-68.405838012695 -69.208450317383 -156.733322143555 2.008155822754
-76.518112182617 -76.205345153809 -159.496246337891 4.909976959229
21.655538558960 -81.277305603027 -163.696762084961 2.857712984085
-60.633911132813 -70.458480834961 -167.340576171875 1.425486922264
-32.442680358887 -70.945686340332 -164.258941650391 1.629092931747
8.682484626770 -77.449073791504 -164.606979370117 3.195150613785
106.340194702148 -73.611022949219 -162.133300781250 2.315985918045
10.855464935303 -80.346138000488 -169.263824462891 7.246774673462
-32.443653106689 -74.433456420898 -166.119705200195 2.441347599030
-4.409920215607 -67.622055053711 -164.576293945313 5.797650337219
105.932266235352 -72.374794006348 -166.868103027344 1.622018456459
-42.162166595459 -71.031166076660 -162.656768798828 1.816687703133
30.773033142090 -72.989593505859 -174.616912841797 3.283487319946
114.902107238770 -83.899665832520 -172.793685913086 6.651362895966
-57.278427124023 -69.696861267090 -175.494003295898 3.572071313858
-28.051433563232 -78.854522705078 -176.210128784180 1.107848167419
100.537879943848 -78.724601745605 -175.178680419922 7.054137706757
29.300216674805 -72.446937561035 -167.169021606445 2.104284286499
102.406471252441 -79.615921020508 -176.804824829102 5.240300655365
-37.027061462402 -68.878158569336 -180.180709838867 3.313788652420
110.068077087402 -83.140632629395 -181.332687377930 6.627836227417
-64.322486877441 -69.249832153320 -177.687210083008 6.365058898926
-26.348321914673 -79.948204040527 -177.088485717773 1.515129446983
-148.206542968750 -63.792850494385 -184.981399536133 2.326247453690
-54.198425292969 -72.654785156250 -178.048538208008 2.005447149277
-147.898971557617 -72.473609924316 -185.309570312500 1.499830484390
-35.801086425781 -71.580940246582 -182.706375122070 1.374012351036
29.964542388916 -82.824279785156 -177.071807861328 5.559753417969
104.978225708008 -79.561332702637 -184.241333007813 2.999071359634
-38.106491088867 -73.051063537598 -180.931381225586 1.607394814491
9.804449081421 -76.377304077148 -191.229293823242 1.829667091370
15.049279212952 -75.899383544922 -206.896408081055 1.837208390236
-150.266281127930 -72.437538146973 -186.618896484375 0.485738754272
106.945350646973 -82.738807678223 -196.597244262695 4.207291126251
-24.896854400635 -72.698661804199 -192.832107543945 0.859768867493
99.740455627441 -79.991020202637 -186.917709350586 4.681275367737
11.087219238281 -72.178848266602 -191.381927490234 2.394664525986
-142.257781982422 -72.526359558105 -206.561874389648 4.060730457306
-137.348037719727 -71.125152587891 -198.796340942383 2.513751268387
102.953292846680 -83.631546020508 -202.102294921875 5.259781360626
-12.229792594910 -80.888168334961 -199.559265136719 3.810283422470
-18.268953323364 -75.956230163574 -205.207656860352 1.993736267090
11.419631958008 -79.422676086426 -207.649795532227 1.829382061958
-150.240524291992 -71.824066162109 -205.979446411133 1.487132906914
-147.055603027344 -73.868576049805 -209.911834716797 2.283115148544
101.442939758301 -71.039291381836 -207.025878906250 3.425329685211
-86.474990844727 -73.646362304688 -206.883514404297 4.416184902191
-35.170776367188 -76.803024291992 -199.788436889648 1.538136243820
20.366859436035 -81.464614868164 -216.252197265625 5.510658740997
-24.612958908081 -76.377876281738 -210.668899536133 1.591806888580
-74.347213745117 -71.702133178711 -204.384704589844 4.541683197021
90.597282409668 -78.649955749512 -209.040191650391 4.149713039398
-78.751625061035 -70.733001708984 -211.954940795898 2.202477693558
-148.765670776367 -72.209320068359 -219.123275756836 1.844995617867
-80.854301452637 -71.756065368652 -211.956024169922 1.347478389740
-10.953912734985 -68.317527770996 -206.506240844727 2.815256118774
-20.698959350586 -72.395362854004 -220.944259643555 1.956825256348
17.865879058838 -77.822631835938 -215.556930541992 1.040859341621
-5.445082187653 -78.378746032715 -223.492950439453 2.303299665451
-89.088829040527 -81.787925720215 -218.946960449219 5.050188541412
92.891441345215 -77.418685913086 -214.397521972656 1.374084234238
-101.397567749023 -71.525894165039 -215.019577026367 3.408051729202
-155.125701904297 -69.917152404785 -225.617202758789 1.766575455666
-31.571258544922 -74.969612121582 -225.074722290039 4.306614875793
19.198883056641 -78.525314331055 -215.625000000000 2.459800720215
-102.714988708496 -75.022300720215 -219.686798095703 2.439389467239
7.039978981018 -70.319366455078 -217.009979248047 1.792909622192
-28.420568466187 -75.274169921875 -214.050567626953 1.167403221130
81.761955261230 -75.729904174805 -225.684814453125 2.468552827835
-144.348953247070 -70.297897338867 -215.935089111328 1.627125978470
15.940241813660 -76.360069274902 -226.038467407227 2.351134300232
-9.987538337708 -80.851356506348 -229.031997680664 1.662978291512
17.674135208130 -67.472366333008 -224.547744750977 3.084173917770
83.641960144043 -80.406883239746 -223.328567504883 3.633924722672
-15.481362342834 -81.082092285156 -229.487289428711 5.538599967957
-130.842010498047 -76.111335754395 -226.780563354492 1.284857273102
-16.017753601074 -75.548591613770 -224.054092407227 1.873877763748
16.270116806030 -76.330024719238 -228.367691040039 2.656173467636
-128.818161010742 -77.154937744141 -226.458343505859 2.350832223892
-154.746536254883 -68.777488708496 -231.600326538086 0.758086323738
-143.873733520508 -71.656982421875 -228.894714355469 2.007894039154
-127.430000305176 -70.513481140137 -225.244430541992 2.033366918564
-10.814553260803 -72.206848144531 -223.732299804688 1.506124734879
71.532226562500 -78.042457580566 -226.889343261719 5.490807533264
-145.409912109375 -67.672340393066 -240.899169921875 2.012921571732
66.949432373047 -79.199272155762 -228.173065185547 6.216822624207
-22.143743515015 -81.026306152344 -231.955078125000 3.512226581573
-143.171722412109 -75.942710876465 -226.967361450195 3.168599367142
75.433944702148 -88.437728881836 -229.491195678711 11.999425888062
9.896616935730 -83.169082641602 -231.101974487305 2.899675846100
-139.751037597656 -77.149208068848 -236.119064331055 4.252307891846
-149.689956665039 -71.992706298828 -232.308258056641 3.308978080750
17.872104644775 -71.805084228516 -230.479461669922 0.648197174072
-2.887010097504 -81.687980651855 -239.852188110352 3.995734930038
-31.080337524414 -74.688316345215 -236.564529418945 1.145128488541
-1.738291978836 -71.063232421875 -235.748825073242 0.879335403442
-160.926544189453 -77.144233703613 -237.392578125000 4.184661865234
4.261493206024 -73.888107299805 -242.389999389648 0.543829381466
-165.346389770508 -74.739189147949 -241.504791259766 1.437974214554
-11.894322395325 -77.790817260742 -237.299026489258 4.858011245728
56.815315246582 -79.482864379883 -239.337173461914 4.855569839478
-14.185913085938 -74.380187988281 -235.750198364258 2.084252357483
-25.556562423706 -76.380027770996 -248.836898803711 4.562926292419
-24.464513778687 -75.827316284180 -241.684509277344 2.178366661072
-10.296696662903 -81.890960693359 -239.322250366211 8.123567581177
-146.831146240234 -74.077774047852 -226.288284301758 2.947837829590
7.304621219635 -75.433151245117 -241.066070556641 1.888783454895
63.565414428711 -78.334106445313 -245.614349365234 4.677627563477
15.797701835632 -73.633689880371 -245.444610595703 1.909938097000
-170.876739501953 -70.395614624023 -243.068389892578 4.481223583221
-52.587032318115 -74.219718933105 -237.619461059570 4.745355129242
5.031380176544 -85.022262573242 -249.168762207031 3.715379953384
16.998952865601 -78.025276184082 -242.753646850586 2.612790107727
-54.034553527832 -75.555854797363 -247.445480346680 1.153359055519
-1.821614027023 -70.529235839844 -251.358917236328 5.895214080811
19.782560348511 -86.567245483398 -249.070709228516 3.712362289429
-173.750061035156 -69.594947814941 -248.933624267578 7.378947734833
-64.729125976563 -80.758148193359 -249.312438964844 1.997018218040
-53.241333007813 -73.155563354492 -247.853546142578 2.466431379318
-83.980461120605 -72.673843383789 -253.613586425781 1.771958827972
-162.950225830078 -75.200248718262 -245.573181152344 2.815656185150
-150.796401977539 -61.908096313477 -246.979171752930 2.370724439621
-61.400947570801 -78.231071472168 -249.732162475586 1.340169548988
-69.043663024902 -74.716156005859 -248.159118652344 1.635738968849
-154.063049316406 -70.096946716309 -251.545471191406 1.449670433998
-152.666015625000 -75.272903442383 -251.607498168945 2.890631198883
-74.439048767090 -69.193374633789 -255.349731445313 3.694734334946
-93.976455688477 -70.636871337891 -257.331604003906 1.603022217751
-162.917709350586 -64.648994445801 -254.195129394531 5.678176403046
-158.215393066406 -74.204345703125 -261.706085205078 1.505622625351
-136.330322265625 -76.774955749512 -260.889953613281 1.767660260201
-83.864418029785 -74.036705017090 -248.883407592773 2.180305957794
-161.854309082031 -67.948379516602 -253.820465087891 2.388820886612
-141.954925537109 -70.158134460449 -257.262145996094 2.674101352692
-85.005538940430 -73.509559631348 -247.146392822266 1.758497834206
-98.361923217773 -72.870895385742 -262.474487304688 3.947129726410
-142.624984741211 -75.245277404785 -254.446014404297 0.931643366814
-92.405464172363 -74.662544250488 -255.404190063477 1.871645808220
-156.074996948242 -70.444023132324 -254.759780883789 2.950617551804
-105.104408264160 -73.948875427246 -253.954879760742 3.157845020294
-172.827804565430 -71.386070251465 -258.190826416016 5.251435756683
-163.149841308594 -76.312088012695 -267.354003906250 2.082201004028
-129.389495849609 -79.592323303223 -255.420547485352 4.647116184235
-153.482833862305 -74.294090270996 -259.332885742188 2.294674873352
-109.164955139160 -69.664505004883 -263.304504394531 1.545169115067
-14.204194068909 -74.083374023438 -262.316619873047 1.400939464569
-140.862915039063 -73.307960510254 -260.110137939453 2.419218778610
-127.982017517090 -72.775596618652 -259.910797119141 2.858526945114
-153.367828369141 -70.669502258301 -263.532012939453 0.656975924969
24.735738754272 -79.655548095703 -273.210998535156 4.649970054626
-150.814392089844 -77.405235290527 -279.427612304688 1.210014939308
-170.089874267578 -74.213485717773 -282.992950439453 2.974553585052
-9.877494812012 -75.704795837402 -280.099884033203 3.417697668076
-145.092315673828 -72.997291564941 -278.646179199219 2.619727849960
-11.925134658813 -75.255821228027 -284.067077636719 1.876045703888
12.187237739563 -80.128265380859 -287.264434814453 1.778179764748
-137.863204956055 -71.015121459961 -285.697143554688 1.416098594666
-65.665985107422 -79.850502014160 -287.618103027344 3.789157390594
-33.997795104980 -81.517112731934 -289.951293945313 2.381174325943
-112.668319702148 -75.494827270508 -281.551940917969 5.264601707458
-98.743675231934 -82.159095764160 -289.539611816406 6.063543796539
-88.601303100586 -76.920005798340 -291.583099365234 3.932539224625
-52.190288543701 -79.039154052734 -293.018951416016 4.642251491547
-116.764617919922 -82.738769531250 -286.007232666016 4.988538742065
-117.256530761719 -77.375442504883 -290.067077636719 2.049005270004
-34.572463989258 -73.147933959961 -287.401519775391 2.420799732208
-117.955375671387 -77.494705200195 -294.143066406250 4.336073875427
-129.562667846680 -68.227920532227 -288.292297363281 2.154542922974
-145.824935913086 -78.405883789063 -294.655059814453 2.162395954132
6.284449100494 -79.142791748047 -290.620269775391 2.210322380066
18.368057250977 -81.340911865234 -292.783721923828 5.057607173920
-163.118270874023 -73.575073242188 -291.605407714844 0.692796230316
-162.518096923828 -79.646942138672 -300.393341064453 8.196343421936
-150.028076171875 -77.048156738281 -309.318878173828 3.083951950073
-154.255004882813 -74.282661437988 -309.686492919922 0.278806865215
-153.472335815430 -75.142478942871 -314.734649658203 3.821515083313
28.260786056519 -75.685470581055 -13.462285995483 3.710752725601
37.297714233398 -66.837608337402 -20.731460571289 2.121725797653
21.685916900635 -70.482101440430 -26.516128540039 1.818999528885
30.136281967163 -66.905235290527 -39.746494293213 1.429531335831
-58.828666687012 -68.129760742188 -50.792743682861 1.978354096413
-64.092788696289 -68.817726135254 -51.130840301514 3.012554645538
-39.029876708984 -75.037361145020 -48.215740203857 2.397371292114
-87.218559265137 -60.318920135498 -67.783271789551 8.189376831055
80.060073852539 -77.500152587891 -76.673957824707 3.182230234146
-11.126022338867 -65.541168212891 -72.120147705078 3.378299236298
89.855575561523 -73.932502746582 -62.090038299561 5.794845104218
101.707305908203 -73.919555664063 -75.681747436523 2.998320341110
-91.239875793457 -65.298278808594 -74.231765747070 4.958494663239
65.290351867676 -73.380271911621 -81.254714965820 3.507979393005
-38.985195159912 -74.765533447266 -87.504661560059 3.257633447647
102.285324096680 -74.529846191406 -80.899162292480 3.614159107208
-57.952766418457 -66.178390502930 -88.398658752441 2.218501329422
49.486133575439 -74.101860046387 -91.409698486328 2.207652330399
69.585044860840 -82.959854125977 -89.956535339355 8.420533180237
53.445388793945 -71.596923828125 -96.012351989746 2.193576574326
52.811653137207 -75.311294555664 -99.614440917969 1.896949887276
76.094078063965 -78.850868225098 -96.986373901367 3.706370115280
47.789295196533 -72.667327880859 -110.751968383789 1.257641315460
96.848281860352 -75.847145080566 -103.555038452148 4.090535163879
104.819625854492 -82.188339233398 -108.994651794434 7.191513061523
76.642227172852 -72.211738586426 -104.917907714844 2.076393365860
95.058021545410 -76.713493347168 -106.518882751465 5.235575199127
99.952423095703 -75.402641296387 -93.358413696289 4.475898265839
110.412101745605 -77.526412963867 -105.415534973145 3.122426033020
40.130550384521 -72.160339355469 -107.444709777832 1.644885063171
114.307075500488 -72.873397827148 -118.277854919434 1.433307170868
114.928977966309 -78.259262084961 -120.675880432129 4.583027362823
29.556589126587 -70.929656982422 -125.791206359863 1.731766104698
44.508335113525 -76.089912414551 -118.333480834961 1.259504675865
115.378227233887 -78.040397644043 -134.202316284180 3.118578195572
32.921379089355 -72.985855102539 -127.476318359375 2.941040515900
117.541412353516 -83.803222656250 -127.254333496094 9.159937858582
107.352340698242 -78.373611450195 -123.549514770508 4.348076343536
27.477767944336 -77.190612792969 -133.369857788086 1.877666831017
-46.284976959229 -72.711540222168 -133.114913940430 3.124638557434
-51.887702941895 -69.486282348633 -134.700927734375 1.621045231819
111.647224426270 -76.663375854492 -136.647308349609 1.069652557373
-66.899093627930 -78.121345520020 -138.830230712891 5.540946006775
-70.639671325684 -72.046043395996 -140.612609863281 2.854643583298
-60.565567016602 -72.099967956543 -138.436645507813 2.527116537094
30.057603836060 -76.105598449707 -146.268539428711 2.393478155136
120.624931335449 -81.412315368652 -148.512832641602 7.962971687317
-70.475479125977 -66.766578674316 -148.531463623047 1.725854396820
-49.984413146973 -73.081199645996 -140.758529663086 2.176876068115
32.371463775635 -75.415443420410 -154.122360229492 1.563264966011
-68.445678710938 -73.581672668457 -147.776855468750 1.700499176979
114.464752197266 -75.522720336914 -139.746856689453 1.189789175987
111.019172668457 -74.780685424805 -158.963256835938 1.394202113152
116.310783386230 -79.282127380371 -155.939987182617 3.832716226578
-38.763694763184 -77.327560424805 -152.175201416016 2.095763206482
-63.436962127686 -72.067779541016 -166.295288085938 2.175003528595
-65.697738647461 -65.964210510254 -158.455749511719 4.085771560669
28.229745864868 -76.114219665527 -143.366439819336 1.952060461044
-2.135062932968 -77.035461425781 -162.051467895508 2.121101379395
110.469734191895 -75.878135681152 -164.153778076172 0.836154758930
112.469680786133 -74.666694641113 -152.879867553711 1.382295608521
112.690216064453 -83.096084594727 -160.806549072266 4.911520957947
-62.196887969971 -69.444221496582 -157.299789428711 3.403090953827
-44.706157684326 -76.196105957031 -169.034988403320 3.098576545715
-4.296321868896 -74.005012512207 -165.559402465820 2.203548669815
-32.083927154541 -75.302703857422 -175.376708984375 3.685129642487
105.437805175781 -76.100425720215 -169.181930541992 2.908906459808
-31.846044540405 -79.064422607422 -159.791763305664 3.535747766495
108.464942932129 -75.426651000977 -167.818527221680 1.378175616264
-41.825733184814 -73.929351806641 -174.949874877930 1.685792446136
107.655868530273 -74.385093688965 -171.605148315430 0.753742575645
-154.250320434570 -72.079223632813 -178.068618774414 1.693748712540
-24.863918304443 -68.279129028320 -178.396987915039 2.820808410645
-19.064935684204 -75.457519531250 -184.660369873047 0.541894316673
24.415880203247 -80.897178649902 -177.049652099609 3.133999347687
13.883556365967 -73.778610229492 -184.917297363281 0.972949683666
29.217872619629 -76.904556274414 -183.148101806641 2.450967073441
101.402214050293 -86.235366821289 -185.703521728516 9.140380859375
-152.381439208984 -65.555229187012 -182.817687988281 2.904264450073
-18.939289093018 -77.479133605957 -180.994338989258 3.247105121613
100.555465698242 -80.800354003906 -179.262771606445 4.725243091583
102.883453369141 -72.753189086914 -189.719284057617 1.883360028267
109.710525512695 -80.946334838867 -176.486862182617 3.098916053772
100.764892578125 -80.808227539063 -193.475463867188 4.625524997711
-150.559890747070 -69.079948425293 -198.877182006836 2.510078191757
99.256233215332 -79.744033813477 -207.714416503906 4.014449119568
-28.119749069214 -72.357330322266 -200.068664550781 1.850073695183
95.670104980469 -78.403121948242 -194.577087402344 5.343202590942
-118.255310058594 -78.451171875000 -202.222702026367 6.099672794342
-30.502634048462 -80.458450317383 -187.503280639648 1.869467496872
-142.756317138672 -64.419586181641 -198.403106689453 1.383269309998
96.295188903809 -78.529281616211 -197.906967163086 2.404715061188
8.096075057983 -75.975952148438 -200.452880859375 2.856937170029
25.014951705933 -73.179573059082 -191.540069580078 1.541987538338
-149.389236450195 -74.298759460449 -204.875152587891 1.511213660240
-136.864974975586 -71.251029968262 -202.805450439453 2.603217124939
-9.267664909363 -75.331573486328 -210.116867065430 1.998555660248
-124.301620483398 -71.502983093262 -206.458892822266 2.061233520508
-144.800003051758 -72.618240356445 -195.351882934570 0.866158068180
-0.132311999798 -76.523345947266 -198.480957031250 8.209011077881
-26.954595565796 -77.704673767090 -199.815231323242 3.577086925507
21.134025573730 -81.466697692871 -201.027053833008 5.082998752594
4.694158077240 -78.838050842285 -214.079895019531 3.579563379288
81.231613159180 -72.848327636719 -210.216659545898 5.482113361359
-17.528528213501 -72.013343811035 -212.504043579102 1.366656780243
90.168266296387 -75.032341003418 -209.978836059570 2.523537158966
98.525009155273 -83.035209655762 -207.595230102539 6.894003391266
-147.800537109375 -74.255195617676 -213.030578613281 2.267974615097
94.672676086426 -82.592765808105 -212.210449218750 6.328877925873
3.661586046219 -73.322814941406 -205.793869018555 1.374860286713
1.616304993629 -78.901062011719 -214.747817993164 4.916673183441
-31.459796905518 -74.450622558594 -205.344390869141 0.962282240391
-89.499450683594 -72.823776245117 -212.739227294922 1.882447242737
-24.430501937866 -78.648315429688 -209.502593994141 2.149292230606
85.664176940918 -76.821746826172 -219.285125732422 1.222479462624
91.252746582031 -77.616226196289 -215.472305297852 0.937999904156
-31.156410217285 -73.607498168945 -211.447067260742 1.956565380096
-83.360458374023 -68.829757690430 -220.588714599609 4.712505340576
0.278562992811 -78.738800048828 -220.163970947266 1.963706254959
76.703254699707 -71.986541748047 -211.696289062500 7.308774948120
-153.269332885742 -79.911605834961 -220.670364379883 4.323837280273
-166.714187622070 -68.934272766113 -214.254318237305 3.184159517288
