-155.607879638672 -68.630645751953 -271.887207031250 2.735978603363
-125.148490905762 -70.286849975586 -276.550415039063 8.260833740234
-168.813735961914 -72.670585632324 -276.189514160156 2.003557205200
-118.650650024414 -65.665962219238 -278.804229736328 9.454083442688
-106.687797546387 -68.089675903320 -282.909393310547 4.985674858093
-10.369556427002 -68.803123474121 -279.214141845703 1.405975222588
-110.945480346680 -69.626197814941 -279.879486083984 7.013139247894
-120.400993347168 -62.998065948486 -274.205322265625 9.660893440247
-127.513481140137 -61.385231018066 -284.049774169922 5.596684932709
-144.028213500977 -66.025207519531 -281.525238037109 1.703185081482
-131.006683349609 -60.332401275635 -282.554504394531 7.175766468048
-162.880538940430 -71.604072570801 -279.488739013672 2.841156721115
-150.795196533203 -60.216590881348 -281.920196533203 1.491904020309
-164.979690551758 -60.724010467529 -294.494018554688 10.209095001221
-158.833404541016 -63.377613067627 -301.582763671875 6.385328292847
-165.360137939453 -61.152282714844 -292.144775390625 9.339889526367
-142.553283691406 -67.769607543945 -301.067230224609 2.528490543365
-152.964431762695 -70.513557434082 -306.047302246094 1.643078804016
40.657501220703 -58.881778717041 -2.557290077209 10.310461997986
54.496402740479 -66.185073852539 -14.252174377441 6.850363254547
28.407587051392 -57.490520477295 -17.282548904419 3.404561042786
56.243316650391 -60.997653961182 -22.065128326416 6.335729598999
31.889225006104 -62.420230865479 -29.974143981934 3.814876317978
35.635910034180 -60.494663238525 -28.651521682739 5.303877353668
-52.817726135254 -50.916492462158 -43.538253784180 2.180538415909
79.796966552734 -56.994274139404 -56.482215881348 1.578773379326
87.044090270996 -65.689643859863 -65.811416625977 1.534150838852
-85.542274475098 -58.747982025146 -56.424312591553 7.008913993835
-9.090681076050 -55.608013153076 -54.123786926270 2.043473958969
-88.995582580566 -57.967929840088 -65.532501220703 7.091120719910
100.248001098633 -68.175422668457 -64.322769165039 2.679467916489
-7.291922092438 -56.116813659668 -62.219039916992 1.330644249916
70.543434143066 -68.225585937500 -79.749488830566 3.125795364380
-42.209671020508 -63.743953704834 -75.989761352539 1.403007268906
-22.302349090576 -62.125755310059 -67.865982055664 3.158729314804
58.760433197021 -56.687648773193 -84.174461364746 1.400983452797
-39.800548553467 -69.934043884277 -76.983558654785 1.285679817200
68.580047607422 -51.945434570313 -85.569496154785 2.019833803177
54.520938873291 -70.375656127930 -88.527793884277 1.554472327232
59.114566802979 -62.439430236816 -91.992309570313 1.895782113075
59.799690246582 -72.956726074219 -86.924446105957 0.984332561493
58.773597717285 -57.516639709473 -92.904632568359 2.472723245621
101.216194152832 -61.087158203125 -97.059745788574 1.082645535469
110.489952087402 -59.517982482910 -99.082847595215 6.261778354645
63.602584838867 -67.993949890137 -98.176315307617 3.274382829666
110.896804809570 -61.019603729248 -99.851181030273 6.069643497467
-75.509452819824 -57.176216125488 -91.839294433594 7.022463321686
-71.232376098633 -59.310935974121 -97.166961669922 1.068532705307
103.006141662598 -61.364959716797 -96.680320739746 0.932385206223
55.775661468506 -65.643608093262 -97.909973144531 1.650808811188
72.756668090820 -67.341812133789 -93.738876342773 3.997277498245
-68.299446105957 -59.416210174561 -103.192787170410 2.552237033844
-83.518203735352 -56.584133148193 -101.744651794434 6.294824123383
87.907730102539 -71.046333312988 -99.992790222168 2.369544744492
40.622077941895 -66.718299865723 -98.212661743164 3.794403314590
109.164375305176 -61.808597564697 -106.897613525391 4.706597805023
51.013347625732 -68.839271545410 -110.256881713867 1.648959636688
113.766563415527 -67.979713439941 -99.728652954102 4.019904136658
-75.003479003906 -59.444160461426 -106.118530273438 3.740336179733
104.699409484863 -60.500259399414 -107.419998168945 6.401687622070
-80.446060180664 -55.636726379395 -115.337600708008 0.878212690353
-56.462818145752 -63.639152526855 -121.411720275879 2.262797832489
-55.620433807373 -60.073505401611 -117.255172729492 1.913939833641
-69.018707275391 -63.194595336914 -124.203697204590 3.631419181824
-48.564819335938 -62.755214691162 -125.322570800781 4.758343696594
-82.206138610840 -61.798042297363 -127.846046447754 2.087809562683
-75.613548278809 -54.398952484131 -124.688026428223 4.885731697083
-76.913146972656 -61.214946746826 -126.927482604980 2.140028953552
-60.669864654541 -67.503364562988 -136.151214599609 2.164715051651
-68.797149658203 -61.504745483398 -135.376770019531 5.441149711609
-59.399921417236 -68.064468383789 -125.387519836426 2.323383092880
-54.980854034424 -60.933971405029 -137.261917114258 2.064507484436
12.256830215454 -58.824810028076 -142.284713745117 4.463179588318
-90.024009704590 -61.133213043213 -132.754150390625 4.453979015350
-48.031833648682 -69.220825195313 -143.720062255859 1.415488362312
-92.536216735840 -58.366027832031 -142.986343383789 5.343736648560
-100.845138549805 -55.529438018799 -139.446258544922 9.830784797668
21.464820861816 -68.803939819336 -151.080718994141 3.196111202240
15.897705078125 -67.007476806641 -155.075317382813 0.521697819233
-94.171218872070 -64.343551635742 -153.765930175781 1.297695875168
-103.386734008789 -60.817790985107 -142.768798828125 7.681168556213
-98.609855651855 -58.931655883789 -159.975540161133 3.144674062729
21.628118515015 -65.694664001465 -166.679077148438 2.802518844604
-112.466094970703 -60.315849304199 -166.084381103516 5.998947143555
26.446891784668 -65.712783813477 -160.062789916992 2.443523168564
-147.844940185547 -59.708171844482 -168.258560180664 8.101523399353
18.459672927856 -65.522857666016 -171.723464965820 3.054807424545
25.168155670166 -68.692245483398 -182.040359497070 2.234103202820
-151.345794677734 -57.276039123535 -176.952087402344 3.998605012894
20.953145980835 -68.995452880859 -169.850280761719 2.236807107925
19.533554077148 -57.042507171631 -178.053833007813 9.443292617798
-146.205062866211 -64.635589599609 -172.738296508789 1.954424023628
-151.830520629883 -54.855514526367 -180.995376586914 7.230585575104
19.456352233887 -68.129867553711 -183.044967651367 2.455629825592
18.221094131470 -71.591232299805 -185.994506835938 1.982068657875
-141.705017089844 -63.543903350830 -185.843978881836 2.958764791489
-110.338409423828 -62.332878112793 -189.794509887695 3.087112665176
26.623146057129 -68.421646118164 -195.910369873047 3.860941171646
-126.173339843750 -62.177612304688 -186.414199829102 9.742316246033
8.038556098938 -71.418876647949 -196.923126220703 1.683339595795
-127.950828552246 -52.254684448242 -185.932205200195 15.254979133606
-163.615478515625 -55.877273559570 -178.179840087891 12.876110076904
-160.063995361328 -57.261699676514 -187.131958007813 10.814160346985
-155.998748779297 -62.638885498047 -182.788024902344 5.206330299377
-22.942975997925 -67.396148681641 -203.382904052734 2.950480461121
-170.187377929688 -62.473804473877 -189.156219482422 12.961863517761
-28.832906723022 -59.516483306885 -187.847015380859 8.692449569702
-16.433214187622 -67.623123168945 -187.099700927734 6.011033058167
4.778068065643 -59.001373291016 -192.029693603516 11.027131080627
-157.107025146484 -61.574562072754 -198.800552368164 2.107132911682
-106.390274047852 -60.047058105469 -195.516555786133 5.957342147827
-16.691049575806 -61.242416381836 -193.402359008789 6.279106616974
-162.203536987305 -51.277866363525 -191.887481689453 13.691675186157
16.928167343140 -69.014442443848 -198.492736816406 1.136263489723
-173.001708984375 -56.585338592529 -197.274490356445 11.456177711487
-119.947715759277 -64.482994079590 -193.921234130859 4.271653652191
-117.074028015137 -58.557483673096 -202.120361328125 3.940246105194
-123.306800842285 -61.530559539795 -195.223754882813 1.636943221092
-17.260435104370 -64.452445983887 -196.872146606445 3.612624406815
-21.049343109131 -67.388023376465 -197.578048706055 1.877144932747
-164.897232055664 -59.643718719482 -202.904022216797 5.696631908417
-160.369415283203 -56.912227630615 -202.039382934570 5.766795635223
-165.963333129883 -61.458370208740 -209.971740722656 4.957566738129
-139.526046752930 -64.865943908691 -204.595275878906 3.003623723984
-146.957763671875 -60.258186340332 -216.746124267578 0.909488797188
-1.327594995499 -65.305900573730 -213.732177734375 4.456824779510
-10.052895545959 -74.654792785645 -211.730560302734 2.365626573563
-102.648216247559 -59.806121826172 -212.785110473633 10.675521850586
-9.922195434570 -65.584983825684 -231.967453002930 2.309000730515
-171.367675781250 -56.373008728027 -222.293273925781 9.456917762756
-105.460998535156 -61.087856292725 -227.466995239258 4.527266502380
1.176674008369 -68.904129028320 -221.725814819336 2.529907941818
-0.116493999958 -67.697341918945 -224.395767211914 1.408294796944
-113.687141418457 -63.050651550293 -226.417663574219 1.505253553391
-3.291632890701 -69.878494262695 -221.386032104492 1.807202935219
-120.676345825195 -58.356163024902 -225.959060668945 6.732928752899
-9.896964073181 -63.050170898438 -225.917022705078 2.621177434921
-3.228883981705 -66.816551208496 -230.222991943359 1.145655393600
-5.046671867371 -66.960212707520 -234.871307373047 1.455929994583
71.183540344238 -66.471893310547 -234.275299072266 1.548634409904
-10.900114059448 -72.031440734863 -232.426467895508 1.434116125107
9.766813278198 -69.893608093262 -230.637680053711 2.626119375229
9.495373725891 -67.968597412109 -232.510375976563 2.245724439621
2.872030973434 -70.868431091309 -233.815292358398 1.351907610893
3.007208108902 -71.612640380859 -237.179931640625 2.696319341660
60.728588104248 -64.113906860352 -237.492965698242 3.093005418777
66.901718139648 -65.386161804199 -238.331008911133 3.010092258453
3.273828983307 -68.084060668945 -245.037399291992 2.712286233902
48.151794433594 -73.598800659180 -239.223968505859 4.472575187683
52.698280334473 -77.077972412109 -236.492553710938 7.445832729340
44.674327850342 -65.353408813477 -248.847946166992 2.434576272964
40.767070770264 -66.039237976074 -248.435119628906 2.167869567871
38.191116333008 -69.568672180176 -256.466125488281 0.418732374907
-131.228012084961 -55.851081848145 -253.037750244141 8.780127525330
-10.121555328369 -66.989990234375 -241.293930053711 2.263466119766
29.298791885376 -67.487976074219 -253.368988037109 3.094183683395
40.737590789795 -68.387092590332 -240.572219848633 7.892714977264
28.031148910522 -74.406448364258 -247.799575805664 5.353532314301
-107.520515441895 -68.356674194336 -252.219924926758 2.194836854935
26.688926696777 -72.297370910645 -251.675491333008 3.233830690384
-146.640548706055 -65.695930480957 -253.540756225586 2.130289793015
-119.340354919434 -67.925651550293 -247.161041259766 8.777153015137
-114.642982482910 -64.594474792480 -250.935394287109 6.190162658691
-3.462486982346 -73.749870300293 -253.530410766602 5.012182712555
-155.484237670898 -64.000427246094 -247.803436279297 5.426831245422
35.260242462158 -72.034080505371 -259.835449218750 3.309946060181
-109.226348876953 -62.624561309814 -247.353363037109 8.880007743835
22.567935943604 -77.083732604980 -253.851089477539 2.685688972473
-137.412994384766 -68.370819091797 -257.036102294922 1.250652194023
-119.597930908203 -64.060348510742 -259.682983398438 2.633162736893
-114.645828247070 -64.187507629395 -255.331771850586 3.466258764267
-116.250381469727 -73.899070739746 -252.343719482422 3.548198223114
-145.142074584961 -65.505523681641 -244.522613525391 1.763545870781
27.495334625244 -71.496574401855 -254.062362670898 2.244063138962
-119.158599853516 -61.613285064697 -254.121963500977 7.149079322815
-147.707000732422 -64.870849609375 -254.582427978516 1.781966686249
-7.721706867218 -66.234809875488 -265.456848144531 2.518149137497
-152.549270629883 -66.713203430176 -270.265930175781 1.089271068573
-12.922013282776 -71.838897705078 -285.429809570313 1.936654567719
-8.810051918030 -67.122734069824 -275.283660888672 2.396295309067
-137.844604492188 -63.943367004395 -281.812164306641 5.471130371094
-134.043945312500 -65.741661071777 -284.709869384766 2.473119020462
-139.036117553711 -63.747364044189 -287.062103271484 3.232614278793
-130.137893676758 -61.064643859863 -280.577606201172 8.175233840942
-160.071365356445 -63.416591644287 -284.939636230469 2.623556852341
-162.726135253906 -65.118995666504 -290.237030029297 4.366942405701
-152.847686767578 -69.846748352051 -292.677795410156 1.656502246857
-153.020858764648 -67.897682189941 -296.379943847656 0.923349082470
-148.537734985352 -63.872249603271 -288.370361328125 1.730331063271
-155.485885620117 -64.436065673828 -297.984497070313 4.529006481171
-149.363677978516 -61.806945800781 -308.705352783203 5.189733505249
23.882123947144 -61.326519012451 -20.695991516113 2.855488061905
55.619815826416 -64.000740051270 -33.423873901367 6.357535362244
28.021150588989 -66.887123107910 -31.339975357056 2.424281358719
35.986747741699 -59.397102355957 -40.801475524902 1.920434832573
-36.649131774902 -47.786258697510 -43.727874755859 6.592308521271
-69.275894165039 -50.089317321777 -43.631858825684 1.069017171860
83.678741455078 -62.740020751953 -58.775619506836 2.782803058624
76.842475891113 -63.731388092041 -58.509994506836 1.864985108376
76.567680358887 -66.170120239258 -61.032897949219 2.517896413803
-98.133697509766 -55.022132873535 -63.568881988525 3.514504671097
101.014213562012 -70.227287292480 -72.931648254395 2.164903640747
-23.853431701660 -62.477100372314 -81.169906616211 8.642004013062
64.087097167969 -59.726345062256 -71.401306152344 2.183871984482
-38.322723388672 -53.542240142822 -78.894226074219 0.846646428108
-53.730411529541 -55.203720092773 -74.600090026855 4.111794471741
54.720287322998 -62.968677520752 -87.163276672363 1.751528859138
105.272628784180 -62.312095642090 -88.936645507813 1.826961517334
65.269996643066 -61.158710479736 -89.036781311035 1.723922014236
58.614154815674 -61.082244873047 -87.404396057129 0.900351583958
50.163642883301 -58.751884460449 -99.192138671875 3.502529382706
58.568607330322 -58.928703308105 -100.084617614746 1.969485402107
104.822425842285 -63.037971496582 -95.690383911133 2.943900108337
70.719268798828 -63.812076568604 -105.842575073242 0.394897460938
55.246372222900 -64.004791259766 -102.800270080566 3.710837841034
77.121818542480 -72.191757202148 -104.849388122559 1.889465689659
103.011695861816 -61.230110168457 -105.465042114258 4.886982440948
-70.528671264648 -53.734424591064 -90.956359863281 4.104977130890
-84.147705078125 -57.297821044922 -103.024208068848 6.216441154480
-79.582084655762 -58.201290130615 -104.744224548340 2.151152372360
-58.828083038330 -59.355636596680 -112.649002075195 1.235382795334
-55.854377746582 -64.273895263672 -120.117019653320 2.064269542694
-92.810859680176 -56.706333160400 -113.990692138672 5.924078464508
-71.439376831055 -62.031864166260 -111.716903686523 1.408988475800
-75.839851379395 -63.836112976074 -126.200721740723 1.697358369827
-58.374748229980 -55.006900787354 -121.181869506836 2.671375036240
-85.925994873047 -53.850337982178 -123.868469238281 4.415411949158
-88.151542663574 -56.584278106689 -124.180458068848 2.833950042725
-47.378795623779 -63.820102691650 -128.665939331055 4.846807479858
-49.075832366943 -63.010765075684 -131.699157714844 2.136335849762
-76.736633300781 -64.018203735352 -131.078994750977 1.666373610497
-53.987369537354 -63.634441375732 -134.820190429688 2.523484945297
-72.320922851563 -65.974937438965 -138.740036010742 2.263935327530
19.923841476440 -60.805637359619 -135.664184570313 0.889064550400
-57.298213958740 -66.417831420898 -137.196502685547 0.615221738815
-54.935859680176 -56.358306884766 -140.426147460938 4.814930438995
9.304244041443 -69.385681152344 -150.501464843750 2.273035049438
18.758266448975 -62.525756835938 -146.344909667969 0.785471796989
-140.708206176758 -59.805488586426 -164.087463378906 11.470128059387
-109.646736145020 -57.631198883057 -169.835281372070 6.220264434814
-112.068099975586 -55.571434020996 -182.967117309570 5.461764335632
-153.575988769531 -61.417266845703 -180.281677246094 2.238884449005
-113.430259704590 -59.557304382324 -178.546600341797 4.746230125427
-151.059982299805 -52.991790771484 -188.318450927734 9.475481033325
-114.669303894043 -59.939338684082 -191.423507690430 3.642572402954
-151.676528930664 -55.168148040771 -192.802398681641 6.139824390411
-149.805709838867 -58.876789093018 -198.017608642578 2.176582574844
-155.016845703125 -65.344314575195 -194.705154418945 2.589587926865
-151.009323120117 -60.591651916504 -216.033721923828 3.509264469147
-150.066589355469 -64.596618652344 -217.821823120117 2.863801717758
-106.659980773926 -58.686496734619 -222.033859252930 5.796574592590
-100.120132446289 -62.709720611572 -212.289947509766 7.651509284973
-123.977081298828 -55.614082336426 -225.315780639648 8.711834907532
-107.868743896484 -62.865345001221 -217.379638671875 4.713575839996
-159.010314941406 -60.669422149658 -221.539108276367 4.869402408600
-4.801938056946 -66.340042114258 -218.973861694336 2.651669979095
-134.269592285156 -66.322990417480 -220.795822143555 2.951359748840
-155.274246215820 -61.250892639160 -226.676284790039 1.375892400742
-141.502609252930 -66.021781921387 -223.063079833984 3.183417320251
-11.584772109985 -64.802467346191 -228.035217285156 1.636868238449
7.032899856567 -68.208938598633 -240.119827270508 1.428694009781
61.227169036865 -63.325363159180 -237.147491455078 3.505728960037
15.254261016846 -74.552307128906 -245.339523315430 2.102417707443
51.331626892090 -69.860809326172 -238.119628906250 4.882699489594
37.793392181396 -73.796096801758 -245.904556274414 5.762207984924
61.161819458008 -66.202697753906 -250.278930664063 3.020000219345
-155.736312866211 -61.675621032715 -238.945251464844 5.040813446045
-148.339065551758 -66.533973693848 -245.845962524414 2.620040178299
41.908000946045 -68.871635437012 -252.557937622070 1.389085650444
24.643350601196 -69.923355102539 -249.338928222656 2.226368665695
46.740936279297 -65.932197570801 -251.031768798828 0.950689911842
-148.085662841797 -66.203468322754 -255.512268066406 2.241069316864
-140.531158447266 -60.812938690186 -245.485855102539 6.418120861053
-125.810127258301 -60.374343872070 -251.867080688477 5.266814231873
-135.078948974609 -62.392826080322 -247.293731689453 8.678697586060
-141.827148437500 -64.239234924316 -249.417419433594 5.051789760590
-125.022087097168 -62.485252380371 -251.966934204102 3.393303155899
-145.579101562500 -60.017078399658 -251.353561401367 2.252000570297
-130.292190551758 -66.699592590332 -248.691406250000 5.980000019073
-121.535697937012 -65.561820983887 -257.249053955078 3.552191257477
-132.581420898438 -63.787727355957 -257.174041748047 1.296118974686
-125.534851074219 -58.876007080078 -256.272216796875 6.169415473938
-7.859824180603 -69.514419555664 -261.777618408203 1.619043946266
27.809770584106 -64.687759399414 -257.171783447266 0.706748723984
-147.682617187500 -55.234951019287 -259.216979980469 5.244474887848
23.257886886597 -72.824012756348 -267.945007324219 1.700746297836
-9.457451820374 -61.675754547119 -272.712341308594 4.028042316437
14.184472084045 -77.873962402344 -278.088256835938 1.715357422829
-144.104400634766 -64.820602416992 -280.842468261719 1.629801988602
-127.632339477539 -68.369735717773 -278.409027099609 7.308452129364
-133.049346923828 -58.622074127197 -282.705444335938 8.055026054382
-163.511169433594 -57.872303009033 -284.356353759766 8.765643119812
-130.135284423828 -57.724529266357 -281.460845947266 9.616046905518
-121.207740783691 -62.879741668701 -280.737548828125 7.980906009674
-127.812179565430 -69.342376708984 -290.094512939453 2.976354598999
-156.693557739258 -67.782394409180 -281.611175537109 3.114812612534
34.599800109863 -61.419498443604 -6.872998237610 3.898240089417
32.801273345947 -62.777080535889 -13.879473686218 1.970089673996
41.939517974854 -56.417057037354 -18.370405197144 0.990701735020
52.058052062988 -53.717342376709 -20.049388885498 4.531275272369
33.690887451172 -65.343521118164 -23.916110992432 4.266909122467
22.440671920776 -61.707653045654 -28.736001968384 3.121705293655
-29.377719879150 -59.232387542725 -39.476524353027 8.017168998718
-76.533790588379 -58.119380950928 -46.979999542236 1.751022934914
-13.946182250977 -58.161911010742 -54.795822143555 2.663129568100
78.325798034668 -59.605716705322 -62.084300994873 3.532079219818
108.214576721191 -62.670574188232 -67.139045715332 4.701750278473
67.385093688965 -58.920982360840 -81.641296386719 3.906526088715
63.953887939453 -55.769336700439 -82.190498352051 1.114607453346
99.260383605957 -65.424301147461 -82.646766662598 1.770004749298
-61.923839569092 -54.040195465088 -85.147796630859 3.376490592957
-63.852584838867 -57.695987701416 -82.342765808105 4.777283668518
54.537933349609 -58.473415374756 -88.123405456543 2.971883773804
-65.895729064941 -61.633415222168 -89.244407653809 2.354953765869
-71.544883728027 -56.914237976074 -95.812088012695 3.240925550461
-91.916564941406 -57.136470794678 -96.280532836914 8.608507156372
-73.745483398438 -51.508865356445 -92.559181213379 6.013597011566
49.422004699707 -57.146785736084 -99.498321533203 5.184180259705
-62.397480010986 -61.278579711914 -96.978523254395 0.970572233200
49.302841186523 -59.731723785400 -101.765205383301 3.060493230820
97.262069702148 -63.234432220459 -103.156959533691 1.786129236221
90.773468017578 -65.260459899902 -112.742439270020 4.194446563721
-69.029785156250 -57.403472900391 -109.799461364746 2.313854932785
-85.929031372070 -59.490398406982 -104.805404663086 5.233750820160
-60.176956176758 -58.081569671631 -112.524726867676 1.985838770866
-93.372978210449 -50.873683929443 -111.261436462402 3.224480867386
-74.567428588867 -61.568569183350 -120.389869689941 1.884693980217
-92.354545593262 -47.864746093750 -120.831222534180 2.663854360580
-62.689735412598 -56.945308685303 -110.017646789551 1.135154843330
-58.270519256592 -50.971588134766 -116.452804565430 3.266067028046
-89.368698120117 -60.379623413086 -123.773826599121 2.458255290985
-62.583541870117 -62.056079864502 -119.534431457520 0.892822504044
-82.345893859863 -57.121192932129 -127.220283508301 4.616924285889
-84.343719482422 -58.711227416992 -128.488647460938 4.095125198364
-59.646739959717 -66.167221069336 -131.331954956055 0.729519844055
-58.521099090576 -55.032833099365 -127.652053833008 3.457188129425
-53.695014953613 -50.728111267090 -127.169746398926 6.224414348602
-98.974739074707 -53.088634490967 -123.328437805176 4.892803668976
-96.382125854492 -52.154018402100 -138.168594360352 9.594665527344
-90.969642639160 -58.033943176270 -129.809829711914 6.370223045349
19.105476379395 -66.800148010254 -147.429092407227 1.679379582405
-49.378131866455 -60.788738250732 -133.596160888672 1.415090322495
21.323389053345 -64.483894348145 -148.162948608398 2.394607543945
-97.533935546875 -60.294567108154 -158.770889282227 3.230489969254
-103.469612121582 -66.394294738770 -162.673324584961 2.632997274399
-102.020477294922 -54.323974609375 -163.997085571289 7.272561550140
-108.233573913574 -50.065666198730 -168.549011230469 12.115097999573
-109.717872619629 -59.744693756104 -170.603851318359 4.317077159882
-110.484169006348 -58.780651092529 -171.751785278320 3.990290164948
-142.702255249023 -54.498832702637 -177.908843994141 5.648975372314
-111.425956726074 -57.927883148193 -177.840194702148 4.064005374908
-134.838027954102 -55.673618316650 -194.800506591797 6.553917884827
-152.176727294922 -61.663013458252 -189.551971435547 3.815028905869
-130.481536865234 -59.709163665771 -190.512496948242 7.313984870911
-159.558135986328 -60.440139770508 -185.703125000000 8.460467338562
-148.027770996094 -63.942630767822 -193.721664428711 1.446748018265
-127.655685424805 -51.774532318115 -188.565658569336 13.842601776123
-135.281738281250 -55.931575775146 -190.907546997070 8.874350547791
-139.635925292969 -67.427230834961 -197.963012695313 2.749176979065
-131.520751953125 -62.573829650879 -214.167480468750 7.917237758636
-109.614555358887 -65.181831359863 -223.463058471680 0.679551005363
-142.611114501953 -60.847881317139 -218.411209106445 2.598507165909
-122.440422058105 -59.461303710938 -225.081695556641 5.644832611084
-118.589157104492 -54.196853637695 -223.094451904297 11.991688728333
-122.460418701172 -63.307857513428 -223.928771972656 2.229122161865
-136.192489624023 -59.652706146240 -225.492340087891 4.731238842010
-116.282173156738 -57.326961517334 -232.021423339844 6.336135387421
4.159130096436 -65.580093383789 -232.633163452148 1.106873631477
-154.778091430664 -62.596153259277 -230.755935668945 1.020323634148
3.769762039185 -66.919227600098 -233.106109619141 1.948699951172
1.288802981377 -61.701164245605 -241.566055297852 2.345580339432
0.439471989870 -70.276252746582 -238.611419677734 1.158362269402
10.686376571655 -63.551437377930 -237.252838134766 2.167518138885
-144.195602416992 -56.355846405029 -226.262451171875 3.498903274536
-8.814641952515 -70.394439697266 -244.294128417969 1.497173070908
17.382219314575 -67.440956115723 -234.488037109375 2.988312959671
50.093994140625 -66.767272949219 -248.098449707031 0.762872755527
48.358219146729 -67.397567749023 -249.423873901367 0.827566742897
-149.040863037109 -63.509067535400 -243.649032592773 3.118985176086
-7.256406784058 -69.229888916016 -245.893798828125 2.281542539597
17.638492584229 -69.525672912598 -249.616806030273 2.314660310745
-132.574142456055 -53.897125244141 -249.880950927734 11.652019500732
-123.389198303223 -60.727447509766 -248.022842407227 7.719098567963
-125.657882690430 -65.412315368652 -250.077697753906 3.855814933777
24.983333587646 -67.875556945801 -253.514785766602 1.595162510872
-135.544601440430 -57.208671569824 -259.225524902344 7.174490451813
32.282043457031 -65.663352966309 -255.311416625977 2.095738410950
32.500640869141 -68.707939147949 -259.396636962891 1.026591420174
-157.388168334961 -63.846237182617 -259.737670898438 2.789513111115
-148.761337280273 -69.193923950195 -276.988189697266 3.525615692139
-150.805343627930 -56.507881164551 -278.593872070313 5.772493839264
-147.660049438477 -61.362850189209 -288.190368652344 2.406547784805
12.092590332031 -73.761970520020 -287.868164062500 1.744162201881
-158.180847167969 -60.655899047852 -297.119110107422 6.243283748627
51.642608642578 -62.946331024170 -22.908788681030 2.716635942459
40.006351470947 -65.603782653809 -35.944980621338 2.334550857544
-53.746742248535 -50.163871765137 -41.634521484375 4.081356048584
-66.870262145996 -51.152919769287 -41.797637939453 2.735144376755
-22.390983581543 -52.012115478516 -46.683067321777 4.924531936646
-19.805557250977 -61.207012176514 -49.805683135986 2.013676643372
-5.076697826385 -53.614299774170 -63.095588684082 4.335713386536
-25.264787673950 -51.413299560547 -65.976081848145 4.088320255280
67.201347351074 -61.473548889160 -72.755744934082 2.835558414459
-92.135894775391 -46.513618469238 -73.501312255859 8.062663078308
-42.869655609131 -57.982624053955 -83.411689758301 3.525207757950
57.042156219482 -63.257587432861 -83.175331115723 3.112561941147
64.453681945801 -62.239692687988 -82.597953796387 1.148578763008
61.898399353027 -62.537094116211 -85.577110290527 1.477994799614
110.392814636230 -62.479686737061 -89.342544555664 4.857348442078
55.161827087402 -58.949268341064 -85.435684204102 2.399305343628
100.276741027832 -54.238998413086 -98.649703979492 1.701114654541
-82.370834350586 -58.819225311279 -98.095375061035 6.949485778809
-88.221908569336 -54.629207611084 -93.977104187012 12.333793640137
75.745552062988 -58.418411254883 -112.855644226074 3.896841526031
-77.244216918945 -57.219173431396 -97.914215087891 3.769997119904
-75.988075256348 -62.624275207520 -104.971542358398 1.097232699394
-83.315963745117 -65.587692260742 -112.984550476074 2.116790056229
-53.899673461914 -59.807605743408 -120.517112731934 2.110495090485
-74.432327270508 -56.593196868896 -123.730659484863 4.801209926605
-62.278530120850 -51.916553497314 -121.966499328613 1.646538376808
-86.592903137207 -59.681419372559 -129.767242431641 3.927084445953
-75.388534545898 -56.070888519287 -126.927131652832 4.480935573578
-77.627662658691 -55.787826538086 -119.051788330078 2.721067190170
-89.146400451660 -55.363780975342 -122.788421630859 1.916602969170
-66.964775085449 -54.272014617920 -130.384429931641 5.322089672089
-89.279632568359 -58.028175354004 -124.341674804688 1.786948800087
-49.599876403809 -61.850219726563 -126.534912109375 2.939150333405
-54.037437438965 -66.377128601074 -133.083557128906 0.831651329994
28.901443481445 -62.491367340088 -139.609771728516 2.672017097473
-54.263027191162 -50.950286865234 -130.619522094727 7.628826141357
16.302629470825 -68.418037414551 -138.110931396484 5.111265182495
13.883225440979 -59.374717712402 -143.470550537109 3.755370855331
18.063167572021 -57.481792449951 -151.442810058594 3.206550836563
-98.323150634766 -55.518436431885 -138.860824584961 7.842345714569
-88.358589172363 -57.844963073730 -141.579727172852 4.109500408173
-96.032775878906 -53.686576843262 -143.212097167969 9.472455978394
-106.701927185059 -58.665252685547 -157.903945922852 6.294565200806
-98.465415954590 -55.947036743164 -153.768066406250 7.143903732300
-152.600723266602 -52.129047393799 -167.880371093750 12.511176109314
-154.228164672852 -56.152534484863 -166.780151367188 11.182303428650
-114.794136047363 -55.267017364502 -175.048614501953 7.693912506104
-140.729583740234 -55.103492736816 -168.709686279297 10.139045715332
-109.829948425293 -53.929740905762 -175.789810180664 7.158443450928
-147.365524291992 -46.680583953857 -179.543991088867 13.802171707153
-111.703437805176 -54.073665618896 -182.991668701172 6.539911270142
-111.520927429199 -60.325626373291 -172.727951049805 2.068920612335
-147.572189331055 -56.850322723389 -192.973114013672 3.787810564041
-127.603294372559 -60.576652526855 -189.007690429688 8.257808685303
-105.821083068848 -59.783519744873 -190.649337768555 5.953483581543
-116.745742797852 -50.744892120361 -191.048034667969 12.429799079895
-114.816329956055 -61.605163574219 -192.837219238281 1.949293136597
-117.767967224121 -52.229400634766 -195.535003662109 9.202246665955
-134.937713623047 -54.584011077881 -188.290283203125 11.411997795105
-143.729675292969 -58.110244750977 -195.637496948242 1.344408631325
-130.324722290039 -56.480251312256 -202.389953613281 5.674363136292
-130.223739624023 -51.541259765625 -192.161102294922 10.984498977661
-122.287086486816 -55.849212646484 -197.335281372070 4.835515499115
-111.695869445801 -58.685268402100 -198.179977416992 5.730867862701
-151.166885375977 -56.306739807129 -203.606277465820 3.559953689575
-154.828414916992 -56.834709167480 -208.715515136719 5.726227283478
-154.852096557617 -58.350803375244 -212.447082519531 5.639235019684
-140.341018676758 -64.965240478516 -216.309265136719 5.351144313812
-132.840698242188 -53.140060424805 -220.391784667969 12.813387870789
-121.247009277344 -61.890625000000 -208.432861328125 3.484193801880
-142.076583862305 -62.184658050537 -222.098052978516 2.531271457672
-153.980133056641 -59.947978973389 -214.981460571289 4.350316047668
-134.826065063477 -60.662723541260 -217.519271850586 9.337569236755
-135.018981933594 -55.365188598633 -220.102813720703 11.226954460144
-148.459320068359 -56.697746276855 -219.757934570313 4.561131954193
-137.594207763672 -49.501735687256 -219.732223510742 13.560470581055
-131.639709472656 -58.857696533203 -224.988876342773 5.738704204559
-15.869456291199 -66.720222473145 -232.367050170898 3.104460716248
3.415323019028 -63.981365203857 -238.433914184570 2.033259868622
12.574026107788 -58.746044158936 -240.332885742188 2.040327310562
6.810191154480 -69.459831237793 -239.209854125977 2.159766197205
-9.229011535645 -68.934722900391 -231.596420288086 1.735245466232
-16.395362854004 -65.918518066406 -241.602935791016 3.125821590424
31.969316482544 -65.153709411621 -245.256637573242 7.519837856293
43.684291839600 -66.873649597168 -251.427551269531 2.349356651306
-150.264480590820 -59.089199066162 -245.262664794922 4.014173030853
40.269672393799 -64.777389526367 -251.053253173828 1.982483029366
38.168899536133 -69.708007812500 -250.403198242188 2.989933729172
-163.474807739258 -66.034599304199 -246.280258178711 3.307775735855
-152.751586914063 -60.735469818115 -247.210510253906 4.561863899231
-156.267227172852 -62.252429962158 -249.388839721680 3.581250905991
0.189945995808 -69.068260192871 -258.362609863281 4.259136676788
-153.629333496094 -62.115882873535 -259.008911132813 2.130897045135
-4.256234169006 -67.536445617676 -269.237304687500 1.531875014305
-148.922271728516 -65.428321838379 -266.747558593750 1.257384181023
-151.411727905273 -62.499813079834 -271.799438476563 3.858195543289
-154.353759765625 -61.597354888916 -278.919006347656 4.450134277344
-152.913009643555 -49.652217864990 -274.456420898438 14.023159980774
-149.846908569336 -59.369686126709 -285.458618164063 3.123490333557
-158.152587890625 -60.273784637451 -275.620025634766 7.678570270538
-154.912887573242 -62.739032745361 -277.345520019531 4.241561889648
-157.085388183594 -56.689971923828 -279.767272949219 8.644138336182
-152.103088378906 -61.061580657959 -280.401672363281 2.329819917679
-147.941162109375 -61.864540100098 -278.033660888672 3.348011493683
6.026803970337 -69.973609924316 -276.993682861328 6.855115890503
-149.995910644531 -61.110054016113 -288.251831054688 2.297263860703
-162.290481567383 -55.468044281006 -284.538360595703 9.922044754028
-161.273620605469 -53.294933319092 -279.078460693359 13.325988769531
-152.869384765625 -58.593250274658 -284.043457031250 4.083080768585
-150.331695556641 -51.873710632324 -278.726867675781 9.969485282898
-150.913635253906 -65.072669982910 -283.455810546875 0.740805566311
3.877477884293 -70.861526489258 -287.929595947266 2.203384160995
-147.184799194336 -57.642150878906 -286.622344970703 3.888771533966
-151.811019897461 -56.771816253662 -283.817779541016 5.507449150085
34.632381439209 -48.946769714355 -10.694314956665 2.692483663559
47.685092926025 -62.270957946777 -18.635417938232 0.767634272575
47.462696075439 -53.408702850342 -18.303819656372 1.600250124931
19.259885787964 -60.020969390869 -28.186838150024 3.228089570999
28.268989562988 -45.212226867676 -32.276592254639 7.010904788971
40.154205322266 -54.967731475830 -33.700771331787 2.844471693039
-50.885269165039 -52.181015014648 -40.295475006104 4.696525573730
-45.993347167969 -53.136341094971 -34.750179290771 10.631162643433
94.374191284180 -60.661842346191 -65.762535095215 2.796019792557
-91.352851867676 -50.412559509277 -58.706439971924 3.796691656113
100.832855224609 -72.806816101074 -58.183326721191 9.923313140869
71.725761413574 -63.269893646240 -70.185386657715 3.864481925964
100.852798461914 -64.301689147949 -77.873733520508 2.884747028351
65.007225036621 -67.175216674805 -74.078819274902 1.901798963547
-39.617294311523 -55.255123138428 -72.222610473633 3.585671663284
61.964801788330 -57.528373718262 -79.808998107910 2.185023069382
-45.614688873291 -51.486133575439 -70.875572204590 6.541192531586
56.757598876953 -59.711071014404 -80.132369995117 4.745790481567
66.274955749512 -55.626377105713 -85.061027526855 1.926416873932
-95.465438842773 -52.370201110840 -77.866035461426 5.410927772522
54.379852294922 -57.387096405029 -80.458396911621 5.358569145203
53.851856231689 -67.216468811035 -90.353790283203 1.324104070663
68.424606323242 -61.737709045410 -89.301445007324 3.254006385803
54.402984619141 -59.717594146729 -94.293128967285 1.412607908249
-77.869079589844 -52.876163482666 -100.641609191895 4.740326404572
84.290962219238 -67.482803344727 -104.415626525879 1.925787329674
-82.865081787109 -61.122425079346 -114.373939514160 1.791111588478
-75.293540954590 -52.545326232910 -97.735084533691 2.979705333710
-78.072525024414 -57.087268829346 -117.938896179199 1.268358349800
-82.576835632324 -53.505195617676 -110.749717712402 4.285805225372
-94.300712585449 -48.789375305176 -113.071113586426 2.399173498154
-80.497886657715 -56.862380981445 -113.293991088867 1.380306601524
-48.181957244873 -55.614116668701 -118.257125854492 7.423235416412
-77.002655029297 -52.904518127441 -129.479797363281 7.349957942963
-55.341068267822 -50.743648529053 -122.422187805176 6.152531147003
-87.356933593750 -52.135890960693 -130.944686889648 10.586948394775
30.879684448242 -60.391471862793 -134.853958129883 1.027780413628
20.304790496826 -60.764190673828 -137.677917480469 1.891576409340
-93.581542968750 -42.736919403076 -139.110305786133 18.360527038574
23.541515350342 -64.318908691406 -144.487884521484 2.529296875000
-88.749336242676 -60.373493194580 -140.765884399414 1.951691031456
-93.480865478516 -49.917114257813 -141.139785766602 11.539655685425
18.214210510254 -62.651153564453 -160.457794189453 6.587086677551
-95.453445434570 -54.967105865479 -141.985168457031 7.637158393860
-98.616432189941 -52.931564331055 -138.950897216797 10.015254974365
-104.065032958984 -54.809982299805 -147.459777832031 10.392279624939
-92.908241271973 -56.789649963379 -156.158950805664 7.595317840576
-102.861976623535 -61.416080474854 -174.108779907227 2.924104213715
-111.018211364746 -65.242881774902 -162.111587524414 4.517109870911
-95.841491699219 -58.535022735596 -158.392593383789 5.095726490021
-104.179298400879 -58.190536499023 -159.530975341797 3.884200334549
-140.018051147461 -56.429370880127 -171.081527709961 8.022570610046
-112.323654174805 -56.523315429688 -169.998458862305 6.809729099274
-139.672897338867 -56.102325439453 -179.633483886719 4.237258911133
-148.601242065430 -50.536342620850 -183.437561035156 9.533030509949
-155.737670898438 -47.911155700684 -178.181335449219 14.403845787048
-121.603164672852 -53.551177978516 -189.156143188477 10.643749237061
-128.166549682617 -62.095466613770 -184.451995849609 11.337249755859
-122.579948425293 -53.785629272461 -194.241851806641 7.497838973999
-145.890304565430 -58.965343475342 -192.554855346680 2.625121355057
-123.893043518066 -62.039688110352 -195.329101562500 1.162838339806
-148.136627197266 -56.325023651123 -194.112503051758 3.572358846664
-153.498794555664 -55.119907379150 -196.444869995117 5.535785675049
-155.597564697266 -54.706665039063 -217.582565307617 9.200336456299
-145.913818359375 -64.929122924805 -222.845153808594 1.593796730042
-130.370071411133 -54.541637420654 -223.087341308594 10.621056556702
-154.121612548828 -55.414863586426 -220.547943115234 7.792617321014
-4.940312862396 -70.353057861328 -235.604827880859 1.181699156761
9.649076461792 -60.865097045898 -233.673843383789 4.402462005615
-3.056116104126 -69.616889953613 -239.232635498047 2.033191442490
-153.956298828125 -56.139621734619 -236.274978637695 4.986438274384
-11.069604873657 -61.416938781738 -235.706054687500 5.283302307129
-157.543182373047 -65.417938232422 -244.619445800781 2.878673791885
-10.039632797241 -71.567771911621 -245.646636962891 1.698636770248
-150.340896606445 -61.376762390137 -246.274337768555 2.193186521530
17.440616607666 -66.495788574219 -247.371109008789 2.619442701340
-153.885345458984 -51.870239257813 -246.962234497070 11.445508003235
-152.493133544922 -58.037239074707 -246.983840942383 5.826182842255
-153.243759155273 -57.780643463135 -245.256011962891 5.400436878204
-151.678375244141 -56.945941925049 -250.290496826172 5.853769302368
29.020141601563 -67.515090942383 -256.841522216797 1.770073533058
29.440214157104 -67.092254638672 -261.943664550781 1.675319910049
-147.216613769531 -58.967872619629 -244.913528442383 4.052867889404
-154.952499389648 -51.681007385254 -250.770202636719 10.961911201477
-155.968521118164 -63.585826873779 -250.707839965820 2.554915189743
-148.795822143555 -55.346603393555 -249.587417602539 7.005320549011
25.133356094360 -65.012725830078 -259.439941406250 2.191959619522
26.807096481323 -65.801307678223 -264.596313476563 1.392567038536
-160.280334472656 -60.121139526367 -253.228347778320 4.860578536987
-146.242401123047 -58.146682739258 -255.446746826172 3.113855600357
-149.870315551758 -53.737251281738 -253.808181762695 6.911471843719
-145.742279052734 -58.171649932861 -257.385345458984 3.415410995483
-145.091293334961 -62.495185852051 -253.012863159180 0.484758853912
-146.473510742188 -66.213691711426 -256.920410156250 2.157563686371
-150.653045654297 -55.733978271484 -258.346282958984 5.298417568207
-153.337188720703 -54.199459075928 -279.029235839844 8.320767402649
-148.483169555664 -59.116077423096 -273.517272949219 5.572021961212
-150.538604736328 -59.624835968018 -269.531616210938 5.145377159119
12.788895606995 -65.696266174316 -277.202789306641 6.486483097076
-157.219863891602 -53.939895629883 -277.783660888672 11.005578994751
-150.061477661133 -58.491436004639 -283.344329833984 3.494345903397
-10.385901451111 -75.154113769531 -281.119903564453 3.983966350555
1.356886982918 -65.337455749512 -287.601013183594 2.195102930069
-157.226898193359 -59.697063446045 -285.053955078125 4.444031715393
31.694681167603 -61.796657562256 -17.758968353271 1.514588475227
51.535934448242 -57.790546417236 -24.857011795044 3.314661264420
54.359935760498 -62.603538513184 -30.234867095947 4.205142974854
43.906448364258 -51.571254730225 -35.455768585205 0.407341688871
30.388963699341 -63.946407318115 -33.363616943359 2.827410936356
49.886631011963 -59.075244903564 -38.750522613525 4.271715641022
81.543869018555 -54.801696777344 -62.631870269775 3.765526056290
81.142074584961 -59.316165924072 -62.044654846191 3.256625175476
-16.849241256714 -55.251148223877 -67.549835205078 4.885515689850
72.185394287109 -55.842792510986 -69.810607910156 5.287687778473
-24.030107498169 -56.501026153564 -66.300354003906 3.852377414703
-34.652198791504 -61.507190704346 -76.198417663574 1.220824122429
-55.042800903320 -52.657932281494 -68.743690490723 7.445438385010
-53.489818572998 -49.504974365234 -73.288970947266 6.361833095551
65.646965026855 -65.983734130859 -79.341842651367 1.192008614540
112.305923461914 -66.963546752930 -90.835151672363 6.390308856964
-55.715694427490 -49.658252716064 -79.436706542969 3.518277406693
61.551704406738 -59.827949523926 -94.224266052246 1.507978677750
69.206321716309 -58.321052551270 -94.170806884766 2.644959688187
106.388496398926 -59.337982177734 -92.460792541504 3.418826103210
-63.045925140381 -59.556186676025 -86.434761047363 1.916480064392
57.817321777344 -53.966014862061 -93.921592712402 4.237020969391
-58.831169128418 -59.660102844238 -98.701217651367 5.179561614990
71.270286560059 -59.338809967041 -93.161163330078 3.743235826492
68.722984313965 -60.282688140869 -101.668510437012 2.279217720032
-74.699333190918 -51.531608581543 -103.138626098633 2.921139478683
-94.385536193848 -51.552906036377 -107.458633422852 2.538006782532
-67.448974609375 -46.951866149902 -107.759536743164 3.475517749786
-81.487876892090 -55.559890747070 -104.739051818848 5.270319938660
-58.326854705811 -58.715988159180 -110.381752014160 2.288062095642
-81.117378234863 -50.852272033691 -100.264770507813 5.183946609497
-71.435295104980 -55.768234252930 -107.431091308594 1.998060345650
-74.955039978027 -58.300029754639 -106.899291992188 3.342196702957
-68.855308532715 -59.254070281982 -112.759292602539 0.450124531984
-84.613143920898 -58.010307312012 -121.020217895508 3.039559602737
36.768451690674 -60.300254821777 -126.711296081543 2.239658594131
-45.275794982910 -55.815147399902 -125.746711730957 8.129540443420
35.280929565430 -59.315876007080 -134.347000122070 2.876569509506
32.249290466309 -60.633689880371 -128.409408569336 1.506333947182
30.241479873657 -65.107856750488 -126.653182983398 3.964426755905
-53.005695343018 -52.776535034180 -122.352127075195 5.185532569885
23.617671966553 -61.145317077637 -142.766693115234 0.608034729958
22.746843338013 -61.094600677490 -141.222106933594 1.481624722481
-145.902175903320 -57.436000823975 -169.214981079102 8.239461898804
-150.817276000977 -48.468036651611 -166.175796508789 16.128875732422
-152.768936157227 -53.608966827393 -175.758743286133 7.903018474579
-145.703247070313 -50.927581787109 -175.468231201172 10.561724662781
-151.528900146484 -56.912467956543 -188.145492553711 6.251639842987
-152.126861572266 -57.831203460693 -184.616165161133 4.357223033905
-137.776397705078 -57.103260040283 -184.422225952148 6.792705535889
-143.047027587891 -53.144012451172 -193.864196777344 5.928166866302
-120.495643615723 -61.505477905273 -192.276870727539 4.872956275940
-136.367279052734 -58.331878662109 -197.914688110352 4.758292198181
-150.545867919922 -58.714057922363 -207.604217529297 2.207947731018
-146.363800048828 -46.599826812744 -212.435653686523 14.322038650513
-152.841110229492 -55.838172912598 -219.598190307617 6.741196632385
-147.127441406250 -58.550758361816 -220.454498291016 2.990713357925
-151.183151245117 -55.961273193359 -221.935577392578 5.290148735046
-151.249404907227 -50.999191284180 -216.998657226563 10.337304115295
-146.888580322266 -58.733070373535 -224.113418579102 2.104334831238
-146.184722900391 -58.990798950195 -224.502136230469 1.263103365898
-142.842498779297 -54.674484252930 -231.757888793945 6.276030063629
-147.431838989258 -59.280048370361 -217.714920043945 2.169373035431
-157.421279907227 -55.095470428467 -225.485183715820 7.119032859802
11.183536529541 -61.612140655518 -235.877563476563 3.701803684235
-9.355848312378 -68.505851745605 -236.740173339844 2.738368988037
-146.110610961914 -52.874366760254 -237.257598876953 7.347139835358
-155.031127929688 -57.569076538086 -229.018173217773 4.423000335693
-157.671875000000 -60.446533203125 -233.181655883789 2.129355669022
6.011271953583 -65.956367492676 -237.650375366211 1.520247817039
-150.575561523438 -54.458084106445 -227.832580566406 6.307464599609
-151.853393554688 -63.166625976563 -243.981353759766 1.664350032806
-7.431971073151 -65.547073364258 -243.424407958984 0.693614065647
-148.136596679688 -56.882190704346 -242.671127319336 6.322268486023
-142.605529785156 -56.919258117676 -246.916809082031 7.492824554443
-141.859512329102 -58.534736633301 -248.030364990234 6.755487442017
-145.123733520508 -57.631381988525 -245.772476196289 5.801042556763
27.236873626709 -71.262031555176 -261.040222167969 2.229503631592
-151.862060546875 -64.225868225098 -254.161437988281 1.280326962471
27.101369857788 -67.751586914063 -270.158691406250 2.994230508804
10.044190406799 -63.466571807861 -285.238098144531 4.268423080444
-0.716877996922 -65.390144348145 -281.614135742188 2.614131212234
7.283308982849 -63.507282257080 -291.228271484375 2.991737127304
37.221366882324 -55.528766632080 -18.904878616333 3.254794836044
44.779998779297 -66.872459411621 -35.356174468994 2.598937511444
42.242027282715 -64.556861877441 -35.135871887207 1.864822745323
-40.122329711914 -51.928283691406 -42.652976989746 5.627609252930
-87.990341186523 -53.677154541016 -51.190116882324 3.651048660278
-90.909194946289 -52.054843902588 -54.570526123047 2.865177869797
-19.271812438965 -52.038558959961 -62.667816162109 3.035002470016
105.248588562012 -61.897094726563 -65.777832031250 5.332509040833
111.836616516113 -59.331935882568 -73.164894104004 6.053557872772
110.418235778809 -61.097583770752 -74.673446655273 5.639258384705
-45.652557373047 -55.439769744873 -77.423118591309 2.167650222778
-59.143085479736 -51.210403442383 -79.433158874512 5.646549701691
61.106201171875 -58.864974975586 -87.379997253418 2.734777450562
56.613628387451 -65.237144470215 -88.956100463867 1.931502819061
-55.594814300537 -60.439422607422 -91.313102722168 4.568988800049
-91.221130371094 -47.836406707764 -103.223480224609 7.180724143982
76.724708557129 -58.729450225830 -107.294792175293 3.175827741623
-78.608840942383 -51.417991638184 -98.774337768555 3.828048467636
-65.707870483398 -57.378772735596 -100.073936462402 3.052184820175
-76.771263122559 -60.225383758545 -108.521392822266 1.720152974129
-81.198822021484 -43.807949066162 -111.351348876953 3.369944810867
-81.261047363281 -54.976943969727 -109.726325988770 4.238089561462
