# This PCD file was generated using the MATLAB® pcwrite function
# from Computer Vision Toolbox®.
# .PCD v.7 - Point Cloud Data file format
VERSION .7
FIELDS x y z
SIZE 8 8 8
TYPE F F F
COUNT 1 1 1
WIDTH 793
HEIGHT 1
VIEWPOINT 0 0 0 1 0 0 0
POINTS 793
DATA ascii
-147.474091364621501 91.890641395776896 -187.017965614054333
-13.994968644315737 91.184666667404784 -184.289148398488436
-155.481710141005607 93.766099369441847 -184.797760813266109
-144.570633617468303 94.597482092721037 -182.749527293987711
-15.026166476105118 95.786899786670133 -181.988675052887913
-148.277122411764566 88.045336571961968 -182.354172344764606
-125.208993993479183 92.740671991900086 -182.692013818121382
-108.439010667706611 95.935435690938093 -183.390356433233933
-153.277443294492116 97.687235831750570 -186.531694914723687
-22.158375406356750 86.580275636433697 -181.841844600800670
-146.941927988849329 94.561251033625723 -182.792479739994860
-145.145904449088675 96.187658342125303 -184.667676250033054
-120.529236012229035 95.753763598740619 -184.973362290824099
-113.795184249807619 100.812671450320565 -187.754356671100737
-13.595973083675489 89.700834310864551 -188.551679759188772
-145.021071371731807 94.048078879333545 -181.599042520543946
-23.685465988251529 93.360846289967611 -183.569975670714285
-11.246853846215210 93.654454977582503 -187.619325444535292
-161.279318862928108 98.305624845990877 -181.794495183366735
-128.938002258705041 96.961558958951485 -185.862828949512277
-140.304246758430224 93.290939474944935 -184.343940900657600
18.866463751720474 98.739077152777497 -187.299423660535012
-128.069417147058346 99.371839097466832 -186.845058561694543
-148.023618638349376 97.942680938007243 -191.603009980604810
-164.201310110557472 96.189489884158036 -183.321147482229549
-149.050300247721509 98.646609239450186 -185.547460767245866
-145.765396300242713 93.922039854041898 -185.732226445540505
12.479953702451173 95.323226513586832 -182.489889201912348
-153.729461333299469 97.929417573323647 -193.985882071858867
-20.608828321672000 100.383988756732592 -185.668286951678539
93.205447928884297 95.985983238190286 -185.106190684348917
98.048127193352954 97.031347585618448 -188.012409817557227
-158.569618366122484 102.653525957829302 -197.973120620264694
-7.285791338150784 100.665778088035225 -193.122472395363701
-163.717167511484320 100.067003655960988 -190.849990395075253
6.043697596935741 104.559519960204639 -186.796048178416413
-80.162863067992262 101.871292980311381 -188.239787572938951
16.617248631483399 101.339292718622389 -189.555629234221357
-78.450710305595081 100.388575786503267 -190.531475794520105
94.301240604784041 105.121185600798256 -197.030316913454783
-84.704668599134436 102.234862242616089 -197.727462642292096
9.277961881351564 103.289612385923547 -189.902118048832193
-6.559834244689179 105.578019832627959 -196.526016019733277
-152.762502638477571 109.481754014107821 -195.495401763155542
-97.013567539063061 104.691241912331364 -192.162725185057099
-88.839309751329424 109.085565126465241 -193.706030248069908
-3.768752157571584 105.438516016309748 -197.759365973805103
15.782693498109055 107.405741163071454 -196.283095458030715
-142.980136995117675 107.244956151354160 -203.221159686088129
-16.197360862061192 109.142323544426205 -194.710009739661075
-92.766321665469974 106.802537199839392 -197.765556327980903
0.830139666293229 108.165647251960110 -201.106818506003606
-25.826560936928072 106.037669637778777 -196.534981506260891
-11.097774745872155 111.431251412421119 -199.958678885762538
89.332356437959021 110.562921726340065 -200.024170112384809
-23.953499698243043 108.519224181109067 -200.760469981908244
-93.838626042990825 107.239114492828307 -197.491793638809725
-25.255795316367777 104.007652065298728 -195.654330707301966
-108.397749349348402 107.026668677727713 -203.759501786936454
-17.192130387364998 110.491338754225410 -201.284620633568323
89.532672744283943 107.954937977004334 -195.322911749870485
81.246630903665675 108.628686802409419 -193.621549550807714
4.510074546626331 110.876138337349659 -201.002826043281544
-97.807385133119368 110.025982379956176 -203.005620120196937
-10.760423088902714 112.145947796691260 -201.306480292667942
82.777655607178275 113.925432382763788 -196.427650031340477
75.186257162433535 111.559125108692044 -195.765658721268665
-124.327239621756050 112.267440667022697 -195.503122964388012
-17.457577365960198 110.209803589676980 -200.582511291073189
12.822759605676266 110.691713425373905 -197.371526807117675
87.321860085575537 109.006899370458200 -202.634614436471736
-145.089723043093102 111.957441370430786 -207.848998934596580
-103.253404910896464 110.793388322490401 -202.647108411884886
-105.734216950534190 114.434370165605188 -202.736458870479794
7.564960828385885 115.969084585916150 -201.212663500944643
-166.739636767679855 112.677765551498865 -200.317690225807240
-132.420456751138062 115.434719741675238 -207.063369018317900
-8.570549708722055 116.393798574393742 -202.348585612534180
83.422911949533898 115.424215800083644 -202.803707839256788
-126.465058793734372 114.645382232648544 -202.025733807994186
14.256931198748608 119.590772011403132 -207.966255546242479
15.050331432494755 114.704627731231682 -196.427018746104011
10.715246255457579 114.269321570123878 -204.223484355208285
-113.526831768467318 116.353436066174652 -204.547163326313353
9.116470676857103 112.821648462335389 -203.201534096587977
-114.284579717013344 115.066228496466991 -205.224810973616030
-11.920805741718281 114.374995900221407 -202.705262319914709
80.082971365990616 116.122576510374287 -205.488587967035613
-13.455708244366573 112.169492371423303 -204.312821117375478
-14.410554025208530 112.061703867878805 -206.936168686578299
-4.848805512562641 112.076648194252414 -213.636585509782975
9.682952771601309 115.543711858536938 -203.862770685294890
83.537098576123455 116.566508146233730 -201.589275057993405
12.468152094411224 117.811552804125839 -207.842291195866579
-122.317630212188391 118.389182737738665 -209.373118396179052
-115.090080268595685 111.589635559377186 -206.522148240236646
74.791887417880133 118.824007973452609 -206.522021598932952
13.277493219807315 120.619228343293514 -208.780631052524996
2.471863093233516 115.565073113471698 -208.585045275172661
75.596879034894883 118.706786086374706 -206.454258572099491
-143.888569178813725 115.937410798362237 -207.690766793355181
-12.927487278662543 116.276770768157022 -206.298756573859208
-11.869102508010078 115.314882217829876 -206.921555858220557
17.114137320454361 118.448442724085638 -204.677875233161075
-4.555739821847865 118.291039459000956 -209.847991990098848
21.100724868435130 118.455096706581017 -206.523971178006462
-13.013313829282334 120.281999396316422 -209.049150027334633
70.703839040716133 122.868602024009505 -211.557532597607462
-20.527683989411656 123.232459024120445 -209.886864184595964
-5.689448495173282 118.025284834933899 -212.591869304065341
-1.019971615866690 121.255790929850917 -209.221173003663864
74.865361667670129 118.997133377258862 -207.914497126483298
-9.083756090169292 115.619282980597404 -208.266255174945712
-16.512737394068573 120.238854975111195 -212.139781224814840
16.916991939964639 123.338079646456563 -207.232109092893268
-9.855453303864977 125.391460868869586 -214.269162450435232
-2.633769052482825 123.549986180666124 -212.411758956486239
-165.247172872471538 121.533073464844975 -213.169458373192583
-20.860930907101437 121.060146892936245 -212.415518109395208
-2.927377042089535 119.448096389334054 -216.220352134361548
64.923877532330991 124.893650098353760 -210.424125013283287
65.234685037775350 125.530505637332951 -211.336467829290854
-16.416719257886918 123.135168547463479 -216.397344832669091
-7.572918870397792 124.507392809703134 -218.409480714843170
1.877892708447749 127.992670640252172 -216.539339407162629
15.600834037114057 126.208678516279107 -211.120172753357110
64.452580476811690 128.098246187081486 -215.435547119053666
-167.064400617993186 131.217925152842724 -215.803103281420931
-63.608497397576180 126.647284392017539 -219.288040533855849
-9.205119967611761 122.759910301220614 -213.313878970545318
15.442230133339210 127.270677520963332 -220.254054963587578
60.833185955789276 126.831796802415582 -213.513842239706406
-58.916604435956614 125.041037315297515 -221.332738027821790
-144.297862130980945 128.402584732266405 -214.799864339284056
-68.693945803773204 122.886010200792754 -218.574014493493564
-67.591606444566153 126.784298331922145 -220.296324070668021
-62.336255072730737 135.665962084249458 -218.151447739563537
50.513597550795282 131.784766282338182 -217.130830667369054
-81.364899671605826 127.716280689777108 -217.068616418420248
20.658743249832391 129.751141973083179 -216.767394629724180
15.731908127585658 128.061629370771755 -216.746412819427150
-63.922690939224921 132.164213213706716 -218.076477478458770
46.346054152134244 131.932962784913570 -214.554555093084616
-96.224018590207308 131.465640551528935 -224.437600060685554
-66.182460591596382 133.133347790910250 -217.412062015144471
47.057349144999392 128.774311884688075 -217.105801200695993
-14.450899713842277 133.900303109656363 -221.886551433817658
-146.229142271369028 132.983231240068960 -222.377956257881891
49.081552460765209 130.216954438937591 -220.620355305679567
-73.120763635812665 134.644655462126195 -219.570688363722923
-103.642114582397085 136.499134454547402 -221.458153953155005
-138.859251989691160 135.793984343860188 -222.216235870141560
-101.731072263757724 130.331314395563084 -225.488276806156648
-115.914125332314796 136.553265873627851 -222.419463203598497
-114.318088358880019 136.978865405864866 -218.797311898605670
-101.316317979114430 138.817411751038605 -226.793949443183777
-108.582795694336554 135.823952485965549 -222.255103025563329
-108.534741284582054 139.510550700134388 -224.730840448421276
-140.884270590111271 142.059723055658765 -231.207335148505280
-136.786663589244455 140.613606712669338 -230.313496348040076
-115.353715460036028 138.779381943220272 -227.063150045167845
-139.035017821598586 140.986967981157022 -224.865104685814686
25.455194280483390 140.071471745595801 -228.706283824597364
-136.371516021683760 138.824244323616000 -226.822973078960615
-130.166739475524764 140.851820191241757 -231.298693616567022
-13.645456229088328 143.507454360691753 -236.910409732294340
-12.596779253982085 151.814346444073522 -243.239369314462152
-168.463878154183647 149.732964366999653 -236.795947783186591
-146.401510727511464 150.888841825328541 -244.144647360378315
-127.919977321048606 154.733504743057438 -246.633578408911831
-4.589429312257876 155.307798226240379 -245.533968580216879
-168.934430855339315 149.291323844942980 -246.757198331008340
-122.479705874690509 156.142780130410614 -244.667889420509596
-97.385839189510747 155.338860409641853 -242.229503611636773
-77.576636349093008 155.656309981218641 -242.772029655925451
-65.864878101305919 158.194769129993034 -245.647187031726020
-58.351889005814506 159.923963898672696 -244.590780906501294
-106.060916228010484 156.145670718967324 -245.939464140056202
-49.725457004655993 160.411882164177456 -247.074122316943232
-43.900779225277319 155.661395953686309 -243.149671340642413
-11.130896540686271 157.916629420809443 -244.678206502349894
-152.854184026818757 157.153497221157352 -249.250394780421232
-41.591653472808275 159.273146058739144 -246.422036049761402
-36.139736010548930 155.410969867108292 -247.320708181266440
-23.539688867667664 162.546910349285838 -248.422594294026339
-29.339382733946856 153.988466831140954 -249.797079611064703
-30.253235833285263 157.983160247169479 -247.202758245949184
-13.844873060290514 157.051576073645890 -246.460944915511135
-42.042033221737626 158.112829735014003 -245.100431726077545
-40.014497698593523 154.575794669522793 -250.055066608680306
-27.621092612024917 157.967547638032386 -248.940135048737091
-12.431499321711511 156.871079094051936 -246.476000974357959
-10.989375940403097 159.055905370275099 -243.505291130282643
-59.742153957802898 158.582208238927166 -245.900391188758277
-21.647617298533337 154.688199820351059 -246.757424761873693
-71.444575159096146 157.530248284193391 -246.631486670148746
-61.241115885587902 159.705784041726673 -248.407478325067416
-48.735277983676703 160.269303131794089 -246.302227034681692
-12.239772834952817 162.433982749599437 -249.719943007303698
-14.625233574940729 157.529917788537063 -247.864310507816867
-4.503709167663042 161.086237996532702 -250.444154373838785
-0.325588196266111 164.232937055135068 -248.768593329045245
-0.020276439857586 161.439655068275982 -251.573822763169460
-105.217272486799047 162.590894799621253 -251.572811214958108
-93.162405032974107 160.988445540585502 -247.839589361137968
-87.416506716587122 156.278108280713099 -246.706645585400651
-168.021325540171432 160.282317366161266 -250.467600938385999
-140.146459393996395 162.186331982910986 -248.883459152351577
-120.492261216682977 164.324895422228167 -253.117982988774486
-140.190566913051413 162.372867027582174 -252.127347248259809
-145.551425030297850 164.249893344437510 -245.397304604341173
-152.104267440538393 160.345875724456903 -253.222713943655265
-156.616771205661848 167.164214227981290 -255.629947944748096
-147.403527819806214 170.321570833764781 -258.296581734138329
-157.615833085824590 174.355717546834626 -261.030256644529004
-147.888565510965265 169.645525626652500 -262.402720227174939
34.083782947109405 -34.116182537394955 -58.204039916348236
40.026912583452685 -32.537409194906886 -54.388567798972964
48.542656005619833 -29.346549485966356 -51.267027738434635
42.817125214794821 -28.924075263245463 -61.043931854675762
24.075072732842749 -34.045018208764176 -63.777089550942421
48.719572154148459 -23.543195184127601 -64.878015342402861
44.691997004383957 -24.687419390454991 -59.903326511408352
16.272399263757325 -20.776842785493031 -63.841042504316576
48.298252422773217 -21.988352583448123 -63.550139488117296
28.729249384809286 -16.068271480064261 -68.647861874847038
42.769647628505346 -20.932633341902367 -65.777495710823757
50.137540012216711 -20.083636222243534 -68.853119758102594
48.941022913138902 -21.262213663776816 -73.797975226280244
35.290710266700501 -19.549348796813611 -72.562426012703128
-64.591896915687911 -11.738246649741850 -78.959792901856588
-57.158060220131340 -9.391273043717781 -77.809380147706548
-53.108625935788069 -7.194559472923164 -73.482461009248127
-73.648819222138727 -6.297169151034321 -78.545519160579573
-26.197465229468722 -10.305270735380125 -78.782752382179908
-20.418110908433199 2.865446073975956 -91.571133342791995
80.974352548034645 0.705198945757473 -90.738508441123273
91.043486648889356 2.239570612607069 -89.674200171196631
82.413631920707815 4.960689810776842 -92.870239247209255
-19.178567392491978 8.475293953349416 -97.656073599726653
93.297682889630252 10.213297146089140 -98.700987026987207
96.703141182020673 8.664702664300146 -96.789162606944515
-44.050036431276460 10.897466906290806 -97.556724803391447
98.908539514694951 12.755282369166320 -102.352660479635048
95.495184722404545 10.732405569566778 -95.636611410678114
62.774415229889769 18.365835921071895 -107.059825528519880
64.182266409186397 14.501151485219536 -102.772131826595469
57.866129795759072 25.701436867448859 -110.729689498192812
45.692342209682238 18.061086021531260 -112.106171537189596
65.725539434811466 16.860782453735652 -107.243605253322059
98.549030797101835 22.920542464196455 -103.529774517956810
-59.639050248664866 22.877679826227244 -106.722089143398392
68.284102013325324 21.248667524856220 -108.686071269075327
47.777918282737559 20.374650973224831 -109.228678196204370
56.873847629417980 23.534659388658049 -114.629998149610032
-74.162659594451696 30.073796054110971 -115.782691966750022
-80.889301651564409 22.458269764576990 -112.349190866374528
73.222571102788436 26.733458457266060 -115.302076630571364
102.425628542020689 23.852539762865760 -110.167989635827311
78.790830761154453 25.895285636453611 -112.095632790586194
107.879002856476319 27.809858726729846 -117.890798626480290
98.953821756123702 24.534786346673211 -112.943940277526877
-80.202702252955149 23.982613440084073 -112.837453766520994
45.740996733626694 23.521207493718535 -114.801982721656671
54.343380994597510 29.492010522425051 -115.017137295306540
76.635303458938921 28.335299962237126 -113.626865967480683
86.091911633420665 27.343505834997401 -116.492585563815041
91.207716472261410 27.175121941144944 -113.721355057610879
-86.152623552997383 32.288858828897624 -119.092691541637507
97.968860959089483 30.059389370541155 -116.912993726728416
52.445609463316359 28.305567668379474 -121.609150662664206
40.025798956657674 27.643160975188938 -115.629028536536623
39.429854557882891 30.588555305597851 -125.781379524879696
108.794465848851189 31.976775643018140 -114.917232776225930
-84.560008158568593 28.730551611152517 -120.362811948792540
104.302925672760253 32.533297719139178 -120.269479592352525
104.867827658377649 36.226511289927558 -122.439222833218935
33.059378891693783 34.841480371122259 -125.805001838413688
43.634372907817735 34.167257752510437 -118.115177368513088
41.205116981178371 33.390497167665430 -122.426217562669081
36.453120941143638 38.613475816939243 -126.401003306831200
-91.217112029397953 38.633559247880882 -125.690586104944913
44.547377848489901 34.490012746824156 -124.677189933651931
39.421755675931159 39.518348653558249 -128.985697845831851
110.953196155847422 34.955514147106015 -124.701045862986035
108.673409612313449 39.333783293523780 -128.002373543496702
111.454187266180469 34.206230199595467 -123.404697112975214
118.441047833319374 37.751724609977046 -127.208292741954978
-75.460058282145710 39.613013869018744 -130.394884086672363
-90.565910019398899 43.859917318813764 -127.381720464099715
109.975721263980418 47.703113994067159 -132.832978862091352
34.553848018964224 40.760388928238690 -129.151923252819216
114.706657062356498 44.256392259861208 -132.214587755486292
38.582753362218902 37.565241139918662 -128.428209395262030
41.807487497196504 42.128369224915758 -130.907708901149988
38.307834982862374 44.527710799430807 -131.955915147836464
34.834996184339396 45.056980015863608 -139.444033829174657
114.653837660578276 42.584668082460027 -133.372825618823356
-74.803597080074042 43.145247902415328 -132.176265612778593
-59.647481656203624 48.685555822805348 -134.150730256935390
27.959510075640544 43.517700067153044 -132.541473335779870
-83.113557777922992 44.429656491876166 -134.913577601474231
26.792764378015196 51.911145661932103 -133.478752244533553
-77.163036252641731 44.013114128056984 -138.763635570660028
-59.049188745532369 45.310910667463531 -135.943892911579127
38.270294284128113 47.294701486428714 -133.906876845820250
-50.350436269795999 47.310734061578017 -133.428704698786532
-54.617393780055039 50.313021902132753 -138.206828223970319
40.256987890280300 51.199631482099008 -140.482663735447687
-82.037678871308941 50.694923843590523 -139.010753336605319
-58.143975925469448 50.577212673556531 -131.779661457236898
-52.494893802752628 48.877976256780222 -139.302309579920575
30.082986765747712 49.486467881261561 -136.550304429160093
-71.439927716459295 51.947832722392086 -140.716716435829767
-59.422994125261695 50.117635122800095 -143.279612839335726
-46.418142086976864 50.417256470126489 -148.019186520544991
40.006644086085672 51.647190198549538 -140.625157232231629
-71.680459885197735 56.742319249211562 -138.256966861874730
-62.457311567911205 54.561446671644802 -135.027014937246889
30.425100610606972 52.736517027186139 -138.731234472054098
112.034774197670544 52.502222667812397 -138.754293692210211
-58.380474608663135 55.878231558139674 -141.229977866973286
120.088725853304567 55.935737308377604 -142.352938881561670
-57.117903551945616 57.271879268523463 -141.090211565261910
26.983196976290138 53.049552842559720 -142.453248186199090
-75.504772432637381 55.785832594591277 -141.801203669876713
30.093208408634215 56.072762098077931 -145.209959670567287
-44.245424357595837 56.524414877964894 -141.309598505713126
106.954370203867981 66.097408250013345 -155.278201695528594
27.325624065303657 58.972841086365555 -145.874111505685022
-73.182550395269487 51.479036980080593 -141.205215183773930
-55.314938452952973 52.383559388890767 -148.303524538774951
30.955824430276035 54.658849832020742 -144.542063937004542
-73.323803320251116 58.191643626310750 -146.533797913461513
30.387748440699347 59.432231778408010 -150.692456717996521
-71.364067997827547 51.263756315776156 -137.648740641873502
-76.602836319057388 58.296669784949508 -145.593095847531004
-73.494477355131224 62.584326451126095 -149.102066379939117
116.804761548820821 56.312856928542551 -143.065676001905899
-71.058400041152126 62.216415526623273 -148.272833009810540
-41.415066148074516 61.238992710103069 -146.555750227337228
28.469851277409582 59.197585178088502 -144.183572095111685
-70.756930034741202 59.867185184116195 -147.329920371928154
16.996845369303085 61.328222174326235 -147.220240282536366
36.270300565389448 61.339619645194986 -149.839905816556580
27.578357635393594 66.406271389798022 -152.361192459831841
28.556556277155664 60.522106648339864 -146.531050480881191
16.059912247691983 64.222392090337934 -151.682567733373105
27.222883517341817 58.149142377664624 -144.632143739368502
-51.935588735462993 63.644463767441529 -153.615402469189974
-47.969399389257028 61.668375784955551 -148.336747536828966
-62.997961837191433 62.756504199686873 -150.143565891742583
116.364863292789494 64.033913302407058 -146.508432105219526
15.975065301593448 64.115734092660134 -152.386358499332630
30.325325036594819 62.995261326605011 -151.975456707821166
-40.465402913659247 60.082468009904240 -146.457023893216899
2.521580367125316 62.414454091544826 -153.571892068594281
12.742997592534458 67.735032127414030 -154.243856936182823
23.156163519559723 66.782151853130912 -149.158348182438459
11.080111644487816 66.053420471603204 -155.159718752915325
-43.485465396224839 61.649322016587625 -151.618504144132714
16.139429020169583 61.310687445985266 -154.123090045314342
-71.871622529264798 67.341518283440934 -152.087888314085063
-46.074999423093821 66.409932829761942 -149.386114545959543
-68.865576926915253 64.423884477827073 -151.758635554796655
19.162271191332039 67.542437520941860 -154.120459119328444
105.272846337896837 66.299045127724980 -154.871339882969778
-68.422799438707017 66.490965147524491 -152.028743250525622
-50.758246422532501 67.429607204919762 -148.009671015388022
13.793123170340023 66.202126199801725 -154.591410982043811
29.213993647333655 59.916745125513856 -149.951109213326049
-47.262462956729451 65.177711223136598 -156.731951515832037
24.603664271202877 62.783326526141018 -151.757799898831166
1.237068335662513 65.635758217669391 -157.528793546908418
20.975007957715608 65.124057940243631 -158.248328054093861
-41.013440641793110 66.280184848091551 -158.885398709848715
31.663370578773677 67.136000828481968 -159.460994491028885
-48.057259497061516 69.087578902903516 -159.321604771463143
-33.522209747352228 65.806422858834807 -156.377668771159051
23.125748403613557 75.231617083214772 -160.020452873149367
-43.176106977486960 66.485620098989841 -155.863858614053555
-37.177565415215561 72.907289914538609 -163.581898647681470
18.001332600121991 70.617674232743042 -158.576432096103247
30.046882848538701 63.674278830613979 -155.410157610082422
-43.553255742301900 75.404758200741639 -162.403265386531899
25.548921738429652 70.970807052651168 -158.121567440813550
29.219924519033537 72.432414875291286 -161.132046122642151
-36.772938586371836 74.962206589605827 -160.291539599983508
23.301953850349733 70.539977857445336 -164.566508769807712
29.030092670366567 74.373908346054407 -163.355044545559991
119.137177543755755 69.932529542781324 -159.749173359356149
-41.517696930643808 79.401429544121370 -165.514468995870942
-32.754030147131708 78.382005094235396 -164.815296617590178
30.207069704128529 77.330728065475000 -162.365045743101035
111.756455506726255 76.807125596024193 -168.779757356310142
-34.194024237854798 76.905632908187471 -163.982290389214285
-27.168107922427431 78.170031371898617 -166.145899176955083
106.883192705453951 78.301710385121879 -163.426887549803041
-34.598431173541009 78.129879489257931 -167.577909681858642
-37.186649478352891 79.926643520679249 -171.933940218258414
15.194873873960034 80.709228772583344 -170.754131087152103
-26.746250679995068 80.255640946918092 -172.730370282898747
15.995576879582577 81.200594357722679 -171.878661590574325
-25.432436811552016 82.027415004344832 -173.049225204948925
106.209482432618927 77.998898936228642 -171.560793149794620
-26.292945042050768 87.046684106651853 -170.909302144495740
109.380746684096692 80.120629238137425 -168.941590430580874
-32.141543441612257 83.918288794225376 -169.883655357436680
-149.548886089407347 88.394082928098513 -175.066561138355553
107.537223060997277 84.790664771080003 -170.768786043700743
-26.043612535806531 92.041273458165705 -172.487242637019619
104.394760737727850 83.794855096266232 -174.800252408912854
105.031766310759608 84.712461136880137 -172.911985415537373
18.597105238740848 90.021699761949890 -172.901143381785289
-27.994481984842807 91.641362664351149 -176.440660396462874
-22.383310099627728 90.807117238792557 -173.994035698103318
-24.085252669014537 88.301682545472602 -175.260868266727698
-147.879846973282014 92.538965851241599 -175.232217529658442
-139.205746962254807 90.062843646272768 -181.231259846741068
13.168345590233347 89.620355261127088 -173.585743098399973
22.509557354451296 94.695793265841843 -187.093118783649146
-111.137675377347890 92.304026050836356 -179.374749823765967
105.984210015182555 92.016168875331729 -178.105449371546143
107.762058122793221 92.346889842208597 -181.041373510873257
-152.019478644239001 92.332839948483937 -179.325909377607246
-26.048050933997526 91.575066648823622 -176.674513973116035
8.317579253601918 92.932455430722626 -183.379228754294616
17.225691886995200 93.383201999838363 -179.979817890748279
-122.478281532406371 90.792601363887528 -182.128932835896279
-118.854634455207901 94.433164770078648 -179.956672461356050
-134.256855827708620 94.283015432502268 -180.773467063423993
-111.227083096627553 94.938112474761425 -180.503045158473583
-18.606134921927726 90.141065313451392 -177.023751796299166
-113.244496852324318 91.644174921641493 -182.251286697147208
-112.112666597608282 100.578504196907730 -182.301082187251097
-15.401070563582406 92.610630050394164 -179.944379130262774
12.094230597770828 97.085490546409318 -183.578770483426581
99.084129778648503 96.829872119340621 -181.974718205900871
18.043117234792799 99.681545979434318 -178.835752964846876
-163.064461775027979 97.650657547581403 -188.558482644104544
-15.471586085529566 100.091106664343386 -184.500275012545870
102.305725146734616 98.871725148061785 -184.909108658567533
-133.151171741836407 97.456315117577944 -186.594043414569086
-121.729808719119291 98.937166881583963 -186.441827946481112
-21.693442275711121 101.785618931759785 -185.793204188803543
-132.117229445139600 100.401570452847707 -183.887618143620557
-125.388305743754231 97.067103068507677 -184.346736178779878
90.287959040590124 92.568268384274162 -186.096604182696552
-11.567685613975886 104.002161146508058 -187.848508013072745
10.374081721869109 100.947347400729157 -185.807634542332522
-145.815945287538057 96.980918060907726 -182.831783336981573
13.981000655564301 104.944884582326424 -184.559273757266027
90.534491450193372 101.053848865154080 -189.954685725755809
-169.757572416623759 100.521238363830278 -183.044164500650112
-9.527918431185540 103.609061667920713 -192.156204348946289
-3.592002197178073 103.211693352153105 -193.710770958531640
13.417000464565003 108.078332298458918 -193.321964150983717
13.081624625552138 107.003110694971866 -195.339428109303071
-97.221139189712943 106.026745077635965 -192.849971049940450
81.009530189918948 108.052688368058412 -196.400505048625035
-91.793570589528741 108.637988875423972 -193.931323270002821
-90.591774672768281 107.102144081418075 -194.349682186373172
6.092124086112506 104.305065475237626 -190.648946950871220
14.944062692185199 103.122528881282932 -196.401125345208953
-15.834074153752344 107.919145220721845 -194.089297062752877
-16.732313760142958 105.667291860123385 -195.456171276985174
-87.821443707646722 107.436677948921428 -193.934590833761661
-98.887464109517239 107.331419192006052 -199.389721003386171
15.596885668988842 107.399440967642960 -202.726366581080697
-96.392533153313153 106.272932997142576 -198.264668269804702
-1.269318183515484 106.684797348942794 -198.888206556655575
-14.909202093962335 114.734468307481094 -195.996335521034496
-0.401096911940934 112.091878135235291 -194.824694616638510
-160.495107264825691 106.949153138044338 -193.189650131582283
12.897193415322036 105.663468441182104 -197.957456425310966
85.822952051292617 112.872189322590401 -200.271524435446139
14.751324028692318 110.289924394104446 -201.423252307843541
-146.623884027286749 111.773914745632112 -198.145539296321061
5.952298266242533 113.682265732137751 -201.788702664902416
-130.757965292695616 112.024043829504706 -202.252827515842966
-103.456174567710860 112.743020750269608 -197.332839795145645
-16.092655625309785 106.518681473423484 -201.188714984796491
-119.000165867844999 114.049573675714043 -204.420858763726841
-17.411228658264008 114.449558785236121 -199.329019594582746
-15.205523300964371 115.302838022546410 -200.709978819646381
-130.128841015038347 108.385888559584913 -199.331118280852394
-114.990545060735627 113.031065052000443 -204.242862416187194
15.686825781182284 119.037091193069614 -204.222167791926267
80.544540572018732 116.907895277196090 -201.367557304344643
9.116902084436864 113.519210196236372 -202.037323959713120
-169.217734099741733 114.081921689503162 -208.540674654976868
6.135755492255254 116.057685654926132 -204.489829191311912
-108.678079373773841 114.959113345870207 -205.676756586961687
77.167710721110339 113.775678217583646 -202.227218224261861
83.078078838585313 119.143935438208032 -206.497800593925092
-112.480946049484970 119.439249626115924 -209.377297350450760
1.585111794797739 114.265527882390870 -206.208352341004684
-123.890343545563780 123.438785908265686 -207.915859183118954
-115.928065385909761 120.308114932095222 -204.495541763612607
-5.726806541097938 121.900094553855951 -204.594084743782389
73.906460671841771 119.512267563811918 -207.736260168549819
-11.585014338230529 121.369602176252883 -208.428141062860163
-142.386902175707206 123.894535081265985 -203.489105580852112
3.595888551917152 118.818949893208909 -207.297493277403476
69.205386973319065 120.991008389686556 -206.302059762798109
66.296395887729062 117.877016883202671 -208.778314148760671
70.871367606718891 119.829367013437249 -212.126625321078308
-131.629404004517824 122.202690118341977 -207.828457765470404
17.775836293507627 122.373092156671646 -206.778552227838674
71.843696020218090 120.472345124625534 -208.205051821626029
-4.393940551826032 121.083357937746229 -208.738350240127005
-3.646128745176903 121.359606344904961 -210.376038939684946
16.606737144392625 122.995378999831146 -205.321793839309805
68.736000184407388 123.407211307221246 -210.862269406228620
62.618076548989997 117.907273165293603 -209.742925592038944
69.288389195395254 124.690651972272917 -213.459334084715323
-172.875419657838222 119.205890275137321 -210.965746095124217
-143.578929462706554 117.807407257237543 -210.889316916789568
12.934138749275574 124.000180307303296 -208.703261630246601
0.203372055270391 121.063956391392281 -213.357878970108658
17.765068256038287 123.902507419384222 -205.647876891084707
54.515487606606257 129.656079740085147 -214.039514210831840
-4.239023002895520 124.608318054840808 -213.507598169754402
12.854402831534223 126.143630911540953 -207.790800043977441
63.501740562173062 125.718669121103574 -209.915818804881837
-19.622921683168791 131.618831704427862 -209.644997021096060
12.118358757090258 127.564710476276389 -216.670040845824730
-10.861523734753872 124.201833239839431 -212.893375834638590
0.054433711697415 121.218009159964893 -210.203319875426786
5.726475692907401 126.559651256501098 -212.022911126463924
65.071196847931716 127.059624531552430 -216.736865114936052
-11.641121816101849 125.745237955455451 -216.566296270505262
11.080492216832658 123.434829488148893 -211.732002685958008
-147.842319887562951 126.366049944625914 -209.187467122690748
-9.515782519954088 126.954639517704450 -214.287801606958482
-167.280740506465122 122.602235070889890 -211.807131276369887
50.883241511386679 128.355332680726178 -217.792579358368982
56.374836418593603 124.363016403164849 -209.815016583046344
14.936521396662330 130.770739527537472 -212.352812141957799
-167.349716299125106 127.411091254288408 -218.613045037931698
63.939663968202545 128.303371083726574 -214.918267959272157
58.387971782421673 128.527480612806301 -217.251686490428426
48.057133524618585 129.544837991720073 -216.121833788129436
-71.257354418757160 129.977666389490253 -213.109683627685541
-10.504042345543565 131.085725256234440 -216.639209041303019
55.803376565420407 130.177385838197893 -219.656636159211246
-69.373200814739690 128.089922353298562 -222.233814455334056
-70.359080489359215 130.532269870238764 -212.283549800309373
-71.593655595136752 135.979476872977898 -221.118567014652257
-88.672181694034094 132.286084067030799 -218.612514506828973
-63.714558932501006 134.312590005951762 -218.515274915800632
47.636212566728105 128.034930061738720 -216.614586592271394
-91.467173028741215 129.510019479760842 -223.035620810481873
-80.814223645131321 135.568849223374059 -219.604849827157096
-127.880495643892715 135.763661162251680 -218.727979747976320
-164.309525046584298 129.176426643356990 -218.521185412739015
-136.848405027154087 139.122771686222990 -220.282980976063214
-79.868127625523485 132.780814747047486 -224.165745934519862
45.159091625442798 133.054422546102643 -222.183136167401670
-134.779899096327568 133.674232474270099 -219.374322178005400
-113.283235825582622 134.995545587368213 -224.175681216775899
-84.915083147116718 132.420226432694164 -222.146003208492601
39.270487385215759 131.722060623409277 -221.233515498749028
-116.478963278076051 135.763586355470267 -228.378647233048156
-87.269253482935440 136.701193103709500 -223.953212312711941
-99.685550735994241 136.475736115092730 -226.651795928718911
38.700300259270328 135.762753947021508 -223.847670407382793
-14.753005771945881 138.116780708002238 -231.427159658830504
-106.450852963841712 142.659814554573444 -228.152136184653557
-144.356785418024259 139.478085599879080 -229.761282960965985
-123.628132465516700 138.817246349362790 -228.746897642211252
-155.946600913778354 139.504172236410170 -229.490051308867606
-129.820246162542986 140.660830029423096 -231.830548176360026
-165.630659120832661 139.259222231110073 -222.097352176701918
-145.236332670017845 145.796209174000040 -233.398617535714948
-154.642401421830101 137.753591038824055 -233.414393297866553
-14.037340906837782 141.723469780796279 -231.248683069231731
-165.803358011969806 145.112502744418322 -233.641314072894858
-17.807898045768379 147.479988552619034 -237.317956371213882
-154.356170738252843 145.099153299701612 -235.726840241238079
-151.231281239509883 150.817028398951010 -235.614606221062729
-166.314350372234316 149.859347359980006 -235.645279927900532
-159.670168954668156 152.362858707373249 -240.489856542338771
-13.490219404623149 152.849011972049595 -235.849367991606755
-159.274260467089391 156.004203772027893 -238.805454175630416
-156.073998175443535 153.466943248782144 -240.099989452284660
-133.871894003051807 156.042115835286751 -244.998582037156865
-158.156912130418078 158.621447250395477 -243.746616305113520
-146.080984930695763 152.205707314442321 -244.793138911335973
-136.042703897356290 151.130764873963670 -243.674485500815393
-14.356564458564579 153.823407867627054 -241.871255552154082
-121.045426709828192 155.129085608306468 -242.242180972315055
-143.447345245239035 156.048391713997177 -244.090960000960735
-138.987471426671419 154.845240774742848 -242.687515587457796
-115.447393012345543 156.637172756299918 -243.712628965093955
-95.680258341881427 160.966199252381188 -243.721447206496094
-76.885568619535889 157.696657305373407 -246.788304437707865
-77.658210430534837 159.565786751649085 -242.685371595835591
-64.292972503008755 163.717377947694757 -243.855800784199033
-62.030294046868782 157.144123974051240 -243.569447971918038
-56.579281616775582 160.211405617188348 -245.646950111718780
-5.213263606433356 152.766805839815504 -244.615110377553634
-49.495031114845261 159.232918315069270 -243.611738701692104
-52.963848074035546 162.671784981063752 -249.326672304879025
-50.292482638912787 161.113161700600898 -244.163581574537858
-70.520227105041940 161.671774784518050 -244.513059639921437
-59.206594939010607 157.521053319781231 -249.193295084267447
-62.303404410608167 160.976078927599474 -253.753021255096940
-91.444437743085643 161.109185619615687 -244.208748680182566
-85.330710531393819 158.596863937794154 -246.401729604992852
3.702725279401230 163.506002817655855 -248.944198386346727
-99.992901794948367 162.770486501518803 -245.997536185683089
-125.239813180302150 161.858302584332989 -249.643132933027232
-162.143287562737896 160.493905685348324 -247.616542341750602
-138.236943741847853 161.302338310839218 -245.737350033797441
-162.814065953092495 163.621701533279008 -249.791748683499691
-125.473768477117545 159.705719443979632 -251.297430125197650
-126.752769874896359 165.361506842457288 -250.689165066484804
-146.559015769503077 162.104065077694713 -249.984556137285438
-157.760434155518510 165.352958090682989 -253.251997341606284
-155.127751043411791 167.686034688757388 -254.834446890178810
-153.145861858707946 169.828870374274914 -256.566270509327524
-146.063242590000584 175.773712518297430 -259.495351211006039
28.541397511877626 -34.441482929527851 -55.068968748004608
46.042482632555242 -32.510584259978273 -54.071556326069206
20.733763641505682 -24.371620812041549 -61.984949408424342
40.834986798668496 -21.964228729814803 -62.140330569560717
46.847637754607412 -23.712964664765046 -65.897478813702250
46.056723299766375 -20.543068119212052 -64.583967004379801
29.317139535041179 -20.123757820233518 -71.082123464864367
-54.007183486615311 -12.201631956727191 -74.548276448399221
-55.588628073902903 -12.206248785568569 -75.233553628329943
-63.868209804097546 -11.043675946487920 -78.507323318498052
-68.123045911434957 -9.122757208820708 -77.502446062635315
-90.685959661987653 -1.196548119267359 -84.444090000294338
-14.153038484346515 -0.054257474201853 -88.825322603250328
80.382937242725646 2.450116633084914 -90.180577481271655
83.762018807568978 4.888107435886602 -87.689640451838230
75.625595098629802 6.570045065044227 -85.920637854219933
71.035136449831924 4.069073029355806 -92.529022175083497
96.388462522159529 2.249410979612715 -89.515237893230676
94.223720535245477 8.733581454739355 -90.565882060041545
-94.321164331595128 1.165998928223236 -94.394980782687824
68.174774581701328 3.788244502521080 -99.036464869360586
-94.607831352376422 7.783321449681603 -97.820153565939933
-40.360327243316249 7.341352715799948 -98.379969270339444
-29.884551686149571 13.347423577932823 -101.409860400990198
-43.868464773685027 14.867169991697832 -101.313583087965981
-92.972869351957456 21.869028524564367 -106.895103175631832
56.768283422090448 15.703370464156047 -102.087706965129897
56.578830445531210 23.804964443795846 -99.225497304038299
101.803829108935432 16.992361699398330 -103.464459254936472
-58.722341028090099 20.957909517184945 -105.245492952155644
60.043749436680024 19.932376638822642 -103.163970395619742
98.239683279557582 21.233691977889091 -115.538185100014786
47.037577233078721 26.734606927018845 -115.959460130387257
100.414783749047459 23.655626178942541 -113.477559576731934
46.815820700959485 24.014619108456888 -109.300412699882443
101.978840908120091 19.434806095539233 -110.220454299253262
61.374242818774768 21.275042539411558 -111.762504469053212
69.488162000981134 24.828324268124387 -111.988823316867652
107.535222873551106 22.265334978794684 -111.183031202916411
71.014599718443662 25.025152548029585 -111.068045686202709
-71.338969415836928 22.215655599490283 -113.370122632953709
-74.207345439315986 20.063773159268614 -114.100588317370452
56.901851398195326 26.196063294066001 -115.392790514676165
97.806904240004712 27.841987068866860 -107.726025398169597
108.197208069189173 33.006009234221381 -112.169138661235664
105.769894049310324 27.426658928707248 -112.207806559838815
77.290293829886764 28.270980776984757 -109.420957170390039
112.043410785678788 29.041442693066127 -113.280663970296004
51.380377509181230 28.377966254968165 -119.422471879728349
89.810088787069077 30.666475347192840 -114.034878536655668
78.129058306136642 25.567293570807749 -115.002086406226184
42.096492897141097 36.468242897215788 -116.233613536570815
107.666284746220853 27.028921265970123 -119.524363935679631
42.515608488502309 35.285360778131185 -124.445747336373927
47.068974340081418 30.360134531257554 -119.390492402215330
-75.142343643651103 29.652237478309644 -126.016436695888473
104.606688068540038 35.835601874676009 -121.154841498335571
108.271074675878467 27.679763575033171 -118.885996588910658
41.575336577598634 32.535027646668176 -116.018343843448790
111.215380509683769 36.466831677364254 -116.085241909544450
44.834214580100699 33.134215834468165 -121.686174453224197
106.990435375996583 35.220867224101568 -122.770483609050984
103.558402181769850 32.865964237965365 -122.599803576473789
-80.959885564479919 34.482182720960651 -123.865376287719840
-79.642567059719354 37.957170922763034 -121.747534057300356
43.628259355091082 40.403232495379783 -125.225200534728316
-80.761196810423655 41.447290845081447 -127.427119426847810
41.913988202618633 36.322251670372971 -128.442912781178308
37.110993838783898 36.708272835058551 -122.053152524880232
112.589711411277520 36.460120119306467 -123.135373301600708
117.307163840386792 41.496964671588657 -128.809406692094683
-78.111396259282827 47.319605005153313 -128.672813209958008
39.442660790184242 47.852410544163284 -129.129398133750783
107.609283664933201 41.414144994143825 -130.662347941020272
-82.887731179815106 49.240371198466271 -131.865909025220105
-78.433006408395769 42.553942764854227 -131.910380539266328
-74.168461539770689 43.731160797334510 -132.731175822171906
36.514659373369810 39.856976396188486 -126.495692698381760
-54.030150716054997 49.010184708408524 -130.568217158265156
-61.965685798970078 45.949572646348578 -128.384171221250909
-54.492826154262062 45.458947213068420 -132.274803010496868
-86.593527079664526 41.575174575159274 -132.191611955941056
-75.385032840031016 49.304076540660134 -132.073229727222696
-74.289712395106392 51.322261949601923 -138.127558440448695
-53.820362212453752 49.708501967682444 -137.229167629756091
107.793951745636775 48.620303814803158 -134.008275745639452
-91.676561465605147 47.699981835089474 -137.148292217742380
32.077768544630047 49.597467536802810 -131.548096575065927
-74.434692363736715 49.949409851363960 -130.566546500192402
38.099201295996536 53.376679487018535 -136.903090168992406
-77.525737221509274 50.722650254441682 -140.836272431957070
36.679106893917094 53.727864629794851 -142.417834531602267
28.724780536544550 51.759764906680388 -141.323879105056022
107.145313819849036 56.062962401789115 -136.116224091079630
-46.711070675086034 54.139302724423892 -139.596203461842748
24.274655381435110 54.986318240446778 -139.128082850759540
-69.138598092342903 57.270183481782389 -137.386449805582942
-70.099987067504713 54.158405113135593 -145.291426229163108
-45.535609853073062 60.378447373148724 -149.677110047487986
37.427341058505817 59.428202570188482 -142.827382691890193
110.571001557967506 50.127560595327317 -146.714937310788713
-43.424610866916133 60.181098374590931 -144.779544523364990
26.110600138402940 58.626774874983802 -142.851176282185236
112.471573478163847 55.851278908083977 -141.547665208349827
30.312876926201092 62.599985559734812 -143.711936417322846
109.364176422928992 57.798253310168867 -143.955410677664020
-52.016427950533775 55.512626999040499 -145.294690572654162
27.176588426961946 62.719394817585325 -150.800527021158075
-73.382073071903406 56.105434833281137 -146.150979353506870
-53.658914005678525 57.968858681026745 -149.409864927063182
-66.066001627502501 60.245030285322883 -143.222447918816044
15.849628594134396 57.884353595463281 -147.945349439978685
-49.640921120949216 60.289222276036696 -146.306603122758730
-55.563569758313619 59.905576527693938 -148.006951459420520
-50.610466134198589 58.879521698964126 -147.435216374646160
20.845788149944777 63.756956570909743 -148.766015592637729
115.030956871668508 60.957711809310219 -148.555060128362186
-67.437758564899582 68.200027726203075 -148.445814932157418
-42.995563815307932 62.451872610497951 -147.127581187191993
-68.198218949960676 63.468452911068717 -149.188964663052474
9.805027684443283 59.535382554694586 -149.616560648757599
7.440724554181781 65.052316682634995 -150.080087564752404
-44.819317596200861 71.628662660298687 -154.849729284875991
-52.091193434766410 67.590254936937939 -152.412599772243652
1.117561791123336 63.772341645655580 -150.070003567642402
10.372366227912986 67.492106969258941 -154.225048551855224
113.321648977463653 61.629338135458269 -146.538115916845499
112.549488890016022 65.542447446952337 -158.240880136886489
111.739111684928929 65.899549787910928 -152.740305779856840
9.278721266804165 71.778176399490476 -158.391036444632192
7.230157747759328 69.401679946982952 -153.035636679507405
14.366255447573131 64.847875134535428 -155.702181970063521
15.074714872450746 67.354756014372498 -155.837905872556433
22.293256102227932 68.126963395271275 -154.166466521633851
115.365802337602943 68.270037400193559 -148.894934024758896
110.323831782816228 69.284550106533686 -151.372031979899049
110.518452056824117 72.258636928586725 -157.711550553295865
28.237674353355462 71.411921742460578 -154.963445811312113
105.921279338281664 68.287906596734231 -159.462085335211043
28.643502458334851 73.232251445275850 -161.078108222161518
22.801282788244759 68.513237580504708 -158.212574107989440
117.448937814462852 68.741698011479869 -155.799506431106010
111.028192226787880 71.118015013055683 -156.186191403294458
-32.452155420180034 74.436975752951028 -162.920731587222946
109.155753157974019 75.476212864425733 -164.472690892709181
21.886531364475481 79.018535091545132 -162.368788605140480
22.175829054062195 70.401691991463863 -162.210129846236327
109.878429256694488 76.043776324782883 -164.755996320794281
107.678490570024863 75.082461147705075 -163.307331628662752
17.175995669484635 83.971696473413175 -168.952733340377875
21.506446418770953 79.297759158145809 -161.769488263641705
-35.700633695843429 78.917094349400685 -165.097994580380572
109.635713014144699 82.717261030585504 -164.216001306919338
-106.081540003333643 79.426642299877031 -166.981556316341965
-143.123403627104608 83.306767326408803 -165.183504121757835
109.942275178001708 84.395837439776741 -176.003271147047684
-33.958398302715338 86.194008476026070 -170.492644165099506
23.533010596481024 82.821386369172245 -168.150894412803410
12.588101975059461 79.661334062207558 -170.149428323511756
108.567928494891305 87.575049531851406 -165.890842479236909
26.050626775323611 83.458440585117074 -174.147707968524173
19.466187216389908 85.346882513668007 -168.179550211762660
-156.871480680597045 85.420467585539441 -169.062566579681828
-35.457783551399253 85.940333420709123 -172.721522770744684
-109.593440017269614 87.570378960936850 -170.468973902797131
-29.672561766521984 90.283885029134609 -167.105769583968993
19.249037875620296 87.836776606925966 -170.701163859588377
22.216131774902738 90.642653891433795 -171.605693844952953
-108.113063531932212 87.503583185420965 -174.387205948411008
-114.486921252064690 92.160653700092027 -172.885290377413270
