# This PCD file was generated using the MATLAB® pcwrite function
# from Computer Vision Toolbox®.
# .PCD v.7 - Point Cloud Data file format
VERSION .7
FIELDS x y z
SIZE 8 8 8
TYPE F F F
COUNT 1 1 1
WIDTH 793
HEIGHT 1
VIEWPOINT 0 0 0 1 0 0 0
POINTS 793
DATA ascii
-106.163226437764166 111.694935635587839 -200.643135123478515
-0.392582541477661 109.627856293018283 -199.099536535552886
-101.970545993687907 109.199126387653720 -200.856119606185189
-5.661170890605105 112.527366985970616 -203.482974172679718
8.780217373324948 110.429844467118272 -200.502675785484342
-163.434849143648762 112.070058942980921 -201.746671527101114
-13.989188184600017 114.655673098525739 -204.882388309066329
-160.855393797800929 113.356756621725111 -205.309110546339468
84.737315367789535 112.573402981768794 -204.170121926522057
2.984572041213315 112.859936271799228 -205.077931897569869
17.369904680133949 110.938891718010396 -202.523948955937385
-152.594750937927699 113.145811875570942 -203.394153667155052
-142.733853715104971 114.045999507351127 -203.472287112100901
-123.371071547822382 114.091296314914629 -204.000799853659771
-105.576876733507078 115.000175684711863 -203.027324121764707
-15.574165216866948 114.780980387765325 -203.675417085689134
-107.255746027228710 113.583908849476146 -201.616732016359975
-162.258057513268454 114.182043919773051 -206.473652832701816
-141.455879394265253 112.795230338734697 -203.110884889431787
-111.356253753393958 114.447712460369900 -203.987893323612610
-105.302236649465499 114.873551149680708 -203.060512294617922
-15.258423830286162 112.712671558616691 -202.480641402276348
3.768153131633871 111.231725990271116 -205.008651593479300
80.363496933206960 111.788649335970220 -202.155192278288581
-164.732051757407760 114.082104636321645 -204.629331171814187
-159.954115534570235 114.878232215215249 -203.492105868995793
-144.050619029533976 113.883634997827400 -204.515038880839313
-121.983807507407860 115.601350672320706 -204.216490247500190
82.956946219192744 111.328716918746565 -203.916822867180031
-114.464712430756990 115.575806141516480 -205.973144194266553
-149.178020312002076 114.732437805819544 -206.564437971009738
-147.869241221935397 117.566170596109330 -205.145822327448542
-146.099488168695558 117.054853019958287 -206.718251129584019
-121.808852694495343 117.400280366403777 -206.332436542110912
-8.705799319612014 116.644134171738898 -206.972052508731394
-152.913830951135907 116.272221902660377 -204.558607346590207
-123.561496996712648 115.983773709624302 -208.714642507145101
-10.572682932267414 117.692333225355384 -207.159446924832849
-165.832309097498353 115.652827798315244 -206.389816497458639
-139.445128598132754 116.502829111364946 -207.125002321294460
-135.715502765754820 117.349221210844291 -206.371627011899619
-153.413784081973034 118.172395480708531 -207.472345119792237
-133.161266769472832 117.965050802737579 -209.261290274224535
-125.977929448852890 116.436930025479413 -208.438917050476448
-154.108940205581519 115.841991868609156 -207.069851047769760
-142.619510323578623 120.235629441314160 -206.840363542356414
-152.167607635161005 117.631238276630668 -210.696400278794897
73.872198188247566 116.966504474456272 -205.462140845036515
71.547745373423425 119.314165079189038 -210.358934192841815
-159.847046202059090 119.309283491574845 -210.149539031973006
-151.167390877724756 121.149485918613323 -208.948410520748155
71.895201119136559 120.234497851274782 -208.485731913634368
-17.034186361955662 120.431368383703514 -212.294339228588882
-5.469816539486295 120.082482264965364 -211.258516012332706
11.050699054841811 120.810321392432854 -208.600140197061677
7.077327712565810 121.396506845894962 -212.679817850251737
-164.967234652036296 116.446743043878683 -205.566969902056542
-152.885930726566755 126.494887960237875 -217.322521056147508
12.938204069565613 125.006672346377158 -214.873307992485053
64.539389856968072 120.775666927603964 -212.100259993509979
15.499894845589742 121.297742823878693 -211.645887060786094
15.204063050161771 122.963675984373992 -214.719501123087184
6.609707446037143 123.253821370800281 -214.817640809382652
66.440150642236773 123.308587837036683 -214.206412901312746
-5.736776279379045 124.401726020586096 -214.896519893837734
-21.986807389576189 124.492833987146795 -214.086304442650601
-21.232540016160485 125.185569085888829 -214.848104945898314
-17.233928535799009 124.089136363719618 -214.785553484893228
0.926137907925855 125.908352409474418 -214.925294565387986
1.525810186011080 126.069513463026738 -216.192577865524413
1.294259084868147 125.600045827864406 -216.567580621092077
55.963331560862912 126.353607713083605 -216.307266475337855
18.779618392075378 126.476665748455957 -215.001327565548962
-58.032420219227745 126.030964757830318 -217.857847380000834
18.882853998980117 127.781932083353723 -216.683306868276020
57.564160060559892 125.685697306470885 -217.966646909097960
-61.210453827338171 126.481439134527349 -214.628027621546778
15.957263538120163 127.712193731478678 -217.022249464444798
-74.433892340979099 127.393696844093824 -218.930918115911936
-58.877940238289455 128.603719851105325 -218.510421283343760
50.140370634379323 129.018055589157854 -218.490348295255444
-9.998661599863953 128.609674597514243 -218.198484322870030
-60.091618573722727 128.676277034385919 -219.685916164635159
-57.582665930330784 128.705250587373314 -217.532472223443762
-65.182956729042715 130.704041957102447 -218.002560189440089
-10.652573058933546 129.880192899164513 -219.299955037497227
-13.961921775717395 130.804280001890277 -219.440890782709232
-86.076348333911909 129.743369134725157 -223.182551253801250
-85.370528471949171 130.766319944121932 -220.630901423661243
-72.277720919881475 132.994698271017086 -220.465446717861994
-12.569386314088890 131.309982853683152 -221.920018424601977
-145.059980987214317 132.601534462872905 -224.061829850554830
-81.072873819958346 132.630947130247023 -222.084178816744611
-121.394075529730955 132.104972932817873 -223.903965243584878
-97.676206866593617 132.459426437767036 -223.441585825710462
-13.399775043570999 133.207127413531310 -225.196030838208827
21.889243005353052 131.497425679188837 -226.320947087364203
-116.734463677985886 134.870146667344756 -225.292057631430851
-95.623284024804192 137.078672797885702 -223.808215792249769
-113.992172163401548 135.699737525934154 -225.827566082198473
-99.566131301482997 135.679637872816500 -227.366090069391731
-105.331277086783217 136.000009974886666 -225.973400740333460
-101.445141056646733 136.672367281956184 -226.395803337724459
-113.882203143631770 136.527734450175018 -227.426972124896622
-124.199669583134309 138.346229473400484 -227.729867361947299
-167.708528984956899 139.663737468703914 -230.734768277196423
-145.646806457051440 140.832318114202423 -230.652277010861411
-145.375784819122089 141.116653618419292 -230.731047019609207
-14.329671695704429 146.625607439031114 -236.254671521181308
-167.063038215963303 144.016504232879072 -232.799820031577269
-146.195117007371863 150.342783201837506 -240.059369152933755
16.016112159650962 152.433602216474156 -242.329799335621715
-124.352785301774361 153.734601102198297 -245.631297134597645
-141.882629880238454 154.174768490114758 -245.136145034224711
-54.295928576761895 154.739935255584214 -246.421983270036577
-86.346102407615561 156.469444396333699 -247.469781379972375
-65.961803246487776 155.470927493399017 -246.258685273794100
-43.902419250411882 153.516134099202645 -246.992716747733596
-116.108377754914983 156.745887058631979 -245.402112650524543
-28.745396204103351 155.048205499738856 -245.685116843708016
-103.853268727463572 156.632538585346111 -247.131713346646563
-31.684345865339527 157.329735803124123 -246.080302856635996
-27.313506572841096 156.842986410849960 -248.081673412719056
-3.687957624822686 155.934379585693534 -248.447779665064616
-167.657330650099311 156.027947397402272 -246.751230165049606
-9.722995934547420 154.538048946918224 -247.362300063535969
7.083708815521253 156.453568338826670 -248.185496358120020
-27.521547851943758 157.598798117353709 -245.805799418122405
14.527240914854787 157.437493606574662 -247.858443873680415
-56.396160534598614 159.166308030973227 -248.877264506271842
-38.796182496840558 158.707925188750664 -247.398958722964181
-26.042024581480785 159.629249715199734 -247.267684263528821
14.806898752088578 159.702801670536019 -248.952980956254805
-71.676684377216262 159.220914475881102 -248.510462129244047
-64.162005067111096 157.371097378975236 -251.168642548803291
-35.483465586720847 160.707647271010956 -249.719458757363725
-16.734005593589320 158.581297698036821 -247.337207934872595
-86.085005513895453 162.036382330701315 -249.712662936183960
-14.950756744359300 159.138373502333252 -251.184703977089498
-8.714067623600956 159.002149238333601 -249.356259075440562
-89.669004040233077 160.083253887332546 -249.676004416455726
15.197544265061392 157.238890333535977 -250.510291863701241
-7.313063970419343 158.857704290195556 -249.886389044008922
4.497365545736060 161.265516405294960 -250.799142453279046
14.774045480872534 158.900886738509541 -249.516214532067067
14.507603450462819 161.221085857066726 -250.409619731595683
-134.928595184976928 162.237010814296923 -252.103188786003045
-143.023661689061186 167.229540966160641 -261.005989308972005
-155.273575502761190 173.449329583076661 -264.664418057367641
-155.720470566875377 176.247267552956032 -264.202005109444258
-147.372240597134436 173.093812975831270 -265.111824890849789
27.846016966964292 -35.690975523024079 -52.154083759576814
35.656784237840220 -36.534462283304833 -50.508414661091933
40.058665448758461 -36.781499288226968 -51.579246243833410
33.234244975222445 -38.112883671382924 -52.210896080832910
35.918984197148056 -34.343508515080394 -53.973109653897090
32.783897787488776 -34.732404660170516 -55.373941125011150
36.641972167932344 -34.255687235865189 -53.891041386340873
40.814724086990260 -33.912302804706421 -55.054230015048638
45.129523529661675 -34.757312381018501 -55.173967462927656
22.228479162466193 -33.382310389676967 -55.723053013874718
43.626039580667921 -31.730121088083536 -57.314023592012461
45.064198233743930 -27.986011391429514 -60.843069501557835
25.412726195467876 -26.312368572424919 -59.838932151368596
48.360216362639413 -28.706816532598850 -59.377478250160138
20.662613920853477 -29.620411377504702 -57.571075886708229
24.882721839643132 -25.671370801127996 -64.520882106329637
22.319139396810527 -23.724687557912990 -65.918829437375678
44.379043414429240 -25.459691312426195 -65.365332012916582
44.293875848198184 -22.924703275579741 -67.643334576771423
27.753867300739362 -20.079551343845374 -68.875949015607873
39.824842347674341 -18.379181987333041 -66.751874681484892
40.322167175134950 -20.697969978790098 -68.843873112882221
46.523890697757430 -19.579294348584025 -67.521941946302547
33.053869421539680 -21.883699541427294 -69.605215600197596
38.770117594128820 -20.471655608967545 -71.144222030764766
32.725907055324335 -17.151105469037514 -71.354516484175051
39.470015848630716 -18.637678152061010 -70.364016830357599
36.469134193051147 -16.900120116942233 -72.058872074038689
-68.503998762856099 -9.659067312206396 -77.642894558926983
-45.919905886430996 -10.318481228809450 -78.279422331396972
-40.329799153163613 -9.127687709381059 -78.018509601046603
-35.403853397392012 -8.292618362358803 -78.882759632931851
-28.247237634150256 -6.351091973984568 -81.788228558582986
-85.989857134740504 -3.736448722632888 -81.004298678045856
-86.765900919036056 -0.730961404331073 -90.620788082462923
81.474435798953934 2.066464991494390 -91.735862602559564
85.315267419436964 3.304435047435274 -92.220551185974571
75.858194591493856 3.546464676530087 -91.219050794324701
-18.956960095377468 5.855784571774712 -95.052460308510945
-89.375950121881203 2.610395221992744 -94.240060247884060
-25.213868581973724 8.324209139944898 -96.925516637524566
68.644002524363898 14.355985853349475 -101.461243446573761
-47.855861355216454 12.329290740752018 -104.451235781409707
63.374373627820681 17.111108310937453 -102.521595844797034
53.611906659518489 19.322898855619663 -108.565149768086826
56.044082479903317 20.434113313835596 -109.274761152410534
97.733194259648755 18.550431186270988 -110.317352641411389
49.934295835603514 20.507692456349268 -105.781617065989167
60.337908545618632 20.488794984076051 -106.775538456835648
-64.044257320032926 20.056980345162831 -107.847576824759869
-64.376377762788081 22.171786868057893 -107.309411513594597
48.205636876835591 19.538914238739785 -111.399439019031504
70.345514478382867 21.325867200741751 -109.136294387365027
-63.869910118478451 19.146055640264493 -111.515939088889255
107.253217282735605 21.913948152514582 -111.134138839418384
-65.698423264505266 22.051073918752991 -112.482568509413809
97.891096958295080 23.726809055343875 -112.846009787545256
45.122676082913458 19.697503416579309 -113.416459221274764
108.115594284424446 24.418263881389805 -114.617656147380174
-74.460206784565017 23.646376784538493 -114.899997136022478
77.647500424854272 26.690602026301146 -114.809156897474566
54.547892247995215 27.051516107848283 -117.809247853294849
101.426199420922515 23.428731578498731 -112.436250589293678
105.548118548021449 26.779285732699222 -114.690027602544873
101.559907104440128 25.044488123367309 -111.929181848222058
45.235792652244690 26.974845528259301 -116.342282009465578
-95.147898848024766 27.374359770727033 -114.586786629188509
106.489459343780396 30.499302649881905 -117.730513446812466
38.670812120143431 31.568299933919231 -119.526199404237289
107.755598826703618 29.261283430328454 -119.137400853359679
47.866202084245117 32.223576422280175 -119.438014130121459
105.420926441422438 30.394075941043479 -118.430987928399958
-85.497222376309608 33.184920022868639 -125.164240561026304
46.970407242498588 33.682442460325738 -125.970073486312941
37.447181769902720 30.892669579870763 -121.063562020893585
43.742058774167369 35.745647643293793 -123.253407792537502
104.876800580661055 31.712716711593963 -120.496491450537945
107.854755180142533 33.180286986543436 -122.739880616490893
110.236362817361808 33.636514925419576 -124.209857737409664
105.008586064526455 37.837135091150898 -125.095302956444556
109.939738391170550 35.156667280056070 -125.467827010022006
111.563773856832171 36.134131980247574 -126.484350735345572
36.643352570571253 37.094804514126125 -125.353574585544351
32.726834055586991 38.942334388028705 -128.187082219840136
44.451100878728688 37.281085360363875 -125.043547359405949
109.561765154667015 39.328425826686789 -127.224360223196328
39.161290334270369 40.944838494231412 -130.741000593840312
43.531194591469330 41.401783549232299 -131.457380249165112
108.164313026234893 42.987494296180721 -132.827530408422433
112.920054409051971 41.996771397128853 -130.505672497790130
34.966103473685578 42.000417046579130 -130.815302834825587
111.516882512873110 43.585294155109700 -131.580672029268442
-76.095273202073145 46.579931356996845 -135.002072531567507
-77.650190472163189 49.551180270526189 -139.545822389392782
112.949125438319868 45.165252438265121 -134.004551706872917
113.644911914768571 47.579740485302672 -135.394484536034014
115.206844725936307 48.093913519618553 -135.216084325505108
38.206797698925655 46.387382543821353 -135.000532006219004
112.707361218340097 47.428867752164365 -137.411773665652731
-56.763209395988753 49.543997367126245 -138.308261885848879
37.694771317666948 50.926899475223259 -138.559106639764508
-74.043360122149920 49.937454546295903 -139.066856999613179
-58.201704146636146 50.080353203443018 -142.457990263468702
-50.071320438840836 51.034540442146103 -141.400000066935064
30.596858661353139 50.849088479272631 -136.643884533129636
37.983886572052363 51.803161359361319 -141.933687343913903
-77.785820727066721 53.555672201273012 -143.080699171159125
-44.408109093092591 53.707329871302854 -146.746074625143052
111.292300410259728 52.174921237905636 -138.575879661663521
-69.021503080721232 54.077139733772277 -141.131720588904557
113.173737332440552 57.686243495522810 -145.784631276193949
-73.530701626482582 54.110053409860015 -145.174157689808936
113.242964800443460 53.070538535390185 -142.314958044732066
117.019518605889900 55.139795863886555 -145.001513451750895
23.437828030274506 55.183833353838843 -146.288463917828125
-46.031830698543651 55.768540590263910 -144.773773144019799
27.061690751490136 54.393613660923350 -140.869224949091432
-70.633875088293479 61.043452287048069 -147.222958762568197
25.766512996377433 57.859217662872112 -147.648180601514042
-67.857026584229516 60.048201679699588 -152.069081385532172
22.958578426995647 58.345429271442924 -148.538400858104637
13.044195145169430 61.294733277434901 -153.062385291110786
-53.119299064536762 58.631780295733762 -149.645916156574344
9.591272530487426 60.174869266619254 -149.402342416293521
-54.081933634501922 61.676860711010221 -151.277862288791425
-49.319220664401115 63.313943102945956 -152.534877380112903
115.974132390679799 61.819264045485511 -149.627549299164968
6.923431791661478 62.594687304513336 -152.310156410092731
30.791239854668266 62.014834488314712 -150.590209109709235
108.175886883797361 66.292974373256158 -154.566964760820241
-40.021658021089330 61.632480843932882 -153.133397444415380
-72.532899342167610 62.695023769454316 -151.397126492551308
-50.078360355338560 65.686523770924083 -158.493704238711587
-46.851995231140116 65.425631344048554 -153.743026561968321
13.567081053328049 65.407234145560167 -154.334830558886580
23.541224986285407 62.028068730803597 -150.748629685809789
-63.823610944651676 66.825718204155507 -153.032022931444942
116.285186269483731 64.411848528292495 -155.901872010158144
30.167199682367997 68.226108834363245 -155.072020709066663
8.428465439975891 67.130908436794471 -157.368161618530053
13.572421809937538 67.559897128895869 -155.425547624843460
35.028316444348484 64.757207896490385 -152.306537584663289
-34.238072740518419 68.126649775567643 -156.921443401475727
1.831449943960852 66.499684384653506 -156.432533174196266
-46.877331022807724 69.446511150472787 -158.080742508377824
31.463803290698305 67.323513005088586 -158.320752410112732
-66.750653378925392 68.200354384379125 -155.709676548313212
-61.208918113743195 70.024902989810030 -159.266142545431791
29.141453626860148 68.083691182111522 -159.285932434046913
-67.036704158358063 68.458585784957492 -157.732625156942021
114.343520265401750 68.438641106633071 -158.460657739745784
-43.848898554735584 71.154867890854035 -158.421623903210161
21.899520044561335 70.502105692553940 -160.788165078750467
-65.463699105286324 70.769445119621238 -159.588051324768117
108.360610582149278 73.261817668068460 -160.777514124382066
-60.810806321011427 72.418432701022212 -160.716778442354070
-40.222805191430524 65.019214755457000 -156.138977199770721
113.921802850955089 72.812293981669484 -162.151942814362883
-41.005638161901992 74.169746002530360 -161.291709437417410
-34.129207461772012 71.956574599263419 -161.868086250836967
-30.609597741717309 75.781094731118145 -163.712658530689254
-27.107022277003392 73.463512228308616 -164.780202633598094
106.487555669217073 76.411936037010591 -164.589143200741916
112.642445737912553 75.206151418862092 -166.023239828215736
-27.581274854757840 79.661689507495652 -167.604552324690616
-37.230994871937732 75.397193073126189 -165.897769202137226
17.099881194611825 75.144427499368305 -166.282496001914126
112.980776952560291 77.835320956111133 -168.873148566672029
-146.293170381664595 78.729308664137832 -168.530011268107160
16.216755249811953 78.244496401682369 -170.665717428375814
25.871515426149784 76.323723716515261 -164.914268731930719
26.306928368984931 79.305813056347745 -168.645327149791115
-143.495579883573271 78.842573698598912 -167.833260395150262
111.802648429801494 82.706953731823134 -168.137686399964394
-24.863846752646040 79.684917085631056 -168.116012890888015
-151.000224601792951 78.608141052145868 -169.298483355476719
-142.194866105385557 79.387315784130109 -170.453924063977325
23.399468356512564 82.136689817059434 -168.078254130809370
-142.841873310103807 83.045099046285145 -170.788001121083170
-32.807866324009773 83.127038913829409 -170.465659041278570
-20.837673106382439 82.871875028625212 -172.088519292426014
-30.994908641448177 82.622452771252298 -174.442888152485835
-22.664813324391709 84.220221767233994 -171.848199691014941
14.726480470044779 82.551294044526216 -174.691429767005303
24.645113544835276 83.563306207795350 -172.304241449637573
-142.450724200415806 85.870112913958693 -175.333621492869440
-146.219537984757636 85.711737214958916 -176.256983156986081
-19.865656983719006 87.453520913151962 -174.060824443414305
26.705318712662457 86.425670176623413 -175.292594556582031
-30.077142889610226 88.367403087275548 -175.721141679885704
12.307050465525357 85.549882855704979 -174.718255644811990
-149.306186417227281 89.783820502745670 -178.691795667941392
-30.070878097153059 85.398640882471142 -178.363078101011610
-20.148622413652710 87.912361125783960 -177.661419953079871
12.946836366784279 88.010609682644940 -178.270762717084637
102.862601123577605 85.789535564904355 -173.068562350687529
22.689651473000968 89.633491928447739 -179.129993198096656
109.426774851871002 86.826781465359147 -177.898441729813072
24.597051217282839 89.232255873820520 -179.454932860885208
-15.898289863364324 90.200653294056835 -181.687370056215315
-23.937158753619116 92.439182258160656 -180.683060473400474
-152.509233237664347 91.651670451408918 -182.327345917198073
-132.236182257104417 92.481077503423165 -182.431142841628059
-123.584726123038593 93.357215943125482 -181.257930436839615
-16.257550424207039 92.490969605777721 -183.331844137502884
-157.533479072304999 92.931762360473840 -180.892603327861480
-121.767741104632620 93.228381538682356 -180.410473167565783
-24.047090896540983 94.373671739277171 -184.008227275101888
9.987756798105337 91.598774599288035 -180.678829500071714
97.412705688805062 91.855456393348888 -182.036816928228632
-146.743646891676207 95.160461563801476 -182.025004616302084
-15.079835949290878 93.230978260898922 -184.884110617880310
-152.469039795673382 94.407514366586440 -182.211333242236293
-145.991283820504009 95.815601185211250 -184.167934350909434
-16.455195120441569 95.390710752745150 -183.676057343053401
-148.798774635634430 96.128524367295242 -181.319019547591950
-122.538024242713163 94.424701092869128 -184.802852322888128
-114.042047147158925 95.408777158192237 -184.141444347130545
-153.643848616678127 96.450669691131239 -185.583520113813535
-24.534995620201382 93.894973298858588 -183.832689438799179
-149.274029263646071 95.851503793780594 -183.918532944314393
-147.262304287217461 96.423862876061307 -184.351076813142555
-123.171006763921298 96.185597890801589 -184.401374141272640
-114.711916949825905 94.752487838691550 -184.145681984988101
-13.474804503570120 91.436319776910636 -184.102711457613395
-147.438174389911183 95.192104869836498 -185.744623720460879
-21.868878602449708 95.260519040965747 -184.293543015641802
-13.521027453049859 95.278698986358336 -185.514359509914414
-162.090548258243501 92.728751686881282 -185.140927784460786
-133.855711423028055 96.756747948496326 -186.818955939216750
-140.186645705196838 97.231888586191317 -186.145917095322545
20.269726514122063 97.691273637945869 -186.373039844019843
-124.421511949074230 96.703101656821559 -187.057426858824272
-152.549713609848709 98.517083305804789 -186.317218554963318
-163.577703957514416 99.698833322963324 -187.831165784068531
-149.503727605069514 99.011249726069508 -187.832945417015878
-144.694627604902678 98.985892504515903 -188.166747189513814
11.824358844215672 97.591009038733972 -184.238470718758094
-152.293355490816850 98.640556891775475 -188.367435194382580
-20.911104795738002 98.337698424806504 -188.928981921165757
93.627369778475071 97.054984700689829 -185.631493368349112
100.333957375229360 98.161939623177531 -186.932373872190396
-155.486769389008373 105.178978584711132 -194.165675002488342
-9.112532581480028 100.721458352999747 -192.571052070064326
-164.243893545889847 105.119048787702908 -191.468523534418011
8.304635993407967 102.226592137725646 -189.326165105400349
-80.075144667076998 102.520404649704119 -191.283635132405038
18.012395741643864 100.990520659026899 -190.612770193631377
-80.036456510870437 102.144366875517861 -190.050134739098723
86.856829132578270 102.036484437549802 -191.419415157069466
-78.614445196395039 103.808041179627622 -192.877085520963561
9.478051120651841 103.679035306836937 -191.232161874668321
-4.514574881451306 106.077898632128864 -195.062980965271720
-149.541021607001881 108.431975705469426 -196.652136274811625
-93.688657828156749 105.450542276171475 -195.270162290824800
-86.208878803728069 103.599360040379537 -194.111321544075338
-6.325216342220931 104.128787293331442 -194.248482690127020
15.516329748513225 106.753626237533183 -196.235889393657743
-145.195374060761139 108.189759160205810 -197.735613697547905
-11.160867867172142 111.209174933281744 -196.840719251983273
-91.181033864553783 112.015475692555128 -196.779714254771818
-1.818164786385878 110.578636482796540 -199.690683637491901
-25.876339757576716 108.336644944819142 -196.705623434194735
-15.009058282980881 107.620428239454142 -198.479678633688934
89.215243748978125 105.577892732615211 -195.544710950814590
-21.820709352676289 107.992091643884919 -198.394233330236943
-90.108815283181343 108.094917221638781 -200.227930488215549
-25.649242505442686 108.263825361531332 -197.251741140690427
-103.516033929847055 111.999413769252925 -198.601565103170458
-17.579799413087908 111.466190849563375 -199.512747943770052
91.438598652295354 109.535920335518469 -197.647545974100439
82.132447798039991 108.293681890524567 -199.624244496671508
6.072817495719550 108.612111181891748 -198.482220484186627
-97.977637119433211 112.145590730536483 -200.977403309301536
-10.021842600246057 113.297074293247121 -203.117046714927056
83.920018904515672 110.793738305397525 -197.854882831253946
77.755482842056765 112.107579881637392 -202.238368749493532
-123.604486187412974 112.206248573326263 -202.268489041713110
-21.807130920816416 111.160052555419682 -200.258315921403323
13.740021302662486 112.816287832990568 -199.569079585613963
84.655253249862540 110.555280098347822 -199.564582501680320
-141.428858959963037 112.133635487295535 -201.558678524295914
-101.260739365003360 113.020650769655703 -201.830382730259828
-103.506965183026793 113.845602402939306 -202.380812168607719
3.287390790592102 115.109836277410224 -204.091075299918288
-167.571545423694118 112.266184677952424 -203.162775829513123
-133.530942406177275 114.954873770647481 -205.415176737339578
-5.510647202228803 113.705689256282824 -203.413520612164945
80.144803215068123 114.404626666511845 -202.377078551965297
-123.989025069568612 113.893157079146121 -202.998485983034385
15.439540898046511 114.176631599611383 -204.438240232175502
11.674546409374868 113.903809159900078 -201.753823933286156
5.506693118613198 114.747920461262112 -203.820329847204050
-116.286896059879581 114.599806133398758 -202.890305145173585
5.787730574267697 113.990654324094010 -204.338318034212335
-112.769731923371651 116.712681912168435 -204.323086551087357
-11.738455203810176 114.787983100315472 -203.148434761070263
76.333005333141529 115.139861789599877 -203.704117839694334
-11.093060726314942 117.279908385002670 -204.546837399166151
-13.210644367611033 116.541926374020989 -205.605612910956495
-4.675943089350870 115.930064984649690 -206.175106359153432
9.532667642730216 113.014608775128849 -203.297967394832909
82.426628577767787 114.045151740681774 -206.508177683896804
12.920065112114614 119.655863028784040 -208.844821677058320
-122.630670214283214 117.511621328772989 -206.011134620025416
-114.273583037655456 116.878143830975048 -206.340752204705950
79.120151101570173 117.420708568906704 -205.015161573138556
10.142263488640811 116.768463137921884 -206.980502736556076
4.770107957193299 114.573281402002209 -206.546598055424084
77.444158346398709 119.787011115802983 -208.260773539938100
-140.814705432297330 118.797475324484523 -206.568346743599875
-15.856559522374143 117.853166074639816 -206.547557377428120
-5.913476901088400 116.920593277780625 -206.081377273217555
16.019936860326442 117.981759631566831 -206.435874343086454
-7.159883742504625 119.644257318899477 -207.477789801701675
16.850928946834401 120.421524202600978 -207.221732582368844
-9.621826849745784 118.429446090798209 -209.207123308700830
70.643892814522459 121.318298568170121 -212.321497659225798
-16.996482287188226 119.533578787251656 -211.247122620229447
-11.332969007577848 120.754868096361037 -210.889336030719079
-2.864937091111187 120.810629725501684 -209.699723887810336
72.687388669235801 119.208561631939446 -209.194942757966231
-7.545215790258146 123.745797717726674 -209.509031074643758
-20.889889167921645 122.028952885934217 -210.968721734174608
19.664823364753733 122.600550041860899 -213.364908135788454
-8.640689414565632 122.298871114634011 -212.702297620392869
-2.074557577245930 123.627574746860063 -211.424742274968764
-166.208474009206952 124.365709937771996 -212.957651839928786
-19.793282844021753 123.877853732636368 -212.450720890980904
-4.641489813146386 121.775938746579257 -213.270936725722549
66.159545204924555 122.212375377744792 -213.340849777333318
64.160837304475862 123.511017592634985 -211.311159431961840
-12.360420433675589 125.091946704201732 -214.576888946979409
-10.027092430174298 124.506016127963363 -213.282183484611039
4.780877540047532 122.831669845366193 -213.989238170791623
13.388451025756298 127.416737886603912 -214.760191900937002
64.724105703823724 125.539639251671929 -216.255246475612353
-167.001700815159097 128.709719105109514 -218.882799013292100
-65.432226300475307 127.802779716425221 -217.820454939186902
-8.935098338469869 127.151223863645498 -216.106606353823281
16.551011521290611 128.523220245278935 -216.807106061219628
58.871177552398521 127.578956271298807 -216.114031157321648
-61.107469555994619 129.800878490572444 -217.775407365827675
-145.757601856180145 124.106788315459283 -215.658020608355770
-69.322937373055410 128.293458997267351 -217.653660730412213
-67.183439922127931 129.717274080867412 -217.999289894471275
-62.557534182250905 130.653450150802286 -217.693048061891801
53.766103851764321 128.597755254352052 -219.900997971040681
-79.110267260069364 131.230733080526562 -218.335755375211761
19.179349973053831 129.344989113446360 -218.344077160390526
18.579962174335805 128.123997467226673 -221.489471317042842
-63.188006330211103 129.649910409156320 -218.229777022053270
45.640199876000985 131.963998717042216 -218.693039840745172
-90.856466986757610 130.785824712705562 -222.123019926479202
-66.493797047168940 130.879672634621045 -221.504233638840219
43.965617889354647 134.185187668184852 -222.221450329898175
-13.480613680319019 132.316988792427622 -221.120654728259836
-145.658588659480898 132.053247964760374 -221.720811257410730
49.246683826121952 129.966594074076596 -219.865863133180483
-74.471936704277212 132.999409510317520 -221.960401980647049
-102.559521355844737 134.548604847519329 -223.493651173522551
-141.549888234018511 134.604303719883831 -224.409043903777928
-99.421637920558723 134.488368218623776 -223.584347080283692
-117.904061353751771 134.732512286075803 -223.331896079722839
-113.193715658681427 134.643603335351770 -224.796956707699366
-105.396893222194066 134.246766452945934 -224.280252224727207
-108.332796499628969 134.807771163722521 -223.305634187535588
-107.367264830850701 138.263027257375512 -227.885358033044383
-141.729063831937083 140.258844612806371 -229.116862892860865
-134.603870246625263 137.344093384020795 -229.474393467173115
-118.526240861782284 139.611200384008441 -227.715624010151288
-137.934985034454030 140.000452612871385 -228.032888299443727
23.392682658140185 139.032966703603762 -229.481676018004720
-133.747738975758296 141.761982219047837 -228.402469953983598
-131.318991933350844 139.790960085386473 -230.530231871449161
-14.845734187653402 143.688944395892321 -234.637126666165074
-9.458720374472156 150.346518233218063 -241.012525170104965
-169.499769802349306 151.830859070499884 -239.198366886023962
-145.584599380820976 151.914091590463499 -242.090821566191948
-131.378461352654995 153.851047317140427 -245.718346255715943
-7.283239807421224 158.503953224036195 -244.060471650575806
-168.451831689671536 153.516705285039279 -244.515823230883115
-122.753282127934725 154.416000605098958 -246.509787707729089
-98.030021454042370 156.234174118830850 -245.106212419082851
-84.014668127292964 157.435894155148077 -244.780522860030857
-65.861208117240750 155.961738439306401 -246.148634752138804
-58.505362147003844 157.048665347075143 -244.652667482749536
-107.674208715097663 156.843153206920761 -245.134987399974364
-50.091660627934800 157.626494022486042 -246.581798479391836
-42.915531576606647 155.949488007678724 -245.476664757053527
-13.383002761197989 156.517490402168903 -246.246724727742105
-156.817392976093657 158.483265484199933 -246.725850445807026
-41.796626757610959 158.505268482337868 -248.442621622671595
-37.854550806876382 157.137690729939607 -248.056057983035259
-23.204134313397677 158.992843675586471 -247.206619528769494
-29.280024457079470 160.344760518849512 -248.104360555293397
-30.899552518908511 159.164153377246436 -247.708537520622031
-13.234738173006621 159.099898748501857 -245.177937503320635
-41.929896524190333 159.266772022923760 -246.786808466246640
-40.919813927314685 159.778310121315201 -246.674637928127623
-25.332720088064516 158.744521060205869 -248.874521175900099
-10.989501353219588 157.269184128067650 -248.428449193940480
-4.675004957616760 157.645451402579170 -247.200780582454769
-55.135442211179956 159.899914618504937 -246.214996580741797
-18.531298614527778 159.387691508980851 -247.912624358169609
-69.215627465783939 160.237454543058050 -247.820292467557550
-56.387332442700469 160.052429264801276 -248.227556544862921
-50.460624529889195 160.600535049366840 -248.378878910222397
-15.588014405175445 160.064841347502721 -248.126511260334382
-12.458759761611192 159.893888785555959 -250.722253521103539
-2.566602653659706 161.311188608531779 -247.407090825017178
-1.323171453615510 159.147615620117421 -248.342123779708402
3.411540406246191 159.344822920621482 -248.935302015506238
-107.959135388915627 161.091524125396745 -248.962254416816677
-95.525648602060585 160.308734714526395 -248.596662872218985
-88.137999133176436 160.269778082931111 -249.514731227019752
-163.727078922254151 159.632003369951065 -250.314440687976230
-141.580914329778579 160.048434312589478 -249.350103220485153
-115.930835034135939 159.618777351487267 -250.212314976227958
-136.241478571673071 161.590559876657011 -249.593743665501563
-145.648776670027843 163.127042293182029 -252.864643799080909
-153.142778736076650 162.754922268537882 -253.626879109635240
-154.181002800578796 165.743570346749379 -254.219955929660614
-144.295665707773878 165.543003805364776 -255.112333998035297
-155.656120303187151 168.190888482710648 -259.463703603260626
-145.067041809242880 168.326779829315825 -256.576594267774055
35.828850518064783 -32.545837317678789 -54.769468282497819
41.463158222361677 -31.839830997112628 -56.474199640835366
46.928841798131629 -32.443627559133652 -56.526269695616406
43.944680347062445 -29.433208390848911 -57.916075064121685
20.641970737292340 -28.462239081271008 -58.427210827977646
50.698138377343071 -26.262139974228383 -62.373094525640113
45.333657129367559 -26.694483619251493 -61.707071411132091
20.917858241327291 -23.614071431382420 -62.686034045632809
49.347677068443481 -21.563115178752987 -65.039059433943152
31.725768114528286 -21.684358879089320 -66.379451198679860
42.564312569369577 -21.410839947250885 -65.860180721477363
47.914682877031524 -20.709781308321684 -64.945653979236184
45.201933619464192 -17.836895033881209 -70.118770983300280
35.646848741922071 -15.265661616295468 -70.957118100250312
-65.880766885703110 -10.119036985023287 -75.726358345287352
-57.552504345459489 -10.657504669757603 -75.735479824554588
-49.917679194083917 -10.816210248294803 -75.939877796346977
-79.058104877331559 -7.649641943182109 -78.799450015264497
-28.442786928718643 -6.569826377275337 -77.278786469507978
-17.367754265669312 -0.570702744798147 -89.913614071297559
82.190692627867421 2.330574522986017 -92.425283583496963
85.547034310354860 0.560519145701084 -89.478407387079940
89.621689578355884 2.569260514884895 -92.301804186033777
-21.228390862814457 7.984406620474519 -94.339462634540297
95.122593826686753 5.691995314660896 -94.828499281810778
101.777837301461759 11.090023115574123 -96.218018676218335
-40.145898067557873 10.032376646075850 -98.086964412115606
99.135631633863056 11.575560959109538 -101.523657647312845
100.062850903080673 13.336437666768330 -100.378061232246253
59.228625805859011 16.588769926549098 -107.218941952502846
66.578180927006841 15.264364500852121 -102.050853067445942
59.220578258189676 20.194407675281319 -108.860036790390907
52.139517889267054 18.746635724616425 -107.665769681397862
60.748697248193153 17.785682266086141 -109.843507896565796
100.620069854236476 17.605140144012278 -107.393842574021576
-65.260600974150293 20.449738263754746 -104.498462165084817
67.421470003848697 19.401632847466075 -107.084096799874558
51.001221232151806 19.226504439945597 -106.683937993103072
54.752641518094663 24.611066803004878 -115.318750043496550
-70.084366343265174 25.441960644778757 -112.369424260304427
-76.829507646030194 22.206106230220207 -112.933318450398616
74.233927855275113 23.064793868488287 -115.248762542985887
103.283091835236888 23.519978806863186 -110.928290339323624
77.032709454720887 24.392032725747377 -113.852614935377758
104.275037735864132 25.943235049017535 -115.963184238523297
95.521955815565775 23.808340181111593 -114.242749573919482
-80.503492802969944 25.757067884742380 -114.969226069804790
44.990650468511014 26.330649969463035 -113.945254545230938
53.141680107458377 27.162653588859989 -116.817158876205482
76.181266788706722 27.116710495497614 -114.379918879702970
87.583834529828451 24.727445784886246 -115.866202949528372
93.204970318254126 25.865923029880573 -116.292623607268183
-83.258805636722229 28.432631231292575 -118.212127600456455
92.178986909320329 28.210633979829105 -115.351360961140387
52.833562749373030 27.990056912047038 -118.304561106462160
39.781230695829372 27.799598366710864 -116.074433611959279
38.080279620526426 30.800005838944280 -118.969419839088900
107.437743216076441 29.456137974022734 -115.907762478417254
-85.453395871095054 32.841482898513817 -119.480828398346773
106.686788822129188 29.132007622897095 -119.136007779387441
109.010324082265782 34.602615028058302 -124.468221828299818
36.628001376318217 37.297087570164528 -124.795887810332886
41.133446396899551 32.440572369424871 -121.939483281455608
38.489579221330402 36.293002370025206 -122.404890931277833
38.837003076200993 38.468498024378611 -125.019259407946009
-93.414847355075295 34.105915389631591 -127.165412960772102
42.602855906634019 35.824344188997173 -122.192135785715237
38.713817359700876 40.112829598535356 -127.058476392172253
107.807203986507901 36.662164243278013 -125.261809006250445
110.599882264153095 38.159900039322260 -126.357973316561583
109.955299063815502 36.965935671269250 -122.786543134495986
115.089140312641476 41.317147327476874 -128.101026391203334
-82.164058431860752 39.341961005397359 -127.632219385670510
-85.216793782245176 43.103099099181556 -129.731255105379887
110.576023277030316 41.109202470024648 -129.079019801490062
33.381398237892832 40.182421044451885 -126.620625876905535
112.347700469179770 43.380731284825139 -130.945779666794579
37.870527951983760 41.933927646395468 -129.595183458520296
42.534742181098423 40.757425899513734 -127.662814570647413
37.433253559921631 40.463165940464748 -128.884231268225733
32.348986840628413 46.367175871118945 -133.675914964111058
115.265141904756902 42.417661868942893 -131.751876026382632
-77.533745445238026 43.638239956209461 -129.795386492952133
-57.142681441871616 44.730070225900796 -133.097934982693772
30.844602356995775 41.652189125836777 -129.196455218821285
-83.714315731297290 44.447117281764761 -130.647878844923724
28.802090727450860 47.218332659622241 -133.872749591604588
-78.464447465204699 46.723192664047716 -135.221613254304287
-59.802221982619862 48.658793259354347 -137.214704258248588
34.736406315357335 48.768018060581895 -135.776238131789995
-49.308926220968054 47.737093566756357 -137.717281426278589
-55.995124392909190 48.226463573147910 -138.184236564482262
37.343872267035316 47.496739204180280 -135.209147501463036
-76.585810043263166 50.123459378960142 -140.016085233509102
-62.322633330484635 48.514585101919039 -135.205968306655507
-46.750431522505437 51.759996085561319 -140.677189830426471
34.411696708563589 48.685040610280083 -134.549286039148456
-75.029927093633646 54.284666829815741 -141.029181376659267
-57.268775514440762 51.470636233855345 -138.486470199682685
-47.154901904528828 54.034546621149666 -142.112684711054186
33.808830444284716 51.322532648722941 -138.290818655644870
-72.993817536448645 53.512574250761510 -140.900795470298277
-61.198257003628250 51.701973362557112 -141.691028951910198
29.595103420428511 54.266618221636030 -140.430571425104546
108.271474148922238 51.166406918512919 -140.107258646863016
-55.479260252173958 55.260424920284535 -144.408186549351200
117.064615423893102 55.563523342646327 -142.065116269505552
-58.061724505074906 54.693870393817505 -143.443666686966765
27.591181179587789 51.839404654287371 -140.244747687049710
-71.166970185004871 53.390032902832331 -141.365293712098065
32.603088175315790 54.802450813300958 -139.606258268819573
-44.972259092032765 55.185392427077502 -141.564853442310294
109.609359491797306 61.195412401119015 -148.954211617333215
29.470479481402119 57.299657887593021 -144.222189654083707
-74.626967761352716 57.082108753196941 -145.147207026226681
-58.094016658657196 58.046365677282076 -144.196769667960552
33.573676185255891 54.258389371302492 -143.395329497293488
-77.128179792368513 56.824737965531988 -145.132698601442058
32.413287109251797 60.204239883718891 -147.918038468328660
-72.527601440255268 57.100978476664878 -143.588277953128710
-74.741317245933672 59.931323846783549 -147.102272430404355
-71.014377694300705 61.802339864958391 -147.899633066813891
116.692550588254548 59.411573966768017 -147.628631872966224
-65.929422288970201 61.035959704113047 -148.713516007361875
-42.265554722705708 61.142624081333501 -147.753790550205963
25.690685243892950 61.177383537218716 -145.638924869167425
-75.028558068980814 60.623679006147043 -147.187730773421805
14.771723397932933 59.063117401859088 -148.940500293269906
35.563786913263307 58.929966553920821 -149.103670053653445
32.864626531419574 63.922142941808346 -151.045252499670454
31.414613032930070 61.964065495187540 -146.983333066385171
13.595965647006626 61.431435790599224 -150.088974174028408
26.414695526805719 57.759017685460712 -147.428240416153812
-49.960772954945931 60.545334956350239 -148.891244794708513
-48.034112437149808 64.088996012158887 -149.079698347029137
-66.862667115255832 62.190805360425529 -149.356052341245942
114.062598771173185 63.025608886399496 -148.505900844644344
15.798728814984855 63.012587971686528 -152.580718486390055
25.733768409188638 63.970227449711366 -150.531635467060227
-42.787305787475319 64.187797420127339 -149.090348803317596
4.877045960161345 64.846803606231617 -153.326092415609708
15.541540848524562 65.450512049783399 -153.391453951813020
21.613505070474758 62.334574882162379 -151.382990374620022
16.862047047165106 63.946706393347426 -153.751581418542173
-37.799362570499312 63.655505864177137 -151.306744921730200
11.802047351727477 64.780729480817087 -154.054358274313046
-71.516137595253014 66.216437724444603 -157.979497352528711
-43.702109997320647 64.235957014809628 -151.143668315276443
-70.954338939813610 64.687332484999274 -150.445133108157876
14.287997239948099 67.240176552370599 -154.107389599073201
111.126258816314603 65.100468798434292 -151.489698969241743
-67.314501947747686 67.579541902137521 -153.572194266004630
-47.769216269934866 63.269049301635995 -151.499468666024313
13.302852296044637 68.963286908006268 -154.487645527281472
29.742948043903922 65.216191307241473 -152.711413995522918
-48.328163978968192 65.896134266753165 -153.783293896755254
25.408948189155474 62.937061938972384 -152.238878549287591
3.479055989423694 69.018407971342810 -155.942118869258394
19.832499845550419 66.508946862298174 -155.695087551104137
-41.859250784173796 67.252377890091623 -155.779400999096140
31.036288536008954 70.146018411848317 -157.385528440374969
-45.638703694947935 68.868740524473623 -157.023712491499566
-32.755685887806365 69.938852432125131 -159.044549032479352
19.131401480094080 71.647227532509461 -157.724982383274693
-41.317047977677937 68.920170850678574 -156.952120289260790
-39.642159634220668 72.239414080990201 -160.684500927680375
18.865165127930339 72.300459297355786 -158.624861473278344
28.052762147119235 69.525748843527651 -155.952346406579380
-43.314820188983234 72.899746848256086 -160.844683193183641
31.299702907520889 69.860341208035820 -160.594450606876421
27.649339003823123 73.590095534649336 -160.142572364466332
-37.833374595756929 73.258126338890804 -159.155589505818597
22.228409085476006 75.464451187742327 -161.080990127893813
28.502874315721627 74.463197995608979 -161.238088280704204
113.151910807205411 72.811412873981368 -160.062377039742955
-40.581759310087513 75.585510502055158 -165.442684892717722
-34.045432943040815 78.783425146250352 -163.243712364183096
28.656414542374058 76.847436398748314 -165.130829249355600
113.786728007818112 76.993048787441253 -164.751742740771050
-32.940117505068613 74.428891122713196 -164.700209129051586
-25.608069922319125 78.458730023341360 -166.726398866014222
107.195663491035148 78.941853340346427 -165.021282746744390
-34.571849600905473 79.422967287482265 -167.506507149549776
-37.840387616524573 81.979414805502643 -170.345520884472450
19.112215975566308 77.544581950728968 -165.823308552266582
-26.934692616564057 83.487659909810048 -170.695266842147475
16.821075745578241 81.853692177588115 -171.787229778940514
-21.651410926048637 83.947453879963348 -171.220564960207099
104.318534710317806 81.248807894282976 -168.373387322397264
-28.514774189087486 85.365861638094515 -172.917643488184439
110.073299703460947 82.758754318263613 -170.702680059175577
-30.398056720078145 82.281858964054024 -169.529477365680634
-151.525433167538296 88.363263517963702 -173.838032361369500
109.319851313757482 86.323514016450630 -174.183068751191769
-26.682032586384718 88.174069012387946 -172.524925028162983
108.084897882244348 87.831733783182713 -172.589180735160994
103.287350031095741 87.340901405143725 -173.888146126517626
22.190869989415624 87.646580032538367 -177.341496801679966
-25.826910399211549 89.587371561952281 -177.032398977956007
-21.702237008987819 87.242253932598899 -172.836535140876094
-21.728272286942850 87.957310531042026 -173.503646479601287
-150.545499958122349 87.992708065308236 -175.856187293098088
-144.078791658491241 90.483251939859272 -179.391907776772996
15.118245959516077 87.943183456985508 -176.295511109973148
19.237797712533268 93.351348746389775 -183.440155999170599
-110.217866228041132 90.623528073913121 -177.994841919056825
105.721246971147465 88.856516447946717 -176.630633039898100
100.486008072298773 91.739069789344512 -177.420470955528401
-155.083767790079946 91.050481115936037 -178.338653676071942
-26.031617016806138 90.970967963119648 -178.393695222798016
9.321262074292953 93.465849689086070 -182.343477472775845
10.782003979418622 92.346439911417008 -180.262234195209544
-122.116690361429619 92.081918217576344 -181.267006028612485
-116.422649702611096 94.330300177622419 -181.694762930417482
-133.390218521276211 93.474598317613356 -181.873454594831713
-109.491975230394630 96.459910334522490 -183.100687613863926
