# This PCD file was generated using the MATLAB® pcwrite function
# from Computer Vision Toolbox®.
# .PCD v.7 - Point Cloud Data file format
VERSION .7
FIELDS x y z
SIZE 8 8 8
TYPE F F F
COUNT 1 1 1
WIDTH 814
HEIGHT 1
VIEWPOINT 0 0 0 1 0 0 0
POINTS 814
DATA ascii
-62.824269314836449 12.691474644082543 -66.518181746992255
77.540731338310039 9.830457670636694 -67.550205605984729
-7.720262437705912 12.023605220325438 -69.745071341628559
-13.750876409783698 11.225843903254413 -69.407069850777802
82.704943197869042 15.277600712414586 -66.041165605050963
95.302979179426572 10.123644653307105 -73.524948371596125
-62.800671591170435 14.528782140885083 -66.402159459070177
71.988200858248604 17.624670893136866 -68.803608016152168
68.651776463186749 17.966275311549893 -75.312321399169591
72.414992478092259 16.513640944008685 -71.907479108151875
81.367085529153101 19.148142133813813 -75.265013073461120
99.643424346252374 19.794454006398663 -76.766524447498199
67.556822584794020 19.035002173119590 -75.889437712138104
65.212385221872054 17.513151393780245 -77.071846927533684
87.944797267485242 19.757653534512990 -75.361693061101576
94.106940112622510 19.867385886017608 -77.830603935598944
100.394187891683288 21.396528223628529 -76.823006466040340
66.051624892149292 22.835850377328256 -77.374712672486183
-100.902049815386860 24.806648193513567 -82.736419030562999
63.165419077436816 23.731348737915898 -81.871383514791802
-42.138543456893963 26.041231592950751 -81.872822256007851
65.599294518164172 29.043678458999221 -86.298886846197533
61.344089174035886 23.826954693097839 -82.612558777237993
-54.136829042546580 29.590454631253973 -86.829029420062767
-56.350962085273537 29.515466813801940 -89.704530880022631
58.884987662244370 31.845507488108645 -85.554760804990863
61.247096646033455 27.356711905505666 -84.433103318300866
66.665071860947478 34.619644635301967 -91.160720209398647
64.896865552317237 33.576599272423806 -92.248312789710852
63.395545431245928 36.650672899654083 -88.902596849209161
66.306721161397249 32.189576938779652 -87.938108467735290
58.584365973479400 33.652969928322236 -89.927365207428494
-99.290777974699395 35.834276922069890 -94.629003990664970
65.305198900860006 38.255840961155215 -89.817632451335115
67.521326062265189 40.736121916514186 -98.057259631018752
-102.377183002363793 39.946796083943752 -97.948224602489233
62.618887659492167 41.799816692518831 -98.943716190667757
63.675101882497195 41.485456546616867 -97.367249894158334
-70.274897569558547 40.431257910506758 -94.625948203263604
70.152261909633097 44.984395015861665 -101.365959638385192
67.971611291910676 44.551882541714676 -100.712835171823272
-71.553094555192260 42.109122506809506 -101.912024150987961
67.951142517159525 43.232187441787076 -99.146566310226987
74.927923571388405 47.815807467978424 -102.286990502753667
74.053143415326545 45.375636722957900 -103.317510234942560
69.501882125090560 44.809848126372465 -102.094282407378842
83.161771122765273 44.136059938040042 -102.935495952506102
85.165419943218083 46.026776037375988 -105.465330466267687
85.043945590313243 48.138734956928033 -105.384883075657839
-85.696639428448719 50.244917003621936 -109.506050362235939
-87.513403081189168 52.839901548977494 -111.265362344715356
-92.233975174388263 56.034592835191887 -108.117581140379670
-6.231846582381275 142.043322664067574 -198.323044401967678
-5.599434925206987 144.266545337093703 -201.518377294115879
-9.038983762575185 141.987099536535510 -197.853060191884595
-0.570744732913745 141.456930695472863 -199.546932539541757
-8.570531233961589 145.338954900544593 -202.304395608980769
1.454768293801146 149.771287226883572 -206.524007098662793
-5.193177577258499 148.389516634065700 -204.564366585867276
-79.339569397679071 4.116327341934758 -58.380534225582693
-58.611300563479887 3.655062104981331 -58.845475700319469
-58.131046223984725 6.341105822537620 -56.977517374129079
-86.955097280313126 4.565280150177435 -61.535950961630149
-51.889463344520834 5.883730067244838 -59.771175015873538
-61.146860542331183 8.678547472377273 -66.752234264169630
-43.053936700483000 4.325337037629254 -63.500174665854772
-64.888777887008786 8.902456230644125 -61.507863150631252
-64.181492065916174 8.742923530096959 -67.237543884813803
-64.798561619753386 9.765665412344848 -68.436644902627066
71.183863954371461 12.706154816398836 -66.424340998293033
-58.518040102156448 13.010580583091027 -68.076119366969380
86.698862082461389 10.979049242326196 -69.121011836133206
92.970788242376614 11.737064937632033 -70.781802536499256
85.244775932169389 11.537210893544202 -67.162896261267875
72.403253491197219 8.285193723687511 -67.253773063252652
-65.131194607909038 14.317559315919629 -71.438836040933865
94.080475905750689 14.244710981868412 -66.991507552391397
73.393466443520396 15.506216776215210 -72.295730737681680
63.483392235588013 15.470219883250300 -78.106062873016086
81.028439988784697 19.440168478079634 -73.838415628603158
65.066116844278909 18.412658402663482 -72.020190129262090
70.539430425158827 15.040537120598380 -72.330235471909972
66.697125424113892 16.770825462737037 -71.359755694700453
88.833026836619638 19.955983387003545 -70.864529547360505
63.168090219398792 20.944960353452785 -78.143335168428393
96.301777735507073 20.726815639797650 -76.612164610177189
90.221575466543797 21.000164750768139 -72.450189841582045
67.681036732126856 18.860189787810583 -76.329497586465322
101.040221395578186 22.455971293080221 -76.541558858894959
68.248511024596297 23.497036620361360 -77.900415646106822
-39.631014820456990 19.600013180623307 -76.705382512216914
60.130680590557510 23.841222487943508 -79.423687141583827
65.215942322370765 20.348062233088100 -81.741578976619053
64.831530054633120 26.978939397326094 -81.849161529300048
-45.089285368528735 30.257114734442176 -82.954309440594372
61.773783148371706 26.969977834817847 -79.266297057300278
61.361246952104921 26.345739213611488 -81.564125298537732
-53.150159549921206 28.215172704934535 -86.817122254110316
58.896631359190238 29.529661441285171 -82.658801329588115
62.023326887450331 28.814499715995940 -84.483329317134007
63.356360854064398 29.361186221376336 -84.270360785728826
61.726270955307484 30.716429578838660 -85.825869213491274
59.005621614090849 30.652574474749258 -88.800029326044665
65.331627086218091 31.841076890114593 -89.428140886212930
67.074206252630290 32.282890702530544 -89.718196895632559
65.431488819185617 34.153713496603679 -87.386409445287441
64.645878364215676 30.833362958288948 -86.549725706084786
60.886760886101612 36.482806331411162 -86.828783802196241
65.084715771375315 35.648383040567794 -89.805655197879432
67.602244973312281 33.500068621074597 -91.039429019219241
65.793624110990834 35.306773773314035 -91.667722834817667
65.334577305660972 35.508416096739197 -93.282818907466719
69.537405155586214 31.642366032611648 -87.989892471492936
63.332028509921251 34.576101581552308 -90.359871348015560
57.743988240997240 32.286290027735745 -91.870020994198356
-64.159938544927627 31.487022918031176 -95.090965558993886
59.483614418227681 36.100857541712955 -91.286476174060383
67.281716254473949 37.241935678201912 -93.590803442838904
-71.543094208267235 37.027744754719059 -96.957866508149081
62.983138120862300 38.420555406981300 -94.888484113133572
66.318922646711115 35.909418301324813 -94.654258164234435
61.051069758981548 37.934567713937668 -92.802022058437018
66.025919366691909 38.990455660139425 -97.479414901369879
-69.996559079486900 40.219862347632450 -97.297938073224955
67.708354010018340 42.790775375218779 -96.894547057983075
69.020696568666068 44.341114727745833 -97.276362514698121
68.620693195694543 42.164157436983231 -94.475003872103372
67.598520099891687 41.891167902090622 -96.291740302957464
66.963677835097300 40.994904520322997 -96.893274197832568
63.326818576518036 41.205790868572734 -97.372311771976328
66.587314235285660 39.512414598408064 -99.603766264433119
-98.548624830430953 42.260005970678741 -99.399236420994839
64.521257643688017 39.150969984713022 -97.672855248841685
64.480731192934599 43.829877997321894 -95.886493231708798
61.608948823676755 44.188642037083163 -100.039725182494124
96.615595971681643 47.505343047175550 -103.363183268811909
-76.019566185375297 48.349060826202766 -97.005966140457531
71.075087538070690 45.659784184968821 -98.565935089633939
71.393179414947156 45.329565374389745 -101.149863335123484
72.795517266045678 50.762302754704343 -101.403165510607167
-78.135747043694764 47.743444769182666 -103.496201112286101
75.430192309953568 46.381796817342199 -99.852355609963496
65.068636478234623 46.809951342832889 -101.133883286074777
73.746937754169423 47.372605105153205 -106.434666406867166
77.203925982061321 47.986450770393986 -100.837933587342263
79.752037786600141 45.228484935550938 -101.736633278712262
88.670021200208254 45.701285754980674 -104.093385834887897
-82.542839807162636 46.610104252143934 -106.327718436565561
88.600270310794144 45.146235710203229 -100.920461045942290
67.850534068284347 50.040081914988846 -102.998507537687601
-81.763463023104080 52.277749871440278 -102.404258031815345
72.407713469265317 48.244259315320349 -102.404540055149496
79.632635865702767 44.892024297471998 -103.408692601760194
97.148302202519005 48.483615576160751 -103.948552241725309
77.033220544958738 49.538069127696254 -102.656595901780761
80.855367036431602 44.967576581899046 -104.213490412840670
81.493784352901102 47.373880365695037 -104.991537743461237
86.624385663534682 47.761478992387879 -103.870662319672689
85.637217731981110 48.696482066697769 -108.239082129342094
-94.245727600618451 50.279338820201140 -106.008948945183775
-82.485663204491146 6.209457856409548 -61.619534278167919
-45.822250231314747 5.652015894347661 -62.055497578776510
-59.829585813240108 6.510287155528440 -64.053083962723349
-63.512968041078203 8.418953701730842 -59.630239524468053
-33.619232493879871 7.874830877282854 -62.532411737670969
-29.061461982415992 9.352725287658428 -62.348803413686099
-24.025126508809112 7.801178506232709 -64.059517896854260
-19.351787941579005 8.167342480013142 -61.667121877563758
-10.473267606717370 3.295814047844066 -62.535440976958100
-64.979620185973886 9.176428008504054 -62.169050933282932
-93.298439629576663 9.263805597099079 -64.467570567082660
73.775949477907560 12.666360502028226 -65.384870211923882
-94.988660517332988 13.641134127004687 -67.522929804029815
-62.653897834176490 13.218658918145740 -69.621102090308540
79.651422874692528 15.791891543278737 -67.630167965864743
81.933668811153595 7.026978069623301 -64.195458983050230
85.868170844143975 11.877015743193576 -69.879997536112526
71.858657987128979 13.951103022021231 -69.091382931708182
68.343501951846690 15.201618678295182 -68.552779990314363
95.430195800936332 13.867066068561302 -66.886927723022580
75.643007890058797 13.883612067275244 -68.928027974157317
-97.279794245715564 15.479055188244462 -65.531131614271899
-97.502685164797796 13.607350491790612 -68.777272816264500
66.250454970586674 14.781639425820090 -70.670008884969079
76.879978188364660 14.929981257084640 -69.538939252599903
-31.464230608343389 11.241877236663859 -71.089047493706005
99.174733251887204 18.223853420964438 -71.757679269802523
81.269515102737813 16.926214497456741 -71.081186485739821
83.519352720645927 19.732328076399074 -71.357740252527179
98.775412312358753 17.999827111607637 -70.244413173420654
66.766773547261622 19.519269812612126 -66.480351426748157
84.040605918402406 16.459067149749565 -69.037928284635314
-96.140530053564206 14.215729302568093 -71.709765067133702
70.114528056347325 18.493679999276356 -71.020473299350769
64.976159962744148 14.737313909047591 -69.009915223301590
89.981805158549079 19.298035298991806 -72.528794997681786
101.425855989839533 14.842007481169887 -71.480697220488125
63.066128968475091 20.043597046266843 -75.698239470222774
71.371397301065954 21.416514820269988 -72.443927597689779
-37.649448205278745 19.981685060230930 -76.189786116244562
65.130646865897887 17.037597045829578 -68.868249998536697
68.936193798354196 20.087130904340711 -74.533560434483647
68.505990775642942 20.576833020254071 -72.769793942395324
67.849515058499790 22.197282468666387 -72.458971848660781
62.979767930434448 23.463883559616853 -74.865995270670169
64.013805381111069 19.839672555595335 -77.412413284726085
67.474574607296930 20.006276996485937 -74.976909110510178
67.928042514261904 21.070405257439084 -73.231846924359886
62.200103134841740 23.692023295307706 -77.931890687787501
69.678200175252599 27.394949849762913 -76.837622323313667
67.063782732455778 23.111007757523740 -76.437759819969230
68.143927581969322 25.434504635362725 -81.063150718840319
-42.470994542133532 27.119102857926840 -80.669391058282372
101.397523684256456 24.014350171293863 -76.847713431730156
62.892182197577576 28.691546504198435 -82.234623066460344
-45.073486626687348 28.151674542553103 -81.942406084529011
103.528640636648291 29.052007305368111 -82.320464084972969
79.383352653147810 30.254003299152057 -85.233819333063394
67.949604855761706 28.251636118787715 -80.969662428958443
65.415358375783796 31.919725142786849 -87.140032563810948
76.281849912099986 33.112151839014444 -87.583837485189505
-57.403229938792222 32.238616076161286 -86.921994146911615
70.838898863524278 30.899945088692213 -86.438238786295187
66.879303724591949 31.299381184938046 -89.913688685743907
67.042093287709520 35.267805772446380 -89.988893458443627
64.210149287190760 34.270926839612784 -88.914631513945935
65.268823665843115 39.068706844171899 -88.380418206178746
72.321998841284326 36.806618955045934 -88.971952493851902
104.127736423944143 33.544162965652447 -88.815257700895501
-103.089421065748923 34.665390747092218 -86.749291296369520
65.963043409907456 37.059324807625863 -90.529221501555710
104.969766352862308 39.474772233603922 -96.161359576396165
73.759064665912859 39.313249330847341 -93.125032043550050
-67.482381216975909 37.446192064781798 -93.318386229457175
79.644757151727873 36.821877852612388 -89.311421106093135
62.705491672624269 41.207541336616835 -93.982828513114882
65.241520142892412 35.380218000032784 -89.465581323552044
63.648104203077530 40.990506547334995 -92.139634213905452
60.781125306422247 42.670197746707665 -93.962916574027716
68.341233096118899 39.889973144902910 -96.374240137777122
-101.061563678089200 39.032699964960656 -94.811673251534387
72.960271738283438 42.124915185840038 -95.918787439304722
79.086302649407472 37.782463283057290 -93.937645407532656
100.865314749443343 44.018657872693261 -96.501540689172245
83.793477831109101 40.761470763979368 -95.976309437602623
68.874552669862737 46.419741658862208 -99.488491052345708
67.476629379335932 41.565599724854238 -95.910340918527609
102.290744440424717 43.279978956064284 -96.350834437218396
67.542963749945443 43.360695514851123 -96.312082186143087
-76.691162483313065 40.689278869518859 -98.290836984186186
76.135664536700190 42.471337454353801 -94.157239865835024
73.476494400449624 47.116487081942907 -96.450890075954760
-99.388945627775499 45.838340602699851 -97.876624273522765
77.205186740193682 46.970425526934662 -99.590260614450003
-76.531954648417098 45.757057070605939 -102.266112736410619
78.868139980509426 45.049682865521625 -101.909741808847869
81.553856975784129 46.846007373379081 -100.625932477617596
99.623136334167171 49.093126301383037 -102.068599197847732
66.298044442711159 44.806201935658031 -102.452249324455408
68.569311984048099 46.116255762116751 -99.365418702824257
82.394274030006770 48.789079329933749 -101.349741987389180
90.442291009073827 48.491512623610440 -103.714695902983138
72.173054009497775 48.263605718487582 -99.942117589776899
-98.595813015456741 49.185743478836208 -103.914979770616583
81.350971263372656 48.980397610634732 -103.374695706591254
87.393286889379894 48.273589023899213 -101.739254572034639
86.024780098319795 49.368534569773509 -103.092714195627764
73.930300845625140 46.068105515513004 -104.240586595630987
73.163362487579818 52.905521367667021 -105.298270471589120
86.785449469018616 52.169301171947062 -104.149415904022803
-84.467947337787592 48.032776731526297 -104.090632764765161
-87.399744652343912 51.340880956495582 -105.651558502977522
87.891332102660087 52.281974932141246 -105.108930426387161
88.859844580382543 47.701362590075782 -105.039281474188655
-95.603151252269342 52.525001733306034 -106.444187122154602
-91.711616936715046 51.235468724912742 -112.897699341742168
-86.456185807868252 53.177439769802625 -107.520272309416285
-76.009055239920940 3.397610143222637 -55.132402784370363
-50.950685072841075 7.509967072185786 -57.616725008084146
-60.546281554801482 10.786369554821944 -60.473562950022014
-57.023644780613481 12.454580743769814 -61.820193209887137
-58.387073052986949 7.605967077053643 -62.299439997320846
-62.744895107213893 11.974888475375817 -62.625049691968499
-16.243754375519664 11.812830450031189 -64.316744976460498
-57.977665830715544 13.561466505746465 -66.514869801909342
78.797384477117276 9.656178341122468 -65.648573044428517
-59.856126555970093 10.565871198710868 -62.985031760333840
80.009936090201123 13.202298666171998 -64.985796468193485
-62.753004916660366 10.957539200825558 -64.269555071050547
-95.099555943909607 14.075363393103183 -64.174340903567128
79.299687798199315 12.628804138389565 -64.988635618003315
80.788997331078477 12.491810349753155 -66.611456898749083
91.354734773284434 13.320502983071730 -65.306098085323853
67.077543027621601 13.431425263808311 -68.531752042111066
90.821064385153761 12.723031142854975 -65.418300975296617
97.043329999224255 14.647908415132346 -65.160746810601978
85.733396081536938 15.795068797524820 -66.874063202568692
-13.828335348434443 16.073331117005754 -67.381543782011448
-11.287658387282779 15.397656871567873 -65.950621452774328
81.282281350063613 13.696987542398279 -64.007168380193406
85.904643634674258 13.716022804213797 -69.528736978636474
76.121683322115672 15.455588438887222 -70.056900695391988
78.434076365878028 15.202788468312891 -68.292201569226492
83.693656033914365 14.446486742194663 -64.976869121477606
81.102110547716563 16.039046171238645 -66.785793338297594
-26.900149638622963 11.660356922431999 -66.584352141351772
98.819189186790737 17.141986815197662 -67.806617381618381
-34.216803036343066 17.393780618879283 -70.958327358108079
65.644125610794831 15.528301725204578 -69.564153257823094
72.512062600072355 17.929576914743478 -68.834065828749601
73.556767962259144 18.530846155170909 -66.723058001876439
73.782408774477801 14.529801807383132 -64.698007611226558
72.451984467957800 15.620541216368204 -69.097551872103665
67.008625607853148 18.869721790598028 -66.798621192063791
75.482104701029186 15.071558130968898 -69.560653874780968
102.801389839321530 17.826077734800521 -68.356712563981361
66.929658647087550 16.660256841836755 -72.143889363230969
91.474576297074989 18.812903032748778 -70.319414792725127
103.340418405354811 18.695315733488798 -70.161893280343918
74.946520983894658 18.208618994757995 -71.136194700342159
97.551962003668763 16.338047023554019 -71.518211616840006
73.232242388193214 21.561501888197270 -74.333741352910266
96.438170450889643 21.995099253007247 -70.689853258791970
99.594967527940028 21.319507067305238 -74.126559770571575
70.396698821879269 21.983999619039025 -78.496593984174169
69.688200106695518 21.865996095200611 -74.221777472515527
66.303201340025524 22.298545117545380 -75.263476091493075
102.831699858256414 23.532594657408620 -74.946896747109420
77.069532351457227 20.602516204977313 -71.879980734599130
101.996449418283632 23.094664609988488 -74.306431869863275
76.743472122972321 25.999679098838218 -77.429440491873052
66.288507972199753 25.143855660708304 -75.942966359960337
83.095943849855828 22.391759681945238 -76.124913427561438
-102.011158365682448 26.292620641503511 -80.275128836583889
101.471470022008049 25.173394003067969 -76.100793294495375
84.994896084278608 28.878203780924011 -80.856701399625663
77.249416379754521 31.730380838731289 -78.512710787427849
66.972622832569130 28.229895987613915 -79.743428764976983
107.385933396791856 29.502209694528045 -79.214548821621690
-46.644810358092933 31.850634855402394 -84.920910550941898
-51.092477462915333 28.525344450534302 -81.880985424339883
69.327747969526811 32.789778870118660 -84.985744009652251
107.376779920239542 31.443812433957074 -84.760041339443760
-58.673596412855481 28.619748017100690 -87.599656267888605
82.476402056384671 30.090505854414413 -86.607521159617193
88.790204907230162 33.243064918225571 -86.492505574640717
68.597283072778339 34.025182213812343 -86.754361936397274
106.257458015472281 34.118461082400884 -85.685371582267479
-65.725437170830688 41.988568206378439 -88.690081604341344
83.123515894737849 34.691861772465614 -86.414550133599732
73.319205840619659 38.547460444687154 -89.509967249293339
104.221893524773009 37.108085173439335 -94.021770711061819
98.268349624660004 42.461993516341671 -95.462740479866170
84.736059226450678 40.345011720198166 -90.794504347942279
69.482142471492594 42.723571130518216 -91.525822447007116
81.043706669744338 42.695798744930840 -92.066518934784270
84.584928564970951 42.853088574206922 -95.512377422892271
93.078127673606886 50.445884737585544 -99.244379236168399
73.278280026295178 45.400963724765880 -99.809654857877504
80.964211900751451 48.901137647416064 -98.664459853613437
91.336888930512131 49.571548615256503 -99.754903947306545
79.686846181615024 48.910948575885953 -97.588803835589090
82.002881035609789 49.068687858916064 -98.246521024041527
87.740525559304274 51.034690675693213 -102.929524996186089
95.178388337581922 47.470673941930251 -101.523006481535148
95.275597674441201 49.424134345545411 -102.535294167220741
86.421932398685314 51.687834786533088 -102.521902490688106
94.613528604788371 50.092076788723254 -103.872028087717283
72.178788259571292 52.057350100950707 -104.203574658870238
83.027374010078361 50.779813624278098 -99.683777342020747
79.185908160813796 53.148023146986226 -103.044880693944435
86.420710497366869 52.542724756895282 -103.675833333155438
88.744104000570772 50.198561508111354 -103.617746982962842
74.227478479140629 51.632042852150683 -104.414349760616119
77.595001056330815 51.914743539490878 -106.609305727936743
78.191199193351935 52.718489589975029 -103.253237022618492
82.772695438880589 54.099331807800795 -103.181554331105929
-65.956380761383656 3.658433012880486 -58.754029869963603
-62.157894031870704 7.384592000515190 -59.977643666733030
-54.977705093527753 9.654563745021029 -58.824265576070630
-40.630558738496298 8.733906899162069 -62.349213437360760
-25.359590524380927 13.067653905843512 -66.655923774880321
76.438227142799832 10.536705026267292 -62.682638160464876
81.833229774235619 9.961146831081745 -62.497587541089572
79.415130859339001 9.897230460877989 -66.239505193105956
82.692946905129560 12.514625063632231 -64.247008525196478
-11.131708837960510 16.059977512339788 -59.371672734975377
-8.043052317697033 11.527959843340557 -64.737822926701412
76.748103345054886 12.347079550392097 -65.843369927284130
94.180718654671224 11.579120319829672 -63.016167644350475
69.795269203321340 15.379614785024959 -66.701900197702486
85.635245936201684 15.498686011006775 -65.806019045255582
91.872220536220951 13.864830048242100 -64.928002258842938
88.379082565260390 16.233375613069107 -63.691593741229980
86.164119482046303 14.945681960058598 -66.688884693328802
86.103042047740402 13.493458927876013 -62.728272959713081
92.558448766353393 15.097706745285620 -64.842298089465061
88.858091817005473 16.169864423682007 -64.907618553998546
-13.356213686411509 11.632770416273129 -65.194606803456097
75.364248273538209 18.211406058822455 -65.446487409944353
-18.467562211559422 15.821607035347464 -66.642539243277085
89.522773239384534 17.089085862898457 -65.663747215500138
94.770502333797978 13.452527927085116 -65.996217000017140
77.025399648538638 16.687984251758216 -66.729825819683214
-24.275915520730670 17.096482584060986 -65.542302671277000
86.625477454265422 14.735892774773580 -70.171628112250900
87.135529659090153 18.025812966410253 -68.762872625141640
95.291350625379806 17.232475310598275 -64.646921979338302
72.762705970587817 15.319780915810195 -72.513411103172672
78.455045332705637 15.655975963285751 -64.891653152390063
92.216925971379126 19.174707838643425 -69.009963232433336
72.694514490917840 20.130383157454943 -68.498051302417508
83.113654332120021 17.384755002072460 -70.235963618891518
104.032445002040987 15.146768702636180 -67.447803193828562
-37.112067710560517 17.718382997599385 -69.272974525842741
97.001588486241005 17.561169638419006 -69.360549887058752
81.201792263637131 17.837868927284148 -71.074744837939804
-100.723488536719856 16.827777874673004 -76.048896224298034
78.417698305314403 17.993276251355347 -69.310563977417374
69.936160697386157 20.582196599397925 -70.381836949566122
74.376704214878615 24.170634680071796 -71.960153433326681
73.950681265661714 21.840381656293694 -75.115273652913984
-39.170904388199453 24.740831866378802 -77.474949314796817
101.023857124905390 24.152857456489166 -71.598344409650252
83.393527061352430 24.362373150236778 -73.763444696770179
-38.608610981720211 26.389584773077125 -76.101148425180654
105.603057758979304 25.018868091986043 -73.647614365012203
74.977223309151583 29.374233899052090 -76.714112622931012
78.263947711121261 28.302015009242012 -81.294479813611233
101.875501400135548 30.698161578959347 -78.895506277522855
103.945949843742042 25.495804429684146 -79.583012307752341
-50.533153907597097 32.328444994846144 -83.541476969996282
103.800502471650404 31.006038286546246 -80.896768849810343
88.875857004909193 28.557763058318635 -79.295402258365883
76.495751653001449 31.307028618022205 -82.705968949841548
-56.050064093957118 31.024542168283766 -85.871736600474634
72.940878287795982 30.491272139972093 -82.698702968487723
96.472574017378292 30.170324662868765 -78.815472918301893
104.983209997507402 31.631841906613030 -83.383900078244906
89.767067376379615 30.607424491572424 -82.981080185213784
102.041133023442896 31.941324342448357 -83.568245689209988
99.663543076069843 36.125834240877658 -84.695700227704648
94.929187196035244 34.796420730796953 -82.271869810096106
104.615188745925352 39.045722229356031 -85.932155617570288
80.839831365553380 33.528318070642058 -86.508580437938718
83.571784677452584 38.570989715355594 -88.459216780641739
-62.033521582458476 32.479071769542038 -92.072900673712169
-100.247742625551524 39.304163314458549 -92.005536837519813
81.323018008467528 37.115116812794440 -87.278122610376172
90.920075382873321 38.036565512711078 -91.715382352966671
104.759992963089630 39.794912314671997 -92.038419997309248
89.189447503266237 37.080879499213850 -91.020549842228007
92.295838330186527 42.558370997167394 -94.352180545514983
98.757992197232326 36.030861815707127 -92.885334736643415
101.047313914716455 39.237378905457511 -91.510868122205039
104.793757912706653 37.590833144743520 -90.876484116904294
79.196273729324432 41.725897498783340 -91.685306988409366
92.412489197328711 39.054809941317600 -91.828116996158030
-100.614451396627018 41.994273885284109 -95.362104712444321
75.139829167400407 41.256361264861908 -94.769060976317292
93.214216183651459 44.632819521791994 -91.495572812379947
100.830931705728162 39.979979277423482 -93.683345881542095
98.699582020804158 40.764952445912854 -92.069540198099403
-72.716578994282585 44.287767158181978 -94.997666789913140
78.584111481162495 45.735981611728931 -94.115159079001089
94.801889553332032 45.411153081598130 -93.824564151095345
90.239499954138097 45.979966110316568 -96.086018194724858
99.084975678075125 42.693870388617363 -99.202400511431023
92.181658979675916 49.018756266011188 -98.701082325086475
99.196025864600202 45.018366220710625 -96.432813549085637
101.131384747392076 45.567807005194503 -98.496798148847560
84.493983763682820 49.224532715699809 -99.674412903739579
89.938699669111173 52.053154591984203 -100.283792286927849
-99.138532222793955 50.116771404349265 -103.095059246395209
97.390843973180750 51.068082387395634 -100.507805696340256
77.984446682906608 51.082234927963064 -102.405210955735683
84.506865107869288 50.529957372024207 -103.179669070849570
83.152736819176624 51.545510691640189 -104.976333272076502
90.053744642786143 54.168168438622374 -104.293461250307459
92.692013901746577 53.056915167296168 -106.721364462932542
87.589206618673614 53.513989578087887 -101.062678012769496
-94.295391451933000 49.951264563230197 -106.184868031041859
-61.757241267808773 6.380303642287764 -56.284072841003209
-62.487813095718771 8.642741456588482 -61.535765029091820
-59.053136056030290 5.513413093470898 -59.917838216192422
-50.840391325386143 8.325230218874333 -60.306579271702361
-89.276603209239482 10.088354661245654 -58.832735318495978
-59.792628146790001 13.749689389230660 -62.034129893619209
-41.635797003827683 10.095000534783956 -61.109015167697535
-33.445068196246105 10.134602883798614 -61.254941079030715
80.433831996072357 11.686809090338201 -61.650808688356648
90.136436380825941 13.322012304776859 -61.040955430484473
84.991281085577754 14.952976978934419 -62.445175927303907
86.017556108709059 12.580722179557537 -61.292330464583472
92.800206904278852 13.749352533657440 -62.018959937314449
91.304238055662353 15.636856749112683 -63.058958473778688
81.922870286276193 11.851350117032183 -66.232089522687744
92.757685285382365 15.126677820946966 -67.216410627836339
98.773668991379907 15.393679803691629 -65.087285596276914
86.677767196613956 15.058346705459256 -65.699917305692423
90.641188938389291 15.127942917846591 -64.239225852094449
95.788110159777176 15.273607522824250 -63.858693618505725
97.410923397670231 15.510406992257575 -67.688663469514907
81.109540672794580 17.494111993080566 -64.807463424124023
-31.221133520902839 16.327195343038046 -70.285748013717296
94.499785539724868 19.599670920453860 -66.870027811871566
84.171819101788003 17.394994015695325 -65.416853347820165
97.044127687030596 17.269416413480172 -68.074125585224181
96.650610123692118 17.101303393747905 -66.882936645697612
100.803211429352686 19.100585635889516 -71.627192894803670
-97.977227299186808 18.425124204024407 -69.012664340334879
87.092082002744547 17.644089059812099 -66.865089005768226
86.409086058536815 17.781386153128054 -66.568292966214727
90.945664796720976 17.170227470055014 -69.211104739676443
98.949014033201749 20.107903753211726 -70.847574420684907
100.878777370078183 16.577902576370462 -68.699672160901045
79.904519915876477 19.074723926415224 -69.796075601795536
97.878494669323118 21.435822135071575 -68.228368201259997
78.612839359765005 24.015692893742013 -70.744215042914490
97.834734394154822 21.006416602354186 -72.270002680274004
102.278430688889614 21.372598721771780 -68.160056131626774
91.308329355108981 22.007202924757355 -71.515173565671006
89.926233194197735 27.536859399813657 -76.584141370519362
-98.327741479272333 23.878678860512728 -71.655349891323155
101.103992712994014 26.782830715622879 -78.046928548250193
-38.595240581671916 25.519108091410427 -82.046473186345125
105.116118983120472 22.479010872818545 -72.538453550010146
-97.672982667898964 22.409785631296899 -77.114497703145432
90.337680746105690 21.774470430859715 -71.157400723933506
103.901102177944850 28.661834545177211 -76.132562143526883
102.029591629661795 27.121541854913371 -76.085359867667393
-42.984157767930661 28.938602094717368 -76.085655233130822
86.054847864649375 26.556351494606616 -77.317209484881474
102.235322907902500 25.470200634850542 -77.560148623391242
94.666855919392489 30.606533236056435 -80.402965708945402
87.787539267747064 31.094498280615682 -79.172059690371881
104.407368042859318 28.913050772689864 -79.546381017192104
-49.477644593421225 32.050983857369360 -81.751695916474361
101.976550014157041 30.195490683655866 -79.376992938065982
-54.445730013345099 29.719431659592466 -80.132495315342425
101.399618643653753 30.957939777685368 -83.463948631483547
105.152834023662152 29.291041824755574 -77.864148647036600
-46.816571178882107 29.446548442405817 -79.204552162013385
98.182594933439134 31.462566714126105 -77.737374677670331
-55.602568331791709 29.585708339429843 -82.350052555147727
103.418712213199257 30.531243968299712 -84.826224630921828
102.569271472790177 31.864909296907328 -81.350942336903415
102.658862880037816 33.918105328963449 -80.137733046110483
102.981866139016788 32.168699470367955 -81.447201579063758
101.274844237257440 29.955097828136015 -80.816264725036987
101.813038554099592 34.144351436644712 -84.131629964567878
106.184250778827192 30.710400877690169 -83.959957978958897
104.710540935019637 33.334332525473236 -81.399385386251311
100.113153116336932 30.032155704024181 -84.169437336574603
104.683049565240353 34.999509961478608 -83.552227539232277
107.026594189990391 33.706498449142686 -82.277376502668801
92.753168863298455 35.490282827051729 -84.843304121334199
105.076590762893915 34.164364336800688 -81.836668475446899
101.799789094135633 34.684284500051660 -83.411566760145703
102.623805786347305 34.990289456522191 -84.984667736262040
97.402500782649511 31.155367335839117 -82.772030293493827
101.831473336612305 36.203959287513818 -86.178618967398322
84.708821738417598 35.086479014010251 -82.102465829412978
101.595739292205408 33.810964550248684 -88.430472130548509
105.326495673072316 35.677368587071278 -88.193762208876024
102.467350935527151 38.651923218302038 -87.339506727030056
106.514478107695993 38.021847081137039 -90.581253426046686
-103.466796821689371 39.900946133001817 -86.604813437517237
-59.961731511005468 38.962807390334881 -89.169716616034691
103.979059390446551 39.618987120209717 -86.427119368367457
99.305939724241227 38.996585459891904 -88.482774480170633
104.680519537944861 37.924036165438110 -91.307831868059935
90.007826513094386 39.091235996856106 -90.069833564865746
85.356756394008798 41.733967491453690 -92.637221180811551
89.979811060838045 38.873978961318933 -88.840291259050204
100.583196893692616 39.737699052394404 -88.229362666608438
102.712454705104804 40.234824628973250 -89.229862228283579
106.353167119401107 40.422341327739218 -89.465763969526321
89.330386958187944 43.384370627441747 -88.630998935176990
102.294056614110033 43.184482335351483 -95.708177586695086
-71.620294913120020 43.538752033404258 -95.550989150633754
99.742829140481831 44.238712077399498 -92.374653630856471
-72.333273194268330 42.595584906801427 -95.563562144843814
100.601345550850553 46.528613874380405 -93.336683228594381
102.299157284084046 46.330860848486800 -92.532784296842223
101.923268820906799 43.675804665374294 -92.584835983480190
91.091347151851494 49.447335774362934 -96.756712990143924
98.507959108863005 43.091100891091536 -94.540621579104624
-98.561193344231938 45.045001971667233 -98.059286574484219
103.357929041856053 43.419640046914118 -96.829140183522227
93.757962477979632 47.261590067395588 -94.679951539043444
-99.323838741350144 49.557135030788686 -102.213347625385452
92.041653662478140 51.369776734453104 -98.024131509791772
96.893528118578729 49.535189293863688 -99.620820365341885
99.975783970417922 48.724147016184986 -98.838382299694132
99.808594275901001 49.567560014602748 -99.907332884386392
97.938015521792593 55.681837290458994 -98.760071515156525
94.251745178656975 52.896235150285037 -99.684720423011854
92.279835599663002 53.975608891842015 -101.433755884972541
-88.937566339721712 55.258210443409311 -102.366695063786125
-89.151842340641579 56.107703585008991 -109.552339164159804
-74.535340782866200 7.265887989804913 -57.081412523271467
-83.513858624911279 6.656636916058025 -56.535195016929919
-59.972569303933930 9.217843818172550 -57.789025027083511
-46.840584331002994 8.307976612019070 -54.759101011158435
90.595773424378137 14.337614612651304 -65.452930361109452
-11.522593984917492 15.936218308676963 -64.004807424829622
-20.515460646409711 16.804512219218889 -66.636137311822253
103.268103713963939 18.169790460805409 -67.029424867033555
95.175667685686420 19.538163214434352 -63.395029599177263
88.041656405005909 22.483794091758654 -63.631607360350685
90.572150781325689 15.897917381368510 -66.267152737557240
92.891110143490479 21.436916831262586 -68.834282895946089
98.692650377227920 18.772536296894650 -69.383563437488306
99.847119613066894 19.932877853094247 -65.328362321005940
101.723467186675563 20.354247170529590 -64.025317031697213
98.655257603851950 22.331898388111998 -70.699138174510693
103.686172901924067 20.020730578107660 -67.434389554720468
-38.969926206169340 24.380018653049127 -71.574717769548172
-98.180839297882898 20.919384119162920 -67.603716920685940
94.145736639203420 18.726317529020491 -67.067721907581543
96.390484318201118 25.200362406581803 -69.984451791606901
103.300293450049921 23.151916082742705 -70.457281007517977
108.305486115885472 22.063621539898282 -73.714707953816145
84.579061880009192 21.449429315095653 -68.406117742988016
101.366915881823701 24.109485336489044 -71.404562070451888
104.249451240345408 22.147163044292956 -70.080344861644434
86.195112627791232 23.341761291049295 -68.694000206556964
92.523621386309088 28.575113493617252 -73.057566051127054
105.180733583803004 25.407069162080063 -74.758442211072918
89.656255134533254 26.866758462706326 -77.623541659120903
108.965941931515076 29.672998636658541 -79.233122382523064
104.540792287609023 28.451685088161039 -79.347107886868386
100.002299029162955 25.922295039873507 -72.141979369497577
-52.659043593743029 28.540219214355258 -75.823471398256785
-98.764195493458615 29.443748605539540 -81.310358137862124
93.306615603910203 33.310547800786949 -75.945072127735699
103.564390724536764 29.559336201903445 -80.588950278515810
103.195455905971542 32.064960894605335 -79.591444111708739
105.092412275351180 33.695684159722845 -79.561656956714216
102.923472130734041 36.839574057529227 -80.694551953438236
104.349279224531401 33.577789907806206 -80.318518984008563
110.070669054744172 33.836851609576669 -81.641716517576981
105.612128488749391 28.435711912744569 -81.892467711480606
105.025446231612619 35.137977488821576 -82.705630928934127
103.968812854839058 34.375413648907610 -81.127499432359556
107.459919329496699 28.576874676910975 -77.134434382465940
103.097048158846363 34.838042588245571 -81.713462032089765
108.522402456802965 33.001335085360296 -82.917560060637939
91.588027047530460 34.107284077166241 -84.326374087868572
105.845247227183663 33.339458970964039 -82.086800334068585
102.184794174192788 34.337704835188255 -83.461265734119507
-102.898632131741039 34.468452759675841 -84.202035778243570
110.021251306079975 34.962516748247239 -85.160264512248148
98.246186667937664 35.553326290919536 -82.611654896512107
107.739098830742392 38.281904644426923 -86.423402684795690
98.693754770251559 35.100830510018696 -88.219509164835102
106.822731047025783 39.306787394386689 -86.204787090221842
94.913559326476275 42.030234204482099 -87.095330669495581
99.324377376489437 45.074259530547486 -91.455301435241594
97.724729640354909 43.164392211177201 -92.428591010164482
102.999081446067279 40.459910443757494 -93.953918060132665
-80.417179535741028 49.838494391846211 -96.180096745299736
-84.363675732879955 55.200206872487719 -100.462361647792676
-85.609579841328028 54.156719525988329 -101.618310623929403
-66.507972632212983 8.962501183505076 -59.093788288286135
-61.270269169847793 8.863991463153436 -58.518896690128329
-57.693446999717366 12.899128147977942 -56.222504021736540
-55.471196404136911 12.006480986760115 -58.972142464008741
-92.022472720048768 10.965254993780606 -57.785695801875136
-41.365023892628017 14.220194970215102 -59.669689222781656
-29.889733945227380 16.076014487357977 -61.329472942776007
-9.657628875446601 12.246211598712094 -62.766770934058030
-21.590041240234370 14.428522227399771 -63.411784683059295
-10.478569950610337 16.339076258944065 -64.146687977730053
-13.940239823567158 17.799169036465280 -66.711254157401115
-32.789722156306389 20.243384214158226 -64.320147200061413
-33.428377300773079 17.672224864336819 -66.870269369282809
-41.903725935853160 22.990503619823702 -70.477757436467783
97.924676277846132 20.149404269894035 -65.685512162903365
94.374247770080544 26.444722134522777 -71.374758980181866
98.025588791277968 23.277348035719914 -69.867235205342681
101.076777743059012 28.177890347084126 -72.342096744096523
97.821208245893956 22.280519950933037 -71.533234055672864
-55.081863415620319 30.484866163700211 -76.678659557004622
-42.038054440780492 27.403864464587954 -76.789221930718227
-99.860152444488691 25.662303197089287 -75.316603534016053
-50.809781364508872 31.838871925422801 -75.843383634744100
100.414755503271721 29.502796670206543 -76.393253447796852
99.006878228976731 27.524766785986138 -69.821125477485424
98.731272219805945 33.718962075244228 -78.738617550049256
-59.930325926586114 31.290161544017195 -82.556228074874383
100.810187829038938 33.334378905491427 -81.195070754316049
-98.904154902373861 37.288980194629957 -82.946205393396781
-60.198695379189779 38.540329379645847 -86.823102210768269
-77.080338979133785 43.878930951777541 -95.996024069851174
-97.508620031496420 49.848524273359750 -98.299043047147947
-79.328376859496572 10.058145941833132 -56.085296901225121
-82.307649619136129 10.947473706578823 -57.227789625660662
-48.271506401910514 14.578892476764842 -60.283413807432453
-12.741065081719141 17.182651195532259 -59.904190685698609
-16.650241057988005 14.269011038708307 -58.396690189859726
-34.869273921366975 18.637787416824956 -59.410412443871451
-23.525690142486663 14.821232290783076 -61.191474522134627
-37.615530231701342 17.828495623480382 -62.035098429106583
-11.170923179213538 16.453277018022824 -59.854896703157706
-26.116471262185499 15.156893800059553 -60.817866121653921
-95.631585902422970 13.533562386092136 -62.020101837133637
-31.280637374260245 19.515124135746497 -64.141012887365406
-98.707706774683416 14.480623710685492 -68.131736380116678
-31.241015167446939 18.958653140431476 -63.924269130974878
-37.230551178444450 23.156059966197244 -66.345037792074692
-40.070842604482927 23.363726830063683 -72.750392964093962
-54.519936148682469 27.224671745232474 -75.733759146871719
-46.713391457249500 29.217926468319963 -76.822782492695595
-58.824511048363050 34.010641459462448 -83.091067428999779
-82.058747045501349 50.977815758422750 -94.947849620214200
-81.654661858067442 49.069213302497012 -100.423400947909300
-87.584497516074279 55.119324216792528 -100.711880307854315
-92.175972162936887 54.810957511331253 -98.361526993868864
-95.287913174087450 56.565859517046114 -104.324972023607060
-73.528696519805919 6.777093573076919 -52.290392047004239
-74.061381121065978 9.320354182834420 -56.612127936129767
-87.549459818179116 9.123970462719731 -60.034449443936523
-58.143214950301839 15.736846548218811 -59.119959082811135
-47.463997439677087 13.618902934681579 -59.523008430215739
-30.410032634357876 17.512529389057335 -62.168090001683169
-35.951661588806573 19.403257959803746 -64.753733002644012
-29.965384502224659 19.631394291106385 -61.935676576401292
-31.795164697916928 18.860999308526736 -64.946009267351258
-28.324387281923094 19.401359499054170 -59.677579562770333
-18.997868131070650 19.490840095973880 -66.203843585332379
-25.172951441328610 16.297489178447975 -67.017870423432498
-16.837865340096418 18.504162135125327 -62.319371442972653
-37.675535918645892 20.790134313238831 -61.806181993092821
-37.671523859641468 21.836162820302278 -66.389727710385515
-55.728934825771979 31.741845309945461 -72.124286322232123
-100.154939565505103 30.853402176544432 -75.935010117352491
-58.541784700509190 38.394266737902640 -80.720575961575278
-58.111296356381381 35.127002382576606 -83.924270595126700
-61.629800031906633 35.721106814904708 -83.079705447512865
-102.918386888819199 40.121163181911456 -88.420827111480051
-98.656531269777133 47.631155137023399 -92.821835188519842
-99.409515880004449 46.317362304266105 -90.990594362963478
-96.521528285653531 50.295621935377653 -99.033489492169721
-73.031449764938515 48.062408839396582 -93.988523339781565
-99.246125233316434 50.286592700381775 -83.661164666356711
-75.072154870175368 43.784301275408211 -95.994631781194911
-97.277571728681849 51.191125107216997 -97.941951858749903
-97.563074401309407 53.320651423212013 -97.465573266620751
-86.246760607651183 55.114741079472239 -100.866204707553749
-69.103606476972388 10.438095382012371 -57.212474147624292
-84.126339560579140 9.668070148729269 -54.976187304774541
-62.406580417440367 10.663238434729941 -54.864152625973560
-51.611396398045187 16.232832636175843 -56.390196446346749
-41.877583112803215 20.792783631230499 -61.136664644065903
-45.330947492493152 16.080184133804053 -57.787898511407946
-26.601875386738069 17.746086839612328 -60.884811736681002
-17.291561466805444 16.328500658335809 -61.962441584637872
-17.801315690387153 16.693495717109361 -60.883089541737590
-21.946599226002977 21.186555462814407 -61.143145881515636
-14.189555734344573 18.257893249047779 -64.067241007883467
-29.607858126342347 18.899861341605465 -60.943463527014345
-19.494566250895783 19.660467622000166 -61.670967836628321
-26.138134491218700 20.753091532787380 -61.231885003883292
-40.547154386575052 24.824235118420305 -64.999262977777477
-94.775726893785702 17.897562789981013 -65.967571283617900
-52.602531943637828 25.151853707884499 -67.792306804683093
-40.383471146936017 28.164030643820443 -63.445007733626454
-58.040512257125698 28.679265543255831 -70.157257448928945
-51.453158063744205 26.933210822776648 -73.602855308121462
-41.286288858438432 29.137971258146077 -69.143586783804381
-45.644770357260462 27.026826270194015 -73.914089625758450
-45.149104475904885 33.212421859844575 -69.578794374680697
-60.440916898415608 37.398833910086871 -86.115374185760146
-64.966247022593720 43.798424552354824 -85.882068308621228
-69.856377986006152 46.567860850017937 -90.331938564636815
-100.733771141339034 46.254948273854019 -91.662034647772188
-70.885478427616590 46.756601155883622 -94.261459822511853
-73.510302759326848 50.564698877768343 -91.334194034073477
-88.416485955982154 55.677434853533775 -101.807312014082754
-84.666402333381967 14.469764794645419 -57.070828536088200
-47.887717430207367 19.559082724074678 -62.201477648269673
-98.635874686163774 20.689318304293550 -63.180938501221348
-52.838048766913118 22.696016258120814 -65.374837133579192
-42.361102504426555 25.113895693946869 -68.063839429989685
-48.207910612868275 28.364065182801284 -68.206146101566375
-95.847267896401604 23.186893375602512 -69.522932506349477
-99.484738055457370 29.002999858141468 -69.337446705685679
-100.364803675220188 32.297514811547977 -73.738821722735153
-96.807607781141272 51.279689511537136 -99.156074763942527
-79.043843140740023 9.930241050100827 -53.731989105497334
-75.470554958908011 14.198299544997194 -53.396664163776443
-69.976736413485071 15.227357595689426 -52.040316679968299
-61.948944037998892 11.921427597962104 -55.653111529593502
-88.281075294870234 12.632710132490512 -58.101994138623851
-50.581908190841510 17.909852141366372 -61.475698662628858
-54.883853978960964 18.458827392632472 -59.416959211033330
-45.066556776059400 20.835986716311577 -58.359023014510740
-49.080203520515568 18.333813204605654 -59.339715120638573
-47.735913110301162 27.318029745944060 -65.059318103044617
-45.118243191832399 19.468944224837454 -60.723900889496022
-46.951146626577156 25.499073774288604 -64.752702319219040
-47.790056440666035 29.201063776825507 -62.582339664273320
-98.634664347218049 27.132832175538464 -70.595938506761868
-59.028091188601536 30.449731484232466 -70.968360587912102
-97.244330003753589 34.187064563200472 -74.830617884148907
-100.846936948120586 33.309931816123722 -74.387870688478486
-98.756172674498600 38.582490303155410 -85.784815162048616
-94.864336403218857 41.181084485260044 -79.866645923775607
-97.800819168234639 50.683104507079555 -93.125368964890782
-96.716246228316578 50.285234038694952 -93.033214665576480
-79.161668084394236 51.623111639865208 -92.508798358348315
-90.040227896066725 57.853247646371464 -99.366785709268555
