# This PCD file was generated using the MATLAB® pcwrite function
# from Computer Vision Toolbox®.
# .PCD v.7 - Point Cloud Data file format
VERSION .7
FIELDS x y z
SIZE 8 8 8
TYPE F F F
COUNT 1 1 1
WIDTH 791
HEIGHT 1
VIEWPOINT 0 0 0 1 0 0 0
POINTS 791
DATA ascii
-123.631018526624842 118.293923193612812 -197.984695544693011
-109.121821134782664 119.085314869420216 -198.239214221803536
-140.981393087290570 121.976714635399659 -200.513852344192088
1.993580177645365 122.067026944769381 -201.285117484193734
-141.582106101981680 122.351600621495649 -203.477052443988839
-134.849102862452582 122.271656801313696 -200.418986714528103
4.301894692985640 122.070019176768525 -201.041180482884215
-134.473932492340680 121.814930007459253 -201.608280062017911
-116.025313555640693 123.945978752766479 -204.954070395046472
-123.873913026343914 123.306593507653403 -204.446792601472765
2.983552340903926 126.435664571840562 -203.428813126946835
7.993234145864449 128.697728072372342 -205.673942178509066
-10.897559871107172 131.968165193293146 -211.630530417027330
-151.437839365691332 132.156636036096813 -213.293614042888379
59.321812332319006 129.058654158865068 -210.638067925168741
61.461921889615610 128.605188448294427 -209.504815380776620
52.751477474104156 133.081550111759839 -211.001482377652422
59.140154566509040 130.678082772520440 -211.953091654218895
55.651038830890670 133.860999328155600 -211.601125129533528
46.584843771973532 134.127345150066191 -212.702716072593205
-12.454571623268791 135.219506579142092 -212.799801090280567
52.418953497649653 136.523386314000930 -214.938215640172672
37.944913471272130 135.524807959276870 -218.066011841989962
45.736490248252551 138.452267473557214 -216.890680920525199
-125.966516754726470 137.051762203192879 -217.718298269225130
24.359535092821627 140.130262799549854 -220.227156766430653
34.637795803435083 138.708095835033134 -221.311670486273073
39.214550916741651 138.843332186128237 -219.053684521152405
-134.800004256370897 140.130448153799875 -219.923545641829378
-126.390897222247645 139.110975901668098 -218.724716451709185
-6.916397080405677 136.799612942868492 -217.916602654104196
34.963982192946432 140.915731070123655 -220.909308231385239
30.889531732847487 141.793042136411117 -220.841111399041097
-141.281762924706271 139.923524733302060 -221.874375293732584
-125.585338228921529 140.057161848156483 -220.395811528972217
-5.464497498746193 139.028652586280430 -221.721175757344128
-124.124025062215054 141.626780773513559 -221.225097566067689
30.477389400801073 140.196739129439379 -221.288639209797282
-134.847933281395797 140.295319630110981 -220.148957366417392
-3.798773153813151 140.313218496081078 -221.611112797373011
33.033875882809269 141.590791357267875 -222.791354986437710
-141.443749203613493 142.157865324866492 -223.694259569080430
-124.282629492606816 140.955309284516602 -225.060531183206251
-123.939610973831037 143.173192556861011 -223.873410108329978
-116.509819413415514 144.449649846261565 -223.532848115483830
-125.777728589369332 146.192845952962983 -224.841126540347773
-124.357265625934133 144.303969800306390 -224.858134291139294
-117.144131248239233 144.652623108803027 -225.384238932050209
-2.328913245681310 144.292190540211465 -223.360414460955013
26.174653733814502 148.309807000892533 -227.288278482728771
-3.489422830031997 148.500445548744239 -228.588784724901046
-2.567220609651359 152.452212121449548 -235.092803379295958
-2.250769551022229 149.829094637053544 -229.317796389522613
-3.638817079625684 158.213870368067376 -236.048609926460074
-132.320815234390665 161.050039735762113 -242.114813077248584
-126.209605783705001 160.157345728583607 -240.952202755383126
-126.513200601781165 162.596927762946649 -241.845287918419587
-124.562023216488797 163.171967793810637 -242.716609488048789
-136.386121101622052 163.950549058320405 -243.352397898239815
-156.744217576716665 163.949361172854310 -243.293700347893633
-118.550343935556242 161.191285419768491 -242.230028729309055
-156.058195640519386 163.190093678388166 -244.547686922538475
-125.894360515564841 162.784547700999383 -244.311820434907474
-135.530070675487480 163.766629620161751 -244.009808645140652
-125.715642507260512 164.713111915042987 -244.460647888252453
-124.839664382360297 164.063877565640041 -243.720343782832970
-120.122418948455348 162.819062651870837 -244.208623404822362
-150.909313810379018 164.313916167167747 -243.594155713691407
-1.774667549343095 164.052216994034069 -245.279892575604919
36.831399853886182 -30.059102263511967 -44.910262539841433
49.231645154950812 -21.329629976336577 -52.070862390278599
41.250137196240267 -14.053723939747314 -67.549171074485031
-50.804527523863648 -8.804216208378161 -68.998546692120144
-72.070033541081656 -9.499904073525203 -70.849198294287916
-37.850052977716949 -9.334504138755314 -72.605598209291784
-80.630737931276471 -3.975020011884615 -71.322116379814304
-85.052950681707799 -4.006137404224409 -73.042029933523978
-14.633017624837777 -1.715799068464954 -77.798350020416095
76.346200343766441 2.995196086118181 -82.318430016787914
86.015112530158035 2.258074016381994 -83.683982848769361
-11.271874231263412 1.361266623397407 -82.937375052318600
81.930417495193751 4.251516977064241 -82.154902009581988
69.437686039668748 4.747692671666271 -84.506109998564057
97.430840969914797 6.344216328274043 -86.700794882799585
-23.255595317052350 7.085566306035011 -86.414061757358695
-13.904009122462478 7.159189719900909 -86.084149641950546
65.395939513057684 11.653241141891950 -90.634900222561456
65.976105155712332 15.827537527641615 -96.067454204251760
62.512675348262860 14.858419395777268 -93.532762803074561
59.511485645405038 18.415803393932364 -96.099148680928948
60.597918663356509 17.592229156489953 -96.698608055524645
-52.679914237203356 20.075902426376231 -98.443184592765931
-56.282972587650299 21.228372842582278 -99.143555448463346
52.391064038207638 22.602974218316206 -103.473756396138569
52.469903052825707 25.148471379487262 -105.841665762426203
57.738107021688570 26.866903970334953 -106.923625450901937
-65.298366575490988 23.828898060841464 -104.529897435966319
48.803179175028554 24.836565737951940 -104.526063102716009
102.556545270876398 26.567678482701286 -107.858734934734670
-66.535456498813389 27.183922397080686 -104.451256495268865
-96.454127395905545 24.452994397225595 -105.455041330228127
-69.003545960237020 29.227010708359344 -109.141161651283255
-97.955976315237208 31.368502056829985 -110.139771105634921
-74.234284582682037 29.843818830802885 -109.901015396863073
47.095933296218917 30.761508181237744 -110.461594673938549
-68.983704796709361 29.181816188910922 -109.712056004408325
49.349217160121711 30.336839055465145 -109.920140250704904
-75.713504136075073 30.246366467294688 -109.846782498536058
96.748755039094505 31.863643740498130 -112.609829852264710
-78.523382387977449 32.675844174922240 -113.485114958185164
92.922663233641686 34.917316097589605 -114.039884660300871
-74.206538281729280 38.273442504898327 -117.288601658750395
-76.428980174293358 40.153126963993806 -117.058804792879769
-82.235677448580887 38.469493557188379 -118.575294861418172
-62.343644528813620 41.114451239092965 -121.128042021398187
-76.304729443257827 44.131165592267379 -123.467031960081755
-79.289787076676106 44.532810962856111 -126.089758214583185
-91.138735062202230 44.897329484410044 -126.365588424299546
-61.099566212239615 45.011961534027705 -125.558903722386020
-64.764653792626262 44.630208006089212 -124.540818605343304
-58.638326107811622 45.227391659061752 -125.160839110017918
-85.462477755140355 46.464016703659816 -125.214966973841229
-78.030779097838277 45.949184489968495 -125.928886168748477
-81.295718414705064 48.567226954912002 -129.515946578822309
-83.727275026650062 47.988663294859485 -128.532696402371670
-84.812311955343830 51.017245477824559 -129.798946418695380
-61.620458193276576 52.131293787533579 -129.626698900583079
-63.931116573334734 52.827857282437918 -130.683241661016638
-80.537092536972025 53.047581987186966 -134.622577162046781
-91.811861561061576 52.854965436006012 -133.511317246840548
-74.863643886078037 53.175122334121056 -133.513736713037133
-76.608046716557809 53.631617741932338 -132.601123353484240
-60.317862651719480 57.082431364607174 -134.772453337013559
-76.545224000335907 55.667750385758282 -135.635371581285710
-86.361731929227361 55.516765791783307 -132.040245772517096
-54.172827597524723 55.323222569624477 -134.865389232625887
26.838235888603233 55.803657811359905 -136.544701692227704
-93.877649353703276 57.353195382958674 -135.735149061798268
-95.129500759011108 57.323874532937573 -138.180940159825894
-85.882801272340828 54.983016039314528 -136.607055711049981
25.421266903058719 58.269928243496409 -137.882640378213637
-51.357162803815235 58.663698411537638 -136.999848335479214
15.139304630008555 59.726090965772450 -140.701993791454470
-89.893757952454692 60.279005538419547 -140.156335000446205
15.188667032245355 62.133934462565286 -141.086929634736890
20.806003044040999 62.627863529387525 -143.057298056767138
-99.943929604772634 65.078074524675515 -145.950947831001031
14.315087999424600 64.060032440461100 -144.724512281396500
17.527746094230388 63.958705695278162 -141.549208874291395
20.430399875263152 66.102781244897329 -146.479382356987315
-96.024723748592848 71.420769121039143 -149.527084227641552
-102.209143244632614 70.262140336920027 -148.901037856695552
-98.995478416126304 73.108017688189307 -152.307269455766402
-100.379131710698488 78.278318710478572 -158.932360197112445
-99.945109039144342 79.355655081235497 -157.782734878968057
-106.245028718115591 77.843763403719336 -156.807636417374397
-102.268526572337876 81.319727336174580 -163.299818355656782
-106.031519873993275 84.396945495847319 -164.459829908366430
-152.936722875882339 85.233435651127422 -165.878968358601924
-110.147622637456394 83.594614998250790 -164.311868842523467
-142.541240358044320 83.376017422910550 -164.620215184146502
-141.176365850479840 89.448519780884169 -171.156037202549527
-149.974882148786207 93.266481353477957 -172.305831200995812
-107.092629450404090 89.633571132925212 -170.575338403848662
-112.022619487676735 89.102767808466638 -170.501634093962139
-108.730612495828666 96.072985863971624 -176.732416165610090
-143.908064958509271 94.424632715576521 -175.537184601487382
-123.506077457693806 96.110860400150685 -176.021366273464480
-113.264859588869342 93.869742150952035 -173.253058166298018
-133.880107453631041 98.147478010546138 -176.490329974567402
-111.950532181966551 97.674038223780329 -177.526059691225214
-113.034881240126154 97.876798766060020 -178.789098735877047
-148.367051959815257 97.064992619556023 -179.798020682257800
-140.282760639530352 98.615979907571159 -178.425213161087896
-121.737347230751752 98.641393565671351 -178.913928720996637
-154.734210928397147 98.117764410771784 -178.931225273439907
-114.448229544353310 97.984679606684139 -177.689230973763131
-144.854205677118046 99.636878421686973 -179.804098060891818
-119.123822556064923 101.867924997711370 -179.042625942456681
-122.122545008532015 101.263355200052601 -181.296512064134646
-133.536037097231656 101.101740076697666 -181.923676656944110
-113.342881521901433 102.747665378975711 -180.149896789452271
-142.756692425805511 102.299283994251255 -184.685585519492491
-130.255296393569097 101.329255827897583 -184.471550152234983
-125.628024392911286 103.496717682932371 -184.281860951215009
-122.183837474873243 102.967809617196409 -183.110698425129357
-116.693183175968827 103.379738392103960 -184.991948206300549
-146.186531301253154 114.930058646569933 -193.989934532631054
-150.028997937093806 116.196653425160918 -196.241435692869373
-133.981411572439129 119.929767257107500 -196.586617994144831
-134.304955302377266 119.455263611276123 -198.837496368106031
-113.296568295122427 118.112330428221796 -200.741636031505720
-115.042804401319145 121.661164779656929 -199.280929963286184
-113.158142698437644 119.442400412982735 -201.071218168347514
-122.316238228031182 122.857717429480132 -200.945115607464004
-116.451348184973085 120.832772484025242 -200.857485954700422
-114.813224853231020 122.273990837589636 -203.936488290142677
-124.220414567962592 120.712789466724672 -199.975011331913294
-124.912872021673550 123.158360684807107 -202.421035949830383
-131.176435255046044 123.030690897188933 -203.390060587695643
-125.683072957107086 124.338910515017432 -202.218940010447710
-116.777096119076390 123.504351769786098 -202.300065267534620
4.028567050906635 122.953824162350159 -205.083571379563892
-151.448337227677001 124.241420642386231 -205.870833977491827
7.189247112211536 125.686664778383545 -206.541333081436960
8.327071330161617 126.114662398068077 -204.785595592932680
1.890597852176637 127.664194145222453 -207.230108795708588
0.968278675817141 127.492018755910792 -206.102815510432976
11.174868856333172 128.881076849727037 -210.669136248496926
16.325437814795549 129.425230180451592 -209.831124255746744
-2.205075722062261 132.641753332808378 -210.631354980790377
19.272550458190626 130.246981400239093 -210.538492879702630
51.530193262085369 132.613132920898920 -211.126720898378039
50.620764097840635 135.490063373471884 -212.592136968489882
44.840034557620271 136.151804777571698 -213.880549958967777
48.470873228597121 134.966758873158227 -216.410509493704865
-6.081032699073591 136.952208126230659 -215.716449843326131
38.197382905933488 138.323684580755980 -215.475855730561847
42.441313476208371 139.854139995744475 -218.708844019050190
25.654490547773616 140.022900274602023 -220.701660178032455
-127.293466679423346 140.670713639229120 -219.261741228611385
-2.004752860600552 138.647332447858730 -219.215441135488902
-133.022645593237002 140.827124782318293 -221.823226029759013
-134.794055881119533 141.411002294531528 -219.794098639316616
-127.683671879215993 143.981385879854997 -221.674410985622671
-135.288340307600379 143.326779038390953 -223.965385205755723
-126.500340591707399 142.022487337239937 -220.097832361150694
27.147854152437365 141.623915764326000 -222.938526836032707
-133.748524979420807 144.856916741405485 -224.242588061078948
36.556457522239839 141.335704844411623 -221.803843878933264
26.463543116246250 143.999071776594889 -226.069077005317297
25.659490089481764 144.530584335767571 -222.533621000564523
28.617152177458266 144.540042166197566 -226.530559484219737
-0.117137897600837 146.317712989992373 -226.383153995928211
-148.396713870580214 153.911470202103629 -233.469770083515982
0.458854185074350 150.579720431061332 -231.396950485950157
-0.505173201820479 157.759479996942787 -235.164120103736508
-156.362138621522860 160.094229100155076 -240.085500240128539
-3.271321397767837 160.221501443937285 -239.907485604280055
-150.446266439772188 161.242871388120534 -241.711333491321170
-5.190881256304971 161.665853283976958 -241.476586431749126
-150.122230400941817 162.202343756783705 -242.891796187743267
-142.647413086544248 164.402035756742833 -244.077834191489330
2.999847348335839 164.946019628721785 -245.910775793918845
-154.738845530228332 166.961141115660467 -246.456140760178982
33.773989111073760 -34.018553674745874 -47.545785656002643
41.930335903273900 -30.486820816081220 -45.734447068740153
41.534623583752385 -29.059000565291988 -50.450827125981206
41.189201796512066 -23.272946961014330 -49.397174344209432
28.885674806809202 -27.719845416325022 -54.231873798155910
20.822671458715522 -22.011834751105805 -53.058621541133824
43.838550206428145 -24.444624879485463 -56.452739678219046
-63.687552134670781 -10.559902815393336 -68.871358184302736
-68.236092375808070 -8.377947612628883 -68.527282504031533
-81.012807516736316 -7.227348137843210 -71.010923275272631
-26.215137591202240 -5.529199901761949 -71.900293684880083
-16.836058427747300 -2.906203688991853 -75.051852388154757
96.137517101191079 4.987234876045624 -81.193259519614429
-94.728014713144489 5.844107253196689 -87.706562676312700
-15.307927883769274 6.988072272746893 -82.068353989090269
-25.474618915182937 8.229489340605893 -87.757458199873895
67.387953331385575 10.316319231951169 -90.660650756108652
101.530917672315226 9.607886069126307 -86.290276532792504
-98.554609705299313 13.835565935750381 -90.995835397415007
64.418953132728973 17.704744033519894 -93.661201550215793
-46.670377092873451 16.663664979768473 -98.461776901766029
-48.350829969054480 18.505760103551552 -97.065410642861707
-50.889846298569033 17.857440406653208 -95.157556349518998
55.814691733010477 20.781690961639043 -98.117678056539006
-55.909531984690936 19.412366996252103 -97.795834119445502
-97.795257589135872 18.997855813145357 -97.409958720053694
53.878416629155367 21.595435348575204 -101.656278909161117
65.819843539705360 22.406563296645032 -101.391323715564212
104.567518708908906 23.864628189203785 -102.996625007376636
61.248262943163567 24.121714338817018 -100.963616032952388
63.009169119460260 24.188746843849110 -104.989975725942386
-98.993469286098914 30.383685771394017 -105.657040053605627
53.339846795735937 25.457823988188039 -105.290347277904218
49.922989469811071 27.186641397725111 -104.354707103162781
47.745621047543146 29.967151524998254 -108.340910422917716
-64.636667629606222 30.161334484863723 -106.818929791512517
101.490385263964356 29.819545844026305 -107.263609045096715
-77.303502111161649 33.751269635158785 -110.893714900048934
68.830952322147908 32.624730123839086 -108.669668199383679
-81.144381053858552 31.185906176678717 -111.616708845574266
73.129552502455752 32.893514454160723 -112.816199387642911
-68.537042075176615 32.229940107009945 -110.870565915634700
-70.015036000587727 34.509109882087792 -111.252079146492008
-97.861274352556563 31.826760290663714 -111.404349565866681
-70.434003305051831 32.268391442951014 -115.253002121192310
74.178712568034967 29.889245511268658 -114.722390605636761
75.445854421785427 35.921375753067302 -114.856616964542511
-77.166660758800674 34.787336749426210 -113.013789113428317
-79.429852716304637 39.743693890942353 -116.202384888387229
-79.785135886495070 38.208404082243582 -117.211540872666305
-97.664251971656398 38.942818184785956 -116.542856408579638
-86.211601598957472 37.859733270117218 -117.461127755733926
-95.977431071188178 40.696469430089209 -118.951023925247625
-77.937472084928928 39.833190216821052 -118.107199876615923
-77.396867196824516 41.765624460081092 -122.634136817450212
-82.980850687974083 42.348542551092038 -123.236616847576556
-95.278063810315302 46.858131261904255 -123.851876701501538
-56.987983273605010 45.017343848808331 -124.233956472656871
-80.126508644419758 46.355813587712738 -128.856902258919291
-77.028556736161832 48.255935428238750 -127.558650738829556
-53.517154272458662 46.970083826296388 -128.461233788292276
-74.702330725888160 50.152210469011251 -127.003068809159174
-62.632374358512294 50.068238987240150 -129.443185996741278
-88.952382878955092 51.338883421185315 -130.285131675058778
-81.324985436842866 51.261344401372163 -129.233433280907292
-86.427820006652169 52.250034225362214 -129.108195825094981
-74.981896641404759 52.589262989646372 -130.386808468708239
-80.083283939528272 51.353383313123778 -127.829323323107474
-86.740549680827911 53.402904407465016 -128.036349808724026
-89.155480753558379 53.233125625384574 -129.688795661284274
-62.944350226512960 53.938215702922612 -133.090838508476878
28.976096159562896 54.668738980848737 -132.978101409007479
-92.063125409177516 55.945468900001885 -132.963724888981034
25.637876606877082 56.080841411962311 -135.735178088091516
-49.437200138575776 54.176771694699937 -133.092932282375102
29.966596045697237 56.037774035137055 -131.635365416216189
-57.837621761684616 55.473459985493399 -134.710281922106134
25.914009934033530 55.034042793647501 -133.863831284000156
23.728248087948341 56.507760287223924 -133.405828318735104
-58.872174733393130 58.695443035407713 -134.441419206987945
-53.122405586034944 60.231669750746832 -138.946368768951515
-88.904884472923797 57.669365319063118 -136.575250177060838
-90.793705179779764 61.249176106840487 -139.686132775808261
17.020750297353111 62.219702889644836 -138.247984901931375
-95.774364912159015 61.539749913594605 -139.894205798978135
19.696927915189725 65.976126558482775 -144.189949237971746
18.415579533343053 65.541349446690731 -143.598541485264207
16.780524246003388 64.240347162095716 -144.016019384517364
-99.565475265888395 63.834865934031001 -141.865753893002648
-91.394093573977358 64.159442696442369 -145.218465684053939
-95.002432789970570 68.227093076699504 -145.034774591075291
-102.236541062797812 70.237923821348048 -148.756679996076741
-97.257377366842491 73.957018302115259 -151.930885294648192
-106.571095762227372 79.134316574293479 -155.977705860094375
-103.829454192149200 82.910603676961557 -160.714529423585759
-104.471380060442144 84.235111629562553 -159.806715758862282
-152.055631436546406 82.229938078550234 -163.403466169422899
-110.402222931238015 85.566381179757173 -163.841852572425552
-106.239859677564468 88.213594025968717 -166.087068152248065
-143.249980732367618 86.037125703196438 -161.683218416371858
-110.165546399082160 87.558018185443757 -166.434066028889958
-108.678216528303295 90.764467619818817 -167.833256725648681
-150.986993959568537 91.636225351832948 -169.290439625912597
-111.202767609428449 94.810252745052807 -172.383563666688502
-145.153543288343997 92.084052080674851 -171.710364494105647
-110.019980685065164 92.238358634791183 -169.740819633531743
-148.974131257045030 96.200504780996155 -173.989089525764655
-144.581270805810732 96.103260962926470 -176.577198843813846
-133.687310336485297 98.257953920599405 -177.504690064533065
-109.247832571848306 98.442177031919869 -176.680439504702036
-110.558826725496999 101.017531164006400 -177.272414316526380
-114.708762923289996 100.569504952142097 -178.171777018088108
-133.502491256526469 100.445950955288950 -178.352269445888851
-107.489861047604194 98.234462457460836 -179.955868762087135
-116.653815353687108 101.569057930915292 -178.977997865708403
-111.900470550966915 100.651106952180143 -178.090583492061768
-122.493186848018695 100.214190423908022 -178.732966948518992
-113.270556202450948 102.129222900788491 -179.372276383997530
-134.186634822858167 101.731242848430966 -180.321239541833421
-112.508311336588463 100.800244687646924 -181.734616210673266
-134.193506336465504 100.764248208541645 -179.939595478501531
-132.278694363267334 103.487289071777454 -182.246857235731255
-125.821986471745745 104.089563461592860 -180.470365460681364
-128.461728382897604 103.892161673769934 -182.125377912831055
-123.517826265590060 104.058972472789776 -180.615414084444780
-112.365862047902951 102.125673032825034 -183.376121664677925
-117.127500958207676 103.984203452407129 -181.815139718638903
-146.293106984918012 108.673038770066256 -187.307087676523594
-152.846792328324426 118.348557210754265 -194.790766839715019
-154.840406754325130 121.690312843034548 -195.099511024567875
-127.650447161240677 119.675569289137712 -197.990787402582185
-130.821971253282754 120.603713029421385 -198.266046937980008
-125.540847643925673 116.341857362914780 -197.924073762953867
-142.210336295296969 119.029108430662731 -199.973416825258795
-124.792885606900754 122.335395023271531 -199.233253260721085
-133.031261146025372 122.401954027499997 -198.625327415850421
-135.293174108406760 120.397674338821702 -198.733862531070429
-133.390060893090237 123.062015218422530 -199.953254047832957
-133.237740763017854 124.945034284923068 -202.731381365616386
-123.932103993964489 121.794880831438604 -200.192031603172552
-6.532730126575224 125.867157740605336 -206.779461941716590
-7.735270825101151 127.803373394323373 -206.042230760133180
3.913019040713905 127.880275510900717 -206.777110823753333
13.114416963858181 131.673657783157978 -207.613219786609392
-3.055659354842313 130.418832112747538 -208.368865712074239
8.876997855756230 131.165641118495046 -210.841282780532453
20.030318888087997 130.800735764748538 -209.093731182475352
-9.462707068603626 130.941841764297777 -210.098621290830181
-9.415807883945019 134.104339320529931 -211.753389601956115
42.857940332502231 139.010743720575732 -216.542123339727283
39.524207299866674 137.360919573654314 -216.697573779393906
36.279154865808138 139.344234202763374 -216.833769262318754
44.651396618071573 138.682452091289633 -216.313356495851878
-143.776947710407313 139.643063086863606 -216.238099114313144
-144.791144696697842 140.663145638841172 -215.521593477946254
-153.968229357324731 141.703006436127936 -219.813517076082661
38.063903373682393 141.081524460700848 -219.352448851650365
31.945293420471081 139.529746315873865 -218.666684922641622
-156.945702461522217 140.906131525728341 -219.262393709381598
-150.630355306471159 141.482193208151187 -221.746003468609985
-156.435800255849017 144.370984513497632 -221.014470393502421
-149.218744652343048 144.307027871585035 -221.568216066053054
29.441431748660179 145.723095735345055 -221.753230296150434
-0.904504759145051 145.378689435094998 -223.747110985639125
-155.898465484465703 144.793189665316362 -224.580439808976251
-151.655536301900781 146.664248811435328 -225.256931731071120
-151.346854254681944 145.391887023354400 -222.209931019056626
-142.959659757151968 147.180196578596849 -225.063981427281021
-151.376991531114214 148.151850129047631 -225.238348717168691
23.566040477358349 149.540411993830247 -226.559557699027721
-147.175782757597460 146.698284437728915 -224.471067762919176
1.674476067569737 152.951131807183685 -231.109164209121928
-148.563532671919859 156.848742865243651 -232.346432232379385
-148.828222880265315 157.791966214843484 -237.349021341748823
-152.758091972594769 159.264856724401966 -236.098335871298843
-155.395463861034216 160.131496183728075 -238.155591373376382
-146.012031696703048 160.156830398349712 -239.090974968689181
-149.356808816091302 160.668296993754751 -238.467423365670669
-144.472746875793717 161.167019923025464 -239.736772591081433
-154.324260624131313 162.412780163704383 -238.967783620366731
-144.575554820300965 161.539544642432674 -239.542518637711623
-156.085258411515497 163.174223128205057 -240.382427993017615
-151.136779323789767 161.097100623683190 -238.724659752527941
-148.323522043091003 161.538259912935729 -241.294582231610121
-148.047262658757660 164.187480170940717 -242.654310585718974
-1.610210451025438 164.604412896444472 -241.139056338135845
-147.341290435674267 162.573665681788015 -239.170379139939172
-143.017778092246203 163.379226714594694 -243.396547867857549
13.170189662241103 165.167914868202132 -241.719448316488979
-151.982467235144838 164.372979208093767 -239.440187108923084
-143.338105068146888 163.819048784767801 -240.106317701873110
-153.517988222454875 165.979600531119274 -242.924326822427673
-149.019350642949178 163.917613537393663 -243.901402589515868
-146.768771090960882 165.921019485459567 -242.469625689460571
-144.916635694705519 165.861012930016614 -243.377471112796428
-155.396884751213094 165.337506937314771 -243.716660450201402
-152.039597836339397 165.284831091862316 -244.163575099756258
-152.436676900243754 167.449206339533163 -245.463160671468842
-150.552681619874562 165.357811254969022 -244.931018194504418
-150.739113001331134 165.138206120838049 -243.537579717664357
-145.091130623401966 167.872766640874801 -244.192842021376634
1.805340896963382 165.988750579856344 -244.007361383738157
-144.244233701152552 166.779480265791449 -246.482540285469241
-145.817873978983698 168.110803323334267 -245.779510412141690
-145.380617238990652 166.153161982210435 -248.250821848073372
-149.251532156016765 168.131264687007132 -245.616151158523792
-148.852486666816247 167.853870431691433 -246.984755573188352
47.418567049979167 -26.378248645309647 -49.748784973842291
24.897991439258355 -27.694757473049897 -51.614741822556937
29.628165637467035 -24.659197591254266 -48.321752469415834
40.880349549392108 -25.311228487928140 -52.318825172446680
43.761778606930228 -23.845547759598315 -52.015582993783013
42.324896817421248 -25.216727532399155 -54.129392362659111
43.355477256050023 -20.002348512288947 -56.535034762531353
27.344663771509349 -15.374026953400715 -60.893116477035107
38.413381309958609 -16.709675853025065 -64.106985102840852
38.031192752789387 -13.122767144287668 -61.680094838148733
-58.432510966808636 -8.625802120637786 -67.307118950288327
-52.807928430033584 -8.188535048041901 -65.392426837010589
-76.245226212867664 -7.603700348138952 -68.849852673313464
-33.785548727110161 -7.804317218291978 -70.401860049783650
-12.335557187400687 0.517108994276394 -78.686392623514109
88.060906056398323 2.617394496108945 -80.831173320670459
-94.291199820215496 5.800212069592216 -81.769105571818471
-10.150797005643241 5.348226048182068 -82.611479825519467
95.293042646666066 4.013932769311210 -86.673155148293887
68.021047265492015 6.658904237984384 -85.650953425562179
-34.062546766843781 14.210374288483971 -88.614606513514971
103.342025308071499 13.733460901321999 -91.358824938424519
64.748656531200879 15.052015857050703 -89.573013119298579
64.625316766755432 12.881979324333729 -92.499951946514216
103.889133097495630 13.674636504494783 -93.404714530344421
-41.206149410756638 15.835576491453324 -91.889555303353816
-38.217301870203585 15.885045327758563 -93.597940503254392
-100.169907429157405 16.617710587803920 -90.534146794729992
61.313387321776410 19.360693826930380 -91.353478057691007
-58.523752319713452 19.864069977888327 -96.041625032301539
64.003457676439439 20.620099785597915 -97.486403424411321
59.830866645213817 20.362291007794951 -97.854308208737947
105.048350558917591 18.391371660312156 -95.484665384859369
65.115594264583123 20.224836713933243 -100.252855301695959
-61.842713899217564 22.621412584725991 -97.830912360228112
-99.593185557091459 20.538775958746346 -98.403663330582503
-62.126908713376885 22.919061819083225 -100.926225080386544
53.664307128874555 22.344124018611957 -100.794114503792457
-64.003578142988971 24.199705484165669 -99.913813586986763
55.667605714171891 24.937943613127828 -101.559405939362378
64.359718585348077 25.436816725645041 -102.562767744047363
-65.470335498508732 27.147752502619856 -102.363751778502746
58.037043773424131 27.806785596869076 -107.315413847013190
54.180439333790410 27.744454692286460 -102.505872881853222
51.427281919373243 28.666304692320949 -105.954498936760672
66.741627983491156 25.897376032127717 -109.483966606155477
100.573497959010737 33.568055867228175 -108.765089595159864
-97.298551398129007 31.556738898435658 -109.280042358364440
-79.201771770036089 34.102869948953895 -111.097690101132670
73.225585230997353 36.104411926121109 -111.457886345486486
82.982539348933102 35.472760896623839 -113.114893567496992
98.135610722807769 35.227379055781000 -113.339469768331469
-82.621822832673388 36.582757134728396 -113.046973957172085
-76.388602664129024 35.296516609849789 -111.742920055866591
-74.171887258193820 37.662281106610315 -111.996223700058877
79.752060860635893 35.244366999394799 -113.369862784623336
89.728020997490347 38.420282263887444 -113.299383858225738
90.901672068335017 35.627589458889972 -114.709279357734587
-75.597034728159926 38.293399298051220 -114.193892887563649
-77.693445745482435 37.348589330771510 -114.792180125831479
-82.118820884189233 39.327861497279144 -117.508916590899048
-85.193751038451651 41.856804453639519 -116.576147518619663
-65.379125523300473 42.387242743299929 -121.791419667748471
-80.605112085109610 42.466661942207814 -118.562600320066196
-88.153509107173662 40.589395186322257 -118.389477974393429
-61.892522680849410 45.546566736054892 -122.183165946095045
-59.051425317794077 41.779142825953386 -117.143866102834224
-81.218797930845099 44.615717703259612 -120.936716149324241
-90.999392913463751 45.190706157116431 -122.531034724497886
-79.670280946053168 46.701691921651680 -122.215047118975804
-55.715461582898655 46.532342586266196 -124.774854671064872
-61.688316281433799 49.706553954989630 -126.106566368410910
-54.326603555080858 50.509122520831589 -127.430294388414723
-76.904560562271868 52.234313785275880 -127.668141265823635
-79.219804989161503 52.325668470123176 -129.982556596052632
-59.188270886540217 55.810226812870326 -132.032901234841546
-56.850256381353361 56.301135107577771 -129.802098945034885
27.120756336211223 55.799743444715887 -131.819119816371256
-89.164870964472911 56.632238754924181 -133.574416729478401
-52.736533726954356 55.448931636740994 -132.861252471851941
-55.173444512625849 58.819467028294632 -134.262708477523773
28.874465949375114 56.328482636235456 -133.065010944765561
21.073601968276716 58.733657572832463 -136.669936787880630
-90.591173858238193 57.638367353057120 -133.965829708321962
25.354105052816458 60.943469177881902 -139.173190406377444
-92.820855865958393 60.725295358625999 -134.516458962087569
-92.058861946852574 63.929075565398094 -138.808941350309709
-94.109846059983212 62.648956171174795 -137.470221910226201
20.005050688091252 63.325699300170029 -140.902918027939592
18.782675986578074 63.695135851251131 -142.780838575723436
-90.649962285824444 64.205221796263004 -141.929236300955552
-96.239266814975238 67.478183336941171 -142.164639922709256
-95.753646413104391 66.162649195187356 -139.488782577308001
-93.540907018957242 64.792500003679578 -139.461681563899788
20.350249294884403 68.121332333918986 -143.022225521937685
-96.924006426658622 67.064136447885971 -140.364717448715680
17.006407876112139 68.098875924178486 -145.082939902911448
-94.778129271832370 68.934504012455818 -144.806112504204776
-100.880721439796190 69.138783725022606 -147.127867788994649
-99.290544492438940 72.653044503996611 -146.900553814764720
-98.737884480611243 72.551886346453202 -148.242501208976364
-102.097359646665325 74.092264680494125 -149.685930357980226
-98.767492522883202 73.978375074818530 -151.888510181036423
-101.690449921454231 76.507869021584852 -150.912773312840528
-104.895260056021954 76.991349529500724 -154.205610646518267
-103.762510578003500 80.417828780671371 -156.554119661207238
-108.544074097362227 82.087749198581818 -161.015325403292195
-104.369887533670138 81.744925608104950 -157.046738247249522
-106.333922508389108 86.660718653902777 -162.592205107650159
-106.287358885954802 83.028762694409551 -159.466460189478113
-141.711360234143029 82.511173263284093 -162.576502866583752
-108.519483607959216 88.060850872306219 -163.342203690371093
-151.129097359280934 85.252134250248943 -163.887825850820576
-142.906668250052633 88.563062284503332 -165.036997717165775
-146.483192299830932 91.166739882712008 -164.981841092069573
-143.369633373206568 90.958845830307666 -166.750122851628902
-143.519284662179729 92.733173846282611 -170.202498505402104
-149.029466071635539 92.874394557164351 -168.497687385915981
-148.244278468987261 91.558114426243733 -171.369041161307223
-149.795578317119094 97.971075100501949 -172.513842232043373
-126.134315465401983 98.735943988662370 -176.250353166230042
-130.739241574233006 100.703287007424308 -176.357021959023086
-125.997767088411521 97.817128410111238 -175.044809202841122
-131.574602176562678 102.469672378587504 -175.452497958128561
-122.381955474601909 99.662087531239052 -177.422967021748036
-140.423486532546605 101.861404483229947 -180.688861345669636
-142.030209780240085 101.112844754193077 -180.914984181672907
-124.197486065895902 105.759926702610983 -182.149143291689256
-149.618394999201797 106.329102451548763 -184.887090622781926
-145.744671315280186 104.000416721558494 -184.250550896142613
-150.293309164415092 110.183779696538082 -185.242605721103644
-150.383522218845144 109.549980396507323 -187.666073852608122
-147.993993699619978 121.443794443593148 -196.488278028687517
-155.132555333281800 123.000402170091235 -198.086783785422313
-141.155139278352863 121.496865529254606 -200.872140436609698
-146.339965854193366 123.689018698695989 -198.619408097283042
-124.586733132245854 123.433443699674925 -201.003940215502553
-154.984519605587394 122.879259145635928 -200.613824100733041
-153.738529314220756 125.234622186407037 -201.613909446531039
-1.281376972408633 128.852285958664140 -201.916639102462028
-3.087200788047928 126.303737389827120 -206.174158306757874
-147.548608962410441 126.786416374329619 -203.832584427305534
-145.975145978209326 128.141967834257287 -207.123762255646511
8.707327289010037 128.499305023982316 -207.137942337424931
13.266477132640031 130.000035346547236 -207.266840959767563
-6.435873287248258 129.644702410446058 -209.709389219009637
18.740750105186233 129.256077892262795 -208.103253452673101
-146.742131396912839 132.614846020823620 -210.986062034021217
-150.031829903775701 130.508709833050204 -207.092588178311814
-5.280082310139530 135.513024697301546 -209.954525624759384
21.150895418339502 136.299489211435485 -213.323671085749311
-147.386976392363493 138.643853355402484 -216.964427042314384
-4.665642132254460 135.459474146389113 -211.770172317049827
-150.414796496959696 138.900797416739891 -215.484668981587106
-152.683337605069028 139.575462229943327 -215.697000629367921
-152.409803434839432 140.592773170962460 -216.965291882070744
-148.043280577635869 140.413902800851275 -217.332449983773074
35.168185033395709 141.667020903974361 -217.705053541257968
-154.466501063335897 140.995234604013092 -217.498191648380839
-146.356034059573801 142.534060197232947 -218.008644111612170
-149.022793129566253 142.127098246218281 -216.224361121396981
-149.849522877332561 141.407186087015646 -218.619156462509665
40.194183072706991 140.141018108210886 -218.783408563192665
-153.308896090021079 141.833361289674798 -218.894123030322646
-150.375403801334386 141.803377559262884 -218.291187186876641
-0.468519225800892 142.858263298222653 -218.694600156667661
-154.921183299986353 141.650736514264793 -220.877826088907511
26.851965278807150 143.696316616298304 -219.627118533369611
29.145803460092900 143.976438652712261 -220.203920300299217
-146.754324447228811 143.092201613590589 -218.928139743651656
-144.897147830020145 142.936234080968489 -218.736865074260578
-144.806094154919890 145.689048335944676 -220.948262465900967
-151.104766509095100 144.665125743242385 -218.743138639796058
-142.173156120719256 144.740429786124309 -221.093575481836126
-153.411109819621032 144.590007824879621 -221.149641297179926
-146.859776580264707 144.800982189219866 -222.350360538072152
-151.340874584872211 145.597670011083807 -221.033194562568895
-154.029940122731489 144.838122761116665 -220.724489355711569
-148.530834265153118 145.769365337815088 -221.864917900095577
-144.504461998208086 145.732416412852785 -222.163711438365937
24.950671890515753 145.287173750586334 -222.965996033644387
28.880502025394517 146.607021895225586 -223.529249557635978
-147.241377878837369 147.630240309976386 -223.329052730250993
-143.560596866180475 145.340356904863938 -221.635505292169057
-152.799187153867678 147.442791327334447 -223.365197938122549
-149.671925058394294 147.203074985232263 -222.674196113539580
-144.781882831959990 146.850250557300541 -222.215573224127979
-146.616654501334153 148.430354612990357 -225.369234481300595
-151.466272749333058 148.595689449916193 -224.323417140692953
1.789442530423268 146.567054035484801 -224.356443695587501
3.586739105643894 151.638365938502005 -226.477620284806903
-148.445125062950751 149.082447028494130 -224.499744505877857
-151.038356750025144 160.681342120051198 -238.420826633683163
3.843787442259501 153.832833015754545 -230.054777525972241
-150.343858116563496 159.157779012112428 -236.225383093982344
-148.188735284182997 158.985934909204900 -235.940126862894715
18.927522416728873 158.327869644687894 -238.898086257589142
-146.884066900816521 158.588843413625170 -238.079282763549145
-153.624809325890681 159.960240846316736 -239.351046065355348
-146.807466843402011 161.097904013580290 -237.624213790171211
1.060917765660330 162.018891860840142 -238.595230539605382
12.774137506197691 163.060230437266540 -243.080874756240775
7.936390109987637 167.756026482376399 -244.711758905433015
-151.877832875967329 168.521718765724899 -246.971659901970327
27.392838192820914 -31.197268045613868 -48.479115481086204
38.153071920727371 -25.470953219032328 -49.000959729139197
47.582120174487393 -25.569963386568602 -50.280769552224349
50.298815162448307 -16.508079864269877 -51.771657144652472
50.016606048181508 -19.879494784087079 -54.908088112230999
43.059149476752708 -15.309810169433167 -54.956764638731052
42.000482537543853 -16.425118801387821 -60.626772694764711
19.924690458076252 -12.175296205075885 -55.732151219381272
21.708656163430813 -13.778959704262057 -61.858543220012720
26.567182927380859 -14.686700028220688 -65.713444602585412
34.405253948445036 -9.365655221874437 -62.224784221030205
-47.056648989799882 -7.618849395763892 -67.696800782237403
-43.341535912361863 -8.262537255816092 -69.044007644503452
-88.002355944390587 -3.879606146396652 -75.140193263883006
-88.730065170305437 0.374020880986227 -72.558279889445416
-88.754379693698894 -1.773250101095193 -75.962400252340331
-8.894396789887487 3.418119936502682 -78.146657966568611
79.323463741909649 2.054316459638458 -78.936003227527934
75.409273327278100 4.287833659333621 -80.270300275915375
90.349992471515137 3.222255741739322 -80.767749315747253
73.994811098025252 3.328128312319103 -78.479848393944849
73.682387757317301 5.595111982395585 -80.565580886502474
70.078385902426774 4.156964257456381 -81.945496238166498
-11.885191124720530 5.671211491686348 -85.107658124613536
-96.688867319025519 8.603125956113615 -85.063689494774962
66.943438744422480 10.077411405214612 -85.782149335111384
67.587496141091179 10.375278217981787 -85.867223253258160
-28.205581141383952 11.578906305557313 -92.207077408550717
-32.832626038842548 13.020692539918867 -92.202988146491563
-53.883965151798328 16.793355919401627 -90.909224352120063
-57.101004776657199 17.131177423121116 -92.322674130056527
-59.284781249586835 19.295956729453835 -94.336953338494254
-52.632792193929056 15.962354499325997 -92.231098657144031
104.033242328123634 18.009406959208341 -96.645760848950999
62.755322986580893 18.619827137385982 -95.862880701380803
63.971994960488203 18.727203299065486 -94.887423108523819
103.651874581478822 21.158886094366782 -99.375503843697942
-61.817464593320771 21.167955452292940 -98.650548057306111
104.622815342002411 23.787491241424760 -99.932712269173678
63.032085313793402 24.981858667869055 -101.587769861596684
64.469616352510613 26.274842417049545 -100.545786380019464
57.891677068905537 26.481335464341932 -102.806254719520894
59.678961884362906 25.622599849601237 -99.195080833926781
64.330799395874507 23.396654155611554 -102.273327101585451
102.406686085976588 25.126796710404214 -105.446674719812989
52.794902473284395 27.480732603322913 -101.606291610223366
-67.118885453571650 29.186977862565140 -104.430697236930314
55.398218074168312 29.073006035131719 -106.504826427439454
-68.292005526170513 32.100201641872090 -109.393377016958866
-68.229250589188496 34.690676075025763 -108.436689223818703
68.176877337930705 31.750020040372654 -108.749660301577578
69.587834372710802 34.156712212267983 -110.029738805399802
-73.401318092801063 35.695220430652682 -112.614107701370955
-98.366994443779149 35.800075626833966 -111.105989772920054
86.038180281488010 35.168451533510513 -115.794666070749884
93.828450822136006 40.207999726259601 -111.037042312709730
-65.039845836318705 38.655919095662917 -115.082180361811453
-62.203188159906468 39.688875171882941 -117.306906641636630
-69.588884855919133 40.359912219540028 -115.266991520978763
-81.274961372521830 39.118284764700036 -116.840274520816024
-65.297638009897923 38.824287704711416 -118.280011393917803
-84.033118504567966 39.755617642161759 -114.562026045217863
-81.496141767800196 41.510536665702595 -115.496833442684263
-61.477248800820007 39.350337934111636 -114.058234879245802
-65.901881781417430 44.406060250112226 -115.696633742475214
-78.500264012111600 43.275218031340728 -119.945236130667539
-78.289616358898542 42.553872172396311 -117.434579651215316
-80.502809947491599 45.810197925579665 -123.158579900633214
-66.871604976081798 45.086944774711640 -122.849983938507620
-76.524615005781385 42.460860143283831 -120.139716833406624
-54.340333850442747 46.263676915339119 -124.877568070600120
-88.855511382508411 48.463211922067067 -120.923578446207017
-67.463001800200999 45.413749599115242 -121.150369051278318
-84.639152623187812 47.096434555448539 -125.530674580933407
-75.643564853846271 46.147663535817081 -123.518055302540006
-63.997902500574071 47.536487764087937 -124.622647647255121
-56.322096512988310 49.944333808270819 -125.477661947849839
33.230039305674467 49.629053843049164 -125.986457997565822
-66.039492421432854 51.108889255326538 -129.320991177065224
-53.722316717412099 49.968683397496839 -126.531982271297608
30.554535156400714 52.857163971798286 -127.041235477207266
30.192072161129410 53.540693335747868 -129.412640001887979
32.272093688334920 53.691442492551843 -128.973765334059522
32.211500760611798 55.785291220374873 -131.659367931116634
-62.787447797971652 55.312064401150906 -129.616577136789431
-52.978305691728281 55.638269064990681 -131.580272926192208
-59.993327151087861 55.583452111646345 -130.527412968535884
29.085456112056331 59.115694090319209 -132.533091455876104
24.911485220153882 61.703797320997523 -135.506649062803774
19.431086047387982 58.752979613791268 -135.891132918331834
17.733273050058290 63.389592632568757 -140.193517834461574
23.756534028626959 60.645738452801972 -135.959453533668579
25.359562959868551 62.511687462273194 -136.198252679828386
18.261696973558678 64.537800956295087 -139.539579553677697
-147.880989234901449 84.134713162991559 -161.619817607011555
-144.245581033556761 85.782287292561492 -160.281686658145418
-149.765714444109818 83.379292150141836 -161.362419632577371
-144.790422286566269 87.042766226902813 -162.271963005856946
-148.367462844524255 87.985316990189830 -160.667585683300246
-152.672303303193701 88.169509567200080 -166.840153452627447
-149.157476092327528 89.939477097695743 -164.204097057850674
-145.751184199651988 93.302060035670010 -169.700994492050597
-147.012678667952429 95.688864608153267 -173.385418367595889
-144.802558640663136 95.685885614855835 -175.155230356868572
-147.759039386528826 101.404632292013915 -175.314579115050890
-145.154078932775832 102.479189402045179 -176.655502898168322
-126.123128975371543 101.695054288652727 -177.023615582587666
-133.216567105588581 102.789812678065942 -178.697819287137293
-124.363571581196013 102.992448312441311 -178.422538984518525
-123.986717113045600 102.097967563020063 -177.694070383592475
-139.202003010043285 102.688912404132637 -178.456049599367418
-142.949010581898307 106.165671813722653 -179.738734469978937
-151.185364369289914 105.781057915145880 -179.858959754768506
-149.815294144430169 106.200441062117221 -180.513904461586975
-146.355571633170058 110.271309912052942 -185.715008701457748
-143.788732834766876 115.099042570441824 -191.816650690851674
-150.519976220637119 118.833897689042217 -194.636159381854696
-145.165266427557128 119.769551347204853 -194.278310181735378
-148.449727885496486 120.497661389413210 -194.636707274213478
-151.243338238633100 120.373872654496807 -196.473582836715849
-149.333870492454167 122.245229897323526 -196.697466342104292
-145.220326138237425 122.070347169650120 -197.258165223407417
-154.072411745906436 122.864934395824960 -196.249993840138814
-141.311422624573510 125.529712934814015 -197.515766594324646
-152.817586354026673 123.847208531180598 -197.131519000115588
-148.684558819876116 122.037614967845911 -200.288529382079020
-144.235580040413225 124.632029136601574 -199.633163183683024
-151.884329757400565 125.263205910440604 -200.111862245761785
-146.633066991438000 123.579693459342977 -200.346227836848982
-155.635946339298243 123.934837905900508 -200.951571836332704
-141.617954269093758 124.895816965186995 -200.295856039375849
-153.099128820686104 123.462322779081248 -201.787525589320978
-147.354965257094506 125.780000207220752 -200.675791066679807
-150.589040734387652 125.530060844422536 -201.349788730727568
-148.315590898641233 125.356552932525716 -202.029220427055975
