# This PCD file was generated using the MATLAB® pcwrite function
# from Computer Vision Toolbox®.
# .PCD v.7 - Point Cloud Data file format
VERSION .7
FIELDS x y z
SIZE 8 8 8
TYPE F F F
COUNT 1 1 1
WIDTH 800
HEIGHT 1
VIEWPOINT 0 0 0 1 0 0 0
POINTS 800
DATA ascii
-153.075688054548976 -263.267593957516510 74.834217382509124
-126.358443076151190 -262.455910004011798 74.401215011447377
-123.659170314843564 -262.178627070842424 75.850434927479469
-14.746731102926349 -263.457140563940300 77.040638537126426
22.357434051604027 -262.077288300125758 77.790226793701422
-167.216308135387976 -262.315955200336418 76.064925956061501
-156.852031211759794 -262.200085183156375 75.164714309599319
-153.089633057107932 -264.188881779324618 76.968336314745471
-143.622785997943936 -264.628714880462667 76.039281210495474
-163.699109928525672 -264.406362724611483 77.596731898779311
-158.758208112075295 -263.946137157364660 77.829184867711888
-157.371082143477196 -265.442563941969638 76.385605282841425
-152.987976819726441 -263.718893854801195 74.593625870069431
-156.716313151766656 -265.082995281343131 76.036891814420684
-148.817832575180148 -261.846805812702712 74.959969904804254
-165.948430321045095 -264.665208003558746 74.951313364793407
-159.509500105735782 -263.709611567688455 72.730424722401366
-151.592503861099090 -265.124233158527375 75.380467705513766
-163.230893641245473 -261.819179966824947 74.469252732587208
-159.786850215914001 -262.825964196006566 75.258030169334276
-157.563711705776683 -262.789653551270817 77.814070181491857
-154.029998665720228 -264.454051005702297 73.828632638944526
-143.862650825912283 -265.716152037115080 74.709381929738015
-166.994750980670375 -264.068001619438917 74.712560278882847
-160.007495105853081 -265.814090418696196 75.854721130612930
-166.810240572925409 -267.548016983357229 76.273864830385449
-160.006658486010906 -264.070660728472376 74.727853424378139
-160.990858759992221 -267.091565072020387 74.800782520913188
-156.555685014502927 -265.760268860514998 74.552634010139741
-147.735565752345224 -264.297209365920708 77.560039405659595
-151.927555612991966 -265.761596208045887 76.892392941629893
-11.675348322817454 -268.315369817849387 75.989987249433810
-165.518715358917916 -266.373418080909062 77.693273478534607
-153.995392839967593 -266.510085578776796 76.622435181246459
-151.259002303257944 -265.213327965786675 78.660295984352899
-159.050318642405216 -265.873251812471722 75.659639744007578
-155.723230506224979 -265.521618769604402 78.366650876305073
-13.904470619712965 -264.015078913308685 73.679447308682242
-147.443308497913421 -266.953866778119391 79.044603287010887
-162.643475478293055 -267.089445576647847 75.213916891486903
-155.731694975912518 -268.811084742558251 75.305637275892948
-157.617863972220675 -272.286231825779282 75.555867690047279
-152.231418258060017 -268.196969736417429 75.474651881850960
-10.991189093252910 -267.948252193863084 75.802754994343218
21.074954781320425 -269.869041136625469 76.784452373349126
-164.000503468516996 -268.432478170736545 77.300612490974814
-163.868120443038833 -267.722815358513117 73.215291039971802
-9.084813509570990 -271.972104879433630 77.685724474865950
-159.295379558887134 -270.182434030200056 75.368517421762078
-153.947717574456959 -270.487128381298021 74.848526115449900
-154.022095208203751 -270.397103827050501 75.782996374444963
-149.899361226046068 -270.251529360353686 77.325242097640412
-147.880820035414899 -270.802229169360203 77.680195648018355
23.057145476163441 -271.746742360096732 75.253627344725444
-149.210168188010869 -268.352343801034351 76.353908726266340
-11.882531577443880 -269.867109943067589 76.773866040462792
-146.879541122466350 -270.319969874208084 76.895560285491356
-149.768125480842940 -272.526391465793154 75.360051680426267
-164.215865060814110 -275.156405140291554 78.357727456784218
-156.582103855512116 -271.095788407169437 76.522143927712051
-158.087448267278631 -271.834261247744394 77.644056733090295
-154.930791900821788 -274.277739043962697 77.066654043569713
-167.657418607282779 -271.814513395498693 74.791371852151073
-166.198856808486482 -270.373828396252179 76.209640985823214
-152.968398339246278 -273.712205493262104 77.534292216800026
-153.243672018008311 -271.309242015824736 77.278580584972318
-165.385709792140887 -271.352810947411854 78.937081355403791
-11.187777328374937 -274.460299860100577 75.368995621178499
19.906066426924141 -271.249227503003453 76.701604837975523
-158.121355022486171 -273.238344136123089 73.993244928808949
-163.913575927080842 -273.551291540871659 75.930242791570976
-160.189565700940108 -272.368967957305244 76.352770720602621
-156.198152900281514 -271.946057798022196 77.032170914785752
-152.731651216294551 -273.191993013420415 75.524040928444251
-162.240267899021433 -276.178053931807085 77.693297235039054
-156.413898645904936 -274.420035353347657 74.360039803926924
-164.956147205783594 -274.206929402034973 77.164916577770157
-160.345858107948004 -274.673279935488608 78.874813035534302
-150.130471029792545 -275.690203937797151 75.528583062229231
-166.903522967797755 -275.215487584200787 76.416348807090671
-166.693234954789659 -274.455931487941371 75.883217056662502
-155.802879599026426 -274.716245498380317 76.994548337923973
-157.778615921261434 -276.714569736774024 75.755143572753468
-152.345729501586959 -277.813301168385067 75.006742559935020
17.674053161214410 -277.229318949306560 75.958641075999694
-152.167839226107560 -277.899442470010570 75.868740301290728
-164.498617568706749 -275.962425886704011 79.049999449923192
-8.540698452244477 -277.937281511302615 76.092892677160179
19.304906729442319 -278.832125358091616 76.625836235617854
-159.248654939141744 -280.058060892141896 75.995166651823794
-157.314923575448120 -275.915958540179133 77.428096514972168
-153.574113875179194 -275.798680589805770 76.294015411685436
17.030425118347139 -278.880193437595722 73.878255101720782
-165.562874085100589 -278.697377916741061 77.183547293494286
-6.826165221751674 -280.494940608646459 77.195706328941100
17.457980049055237 -279.219215780365232 76.510128268133556
-163.675114548647883 -279.035260033672444 75.389893558679645
-166.563025279158353 -281.206665988448833 75.401196446531245
-159.762524878762150 -282.026582970745892 75.758693413752766
-153.943809088202272 -278.504121030213526 77.384204312213043
-161.490834242839327 -280.697965009453753 75.986020651870106
-154.328182917557456 -282.769531625402976 77.341757330425494
-154.907787521789402 -282.745241911110611 78.048459225440155
-148.325703805606025 -282.056198081123057 76.883944338507035
-152.457449961398879 -280.847867839714411 76.181550283120117
-6.226853140994986 -282.193625751024911 77.699847161900394
-162.111606290158761 -282.427221481202309 77.741915515495052
-157.288542784746170 -283.277237788753155 76.440889612882017
-6.196870704907795 -279.233724829231505 76.558784407623278
13.566574671032988 -281.931796178303841 74.724234799445966
-160.385440062802729 -281.286602892916392 76.235739611998483
-154.585910667399730 -282.094354188757336 75.024360871953576
-168.097563928010516 -282.135732034855778 77.957691933673146
-154.286227568005785 -281.158161599004416 75.629842769603698
-162.903612048236994 -280.588283221134645 76.266308538901484
-155.348493270766568 -284.320611694022091 76.894480539034134
-157.569687350987294 -284.071692820153828 75.527109452913962
-153.514848913051253 -280.466790565059227 76.425856611615757
-124.548045022983871 -281.275647926897705 74.279265745100318
-5.820700074920580 -284.373077721177026 76.405622770639710
-1.856669772451505 -283.094463324379490 76.673845866245429
-167.258903506531112 -284.153398497735338 75.179657032255662
13.200152706868238 -285.327258075441989 72.966667665519225
-160.189807180132391 -285.036650766322964 77.153924762836084
-155.333917902844462 -283.618375296324814 76.772260320834533
-139.729274475306170 -282.741489018464790 75.134791786613931
-27.347578514646138 -282.221563487047263 76.888608087782814
12.095664587308766 -283.733755346541841 77.213330848142192
-144.438812577965024 -288.567485631621537 75.356815463920626
-135.936735047797129 -284.846305729227197 75.635501796922199
-62.983361002702999 -284.689378736938977 74.015409487278887
-58.834388144462309 -282.459450178128179 77.110119900582134
-53.985848749856359 -285.170546566276244 75.560113398173925
-52.002018338303209 -283.290534353275120 76.794988154187052
-48.417687098347265 -286.013382519132620 77.877534166073545
-45.714259564711902 -285.048182153960113 75.990407607625798
-39.230223063963670 -283.385876093822674 76.675997069867748
-30.117661920829960 -285.424146269689743 74.332894774152280
-5.017015264777177 -285.790971027727096 74.852833049917052
-157.535236757995506 -283.875155589732003 74.615108535586913
-142.237763384049515 -285.698831912203957 76.430414413647938
-137.129074807951071 -286.816109956033415 76.893579198890592
-69.031744056897907 -286.446675226057835 74.772194557971957
-37.498680718412892 -284.624383734419780 77.113812742754547
-33.415447100490645 -284.203677801247181 77.879966569233105
-26.798541599883873 -286.717760231834177 76.232809612164274
-3.482369194155105 -283.238694466628033 76.371570939336166
10.217075945977777 -283.880695219090626 76.879606808281764
-140.817938377311123 -286.077571901342765 74.805126581635747
-78.297073421728072 -285.310059000438002 75.412916835039695
-72.774531406411796 -283.647202463174040 77.203886536203399
-25.039743387249811 -286.001445878652305 76.125349580279703
-17.889490670470767 -286.929555723585167 77.332124630562475
-10.409189212065499 -285.558946358487049 77.264156178977032
-169.284592599548830 -288.381595800432478 76.523527312590943
-158.416322212880516 -285.413094308503787 74.713448367842659
-149.302222983153342 -287.800279678924142 78.032472740293585
-125.123475002767094 -286.740631370196013 75.107625544019825
-91.888454502019101 -284.789362597689660 72.884171756264692
-88.668087695148230 -288.434542533581634 73.977671300827041
-81.461671998506233 -283.977141795395767 77.648946499878392
-6.318270934845088 -284.301947337688375 77.515140723044439
-5.834758952410754 -282.796859045126951 75.797402393905514
8.860130064891884 -286.921233385564392 79.105500565710173
-166.300833813852080 -287.804130286293059 75.730056497668429
-122.858444250012866 -286.016553840009919 75.903525774152627
-121.393161335342597 -284.626727507488738 75.386187567421857
-98.507238442296398 -287.073911428484053 76.752581192066827
-97.601087482451376 -288.051445184953479 73.771852014069850
-92.238594649165890 -287.843027494736873 74.046557265947868
-4.267268758319415 -286.435063796039685 76.560213921698519
1.253718035830677 -284.858829540368049 75.599553156457276
4.560893696775229 -287.234983718481089 78.435391422795021
5.567927491524379 -285.488694880479159 76.478036304643410
-153.375361683523067 -288.114759852700331 76.527083821157362
-147.108453830565168 -285.843522837663670 77.762983619812175
-125.630212809497152 -286.598910860316550 78.848823401078675
-118.864324975411222 -288.867983612573198 76.257730755545253
-115.027858823692640 -287.578402626984087 75.360474717959633
-114.373094163143421 -286.542781517511003 74.723236748151137
-111.486819973170796 -285.192244897215232 75.830973113410536
-100.837383535301413 -285.262691965846670 74.413072993980037
-100.091942481111815 -286.764820770500137 79.998234012971309
-89.162214122539780 -285.363071012894409 75.647186242975920
7.789028429859438 -286.196011276589957 76.192017326542640
8.285633192335519 -284.093118068034073 75.270758379916614
-148.971780477830976 -284.667674417603450 77.718778604606129
-118.359007299786271 -288.367202388449300 75.566398154667965
-115.270390714301513 -287.147167638807900 74.971654079509989
-108.923289380031520 -288.413554753435449 76.601022400298277
-108.285923304512522 -288.743338046842382 76.463703806085576
-102.031729462403305 -288.836307541279325 76.492124761584918
-98.483277156427789 -285.896466057521764 80.490837418808681
8.876588123449499 -286.728436824898552 75.747347283801872
11.767979788195708 -289.269934393772132 77.026258855614117
-164.432499938504264 -288.575010481681829 79.169787668010514
-112.527524248380928 -286.295837591388306 77.508442290690795
-110.337830124896570 -284.247642971713674 73.576818807116865
15.840763652620630 -288.006765906230953 78.351280467953032
-109.630174592865387 -287.831823868220852 75.337300763824501
-105.157596223165555 -289.139472038619090 74.694738901777356
-100.072843416649846 -287.517532256881111 77.923513258410480
-153.098563305746637 -287.864265380299287 76.537447179718200
-116.004876063682346 -289.525001820336399 76.805698430008164
-164.450313656599832 -288.114843431531938 75.171376348106463
-148.678667409515327 -289.912086993475327 77.651217467225649
-107.588223694477136 -288.670370984171996 77.171918160131881
-93.938226606084413 -289.495117927274862 76.305279729345443
18.715119308256799 -288.235398142116139 76.457580766849148
-150.057221683737339 -289.447244422836889 74.625672194352191
-103.113109734931299 -289.066506194547628 75.840987353339500
-157.265639952696461 -289.407531718697555 76.136311852958954
-118.233409220255936 -288.238329988218027 77.111615623303152
-116.741150831254274 -287.718495653262721 76.302227446971472
-114.097558703959649 -289.998515222800791 74.792173601949273
-112.127358848694712 -289.642046012330923 74.942119269735230
-104.379133323491985 -288.724453292553562 74.948499164156729
-99.860746112303758 -291.916108497233608 75.340216080995461
-93.909447279039213 -289.788133504748203 75.204651635572503
-70.788385304333119 -289.127004848634897 76.178689569724426
-64.617551668992263 -287.824188563436280 75.379688429416319
-60.563324390035227 -289.179539753247354 75.328732196941701
-54.596177538957292 -288.412860526865359 73.934912733926438
-47.335445702013907 -290.459057362676276 77.065198999159179
-156.961906640671884 -290.009246822277817 76.690770893474991
-124.729954502113443 -289.635164701147687 74.056614142659242
-102.080412286869660 -290.209614268272389 76.276060506070237
-94.130305406946505 -291.000500787982332 76.705514418450704
-90.607607228642308 -289.852287376515505 76.252842985882197
-79.675634013293276 -288.973214831979021 77.082576101644108
-66.859158809857774 -289.099289696035441 76.826296299448444
-44.442311573073113 -289.491510269783930 76.856721162059756
-40.769004147757357 -292.068571468372056 76.575223594563454
-161.620682566086117 -289.672425573467592 77.034206927592365
-141.967625928538354 -290.713288262874698 76.960859921633570
-140.625526515905165 -288.895603912893932 77.313531087242211
-123.585103616808212 -290.263537920870760 75.750382380559316
-123.674758802249301 -291.810496943122246 73.300944594754895
-32.447334421365241 -291.307519925588963 74.161447154581836
-26.635836438461464 -290.086492244732142 76.310852279415883
-159.375677714493605 -287.670026645020585 77.000790744979810
-134.245152936341924 -291.890745355703530 75.197591979474510
-122.507681148737632 -290.849783521739994 74.806553236783728
-24.602650228504725 -292.126186932973837 77.508075646985887
-17.721200350282793 -288.814088220108829 77.263681246222390
-15.332423958610640 -291.339487423296305 78.678153974674998
-158.934470934155172 -290.086011737791864 75.577564735253162
-142.863058789592458 -291.491830366602471 75.711468668583080
-141.214850042384626 -291.152150112707488 77.681983336586427
-135.393736169619530 -288.780001990149628 74.562877159846096
-122.955025210258853 -292.025347855152972 75.250293533753876
-6.999437522662777 -292.009027536475116 77.341009628450664
-3.792860400778078 -291.968284551967372 76.475114285554952
18.237528422468273 -292.509485124075923 74.888971446730565
-157.834892904045489 -292.428249864989709 76.613355626689042
-157.745351055623814 -290.387073202714703 74.280571700493979
-144.789223021500447 -291.806427066518779 76.286555674979496
2.259653173285540 -290.268668916617457 76.014380962209842
-154.738090150682410 -292.393004739268576 76.715090358846908
-141.506766971345968 -293.675135182739325 75.331396787010149
-143.068643233071867 -288.921647429093468 73.971557964015801
12.106413323302800 -291.467713970684031 79.859042097340804
-159.912746171613747 -290.909062927730758 75.572887573049627
-156.725127605637226 -293.113011686076391 76.320694841520279
-144.020969758207514 -293.869532854055535 78.133638977888069
-131.857707765231197 -293.103894912127600 74.050149988696887
16.121995344830193 -292.065966069429180 77.759151064776418
15.354141184195861 -291.929824295217031 77.352134002150294
-154.567358515302629 -291.634516412635435 77.217681210527914
-155.712570790247952 -294.257472610638729 76.033291619708351
-147.251481500308529 -292.787463838724932 78.170079855138781
-153.750636875855292 -294.639997290777501 76.290066156232754
-145.831927830509841 -293.209493541764800 73.708814908603927
-154.611158250705699 -293.000962780337375 77.754920640086979
-154.893067202306781 -294.802940605254435 75.705980232519579
-152.386768310515606 -294.625350680572751 76.814350288147551
-144.949314711775088 -296.203912521968903 75.580340108393727
-153.304459710467114 -297.466997373131221 75.430569972322431
-148.358157505783311 -298.802539292144502 76.310712879857533
-155.348134130773332 -298.104615172752688 76.463303612453160
-154.147069803899313 -300.434339544037300 77.312277892018429
-144.000507026463140 -300.775300998594730 76.720746383933815
-144.341984875943922 -300.848439813579830 76.918878179660453
-145.358899438601952 -301.505838344218091 79.366945641990753
-155.073292919255920 -302.411874155006842 78.968178744388624
-144.124855072326710 -302.364691867269528 76.514223142227323
-153.870786393720067 -304.244896884342097 75.277142281642796
-141.847567378648648 -302.548665915243987 78.144770900976468
-143.149768161500447 -304.176046928165533 77.570573256795882
-154.576032889793993 -306.914591509148011 74.443312013468059
-143.765002856623909 -306.478607091255185 74.195736016085093
-143.228670529397988 -305.602484620577741 77.054097998369812
-157.235633014960854 -307.808221742327305 75.666122343703080
-145.246950109473232 -308.842924319016277 77.407652615215270
-149.247413748851841 -311.202580940555436 74.795623100374669
-146.220359491906777 -310.945696258937119 78.906497500301953
-59.802633039473605 -48.353769743699871 75.913505307155376
-55.542228997635370 -48.328103879151890 71.984583607460934
-50.549970702999538 -52.690872656178861 72.105105236613710
-67.384522283853286 -49.712674589893609 75.125214344747747
-66.571107261779062 -52.454083103394090 70.379259782757373
-65.070801140116401 -53.145728061231075 73.374675522270394
-60.839657525684700 -50.902832805641026 74.664883973128653
-55.777501593742080 -51.706811597477234 75.499698339262210
-52.829314181296027 -50.412854589789958 74.009764565269336
-48.186673438618108 -51.548263651583710 73.983138981143412
-45.733905227028814 -52.195830360214735 75.348958448542561
-70.102168817418985 -52.725221638336102 71.616856032190725
-48.354198845087531 -52.939255340554475 74.730528042238873
-43.564629649297338 -50.285259885916041 71.989833599726509
-68.099239427042917 -50.912002926040252 76.476847100958821
-44.905959020634114 -50.151641043904021 72.423898216466128
-70.751432892549360 -52.219551235082257 74.757810398415003
-71.149693781689535 -52.244538596513969 73.387409614268421
-40.602594405535463 -51.204868814248599 74.907549406491327
-39.347981063984093 -54.706923181267847 71.822901241566058
-37.930859541381011 -52.817096845362435 75.364823282082426
-72.300809213544397 -52.793431118177175 73.433598476465860
-70.434080489745895 -54.730447910193355 74.402721774856374
-35.502064176735033 -54.331645453409813 74.103651861709793
-35.806391923081890 -55.566574654484043 75.281573273038461
-72.933504215196962 -55.815399957206971 76.322054783491879
-33.505759690035539 -52.874580495894129 73.171957186578766
-77.463603689864570 -55.787666781087054 74.487180012236834
-77.960451819268584 -56.852926555821206 77.274819287288324
-79.675022192661672 -57.312401637171583 72.735199424539630
-31.122866440383770 -55.494292247209174 77.379302996609340
-30.915736895308328 -56.803254390010792 74.684187358010163
-29.984560971482910 -55.140883847250116 77.333613121904250
-28.903061147737255 -55.619973804590721 75.297083543880277
-78.994800112365198 -59.208570633886936 73.355013761697890
-80.883505982251862 -57.260118359424702 76.596950992557751
-27.034542077978426 -56.270592719690484 72.432710049709058
-78.884159386668941 -56.065367912586595 73.505620889526057
-25.524518707896600 -57.956513753663927 75.615945834464313
-27.604349570879570 -56.833057903175863 73.232750383836361
-23.054998858850546 -58.834025628394308 75.899897120431618
-24.001356606882570 -59.432661936347060 76.553396889077959
-85.618785211372753 -61.470029884201161 73.356276102008422
-18.557310066162835 -61.819375749719171 75.383155010074361
-20.318027817418290 -62.688977232216835 72.617455247205015
-87.935489674270954 -62.020568002677145 73.331673637297101
-17.945768975532239 -64.146477722152611 73.065025808920780
-84.789957951414323 -65.455478150130560 72.675736354544838
-19.730435450518186 -65.286503821400913 75.375687476653965
-87.500003586704963 -66.405492311598152 74.621893522115542
-16.358088201076662 -67.547601506921978 76.327785674929373
-87.519105761031369 -66.235047430363551 72.751565156031845
85.057720183996508 -69.218846110183321 77.685064009315226
84.065462441461946 -69.552985044821654 73.366014558641410
78.620660613399906 -70.099492161716157 75.084954207031430
78.042784676568544 -70.807128613017198 75.295443043090103
80.061089351442305 -70.042118998567830 76.930765040875258
86.699111116072018 -67.662542708733127 74.721842047047929
89.535539851780143 -69.950426966252053 75.365878636415999
-18.814063518189592 -72.304922520628949 76.862960664377425
88.460429807425257 -71.490403122450459 75.183726448980067
79.272804957232466 -71.416906327290860 73.666576852774185
78.631679862633064 -71.082839234286340 73.514616869958900
83.875100219042324 -72.581917211026607 72.536122229238885
85.147514078950564 -68.551013368845858 73.836654003173237
89.742016110380405 -72.839334608180025 75.136630246170398
90.026105928912656 -69.173929137105858 74.701936628686667
-18.954765341188093 -72.553711808526501 74.078247482752062
81.848049359009806 -72.068916845656105 76.693229438565638
-90.442750864865999 -72.805078649054579 74.248408479906800
75.727102158351641 -72.235518812249992 73.285381472855676
92.126311930167674 -69.764496023460808 72.633072645049339
80.923305554940796 -73.179635433766080 73.214491816981067
90.603418527266925 -73.009901978803782 75.812387365033061
-20.844277330237396 -69.947007712318367 75.150306652273457
76.423509701034192 -76.283949708664963 74.460546724100396
-90.679432493714160 -71.810037717797627 72.513035883973942
-21.636959341104696 -74.029330011163438 73.823658977379822
76.995095528865605 -74.392478264880737 76.853796075964510
-90.384653364193866 -75.471293518766259 73.904121956280747
76.462352779585643 -72.815770871373189 74.859757111913964
-22.771866443933092 -73.507016600141853 76.229861629328823
95.499943351400645 -75.138499687731738 75.226127886346120
-93.283580606852155 -75.381401232450386 71.471346377166981
96.419066586537824 -75.709905777015337 74.271080244570058
71.778436281783613 -75.319615305724426 75.847891176105762
-38.202308893132091 -75.146261319538837 75.606479150546249
-32.692747017471298 -74.661426431186811 73.472461319708685
-27.385847000778885 -76.744709366684958 74.165414241594519
97.173999787002359 -77.727716285221661 75.767385022290043
-33.330072637613895 -77.858400788145786 73.318957788224367
-28.699484841093447 -75.502878964721774 74.405974033318245
-38.703742172614561 -76.526401545603633 73.113443152684951
94.122960151879241 -77.575274888350279 73.632610015764428
94.990230336177774 -78.947915332238381 76.648681132102283
93.288523530137297 -79.412095957645832 73.902972037004545
97.906769763934776 -79.492511540741717 74.380075017364732
72.426891104917800 -80.661941455411849 74.068897021231095
96.983130575853494 -80.176019024698022 75.186940708345176
98.048475587685459 -78.048756419973600 75.389543432530346
-39.953438121414941 -80.817941706495105 73.577765907786102
-42.579245619227294 -80.422207765930111 74.380704152277929
73.868135201370563 -80.089962534358293 73.922488706098477
99.426487262851367 -80.902692606388200 75.784124601530920
-43.114713370744042 -79.131993748483112 75.921591196003675
98.133262084168109 -82.419008612644305 78.649001081266690
71.057013424546540 -81.822135676382388 74.822494769904225
95.621390294976152 -83.548796110233582 74.854010032211235
-44.390262258629221 -82.773937623057805 76.368359301479231
-91.710162409433948 -81.797461135600017 73.206038736169631
69.624282760953761 -82.557096727967291 75.087975328496427
-92.376153111169742 -82.721208986679102 76.961017722605746
-92.885648568563568 -87.131685158128306 76.391379077554248
70.223420287764853 -84.340492827541709 74.933229335253515
69.349019164089000 -90.315296614360733 78.077517807404135
-51.060771431772906 -88.968984627657704 73.576443946518864
58.507770684131224 -88.961875917968896 74.207541423172529
71.054436223414768 -88.167260265764256 75.230681421583711
71.310804769453398 -90.517853085937602 72.592300056060665
54.083893833972468 -90.775270806870481 73.336845222502419
58.634871239782072 -89.269745603271858 76.227365696496307
60.091365510333773 -87.972401382076626 74.797164962800522
72.477963221397687 -88.764321712193464 75.433526279515590
-93.047026513754773 -88.838079464623831 73.827779830332574
48.982763793721638 -90.892723608423850 75.677266860939781
74.176435608576639 -90.716518983229179 75.910141465638503
71.338249675602270 -90.015794314297040 71.410149946786419
50.303831977116673 -91.822916942464317 75.776927958512786
98.889839664926086 -90.912929267636301 75.533149543686790
-63.282586343303443 -91.410067503764296 76.443178549542310
59.496332910570310 -92.129872167611254 76.439164476728067
-63.705786817868528 -90.746187408693103 75.922178091521488
-63.461713763818196 -92.501544424064647 74.549900147964834
-61.562829468921883 -92.865107193056048 74.520303438555885
56.043094369528148 -92.541824127459208 73.566476292979360
55.333517627314407 -94.554977482023958 75.149056590420543
55.580992431824114 -90.117900078255204 76.038801561898538
71.619799129948476 -92.063890943587808 75.331735058424186
-64.607024038251282 -93.076080726362349 73.758990317521722
59.387811706568151 -92.186868368367726 73.231036741049778
-61.682802975903456 -91.797373676811944 72.849168884025502
48.724099682825241 -94.704851959767993 75.155406303971333
47.992260048279704 -94.811775568724499 75.237677094840308
53.293547605627616 -91.825514613598585 72.838103158549970
68.420891220308178 -93.389161651265411 74.228215063414197
52.276521312911150 -95.072989990715257 72.894966157519889
54.332995803310091 -93.753329324808007 74.823481720324040
48.719194637091803 -94.084533986793971 73.978011807030299
45.284384102412716 -93.505481322495967 74.687905755424779
58.280928586799511 -94.970007834854584 75.573775647188057
95.907665553112821 -95.242573106164684 73.213869867109253
71.214469616300192 -96.072917761873214 76.899012994940975
-94.841911748966567 -97.439930260123106 74.899882736032652
55.020462907252181 -97.367817481232237 74.967594417803014
71.720480895608887 -98.055946357101661 74.012820509913155
45.626966742507932 -95.972264411598644 74.732756823308307
57.259875770433737 -97.905807011710934 75.248733405482170
75.003126757801212 -96.237775716572571 74.464422862497514
76.334256351596196 -97.474491724658009 76.166922998120711
102.230078878237435 -94.657316913775304 72.067464002669212
102.355728752951606 -97.773784493065364 73.634126652992705
106.061021481808524 -97.637953649320863 74.504679626845771
59.092033534488685 -97.288399589436636 75.953617746656391
78.867747980071684 -96.517376395332718 75.138351723419248
77.906919640178657 -98.314356724087730 77.467822836180133
43.732368441175254 -96.377196031182962 74.922130688786453
49.721821852340462 -99.294496530249063 74.112383122356007
80.850042947717625 -98.806936047654418 73.695436909850514
-67.784300962108205 -96.116448151349630 73.091827526628407
44.246641595485301 -98.066778611314220 76.301159081456021
84.159013857440002 -98.351179463982689 76.474632079048490
106.292412676018515 -96.665614914343266 75.217540558618452
74.394509877326627 -96.640340249260476 73.925607079612490
74.391481054084920 -98.844285741251937 74.710951610435501
91.400909985406940 -98.393820025622318 74.031841501436915
101.993219933204401 -99.764262536588575 73.712150189023760
108.722188761471045 -97.236642346300570 74.847362390499896
78.365094673374060 -96.841884488140693 74.321149754457934
86.694376675394196 -98.013931721057233 73.241484011548565
86.896283544575269 -98.686245292192055 74.007677407486369
44.970804448485850 -100.675324610713702 73.718766109981331
55.640670117184406 -99.205914379254907 73.957948491955847
-94.099735356165198 -98.512860313369245 75.683312994560467
-71.185570010262410 -100.939621414419321 75.945728284006634
79.791171255627987 -99.524457060115864 75.553341196739467
104.731540440261128 -98.832731094430216 74.920756266467123
106.176561089466603 -101.547211195772135 74.339130622938043
-76.705686486357720 -103.905498442483733 74.155634800884854
53.280302650811855 -96.582804515263732 75.349345434844082
88.638540035989877 -100.239573226298532 73.655354756737609
90.150577761824294 -98.814884210140363 74.429276200362921
109.386843677976600 -97.903781790512724 76.424383849845114
-78.936573373089487 -101.833183138972117 74.130758782952384
44.492398402594830 -100.189024453118819 77.506531780330306
54.228746467095569 -101.194641989301985 74.771250782332473
86.650709368419413 -101.275378733761457 73.010113222944454
103.513544921280271 -99.349982002503012 75.647908017461845
-92.871510491724379 -100.769364275033482 72.594078983383667
41.101875734956778 -102.458545649146075 74.376007797271939
102.709273592908147 -101.830594212308725 75.404946234617427
106.357098422542819 -100.457481403121875 75.201406832549495
45.041457258623019 -103.668857790883663 77.336592405955543
103.451916590158476 -104.569977432436886 74.611978776558928
52.355775377810502 -106.021254866910198 77.764840090474181
-93.275079613965175 -104.169866048175933 74.908991274367978
-81.486249442927033 -104.833844882134301 75.572260251506691
41.169821597925193 -105.526927173458560 77.207932453214482
106.213029761277085 -106.927179714559415 75.199275969604074
111.432796160143610 -106.239032860161160 75.744544081990668
-95.021122630271464 -104.513714498201196 77.988352748530474
-80.531251355233991 -105.965527444743643 76.281546653429686
-83.262879300209519 -106.286757154352131 76.016881420177228
38.681929420389231 -104.183966079669716 73.998229680038122
-94.559962958178673 -107.992340212451296 72.500164337542415
38.024313253842152 -107.677958601124956 75.658160190753890
53.728057288290465 -109.170106224878651 76.341162739306270
49.850255160237460 -110.632884348583246 75.448433848286911
35.404750094229456 -107.441241902169708 77.527554462219783
48.665618103983327 -111.064977506109585 74.874863545589960
-85.775654302389682 -109.508523956049231 75.060848309119763
-83.955907507659887 -110.405398976902745 74.499067581096057
52.223018328025560 -109.311655655602280 74.808811614381383
-93.754864364773724 -111.485659421610123 74.653203770531164
48.558758195083733 -112.488096086228012 77.429728203583750
107.592853687805899 -112.114761002933676 75.678398965551963
-86.791028403728447 -112.290366445314632 75.777125143644923
48.182929654163061 -113.861667320199828 74.501711174340173
49.141666621197260 -113.091567069505899 73.146444403409760
108.885582913251199 -113.416094179827837 77.559045324901362
-87.389239082651414 -111.894861373724680 73.878780978210230
33.837574903029335 -112.996977193285730 75.014562618995726
46.550283453663134 -113.129547422311063 72.998433855727683
47.626203815418606 -113.678547869305035 72.779970733481449
36.151041210166298 -115.812608138275451 76.757865713380610
45.598923234702738 -114.956890340411888 74.750070148516301
-89.525617143693694 -116.689861801571325 74.826709520473472
34.543756737591920 -116.497094255281596 75.579697704647316
48.903483626965283 -116.956528550306800 74.348267520566736
-90.003129560755411 -118.993607301866149 72.671208921068242
106.361950027011574 -118.274872715548625 75.830464673313230
32.992144156375915 -116.612218051589977 75.815207058543706
47.467635517097143 -117.336450326119802 75.023718348502157
108.538862627918775 -116.691534534741862 76.025606622406499
108.982808136554738 -117.957028214210155 75.558066136679116
34.848432996522519 -115.332051297303266 77.278878788151204
44.017774314501771 -118.660997792433378 73.725206576917941
44.804931417981820 -120.650530020376394 76.086244166880689
112.490647665477354 -120.951101877678340 73.784819183894044
33.605131886800748 -119.641795565184779 74.261201195460856
32.817571213283607 -119.405606812858323 74.441532168319767
43.054228121290329 -118.606775225215927 74.859578163091641
111.763317957857382 -119.570593373010041 75.387623973873531
34.618417779769871 -122.237325399346588 75.256926308400452
114.069792173378744 -119.609324889018652 74.004975568423220
31.225925835966962 -120.110879927005186 76.819184347826990
33.804831392485681 -118.802763520376502 75.940424941442444
108.399696490019920 -120.532970583374308 76.428006927118290
44.034257941118724 -124.294118073984620 76.857282669346489
31.996061870098551 -123.569049622798673 72.004860413026520
46.503836019446581 -123.835852823162369 74.673608217535261
42.881931852629826 -121.402187503941221 72.758424823953931
43.476614474492571 -124.745517732289187 72.767208089166800
114.648091112883222 -122.574165666942008 73.463318814789091
31.752564429678909 -123.327067644095010 77.066419878133715
33.423988260660430 -123.484975740402035 75.049587900937539
111.218815138130964 -123.395958797815979 74.515282252138050
44.713093784386778 -125.300752233779292 75.554453477324827
108.629385745253828 -124.641188242092426 72.631493391424229
39.277955361525017 -126.344237937782083 75.976248843083283
110.219104487662960 -125.282855759087198 74.280424212088917
114.365181173629921 -127.734970441031550 74.227270994611445
29.279353386439624 -123.825139541607413 74.809373971657081
43.988332937569666 -124.816654700084527 77.108871893426041
107.977453317799004 -127.111997700483130 73.861687281424622
30.980692981046637 -128.347862266402331 76.887907113948515
115.874089060286565 -125.933917913522620 75.338672473853507
42.137158713071727 -129.360849044206105 72.864593930688741
30.583008705523223 -126.677037947400351 75.183414000310748
32.526630836066815 -129.713513661994313 72.150006428187226
109.008088610760467 -127.528147486573573 75.427035892101543
38.242521675174416 -128.282797595798570 75.623644527493269
115.914424737727742 -128.159114203772532 76.239381162187584
28.171522831713691 -130.087827049235329 76.442910082791457
31.034753813549283 -126.057171413829593 75.350552183877269
40.184298048539574 -129.017621324764264 76.295602864598536
112.211797599534975 -130.184278537710185 74.884082416511404
113.464493432844534 -127.958376699422558 72.020311423754762
-55.297130613944468 -132.027800837961649 74.539654939011939
-54.175231480834498 -131.043959200582549 76.539797618070978
-52.350793207739514 -130.943470213207405 74.438502009000658
35.929860953284063 -133.198390494063148 72.672888777060891
38.046532439267295 -130.644121988787873 74.903268973336850
110.760033756915277 -132.759179890642201 76.590657375181422
112.827003699550701 -133.738854591412746 73.585264173956602
113.720419002201666 -131.089387377570461 73.626559534468853
-53.789898996036996 -132.071545829447160 74.320929460506093
26.259005222245353 -131.216711681243908 74.320013919322946
29.249408938333662 -130.416714627504234 74.190060087096242
-58.116403013263984 -133.192843553587863 73.699168673332025
117.176597662501109 -134.177601784897348 74.991519335380858
37.813827625678123 -133.962668277408312 74.799772350959444
-56.062912688221409 -135.123875151606484 75.369935456401166
-51.581660570388607 -133.458290113320146 73.846776980841099
110.063729509604713 -135.032246859183090 74.698118048482968
-50.596648186250761 -131.948930776418337 75.840960984469831
24.283309658277680 -133.544564186457052 76.896720919633211
42.163515712663830 -136.453476375769782 75.160464908020387
111.932029682491688 -133.360355797364122 75.048718953728283
27.094139935174994 -133.792245562570997 74.693238084139850
38.821255140911710 -134.683076972663343 74.634801407878513
-52.613383603834158 -136.746417334048004 74.217481231968236
-54.600351796039909 -135.266760659336910 74.066477310345292
116.193678039170152 -136.718548616035832 74.041933977447272
115.990454331864498 -134.882869722832652 74.592725066339042
-50.515812194820278 -135.719768529123741 75.928676873125781
-54.641264142667772 -135.272020484448944 71.868977238928210
-52.167365383609621 -134.436067982409924 74.276165849266647
35.821956375021522 -134.942271188453560 75.537911887335241
-73.687379338233328 -135.597381304538004 74.908701283540694
-75.451921639366347 -137.411970356985876 74.233607346151487
-73.385899807746085 -134.864620836208616 76.123791343837567
-55.928149914428346 -136.892021542019478 74.513493148746107
-46.416961581805246 -136.249167635873704 76.465954884907006
38.671612082821078 -134.456268826635466 75.552550129459576
-53.838394712051759 -136.773066673220910 72.999118580534585
-49.589046418791412 -135.304275553589406 72.711947561486582
28.183381984217977 -137.258002080577910 72.318818213071125
-74.603488344540494 -137.689147970077670 73.414626472710367
36.960678886245688 -136.051423408202993 73.921498662924037
110.799862822608688 -136.765338475837865 76.558142804893905
-72.840911224982406 -137.983461940631656 72.941907341087884
-45.700908355265256 -138.880967691318688 76.787109827371481
-72.688838802230038 -136.786584224709742 74.789046655846889
-74.472579264237083 -137.746521000529754 74.846643686820272
27.116136515603376 -137.725640161625705 74.952503315594214
-69.742825632228758 -139.617104965187508 75.157261470151383
-46.019657890120357 -139.532356682321790 78.398766065811330
35.944620184514939 -139.502879001282793 76.502626600045446
24.493623327277998 -140.620582732148108 76.528859824684488
-76.728300352452123 -139.805728052832791 72.304567477340598
-76.270597652446924 -138.546467603712927 74.591773706358921
-56.588114583691834 -137.556846540883498 73.626900809608401
-48.438988262096451 -141.422991879086112 76.863585514373597
26.718405383996231 -143.372303839417100 76.004286321693741
115.745971117097653 -139.619711542785950 74.850809139315032
119.528881866832094 -139.152517494610123 75.612760075938624
23.715978147673816 -139.451921414482683 75.165370991794134
-56.215580595436585 -139.600676541199277 75.511142333405488
-43.994247557339200 -140.504567609275625 77.922828642784964
35.072911591004733 -142.994046520368215 73.544082587408766
110.086341638875567 -138.989220585288592 76.593804556293790
110.288812134821043 -139.331742505893516 75.270728404545324
-70.853851230858268 -142.508594034873283 76.127459391989845
-54.198767744151503 -141.030008333022494 74.220295127082267
114.546557756437920 -142.562990561559076 75.508348205102791
117.741931800367482 -143.849397681472453 75.336112403612290
-45.389156783878484 -142.470185071966682 76.289198290853349
25.857846476738878 -145.046619207156454 76.102993629847631
-44.738361806106283 -142.706430532033352 76.772637228494617
-68.279290099281482 -142.309918210438468 76.755000214441068
-44.175262042948553 -142.458596104769100 74.840659338402759
27.747197585560020 -143.126324386438540 74.297252181933800
36.193580599706252 -140.879682612520270 74.945491943712440
-55.156435060094161 -144.472428970950972 75.640920484679938
-44.225125165889665 -143.878180405036375 74.190212900173421
23.728428924440369 -144.265005608796400 74.261011790698376
-43.800647904782302 -142.736871258268650 76.196391658534310
112.546704743247346 -145.579130298124426 72.880755013503418
112.410572500013501 -143.353700563899025 75.131048205907021
-55.325468759821604 -148.167004543720651 73.709232606405422
-41.362843329804349 -146.658009356002822 76.071035675695995
-75.060397551483391 -147.798317579980790 76.888265011458017
-66.094993455099669 -145.953617847779213 76.576342270926133
-72.369382531252413 -145.663852160517081 74.308677553686522
25.754804314659964 -145.488549600041353 73.083292477391353
35.952794539961353 -147.851199952729814 74.604680878365812
117.956587862230336 -144.694215634988922 75.454185690156308
-71.004575672224675 -148.684909666204305 71.664051042981313
-43.279990405311629 -145.355255571737899 73.594485492374119
24.607185084008652 -146.239375838095896 77.232420690748967
31.782296668462038 -147.229088165719816 76.700373502736383
34.648977362221828 -146.396973287499378 77.122052173741395
112.598446609153811 -147.555534790446899 74.151021394734244
-71.092965780134165 -148.325073500286663 75.685224797273690
-69.148692772202409 -145.649697200800688 75.383829268691898
-55.319574366672896 -150.164245513452471 72.089648397612066
-43.040839130721089 -148.244690171141059 75.174613392044165
-67.059240602275821 -147.870923254002150 76.257383311930596
-73.941226480728332 -148.653846096011392 76.334508124873494
-71.438191848300178 -147.350508360510759 76.253365536793751
-57.676786693126807 -149.079208329090818 75.005088482228757
-64.898922691274947 -147.588477173956306 74.648974054585508
36.455168269672498 -149.306474511110736 78.325893341666941
114.605388464741040 -147.900830907103597 75.591169901926165
-74.379656343932510 -152.143160337402321 75.683241124492469
-54.013295680264420 -151.941545137968575 75.613029074173483
34.241472967301021 -150.685848414765104 74.459078290184664
-65.880377048001208 -147.481652091555702 76.310396997996506
109.760480667737056 -150.406849174625819 73.848782378515764
114.318237445123387 -151.715194154869550 76.887425239285207
-40.190640260227255 -152.292930281887152 75.626996745963879
-68.642776578703234 -152.548549596231453 74.780689195549400
-39.737529994743859 -151.056601830269415 75.121165645169953
30.635602529553182 -152.194503239226833 74.754985873072499
114.512888188637959 -151.938905449696449 76.322791821648508
-51.104451109118926 -152.117942774865099 75.155918669921377
-42.967797949498049 -150.619468034846221 74.342717114276354
-38.497089805386977 -152.696819502164544 71.173793666565331
24.146943042548898 -152.017205795051524 77.155262126949609
-71.768264195831293 -151.407409466620635 73.740260035025528
10.898379329189915 -152.985103774735506 77.477063605567793
10.906187154406158 -153.233664780989386 74.219360265979986
106.473165207276310 -150.853877038273765 76.675733940112565
-39.717314256434115 -155.762557078509616 74.008506690987460
10.678749907184500 -153.294676799889459 74.845103413110749
113.454156944878193 -154.727072881354985 76.751058785203114
116.457309076504700 -150.767037052416327 75.457303430480096
-70.590140152133571 -153.447267175260549 73.405261656488804
-65.141313156060690 -154.567512298527618 74.909352300746363
11.692099593820197 -153.433393553131424 77.508324087547678
111.832022004584431 -151.264054624712827 76.434539044147940
5.507691387251765 -153.954077872987796 77.246298381808046
32.564377793829316 -152.927572027850601 74.415163203474606
107.415914499888103 -153.940316862043233 73.842251398042805
-40.133797597010286 -151.845388351006193 75.351870085554609
22.508610677868504 -155.706483767544825 73.789302023506806
-63.243865143466955 -155.554290711645791 74.031719842043572
12.470228656416575 -155.066621907194701 76.014697871362870
-68.249258086134830 -153.200953327748294 74.351551135081209
-36.626864310957565 -155.079136993700587 72.573983403668535
9.700070634177287 -153.258185137732426 76.151004513179046
31.164125014385668 -154.260862500034989 77.085367333931799
-70.884825235664565 -152.862215310046281 73.948829869338425
-49.219927928886840 -153.922688843864819 75.020804541230319
16.564676903326934 -156.458393509644537 74.261235240361216
-39.615925752759921 -156.908124141915408 75.718390028308718
21.166154197636121 -155.609850224400390 74.010226567103786
-66.035112812697889 -157.804278357575441 73.521728462072602
-48.955308737161403 -158.078512900853411 75.836212224339789
5.225326132784597 -156.019875445346258 75.977866188139004
115.260004540322626 -155.776059408365683 76.257767493983110
-68.149294109180801 -154.187303744073461 74.094085444973018
34.947103565729215 -154.095343482144443 75.967732957613862
-69.185288067835998 -157.883797276977759 76.242986482724518
1.881463958082916 -156.246999413148046 72.668316804024172
21.421712354056563 -158.083001438145089 75.082346090668807
111.743148093518812 -158.200883207413199 75.764807445477274
-62.180110810421439 -156.577205243076207 73.679429856313618
-35.379737948565484 -158.417735631865526 75.051917721031217
8.405376100317621 -155.627986671894803 74.541846262209575
31.868259952852121 -159.639776182355860 77.243790159845702
1.389894903803857 -159.958982302011009 77.547338466646167
-66.525255561397557 -158.127352745266990 75.662593020920511
111.503347729392104 -161.167471892140242 76.131275560139642
-71.078008815986905 -161.323961389301729 75.567386726443345
-46.935530014892215 -156.993144385551460 75.978700788765806
-46.476667169623340 -159.660917112148184 74.409364877793323
-33.348363334703485 -159.540017082717185 73.964393882819408
9.815793872228900 -160.597721959064557 75.197915148600458
20.521905177335874 -158.727872027169468 76.613104887801484
114.375027610447475 -158.887360276982434 72.316681726327658
-37.169542763429718 -157.993722281276774 75.831083383170366
1.698689566511871 -158.405502681086659 74.937430304951704
5.629585100315182 -157.721743744051679 76.478622479951241
19.095081866829883 -158.386838552577188 75.831964010169486
29.025324403866549 -159.916454091162478 74.555116460720242
32.306948119918125 -160.356452513567746 74.464652901256699
-47.611222325111086 -161.813010269228471 72.820367270893044
7.303497444942505 -160.318867429722474 73.016989548412184
111.548167276754057 -158.969438431362960 74.049648319224531
-34.465945094880510 -159.726365204771525 74.986558107273055
-0.661115192787881 -159.776275481057183 75.917325124567640
-61.271947906904245 -160.164115402173366 73.881734367514653
107.015897453534890 -163.526464928870610 75.761811108882725
29.099303719148111 -162.232932739751760 76.684433675670675
27.431533750355868 -163.445382923875229 74.587787243282378
31.456137040737950 -160.214445907899005 74.927782188237543
-47.311660314474103 -161.227537277442480 75.230030735222002
-29.773345613364071 -164.153675671142679 76.015380234042567
0.181215344571184 -162.162712234709090 74.423737735093923
-67.584193044400337 -161.088078243066406 74.680922431521438
-43.000702066966610 -162.184797285834463 76.062058914585833
21.535245550389991 -162.858591537692149 77.276683162240715
115.093821820236926 -160.111693789369610 76.588121492461724
-66.555556046768430 -162.781978035413658 75.143522785577403
-48.032278695518784 -164.039943323023664 77.360287251998258
4.477996136940950 -161.647757463594502 75.484937917119311
-45.914667349589394 -162.567090301111193 75.034793046177313
-44.248259385646016 -162.247704519778438 76.780248924310882
-35.745308334732620 -161.843889398510839 74.687822403822850
-1.644039310698768 -161.844362621464995 74.258773652658604
-60.700166152561700 -163.937348354488336 74.854433445061119
5.428025766391407 -163.030204532692352 72.048627021590008
20.909483659123957 -161.053086467213063 77.145519664266288
31.446057726603776 -164.995833829476794 73.339321356234436
-33.529716360728571 -166.159743293627173 76.725132227119843
4.178149829388842 -162.859133497143318 73.601409822610293
-30.930689587259703 -164.169070812880051 77.895462534605272
-2.069603713018395 -162.680666793914014 75.131709558875386
113.396254320780145 -162.882070493324591 75.318701006836662
-4.603204395149575 -163.811263414218928 73.246227762344716
20.041090770672735 -165.475434542035430 73.812864637120228
1.041316567517647 -165.596578332161613 77.166292515153046
108.437325714919027 -162.820176909159500 77.658411193113537
