# This PCD file was generated using the MATLAB® pcwrite function
# from Computer Vision Toolbox®.
# .PCD v.7 - Point Cloud Data file format
VERSION .7
FIELDS x y z
SIZE 8 8 8
TYPE F F F
COUNT 1 1 1
WIDTH 801
HEIGHT 1
VIEWPOINT 0 0 0 1 0 0 0
POINTS 801
DATA ascii
-26.835100768308074 -66.478962964111716 78.742400256875129
-81.125576679473014 -67.823581903238164 78.518248594044977
-82.926201661372517 -69.184747675152920 78.055969012674964
-26.838858202640257 -67.948650822226440 78.340552826261387
-23.906134697825198 -68.341887083972566 77.579734118383868
-24.210786776583447 -69.859686989276923 77.911401480821979
-83.259783852156886 -69.314778291073736 77.910836625758591
-23.012279291445640 -69.152360539169322 78.383115174151001
-82.953966951074932 -71.087152067587482 78.598593651633536
-24.479341285830280 -70.962528188774670 78.992986808247764
-23.489472193603667 -70.819987547535462 78.472070165756023
-84.467395738010168 -71.135138245085898 78.549039575420835
-23.059611374590350 -72.465326213612101 79.101508309335031
-84.218237603258800 -71.697539690743099 79.429203131896756
-24.114777503391970 -72.908391574875651 78.199882400501494
-86.116475306086357 -73.321627171732729 78.007117674216843
-24.123104519869536 -74.529244846872473 78.278262149871779
-25.523553959216088 -75.037019370276965 79.416476118988996
-85.695194964052035 -75.398438458495491 80.033795505946415
-27.047106327777122 -75.913346075116081 78.470609092682508
-87.636193966695544 -77.494884908622893 77.886345372447465
-29.100692000263457 -76.886093536417704 79.020767210830869
81.326261432884792 -77.329709580260939 79.186278374881795
-86.638536982197621 -76.951715354606677 79.316207105508823
-30.714364230802410 -78.870593136248658 78.612547231615963
82.332143430231952 -78.005156232319948 78.388439641839298
87.262300789467190 -79.255409628257055 78.146573227660298
-33.331677641670886 -79.224261594169022 78.012980423924517
-32.937322707753168 -79.696279955165963 78.478151740457292
83.640816696077607 -79.890680839920535 79.133200931352164
-35.715181142281530 -80.784318077042968 78.686228445085050
87.857006944246351 -79.467276574568061 77.736872510393994
78.400337083723400 -80.390435618765906 77.633575416004433
79.223051484472919 -81.258773966054164 78.181161743744852
81.623661270787167 -80.743779876927135 78.568036167200162
82.870134253951093 -81.323326406836074 78.663855487380260
84.747289435843939 -81.282880083682386 78.302751556873133
85.485533479827652 -81.300501953830363 79.203787063420194
87.929804472081045 -81.121212499163875 78.770887959837793
-38.923922322458445 -82.061416154040813 78.401927181299683
88.358001234113715 -81.237437998428376 78.338484856103193
76.751823533280870 -82.052220289509748 77.573330972470188
-39.675555475595758 -82.203362595771168 78.557533205940913
80.343590845414951 -82.744303978033017 79.960008598218053
85.219121418731163 -81.880015634500310 76.821556890350053
-44.114799725277059 -83.771034674006415 78.870393871488744
78.761160483016283 -83.340202407261046 78.607631200144482
90.178350263970884 -83.827960748817205 78.634505393431525
-89.308215201493198 -84.231943584577934 78.831903949075297
77.805147173315532 -83.936176749145076 78.116355905897763
83.755218790141441 -84.385098463969413 79.040175743180697
86.561654288464894 -84.073657696334863 78.947094475526768
84.984206071374174 -84.454823007811200 78.827886090376992
-48.312323292312364 -85.327674954732785 78.908077746112596
77.399582213274101 -85.615714069833231 78.836047411448476
90.713452256060620 -85.340456511529666 78.249928448632360
80.149170627824518 -85.498236588420738 79.540396072704752
-90.206379832861174 -85.839413712983543 78.050855561285232
83.473178923597999 -85.183782648176816 77.934703963078078
84.664189221732229 -86.490705902060185 78.289577437995092
86.540510440448884 -86.270956167966247 78.534199689205252
76.411777099452280 -85.693189139332432 78.415109064032151
79.327972850311923 -86.157747422945491 78.510011956862670
89.682275859052538 -86.107798686510762 79.216456930535244
92.286468713295477 -86.183857931808134 78.103105471704566
78.727683194174418 -87.593914083378792 78.383420049026128
85.133195270904267 -87.528083363796654 78.618189060296956
86.664429731564738 -87.772556295112352 78.418611436659234
88.100687668826197 -87.002147547100350 78.773896450381301
-50.797533309654426 -88.755842229462004 79.058734228417720
78.742143419218223 -88.128131649584276 79.120758697297987
84.406037983739267 -88.558110477690605 79.588952222755793
86.340208366815332 -88.673072857177814 78.530061774461274
87.740437077474255 -88.721128200675167 78.808819304639712
92.465995073842706 -88.134492001512257 77.385007789196720
-51.629527897997505 -89.315400349985651 79.180976044829649
80.275580056939859 -89.493625446730988 79.023975476079173
81.674897230634045 -90.255451032019295 78.591195824655458
84.118697327787913 -89.954194198996348 78.133770710666596
88.670753900705307 -90.059970321062863 78.971014566532133
90.841790258018179 -90.243369719806012 78.519349261236400
83.254593730322966 -90.731511531158219 79.358529324824616
-54.264640155915444 -90.637244456470413 77.825117698089642
91.726943804384149 -90.314563002233427 78.735395322778615
-55.616940961136464 -91.648488680822283 77.958274160181190
79.503246844823963 -91.249020706895664 77.678170739296760
81.675267923928715 -91.001656656993831 78.169677710241544
83.335278425379840 -91.433882475938347 78.728522399971908
88.644463928628170 -91.731967916461116 78.550852735169087
90.889021092956227 -91.111224971288564 78.306560587694420
-55.501902165449685 -91.810793443267244 78.955970636605244
82.481648381381490 -91.808418559047553 77.754794157287975
87.150144452202127 -91.700876612859105 79.295802395810142
-62.449718498420062 -93.299009065640988 77.777635257407667
-62.790385808665619 -92.690753642089604 78.878979711868965
87.985486920935344 -92.253325988070344 77.504922643235574
-64.653214612997175 -96.570048464339521 78.701544019054211
52.386974412727184 -95.888045303463869 78.293784148804207
-65.397527221650307 -97.648126212043920 77.828197122241619
51.040417930091010 -96.948420462895683 78.569620085007443
53.313789263944940 -97.080083024540244 78.887682305802883
48.403367196410464 -97.476153755506886 78.578758621384765
51.195564566184075 -98.814895906953481 78.350447988521736
-69.939975684273335 -99.900794226898526 78.786845109147052
-90.282591832397202 -99.883712437084839 78.803003098212955
-76.876968126611402 -99.286414856509026 78.687022715995440
46.193637971587997 -99.384013652478984 77.899059717077606
52.518666453017353 -100.160061613725134 78.384636448779531
-75.019452519743851 -100.666869493507676 79.238455145500183
-72.197469374141804 -100.778347604937039 78.693103648599376
-92.181502772468718 -102.141183011625060 79.345377597355039
-80.077177244687078 -102.613844834764393 78.703722847294074
42.433110779119950 -103.366880672638459 78.531217317732342
52.576539910121106 -101.940174147069797 78.222573240117782
49.543628997984413 -104.095979860547303 77.919898459656963
41.799803883781543 -104.193432400311210 76.850524994483692
45.769696369931417 -104.357290317665004 77.886711103942076
-91.197760681241306 -104.898234630993159 78.266476229245441
41.280663035579380 -105.037738002975814 78.885450362213476
44.641509900572267 -104.306009496543268 78.538532718511732
45.730415188264502 -104.560149625765860 79.011426512421764
47.580532244911751 -105.139889994422703 78.021500033767751
48.013804332345764 -105.033411474319237 78.443225407272422
-91.594696941041263 -105.992481089931076 78.155088199856607
49.066070003601951 -106.361586351061675 78.476746294521078
47.645385815340831 -106.888966031751124 78.129443274695873
-81.992396492762083 -108.431549468368786 78.625345440256410
-89.923259574581749 -107.670751321211995 79.590090990602405
42.569425558219315 -107.203248709831357 78.660945186848181
-91.342513187789720 -108.923082251148699 77.587901697039015
49.969272003347101 -107.214265345542728 78.378804601949767
-83.183053388266202 -108.449614050938450 79.197496506456346
47.268808403127132 -109.912937287843107 78.128168102531717
-84.191732868805616 -110.154687584154715 79.136086913114866
40.418410763729206 -109.599509834492949 78.372590699756699
48.110089387938984 -109.945360379404576 79.560740137053358
-85.626786582453292 -110.885187093962685 79.709261582535362
38.641903717330820 -110.323247791251490 79.448920928663384
-90.067708911572069 -111.239551120106384 79.404864502872869
-88.363503113346127 -110.977049693655403 78.760926791837989
45.302161744457813 -110.596853394190759 78.505456416786828
-90.873027643345921 -113.041350675377117 78.626647210164563
-89.688333944963318 -111.458313180102053 79.296669620478596
-87.896740713176428 -112.408901074788417 78.333467590992882
47.647348973209716 -112.095193199912558 78.172187440086816
36.301230067095823 -113.817962767045231 78.020514987877874
47.581945345713088 -114.238284006365049 78.659848463259266
39.428091984055271 -113.955631777608062 79.091621346026756
46.523997328012065 -117.232155056714660 79.050749308999102
34.039835233779449 -116.809067318127092 78.928459301891735
33.803733629681325 -118.018537670672899 78.735859035195290
44.673152160925447 -119.168491808179496 79.499097669017516
32.889659847761308 -118.936788526799660 79.102394309840435
31.443790299828326 -121.319229107521721 79.199350182296641
34.103524657637713 -120.752023014785323 77.483091988902572
31.825437719795342 -122.098863088229862 79.136160113459439
40.268550481493037 -122.933848234369094 79.301975591778444
44.243886841175261 -123.929244087647305 78.567921786949881
42.414891797260850 -124.635095742734123 78.527094229593928
30.305165663306251 -124.384212070827346 78.867980990828215
40.633662105029309 -125.144528480953653 78.460182131308713
33.221869975521770 -126.092309050190067 78.198789153461178
42.712286850314008 -126.781683548835915 78.326406253592040
42.509749142111872 -126.563541683529550 79.328633984994795
29.918750888177012 -126.891549183269433 79.263815628878007
32.718350439147486 -127.390700937680919 78.404356426534065
39.732641698006489 -128.286648355174179 78.368461352920789
40.446878269237850 -128.612538199739816 78.155980394425001
28.831160845218704 -129.352699312932174 79.110142389363233
28.992048440218113 -130.237508749717620 79.712177105494504
39.442849821854900 -131.204278877810765 78.619614494644622
37.009151986316397 -131.479143335222290 78.824818438475859
38.367447234165944 -134.537313545015905 79.763722991111976
27.700452777873391 -135.023315577094138 78.688591836454833
26.922555436202838 -136.601057008741464 79.057789993703892
36.926428694162631 -137.561451338197998 78.854226093530059
34.912776037056560 -139.109963529430331 77.473563201925913
-53.337585797924369 -139.858275189190806 78.311276887374817
-51.844767029317488 -139.968569178569766 78.486152403695243
36.426529523960966 -139.797894472382040 78.812493267756622
-48.589661919486694 -140.808463443425637 78.464322848548051
-47.704964582408017 -140.555813956298465 77.528100204169348
-50.899467343968510 -140.729200210387887 78.751722561531025
-49.171869249661235 -140.443709200073670 79.889212556908930
25.144253875091803 -140.933188891672444 79.039713000943308
-50.517218980942808 -142.485571700202883 78.580161624614291
-47.117170495590237 -140.970944458306036 78.648488138636750
-53.155279785654059 -142.348072533711672 78.421811236880686
-46.382501853015000 -143.893122029199759 78.333489210711861
33.195064519473121 -142.550776410773835 78.770287711747756
35.597006216371149 -142.411481085788665 79.087855111207404
33.631519040552980 -144.031694749903181 77.933642045907789
-53.438382488249324 -144.467192707412806 78.583639767457285
35.945866491028696 -144.416912272590338 78.999749117261132
-49.734830441425018 -144.150084153234047 78.133927180285625
-48.170014874502662 -144.916210462206607 78.326062812047553
-52.768315503930637 -145.214453253779794 78.354565695726279
-45.559514613750004 -145.517465413771646 78.271484548474945
-42.440852884052909 -145.784694542033407 77.882316207307326
23.908726495834493 -145.621231287660464 79.020449127804739
-46.462138259273019 -146.615241923721356 77.923217442707852
-47.093846482644437 -146.295794865662401 79.027900350282181
-49.677623405629852 -147.354570837318903 79.197273638379286
-45.403006930924370 -147.908084874048939 78.223623526779576
23.605004184888600 -147.946678860756521 79.751482297599011
113.930912229959304 -147.577659123672476 77.746491707968218
-49.261425144416201 -148.264056003426731 78.931046444093113
-47.263481314463760 -147.885679831258329 78.885566273998705
31.805172612167748 -148.810348069711807 78.512357900987240
34.688248765589961 -148.675583765103596 78.626027551093273
-52.688233549005730 -148.384066461085553 77.049185670763961
-50.012660886847662 -148.607691786065061 79.214116780579374
112.791179481019853 -149.746998880299543 78.004464929069428
-46.083977326250434 -148.405239909682535 78.842291978867863
-41.934983991909768 -149.734506365558389 79.678123647978936
-42.653767289596104 -150.486401155773535 78.392337856683838
-40.248593811975816 -150.414755740615703 78.821934268707977
-49.356699608458882 -151.687246140938896 78.133776585541696
-41.533735418563246 -150.068765779029434 78.261178009698895
23.434424825141910 -151.275976615145055 78.931283339891380
26.458688408072838 -150.733968833558407 79.298637857477189
114.061240713191353 -151.165793999361568 78.652224142751123
-68.366771252830006 -151.595953930521688 79.246116298124548
-48.677686090871681 -151.583424478623101 77.951219822631387
23.290283790805681 -151.482926639221631 79.392016272085343
25.053455902399488 -151.263376075809134 77.425874547482607
-68.696810908734420 -152.057102916645817 78.755016604562357
-38.652485728352133 -152.117891752322407 79.229158667048935
-66.345766582900765 -151.742362145595081 78.455511039034803
-39.523306446438312 -151.977796628524942 79.226791210734461
32.859743116616848 -153.210827335479337 79.176589269254720
-69.535311367398450 -153.349054080959235 77.984973489938440
-38.778633141967447 -153.929709861901785 78.747742333066810
22.900017567064715 -153.129710972062412 79.549952081752551
30.736857841496043 -153.287474674333509 78.948484114217393
111.678951917275484 -154.092188429765571 78.511612403812705
112.089019465289283 -153.681813820152655 78.329335822906700
-66.051391600675544 -153.863609098157497 78.819629880265225
23.491743657075055 -154.239352189453740 77.695740901818112
-37.616634119756483 -154.577410909846776 78.803531230134794
-69.509495925113725 -155.389135803542189 78.437297279910752
-49.523412385590539 -155.354490747375650 79.449507748661745
32.821078228401021 -154.949890305847958 79.059456127491828
112.499277469741045 -154.785899731825737 78.989771237521239
-37.332980016914313 -155.616737691667225 79.011918741267792
112.251844657442533 -156.102310309774793 78.390674304939225
-38.926060486810975 -156.415684849859673 78.613152535940529
24.487910873014140 -156.087256670981105 78.387826243412150
-38.129814812501529 -156.781657995696207 79.372609708557675
-45.860711753150092 -157.235457617395525 78.418993928182786
29.035300510170799 -157.005092553367660 78.376153678864867
-36.281572777801607 -157.382074990178097 77.963057953880266
31.871090356234973 -158.213131100161661 78.806180848801532
-47.700782301109129 -158.547901412736280 79.310695400958863
22.051000663065960 -159.110915958745522 78.923331826457897
110.281161117758785 -158.637663779526605 78.629930658929169
111.711056620232270 -158.586477221274464 78.549953158912970
113.918749624272053 -158.166407442672494 78.314023357289145
-34.817666242474878 -159.662970686408528 78.943219158158229
-45.178209716184995 -159.512379613199471 78.219847620532647
-68.407553323437554 -158.679506494596069 78.200571367689406
3.204231713063300 -159.823799491814157 79.475873796811229
5.303179390272223 -160.065370760946450 79.219052635203440
24.703724226143237 -159.805509474182855 78.529734659175801
111.858097907719596 -159.392502244918376 78.573749808083690
-33.739354420953141 -160.255285733397045 79.403582290778175
0.934623694112647 -160.482866937309979 78.595296830826655
-45.196995371298435 -160.843316505386014 79.803309042617130
-36.052115873675433 -161.047080344266135 79.615106738292837
1.790838942431592 -160.928901987177994 79.599371664456385
4.636115830310384 -161.210304027830546 78.994565491407258
4.555595121723967 -160.862754264343067 78.316466016414850
110.887136934306142 -160.876953502690185 78.384422967063131
-60.713018078093619 -160.802584860371894 78.212940503295627
-32.372481625738558 -161.993556164764470 78.838789451115957
-1.228168406619997 -161.836038537779586 78.757236509436169
2.949475172472215 -160.922582166247139 79.010695095819628
31.446512748621810 -161.267200555778146 78.472569705390725
-35.962484394750184 -161.802107032018995 78.554269870845062
112.121044149569514 -161.484114195586926 78.946872943824332
-32.620266974034784 -161.647689210789991 79.052759667132563
-62.746682154429223 -162.438184376331918 78.411317418311413
-42.646879242260468 -162.989114858299843 77.704614310585811
3.700798138674634 -162.629868937069830 79.636439370814045
112.565675714614315 -162.554761002364131 78.847721866842889
-66.928009123617173 -162.573022245236757 78.672189972322258
-44.384590801998762 -162.670861096512198 79.074931371061496
-32.437344618494052 -162.944547008008698 79.923293329719215
23.395832518989138 -162.862824810227977 79.160803341354836
24.014819485408360 -164.351867779825341 78.470614216987414
-63.399419625423064 -163.705894787824775 78.648003441806921
-3.668966192287303 -163.247097021713927 78.971577995938802
21.688859360871426 -163.004201067132840 79.390128001070835
27.280948334516673 -163.357964849736959 79.181004194601059
-59.060780015346559 -163.908581289388309 78.988426234433263
110.054233291690011 -163.446814655490471 78.629917236522004
-3.963052696202885 -164.202974997161590 78.327574152035083
22.267973523715227 -163.680473966647270 79.344500447567640
-35.222000642736077 -163.918140849435247 78.993600250671875
-65.170206770457440 -165.223135897366404 79.923098035908922
-43.223596134930588 -165.023075608735837 79.592955602059547
-33.787624848803304 -164.931768249805174 77.564507567402188
30.111347643106416 -165.379265957057186 78.409799631246429
111.877653770524105 -164.659061952455630 78.966009509867916
-57.701162660433781 -165.524110118218402 78.992580117957345
-62.006454177385116 -166.640575306453030 78.768309528299284
-33.667777118057472 -166.066830770137955 79.148980249998047
110.878084801816200 -165.986928256933084 78.792258862123859
112.548738478373195 -165.899934853057090 78.678621127048871
-65.319971303265802 -166.810532505454461 78.560130385153457
-57.341126679365772 -166.641297873820974 78.894802119924677
-29.933960019122175 -166.727812622285853 79.816008410101574
22.053974908140784 -166.603495215389700 78.372127963608762
-8.295591767776148 -166.926041623797943 79.212667578607082
111.376754755143054 -167.014746917164615 78.764817789698228
-60.983613674457871 -167.336126655968826 78.718116019437360
-56.996782415744249 -168.154640638795229 79.138935806726096
19.300104193810817 -168.183152434699366 79.407704481564977
22.754328130528542 -166.814151088104865 78.402541908351068
28.312886487413802 -167.057569996803664 78.950672601140198
110.054370888573757 -167.193557777705905 79.016423978403935
-29.844002273000520 -167.782897445443894 79.097556477863961
-0.099200787984910 -168.545400467795986 79.671844474242661
21.064983679458539 -166.961006258178855 78.176673826591326
108.734661797686400 -166.717278185144352 78.685619507664995
-60.860840584265326 -168.304773515657303 79.852979929946798
-60.064712977751832 -167.540988580854446 78.735288725617622
-9.135663891294692 -168.442364446160269 79.348052071252795
112.637908222139998 -169.115963263333697 77.472611396800048
-64.247686798455860 -168.807190122958247 78.978494043837671
-61.495259048163355 -168.489536846536254 78.478776290684678
26.624272252053601 -168.470519685776679 77.898445370472643
29.036139601089161 -168.953684662330943 79.253473034020985
-30.368992139683169 -169.334948106693645 77.530926316343368
-27.998319121063822 -168.583822719220194 79.618771734600344
-11.229128711563847 -168.492163217750345 78.187525648443071
-60.879376974986833 -170.739477455694583 78.371691430599299
-57.794462392645343 -169.378341553804120 78.451418221222170
-55.702837136963666 -169.652358831150764 79.255737666683657
108.851645959254625 -169.489731815497890 78.927557375908449
-27.519662973476930 -169.909819535487287 78.483518994403923
-2.790705694819569 -169.755743038029038 79.361772590422461
-11.227116861560466 -170.803284836829903 79.206747809399047
-63.746862952868327 -171.741073578048230 78.700313085466163
-60.246374911010854 -171.726518235118647 78.919794710068814
-54.123808458957349 -171.376132737048749 78.548299319054379
-13.254781376875975 -171.192052972976938 79.132714405258966
-4.593815236328684 -172.186862898067943 79.224670866309793
25.104417978305435 -170.973382611279987 79.159139899608491
107.244237921544993 -170.672793306458033 77.929318534478654
-57.884429793791739 -170.832313468134458 78.656988412809852
-36.815112209146108 -171.231673478047895 78.761128872456482
18.932951360064710 -171.918227569022150 78.827264801388282
111.254516916521368 -171.701921062784550 78.433534219319142
111.493987746551383 -172.548144011007679 78.631526225926905
-63.596407159520183 -171.466505510892347 78.216255207690892
-26.856508665850253 -171.886826199999263 78.358881876617033
20.924247996654994 -172.308354247403656 78.913427234553367
108.850442998156780 -171.563941815824307 78.736763567298510
109.900274063992015 -171.957175120635583 79.247075525738538
-29.898015130436786 -172.262100207014868 79.063990076530999
26.030148104035508 -172.221188392498021 78.837345793097001
-14.644216225859591 -172.632804713214313 78.962481986116700
-7.630114515281228 -173.604293939427578 79.369684884366350
111.361979137667916 -173.011061818791376 78.580877560373054
-37.462489744955228 -173.226725440220690 79.078822706416091
20.153852445814792 -173.563592102085892 78.695493141694612
108.205081749210123 -173.353889130608081 79.100409192664586
-62.010971590543207 -173.842789637484287 79.273155983161018
22.406598912677012 -173.934969512284169 79.063574336087228
-53.406608989568284 -174.120580491121018 79.563549539896712
-36.358278657888043 -174.344666457497311 79.823649205134060
-15.371909705828195 -173.673039407080608 77.548689248819329
111.313224527113476 -174.162049005347001 79.387703004421951
-57.863568128997805 -174.537086676303886 79.263074027310864
-55.156347739123447 -175.287351710430244 79.275910079145632
-25.637188546465101 -174.170558060703968 79.885148689754502
-9.619974042264424 -173.900046360466945 77.775272830726536
-60.870648152309293 -175.145184834105748 79.475556551349470
-26.218491761439410 -175.861174105961027 78.265759951377930
-9.529981078611815 -174.666749663239727 78.997117181051010
24.296006051541347 -175.046584510626928 78.949138755804753
27.594776656707428 -174.571713747823566 79.341159352305240
106.929801225242699 -174.917092049059590 78.243043705017598
-15.284327341116867 -174.375155628497936 79.133645207194036
-15.046041841484744 -174.712213435435018 77.485038273550543
25.280477256789815 -175.329635866504930 78.175122215005374
107.945281333766275 -175.530008516118158 79.207528375699269
108.117084138928917 -175.715744017124877 78.679794393891299
-52.346080095744483 -175.882511249696194 79.835633183078485
21.304903695824326 -176.384940897532545 78.646609006230932
-57.320599214383186 -176.769368722435559 78.726002233119942
-54.869044890997124 -176.452093460157471 79.355694084904869
-36.697194370253605 -176.271213590597739 79.574169853671705
-13.454190077690061 -175.933575774969199 78.145626538355842
-12.191754850988197 -175.486791845232602 78.313040200636820
109.985745709845219 -176.667310571022767 78.976303051044766
110.350611062491240 -176.141148384308536 78.200965231789212
-15.979784938074395 -176.317295202260112 79.291824385367107
107.482169606073043 -175.930288583068204 78.899738357021235
-13.829774899100348 -177.499394759090279 77.775121391340605
22.177127387028776 -177.039449038968314 78.244814420325653
109.772859388053448 -177.699999621019543 77.924345992137404
-60.080825455328949 -177.634414663741296 78.685826659300815
-53.613299785107685 -177.038017186255445 79.048964996592559
19.766607532914193 -177.515378278824983 78.083293056499187
22.224840179355951 -177.685180933988335 78.368994452493581
-56.082987400714806 -177.677271214067218 79.922942904877559
-15.667676868047025 -177.682535185209531 78.630170766329130
-34.944957359360131 -178.831391475106244 79.272971460161997
-17.578305810918213 -178.420608765410151 78.972178553599164
-14.963509466344775 -178.268534021236093 78.924401126690711
-22.963902126393990 -178.913032840453837 79.221504105566467
21.587164715812747 -178.026411499175680 79.043998795570843
22.024805963455922 -178.983921529354234 78.800994849348896
23.584343168452012 -177.452286030763503 77.845349085952321
106.363492625519442 -178.765966821993885 79.107356386569435
108.570317449771466 -178.562865348693123 78.794808656266213
109.766212821762508 -179.058487201798158 79.039250428937180
-49.540153593391814 -178.911260573055017 79.650801785577912
23.422560201980012 -178.353665841257111 78.163096033301798
25.146056412213643 -179.026433194685495 79.493088533013321
-52.743902127574437 -179.182059011245201 78.605185210636790
-26.122593731399022 -178.260939135735612 79.170372970207254
-59.033443900594435 -180.619196973123024 79.288403110703314
-22.570762309469483 -179.928572645962362 78.943500070112762
19.567304598026304 -179.353399410047075 78.755191912856759
-25.736326604239572 -179.834462104842231 79.047127896215102
105.305928964379191 -180.207116433904673 78.411990889887733
106.968603350833007 -180.123221349569747 78.633218947168103
-52.640782208053338 -180.881420148164580 78.296130295539271
106.267084519472419 -180.356848966314857 79.121596061194865
109.210472626840897 -179.419299309981596 78.945935032074786
-57.685008368580228 -181.068700877797625 78.990657018190163
-51.932859197812320 -181.332014891986233 79.075479551433091
16.477828656139117 -180.926347684511796 79.259846485763077
22.688975684945877 -180.564841565223333 78.302202570533083
106.343182453742727 -181.781728416476454 78.308576176532767
107.505605978444933 -180.205143188885586 78.265859030938302
-53.923894257563141 -180.155473492474016 79.552670617465921
-33.582597789700706 -181.322434183651524 79.360569363340730
-21.645562421580824 -181.620820318303799 79.206296452949644
21.001531115338057 -181.881384284608572 78.276417429097464
21.535118566446350 -181.618327046986423 78.650422228476941
-57.340658582479506 -181.555780467812752 78.675104789225372
-48.171294728839136 -182.083325771273280 78.596331191463989
105.068381061866702 -182.221944530668424 79.007883332287676
109.114685132026779 -182.281412733477509 78.949600936987764
-47.417170477556823 -183.246864336466359 76.894463577394674
-24.133912207251115 -182.615819422321721 78.587924831273270
108.027969100749459 -183.255744726958682 78.632824305104947
-50.889876665403690 -183.735412436773231 78.504541280154953
-22.128922065256059 -183.306203744123991 78.840633018179346
18.657017524878793 -183.452320684790550 78.444006211296028
20.756119109124029 -183.435353880645380 78.606147584727978
22.141538830742039 -183.588930600088275 78.025222489881330
105.864854956903116 -183.129088523102951 78.819688979976220
-50.999466598364641 -183.180914993493957 77.910615475320867
-20.550931590010880 -183.875503053904339 78.899618680693877
104.023759322776584 -183.962870840151908 78.142327681817278
-55.837112226150559 -184.483684475860400 79.441570306405865
-51.986662562474777 -184.529171270643019 79.423413680138694
104.889711946952076 -184.172971656250468 78.490463592736376
-148.538537032535402 -185.852973754539505 79.789477491392418
-50.539994699637482 -184.521271239333544 78.397091484734190
-45.816507240292793 -184.102061185027651 79.024586528659512
-22.678006056587250 -184.911033579825158 79.108939546343237
15.249351130085326 -184.771158694586234 78.560122473263448
106.868449662441932 -184.560980217321458 79.775918364536722
-53.915917530345482 -186.131858074155815 79.071039312533983
-50.025490644351194 -185.424430415130530 78.895628532076216
-30.554230981234607 -185.511177571691178 78.558498582766575
107.199542650389262 -185.058967867312731 78.300874765529258
-50.071228404495322 -185.390079227813175 78.352225545146140
-30.116411811786858 -185.760174985509167 78.688924806944257
17.232400476948598 -185.420247565270273 78.252717498694793
19.664193501709953 -186.166339195713789 78.416996549261953
104.093039228701741 -185.596245216903611 79.435119500755050
-49.990471619524044 -186.371544780985630 78.094513258813279
102.342174116919239 -186.264179854975680 78.171286578253515
-143.823164686320581 -186.109449416041628 78.985836615798092
-47.194287967839543 -186.465782791226530 79.559550402267305
105.360428551297773 -185.440784352661382 78.823140821771247
107.030822599170648 -186.560889830357667 79.098650041848231
-53.362797606409792 -186.937698691384355 79.037505933382633
-50.313093095543309 -186.814717983917603 79.120756289852181
-49.258982499012717 -186.600863890667227 78.209465510469826
104.366131873657665 -187.966204599465669 78.463914134192748
-18.409991284854453 -187.904204025818103 79.680503357711672
-144.164584293225403 -187.766561227773906 79.250422609097711
-49.198219248348757 -188.291222018114468 77.918974878439286
-43.647818145046607 -188.465992924919334 79.548559748603253
18.641460731044770 -188.265099859321253 77.684151176381562
107.905774028253731 -187.853411265265095 79.387040517445257
-53.389495443657950 -188.095967979903605 79.723304932774823
-30.449897218530783 -187.677245456912999 78.755933187575806
17.303951071668664 -188.150130340691618 78.054594563666598
103.564046935930151 -187.270817943376073 79.300930857039191
105.873158984608679 -188.379601489921811 79.215995298427984
-47.646206119982814 -188.766656868917863 78.752705401358014
-46.351777167005153 -188.416506063105118 78.711359828270659
-26.380412916111567 -188.497622506087936 78.957516688361949
-18.470320944133707 -187.673860189174547 79.264659137659976
20.478657590180152 -188.506953709924346 78.046952830435742
22.987874595730887 -188.557981793878639 79.276708864441403
101.186772444151075 -188.270840186636860 78.897425441007186
13.973710886306517 -189.734062702746371 80.011498483147122
104.789326518983287 -188.682836088725139 78.050111010109390
-47.976605435439367 -188.688026799771791 79.619987067538446
-42.972924966150543 -189.259712179065019 79.272379589331962
18.673185222871911 -189.538322349274921 78.404305251018897
101.262846729917058 -189.141915132042840 78.839260252269000
-51.049025882698523 -189.575724658434808 78.475513808355942
18.555671977088657 -190.412108990317392 78.608174251715027
105.949912402985390 -189.354964257108065 78.551737035527026
-45.833871693456857 -189.569924993034874 79.018648322333704
-44.779692615107820 -190.475504300004758 78.962689191850671
-27.634307420825735 -190.558119923597502 79.197733394044846
-143.664458962925664 -189.827344174401503 79.567076901307075
-46.720966751667497 -191.087135146831088 78.422711502092412
-42.390606260803146 -190.665610208537601 79.334200232280679
-25.666773594893513 -190.153538237633256 78.674540241817510
101.182067144930457 -190.905423825824357 77.824762019932194
-45.590094125621725 -190.970474123841143 79.306942841721707
-28.718139690650293 -190.791345066880837 78.738588780512842
-19.394375710810458 -190.550034765183824 78.856472424111303
-43.796242573581750 -191.464193833218530 79.164819812937282
103.792306637399008 -192.194995346350055 79.338572231108671
105.084215474752611 -191.395033763737587 79.086601056197722
-47.189426542369269 -191.837194690983125 79.273366760397195
-45.863574522202569 -192.821986733538722 78.439168138616921
16.611107308538831 -192.464562005241106 78.623102099747527
18.170973226416560 -192.752708895762026 78.008140178446638
101.570992024346381 -192.760823187149327 78.961090447818137
102.831744292520256 -191.453444421145292 79.488056220829804
-143.877610396463837 -192.765229363446338 79.250782158150088
-40.656575131652872 -192.303126908522188 78.968554282924728
-16.089976412830154 -192.234903485075591 78.578153256237840
104.828572871124337 -192.916684833308040 76.976236146644410
100.103211071170904 -192.031533326995003 77.806100717879303
100.639082968811152 -192.817709462194045 79.683493560364582
-151.651701844321082 -193.191547490225219 80.141375689383622
-43.149514861039705 -193.384382938317941 78.256952932183296
-40.050305836695991 -193.378881475771180 78.864279106234179
14.575658840549696 -193.257773640070667 77.708148768620831
17.889087411487875 -193.121227894374499 79.121602895169303
18.601027394845563 -192.951095385674876 78.630533761038194
102.569421254164553 -193.133925082072778 79.701690270110447
103.364372001039541 -193.928517842432797 79.610848827024753
-141.036110168312320 -194.235833752739978 79.186048031343972
-18.983058875032114 -193.713879880212772 79.035423989872953
-15.722327716142328 -193.857787364327692 79.538028269140312
-152.381506321519595 -194.312570677508887 79.690442718608168
-44.604822162892461 -194.238821970485986 78.275491856043047
-44.218426994436598 -194.991270090085663 79.093346864936208
-25.918711034628021 -195.661923382977278 79.078157618839654
99.864229761756221 -193.570168674985212 79.350520566536375
100.684516453858166 -193.809632414532473 79.503275133178178
104.282447734774749 -194.750728164458735 78.239352748987173
-141.417129376492795 -195.672069069019244 78.803098303814295
-42.982887694834034 -194.728814863415607 77.483531330992150
-41.070493833852019 -195.135991508917897 79.361902126333021
99.454927549160871 -194.481622299297698 78.565290958172795
-138.629614352959919 -196.170724289758112 79.592926106911676
103.009118318320176 -194.192404576934621 78.318977520506621
-153.192964415478883 -196.396433486468680 79.040943700279541
-135.783217959516378 -195.137119938504895 78.765734215760133
-47.814238405884147 -196.758142339016047 78.687546893858283
-41.624434271224416 -196.806481379894052 77.440073648602919
-18.867044408443810 -195.843029065153900 78.574044764570900
-15.317647999584429 -196.154644440777076 79.948141916526751
15.533359709228341 -195.700131195802328 77.929053457802041
18.374224282441567 -194.855511614721962 77.921171556105193
100.818977831845800 -195.763930385589589 78.572942200095568
-145.652158405451019 -196.502692668932383 78.874070713120133
-134.487852831476886 -196.016021606301052 78.979754667758513
-43.059897954050378 -195.678919001579033 78.580349232115267
-39.668804405821419 -196.004394496050139 78.995271489726662
-25.427873243832661 -196.026923721163314 78.985752161936063
-22.537789943218119 -196.037966414060946 78.562145755151889
97.523075016720426 -195.981972325723035 78.295459864801046
102.239442766830322 -196.470761208755818 78.384219250449462
-152.912332676134099 -196.616503052940573 79.313322659315787
-43.549279576269981 -195.626033570191964 79.491854060237998
-41.154048414189994 -195.760394817508683 78.703849334732070
-36.754737518092050 -196.795399921347780 79.190621542652920
16.364658583214069 -196.089096709235520 78.410205811430785
17.189818074643544 -195.598936984129978 78.275284428187845
99.536475789263235 -196.947520742512808 77.849570065526450
102.281196394239089 -196.093626647081066 78.234553269781813
-18.278629732376245 -196.084057304469212 78.507437160910058
-14.808731715819803 -197.269079230556798 79.533401235327233
10.887789098472487 -197.629799250532159 78.905697631650028
14.978879596681015 -196.875689038981420 78.168656984597078
99.751978765482320 -196.589406013586540 79.866077842829839
-133.240877436913564 -196.883536532224525 78.475775632982220
-45.685011105476697 -196.855973255587656 79.207215618879758
-43.485405925354968 -197.641917852054746 79.533339871232258
-23.211931458308175 -197.046288508171557 79.163787195039120
-144.907141416170219 -197.543471210071345 79.850367452536304
-39.057988996845793 -198.456063785516506 79.317561280133290
-15.422607437810564 -197.642083598140744 78.257490586423799
101.911604104023624 -197.524637044178263 79.146376798532728
-13.640516007368744 -198.820969369989257 79.255195890753981
13.664088659220223 -198.179473923138687 78.601558344014421
98.549844822331309 -198.315635721644441 78.569793917504910
-133.350004281646164 -198.623385037632772 78.870718900179625
-35.674351377897388 -198.272975621621129 79.504022510952638
-21.165277648624912 -198.379203265337225 78.075026952531800
-147.599134478982904 -198.834733961643735 79.238591371100895
-146.251841781386133 -198.892954375614266 78.744858368069373
-16.323941348419478 -199.010457577754664 78.541602294811909
100.285054966713318 -198.981236160989397 79.438993173053504
100.750282565163701 -199.185682987263419 79.160140730859140
-21.648338925072828 -199.400182399604518 79.223609956532002
-146.320863135767837 -199.665204417396694 79.004131024555477
-146.431674359567666 -199.653178768124576 78.412778593649819
-44.419956284602847 -200.729988031334841 79.449374321288587
-40.944209046776834 -200.119473930892241 79.489525907713826
13.595131423622950 -198.780587596545871 78.616150517762648
17.834518447043905 -199.633123758237758 78.586625734531509
101.479623441559539 -200.112716485535401 78.303226574760629
-152.759578286496065 -199.670223378025213 77.716183489578739
-140.495377578087329 -201.111837095617204 79.083727162244870
-135.725158800987487 -200.941844584739442 79.185290568952411
-12.554569868935920 -200.229350694824063 79.037001810330878
-140.354663628315024 -200.726975432062204 78.878863468170579
-22.802626999804918 -200.218352908970900 79.371509182173085
-19.818558785936226 -200.344186050016560 78.087729524581050
97.245305046745216 -200.482913464302982 79.235585719864758
-37.159283533301846 -200.845925243613010 79.246474474662435
-33.547367542217273 -201.089112915297363 79.083758729748737
12.627784632701482 -201.497202005040663 78.589960500292335
16.063315825062510 -200.997971442905396 77.792846270861517
17.135863029010661 -200.744560491902774 78.767526306923429
-11.506972592883871 -200.328220389142956 79.460547641057772
98.727049702440567 -202.190693928726716 78.931198273076575
98.621138348385088 -201.092717888848000 78.677638448979138
-151.902928391734463 -201.413765004487175 79.207422849576602
-39.641795105574992 -202.199680201788624 79.159443902711473
-19.323748778713018 -201.716819726370687 78.787141108518867
14.154796106484770 -202.280672029018859 78.911728778669271
18.730988788790789 -201.606908976663533 78.924242568862468
100.307837732681563 -201.420613798352974 78.009912022203025
-41.773407229531159 -202.249714491830446 79.294133607559658
-35.785394677088881 -202.788069331113803 78.533395753394444
9.690086809068239 -202.041326280185871 79.395908407694918
94.693929836092849 -202.064736441783083 78.084995845904004
-143.310638679203237 -201.785602040929803 79.472505315571482
15.655266573324580 -201.635975121501332 79.180035769572982
15.690647907448547 -202.652634562734590 79.297540324989527
98.109817847956336 -203.479583354374995 78.141807556262947
12.182399326687401 -202.701430266444419 78.906221930035088
-144.329551508472150 -202.671337475343734 79.014575039533597
-33.855377793362237 -203.512028280880742 79.537852918032684
-31.510180757171270 -203.775327705001217 79.809157258426950
-17.577345349332521 -203.147204292167515 79.629764884070127
9.752026127584450 -202.815937064245645 79.228049285399806
94.149230368497271 -203.675860698266746 77.551007339174518
95.994078269754340 -203.736194417623921 78.642475481619613
-149.485566100593701 -204.187208183482056 79.887549081567471
-40.816153875427545 -203.855956517754038 78.923270967741644
-38.013241801530391 -203.795727971495580 79.459135490662916
-11.465269791804714 -203.784548685221296 79.423783288991359
18.147709880171771 -204.273284495360372 79.078029415148904
-19.494031599883630 -204.580938696081887 79.491688715014888
94.966432402536569 -204.831001432411739 79.499192062003971
98.538289600909565 -204.230210476562320 78.408236741865935
-149.924587854369605 -204.353665917422347 79.429432749401855
-144.355567001526481 -204.493464182310277 78.850520193259214
-9.926836650542636 -204.167929273945987 78.649364751639496
11.516797502245039 -203.920229319857725 78.173966247368739
15.466515237259980 -204.850548026870257 78.006613275182616
94.418633561402032 -204.928515803458453 78.733532580329850
-142.991899433617306 -205.382146664793225 79.020220840294783
-29.697536381686962 -205.325057996632466 79.224824355473572
-30.447610566843142 -206.054243976911692 79.738534788678663
95.945515141918364 -204.963289898888405 79.176893919545336
-12.428206436582050 -205.422444819774825 78.670189136870903
9.027165110978213 -205.714634984863494 79.062605544887248
92.388255463577437 -206.068398909638290 78.697107319377750
-29.261526486347449 -205.866897740890437 79.391656750294644
97.170723544110245 -206.889810726568896 78.637318468969909
-38.612258403764514 -206.474621958178460 79.077807793393347
96.644557232233296 -206.725141609446240 79.376098386871703
-68.993168927617546 -206.329410658571902 79.362693083676362
-15.941988173954895 -206.287073180744784 78.326501676363975
-8.691722534476053 -205.906778012333803 79.448884785567870
91.950303254086663 -206.419050037136941 77.829070861578586
94.871074444893807 -207.456899304922189 78.080210051696170
-71.934393716361271 -206.751509444416655 79.255544499793885
-69.109663080233290 -207.406601915740936 78.363796338693660
-66.925794428566846 -206.755043357314065 78.481846807166377
-28.073377027854189 -207.402154198700089 79.323490423961502
14.897756982904706 -208.055785103886905 79.264742377530752
-143.757846380947512 -207.919840817123202 79.579062283361381
-75.013178191772141 -207.177910616847839 78.694618773568848
-70.469667683857082 -208.354414575649713 78.288255252718429
-32.903687033733277 -208.318590405975556 79.294663900596518
-30.464365359027777 -208.063307932885436 79.072826325779943
-17.155131703003622 -207.402752279084865 79.031745292157552
-10.145624923976490 -208.167488655117495 78.017483743070315
-8.786686743983257 -206.938846250268426 79.785587113304359
-67.113484131648221 -208.587015736853829 78.784746885359468
8.689756729595853 -208.568197551367092 78.994649057301586
18.215494790116367 -208.334412818013078 78.979683034329923
-37.029727578651418 -208.437380811968978 79.026472595672843
95.340195419515837 -208.806573056617367 78.565350324839130
-149.691570029635955 -209.273613948177143 79.162003926395542
-144.846452373097492 -209.336144251416499 78.887150632699658
-80.474927594033247 -208.991540304273059 79.510478339565523
-67.880196589751549 -208.312614008498798 79.400553540153339
-36.191819820857482 -208.541343090459378 78.810561329258974
-26.495922982702425 -208.992136111347804 78.714196749640152
93.817498529533566 -208.873848933324894 78.895280795321653
-81.507621023662011 -210.042984938703654 79.353834749889401
-30.168692216874231 -208.770090731150702 78.637781451940967
-9.580643404751248 -209.617794769634969 78.686995787022468
8.639397432687371 -209.802653731771272 78.556165118867270
91.302001948472039 -210.053256494254072 78.557383749531184
-144.716836798639122 -209.630887542653056 79.443900569674241
-69.198513598765743 -209.735324710598917 78.469900205443778
-7.135586478791484 -209.516571895771733 79.043512423087975
-83.814779380243820 -209.275417549327585 79.748668436809098
-69.681862635395831 -210.885481467964780 77.886646934053132
90.422949865483417 -209.776097052399706 78.596936920682722
93.652601142959909 -210.340600738402685 78.510293679786400
-148.499619596371616 -210.880218529853295 79.914131105676304
-147.735855698031173 -210.519282676867192 79.373194122629812
15.539076333244125 -210.808657793976295 78.024201122774059
-70.265021042594341 -211.056393507375532 78.898211532809597
-25.335610964563578 -210.876491443491119 78.878134588989710
-14.646386770904021 -211.010492196219474 78.131039745848057
15.238354100319846 -211.275638883051045 79.213012217435846
90.492755464734486 -211.275249585093178 77.941474629320041
-71.222082786952555 -211.581685858500464 78.298909252087412
-28.061065931452447 -212.254334360257104 78.937009680083108
7.437312750034681 -211.177186536786536 79.150711616141393
92.021805584729179 -211.253277910128276 78.902025473982064
-86.644256020553073 -212.213711067150598 78.833991835489329
-71.295356340136294 -212.476820229752747 79.319583056791572
-33.335400196231561 -212.272049566597360 79.013068488655080
-26.790428041550623 -212.687177572769656 78.721189369596132
6.628963555032936 -212.783025934144632 79.413613180426864
-87.610297980612501 -212.830407861037770 78.654702394951201
-73.970395678317928 -212.183652790794753 78.845363889246713
-28.982020320092978 -213.147424411277143 78.828081597824891
-23.390226192197467 -211.800274599169256 79.003147027808922
-16.896813699474063 -213.556337961900283 79.220069791668010
89.706113615942471 -212.519294018412126 79.123437241581570
92.496418263349256 -212.790154268836631 79.237061728881329
-88.963605964186428 -212.887534834211181 79.366781888845637
-75.190440919647116 -213.161725715511920 78.845040602911965
-25.094131950243771 -212.714669549796611 78.375437431458280
-22.059657192101522 -213.151013045906495 78.895840619634654
-88.003028586609162 -213.172430239732932 79.168708187360423
-30.945607842477401 -214.025449015895902 78.853637063300710
-89.182534169457497 -213.822379325368018 78.056155538972817
-77.769856565681636 -214.287569727750025 78.749178393838505
-27.067848703586197 -214.459093236427947 77.965770787533515
-11.969518379105613 -214.630760730098814 78.989462436707811
-7.263644346817792 -214.539018576055241 79.572306835294739
90.848485709380654 -214.301627715846138 78.480305572341294
-90.998181709321614 -214.106765815096480 78.436158387838503
-88.463189524665196 -214.544162247189149 79.300481350082322
-80.227625043869352 -214.613636065802780 79.063788575032561
-21.456776396243274 -214.472266162301537 78.932097240244076
-13.759494511907645 -214.970130039496155 79.484885017104190
-4.228252998674767 -214.598523073058686 78.725605814478200
14.522143536623082 -214.013053813543507 79.434872932713532
89.110580300799995 -214.412611706847656 78.799423374326352
-149.088220806322397 -214.515091451783263 79.585543382500859
-86.059360905824875 -214.677319826099335 79.608799440337819
-80.986358023285376 -214.432075238916184 80.053077937102074
-82.272924579612820 -214.867946681027888 79.680078227907160
17.208025832866692 -214.649693499253544 79.333961151272590
-85.611672756914146 -215.179153760040492 79.136362411551715
-23.411859058571370 -214.749188594204071 78.018672702619426
88.916463523719301 -216.140962597295641 78.474642655648168
-150.255051822370859 -216.232890391919994 79.284642863308449
-149.660890034885284 -215.635367868120682 78.857345466763277
-89.422618896165446 -216.148030266966799 79.640702899880651
-87.606444614310590 -215.844917673091174 79.475938985884284
-84.486920707944023 -215.886872173731831 79.180296633052109
-84.473213983039301 -215.918586681900564 78.354592487959920
-20.711715011152990 -216.450485698164243 79.481421960664335
-3.656070358867880 -215.619176984037722 78.172000412315995
87.822462161661534 -215.867381413825342 77.458327997098564
-145.357139190883885 -215.632887796550506 79.654668812253334
-87.143411193575560 -215.564229694604535 78.416302384878421
-13.582186234610299 -216.667397401223695 79.390051767159719
-2.199655861766368 -217.106476857803671 79.357203856974436
-150.487003210960694 -217.311378402964351 79.287877586651803
-13.635439170064403 -217.395038525262123 79.718861666696711
-4.742919167343266 -217.831498693399482 78.590016698554038
87.804913539765153 -218.140453442975115 78.177081173375925
18.318521579006337 -218.162942677971699 79.022118375098756
-145.253970685674972 -219.090079953783743 79.017533451212884
-11.764912897403070 -217.969986939494930 79.615601898456305
-150.922783195430839 -219.673817713634236 80.259758925307125
-17.231661682159618 -219.733218854647788 78.524711334950339
