# This PCD file was generated using the MATLAB® pcwrite function
# from Computer Vision Toolbox®.
# .PCD v.7 - Point Cloud Data file format
VERSION .7
FIELDS x y z
SIZE 8 8 8
TYPE F F F
COUNT 1 1 1
WIDTH 795
HEIGHT 1
VIEWPOINT 0 0 0 1 0 0 0
POINTS 795
DATA ascii
-140.232966309628750 -199.613773601269457 73.285168882826525
-132.566730214448484 -197.719068772767884 74.422647038014404
-123.050733835276603 -199.346199257521732 75.206928224052675
-25.421028626348498 -198.559059643013939 75.918774712463915
103.535435234569803 -198.527936735540891 74.700521660812129
-23.604172085375545 -199.131077437128397 75.211248394504565
-11.734739092955596 -198.714463500696269 74.355734316029043
-139.987236142986319 -198.424381611715432 73.672558623686825
99.402706408961890 -199.298182520263765 74.441315706167970
101.680349849103209 -199.770820288483918 74.935964903315252
-146.425612707673196 -200.007295654974399 73.317966057514980
-139.651479922378286 -200.877271774629321 74.620076205443112
-134.749590044216376 -199.640237696283123 74.602535234192729
-133.991206675747463 -198.446058438486460 74.655622109861483
99.121231331273023 -199.819980276798702 74.522882355631140
-141.161744469654053 -200.513031945107457 72.899124801989771
-134.679620426253251 -199.962345075272140 73.900530820803937
-134.796974913820634 -198.420889864081516 73.222295393634084
-11.779994926326815 -199.911273698450856 75.207241618581719
20.890605924476059 -202.383141491187843 73.108019856343887
-137.676860439068832 -200.265467057055474 73.803928443863143
-121.970918597180614 -199.905915996546412 74.741687131583745
-22.161801182566332 -201.476962923427948 73.351354065020132
8.174202377556902 -198.987568924691374 75.062122823028446
-138.852527919323364 -202.344936861657516 74.315838722632904
-131.806884226935068 -202.453290408730339 74.379690286283164
-129.459197628074321 -200.593227019765578 74.221828972269449
-122.750520005636886 -201.159865440744142 73.060389772476512
-22.800407999154324 -202.238218418215212 74.778402693963358
97.326557624458772 -202.013174781234227 74.155879786862457
102.168998270885595 -200.958265733344575 74.307172212844179
-11.861777343422704 -200.775733767084944 75.743289210194675
-10.621741275250136 -200.891844721946200 75.064282032361390
10.322570016483651 -201.793189066937089 72.262109688201292
91.813162157032608 -202.617041561839670 76.578020870516127
96.707717234657466 -202.108802299536393 74.098484778981060
-132.338995350285529 -203.007370865282667 72.613756075363270
-132.361746836231930 -200.463483117336722 73.499528688691541
-14.572976870466393 -202.292520989233566 73.051335067900453
17.637101749411258 -202.019301003945714 74.195678252509580
20.943149761876693 -202.156058207646765 74.432292399668825
-128.427244827086412 -202.655554977163234 75.384539299720885
-124.505603785928287 -203.188523310133945 73.960486850781692
-123.541854726226063 -202.806977482427186 73.785438673914854
-20.450916159956968 -202.249357361069741 73.599328948006445
-8.987610108544967 -202.081962465883208 74.702649700131701
100.820972235404085 -202.510048100228886 73.430005754918213
-20.733401713093880 -202.979842981746003 72.891668296685268
-11.189068844046389 -202.532258076281153 74.199359714734854
97.324781626288384 -204.168018798348584 74.898895896280990
7.746079361467318 -203.265622574398492 74.353864438849783
10.297012526008844 -203.271113313340152 75.050318421054669
101.081487067034274 -203.033827873305739 74.550973084613247
-163.233101294399063 -202.250755286608751 72.986872298055843
-21.737618685175445 -203.068813216040326 73.413347283571952
-9.191818100779789 -203.414375400678892 74.411136632854266
96.426324532269959 -205.225197587129742 72.990352747924675
20.269990826417320 -204.004670289806370 73.775114885787971
101.520038505223738 -203.637856885462867 74.126992122719628
-144.531053067763310 -204.051493721736449 75.025531838832762
-18.922188409257604 -205.182908303558776 74.884627169887310
96.073551708152237 -203.813628318532807 74.538660726649908
93.297601594162472 -205.080753018871235 75.020116572335283
96.717251738777833 -205.306922179281372 73.097022179629960
-162.496634093783229 -205.713706787575802 74.236729259062841
-150.556096343715296 -205.852186882644105 73.982059650586152
-145.389590152459533 -204.600456996863215 76.230702425344020
-11.688768815988315 -204.593431788847539 76.586952308863928
10.485974365152106 -204.669569881476832 74.523942201481290
93.688949099384999 -205.042082920431199 73.510655854661948
-10.308262973580764 -204.257632559743143 74.116438034273187
-21.202198952864169 -206.357320063800842 75.843553372565523
-9.869279457506883 -206.049404837421719 73.064875017297169
6.441625324231403 -204.698233990830971 73.897430342328903
18.138228883096879 -205.379454015531394 74.817610641199366
19.525467124870264 -204.821028190739497 73.860680073422145
99.314771985251483 -206.507802871799242 73.196484369455547
-17.920903086328774 -205.737920495588469 73.915137835044050
-7.234714007991880 -206.147553486754049 73.946342232252178
91.529740744904487 -206.277356850099210 73.543938424715748
94.713085337491137 -206.839520959175758 74.824219979269301
-163.841194115436849 -205.053863479393982 73.543088293201947
-144.658543305264232 -207.502834778477023 75.003295430675649
89.927970435859436 -205.947864045340310 75.446970539807708
94.103351129833641 -206.295276352992403 75.080905597903964
94.938279825665461 -205.528568939542311 74.615787749517409
-10.521826953673193 -205.130412162023958 75.177420775373449
9.991539335303367 -208.310526194187304 75.004057522867555
-162.417406030309252 -208.375834344281344 74.205259013905561
-144.164427282223272 -206.424856451930111 74.661146689297723
-20.178980674864707 -207.308967862155413 74.622315836318535
-150.459502795725001 -208.004657185999065 74.873300488749422
-17.715607657426361 -206.331889633628094 74.268187858613473
-8.678161799866043 -208.476833906463469 74.399749515819224
92.781267662565497 -209.508099170561678 74.206387044784876
98.070319791488799 -208.501259525678705 74.706157751629590
-79.819933907301973 -208.727057362891969 73.207351288492234
6.671685977543246 -207.429366509731977 74.336764155165369
-164.104206523580871 -209.127256496352686 74.693739323281903
-158.541912731778439 -210.216460456149974 74.924581654533711
-14.904668145340873 -209.509484877199640 75.710388017704901
-7.124708060892123 -208.049399741821532 74.446360578302702
18.608022092008586 -210.629035060265778 73.492537455830771
19.484936719342045 -209.151686217123512 75.343221489438136
96.914332853990217 -207.817992100351290 74.114689875980801
-76.314096435404295 -209.835545929757416 75.117158449428828
-8.431560754528961 -210.893532974925392 74.100347005110535
-4.768902667292457 -210.534635234010182 74.018119491026724
88.116543708274634 -208.926968209152136 72.893992779605497
92.619285585407766 -208.324850870494998 73.671711274515687
-164.709527041847593 -209.762855241402235 73.816308540089480
-161.538589089604528 -208.592005073946638 73.440279984262077
-159.078871650999446 -209.340399334350764 75.454691747595319
-149.866981354119076 -209.358703635890208 73.866343288552756
-146.226603212052623 -208.257108054506546 75.620259347200516
-80.814352189349336 -210.165677441516408 74.691180621848986
-78.144292773251635 -210.020952293382067 74.147065601029084
18.956083387817404 -208.012117360458632 75.169080943098308
87.820192636714552 -209.633160759654714 75.766168716586691
90.989395888300947 -209.058064084579740 75.212958686609923
-79.233010729810829 -211.329211578041566 74.956964078863535
-162.927602185112420 -209.450127281225491 71.795965347411510
-160.676137903366481 -207.887865499002544 75.667485269049223
-144.715519877533154 -210.838476598141824 74.564983393336760
-75.820005094093972 -211.131240784643154 73.500427061929372
-17.134366166315115 -208.428013500631863 72.931708893699536
-4.196031566079387 -209.708228329826738 76.313118324542259
6.980507706756471 -210.979938988709478 75.481502985058768
9.017398349118713 -211.038395436786431 75.490048726789183
91.242669150266948 -209.304450237212166 75.345031739776630
93.319809862271867 -210.414383026113796 74.581241601693833
-79.088192541938540 -209.915652914344662 74.167383757310873
-7.335340176924648 -210.949145061414782 73.613871039233885
-157.757568219540047 -210.082462257837676 74.334998107808829
-77.250346454646092 -211.139821326956934 73.828172789877954
-29.790863766837880 -211.587173214963627 73.455272492613560
-18.414120606062340 -211.245329695753526 74.732633663790310
89.690388433980900 -210.690356441941447 74.874760262339962
-164.191186909231362 -211.813952180135118 73.618198407715994
-145.621057824014969 -211.689246351616958 73.886626333138892
-79.451930672585291 -212.659006237425984 74.674115371375493
-6.039490267455546 -212.214128099373482 74.328162811980789
91.411094133150726 -210.932639703634834 75.291780103140596
97.340360019821460 -210.319656019646231 73.381255073529388
-156.573408087524626 -211.533040930487118 73.576597688200650
-27.501369215724896 -210.334768230286443 72.915140207328392
-28.623946420079907 -211.101782535646407 72.373622833482642
-27.021623406925656 -212.047713515239678 73.682838228095036
17.731735362321078 -211.600391767985485 74.099243127768148
89.063059374414095 -209.693875569510993 75.167722424203561
-156.358440792004586 -211.671118933237807 73.119994435120532
-88.445367620810401 -210.643887281714996 74.991318726725822
-86.299186729926447 -212.238665670841272 75.467257599456829
-83.429262842803752 -211.912964748985956 75.119690592652319
-7.553351853588484 -210.483155061398492 74.165645992947930
-6.051234807687989 -213.087829875156615 73.726239274274306
-157.205872172186787 -211.523854012326581 73.217124767692155
-85.311010951782535 -213.047166813393233 73.885298900297570
-82.752957703212203 -213.250643995453657 75.219376804842469
-4.528475372270216 -212.495747825720940 73.271426172551003
96.986428601557833 -213.199028278072007 75.529537436856671
-164.033103071008412 -212.667291294051097 73.189150436895659
-161.217381894148076 -213.063964794751001 73.956236344969312
-159.627734623922350 -213.329588636860620 74.160243623958891
-149.759646715305706 -213.783885409076362 73.650499179989353
-88.406986998517212 -212.472258448206787 75.352003660588821
-24.687695302185176 -212.162815147648416 76.209973272760593
-14.933876721058510 -212.094371389868115 75.680703462299448
6.108946862217332 -212.399848465087501 75.902935452289682
89.047705095470889 -213.207847465766832 76.242282457601490
88.986982956806997 -213.886461170317006 73.947584549713923
89.871207199925024 -212.192765471650915 74.590720851289703
-160.410555928136660 -213.256698435802036 74.945780155339875
-155.117574710030397 -211.671838272602542 73.312916361829167
84.056104369397815 -215.136356225497849 74.144552798614114
-164.317880080907599 -214.941905996220044 73.490226690928409
-160.526117037692700 -212.544469764760919 74.531947152468518
-153.990511329449674 -213.548945085955239 74.120435154174203
-94.321274359554337 -214.851742260697620 73.145770635656106
6.439256320192106 -213.766913829023906 73.266254744714175
18.046180943058786 -212.622752019668098 74.538968185236897
91.568068993280420 -214.485741475410350 74.206665341804978
-160.797082623336109 -213.749734146552441 74.009680852796663
-150.016586493687697 -215.036303286824534 73.277509957738133
-83.431660464191324 -213.582297842108602 72.074379795109664
-26.721715836209704 -212.794175965889991 74.618734869074132
-5.237243164101335 -214.335218792765346 73.426112509271931
88.576775340954256 -215.739530460382667 73.979912310800231
89.639773075349240 -214.773612669959135 74.477473455744786
-156.667355670532828 -214.372147565953640 73.564213023314437
-151.797072539825791 -213.797457528222367 74.499610905990593
-30.024945819465444 -213.840358849291789 75.361609102715761
-14.255907494928351 -214.731818249224546 74.744238969242232
-4.324435271484498 -214.485232001749750 74.532608450244354
84.688736244563714 -216.810513940428336 74.957827519390520
92.531080962260404 -214.798716702539963 75.697142647962892
-165.854807877780559 -214.773111640013838 74.295441952140678
-156.037526611647451 -216.096672372595009 74.410185134573140
-145.715324643309287 -215.599564770371472 73.757830539525926
-84.938000217174960 -215.125324428602795 73.423686566643156
88.376365243571030 -215.818218812440620 75.653467416812518
-162.801549146381831 -215.073753382856552 75.034365145783809
-152.817215240947633 -215.392042499042930 73.908680054366386
-98.125169732492211 -215.289053040476517 74.483388928138297
-21.882005210805843 -216.169854000554096 73.488299296834342
-20.325173131444121 -215.914627142498489 75.329022143722909
88.895629042522870 -216.118302993755719 74.871075259373100
87.812841190071396 -215.180995085772707 72.716051907987193
89.362352092933833 -215.085841366838423 74.052435817995260
-156.287537741486858 -214.419389741884601 72.450300550673305
-154.042984973322774 -216.827773083863832 75.858668617036898
-151.255589508069562 -216.280045339475834 73.457669959871325
-151.089897993208211 -216.408700367192068 74.988878950303118
-149.750284594273921 -215.352778802224407 74.132429401553338
-27.145715801765451 -215.645414465073486 73.587201506995484
-25.389032916489594 -214.612551617655669 73.695974297975766
-154.258938711212949 -216.813145993390890 73.730477944737913
-97.521969853147766 -216.870450752024595 74.944113110639336
-166.474642355813415 -217.674976896144670 74.041367731085174
-162.639517221579268 -216.786659582066591 73.841261142034639
-99.734641140214336 -217.199144344696123 74.908114480671628
-22.621606324763789 -216.276450959496060 75.543670174668534
85.918166615977242 -215.700953161141939 74.918208460342669
86.970916005407076 -217.723549324299427 72.784142044103561
86.823159881041207 -216.248246819158567 72.846572883196174
-152.821600265997944 -216.451205095744001 75.173712953566096
-86.711208202255349 -218.102446942712135 73.162011003406008
-25.604766451822218 -216.667989686919782 73.826974900364590
-1.100460149391279 -217.123519487051368 74.116821835683680
5.848297381487531 -217.317643009994043 74.319504864953387
8.528652984155597 -215.900608704816221 74.239367672319801
88.746266514798691 -216.154538227218552 73.172695409893848
-155.272596277274545 -215.861898963605967 74.021462954421892
-153.167934131091471 -217.720836945135432 73.907834489255123
-22.413565158969980 -216.493124007428321 72.377749995694600
-15.174718173534730 -216.276615565382485 72.818690845018551
81.190975382165703 -218.084159816578307 74.989332871747152
-163.369156715041271 -216.100564060487443 73.638407873453545
-89.038469621235322 -218.379286117569990 75.299113123933296
-4.156433860893940 -217.574947979784156 74.691559375066419
14.796988756027448 -215.573106184449585 72.856703599434184
84.849743034205488 -217.836651792005512 73.258800842408661
-24.147583913650273 -218.684098889943783 73.569775944380595
-19.634832302878355 -218.184743806395147 75.665565857949773
-164.055546428903625 -218.861357066026216 74.416841464892201
-157.046198220125632 -218.057869948296201 74.537809775336854
-152.591158413342725 -218.642336015831432 75.909151372374467
-150.146614665762570 -217.572476840568044 71.932935038529124
-13.470359041362698 -218.168578401152843 75.012767788924677
-4.704309134026058 -220.085337284449309 71.512777111066455
-3.083413672158984 -217.565072094772631 73.747815710707783
86.644854432377088 -219.179349166960378 74.867729598474838
-159.291262721395043 -219.708095984707001 73.280962158247917
-155.078285877897258 -219.404354729289963 74.224053754786738
-150.075937928858963 -217.818869025774148 74.842303126650663
-10.828616593781691 -219.275504487410245 74.579142340406506
16.412381771752074 -219.625212018214199 73.685618546765269
-145.058395706801377 -220.269496072452853 73.511458626923002
-16.918543805245349 -219.015665961663814 74.207971073024481
9.012483841662968 -220.038778357926617 74.077426436877531
15.884252093295069 -220.178358747763326 74.973706949095231
87.047226383091370 -220.982084707323196 73.244597366405088
90.110257192331602 -218.201480633112226 75.148264857290670
-151.109357495907460 -221.144963048592160 73.755914076737298
-102.941283680788089 -218.708291089101323 73.378442457821265
-16.920979212127726 -218.559241546555540 75.091968108924931
-13.853562535137204 -219.865885503125583 74.921420017881061
84.027075012704159 -219.891181418683601 76.127791358862609
-155.239474668484661 -219.008699362798097 73.467516481880693
-24.667607805201445 -220.250700110550497 74.213370539060861
-11.188263527672305 -220.169060550499012 74.318640435184633
-0.771270825072573 -219.844362376725599 72.914563015962031
79.623506772245307 -219.129890917326037 75.154527749286018
-163.266584713813074 -220.000499478976934 74.963190907747233
-158.169737984473983 -219.715133631399880 74.265022653064491
-145.452331352693648 -220.834972141803149 72.957343817450507
-104.820562983278677 -217.670172083523454 74.441014850070786
-95.506391979973017 -221.339750032107759 74.550256322298111
8.071641862784963 -220.096614903541479 73.562145966443055
9.723023261861767 -219.693203489966635 75.446100108132441
17.005026092418358 -219.580745292351139 73.494829069522893
-155.588133019409184 -221.086717650371298 75.693603646986858
-150.905054067723768 -221.765587512392045 73.756964581458547
-24.107191313883963 -224.133662799493351 74.370336395460811
-11.888797740986858 -220.357457579965654 73.754181270865658
-10.989373178326915 -219.810125319430199 74.430942341775534
-0.815246637368864 -222.622816965823091 73.376425228069536
82.592618642264569 -221.983429996705013 74.533735677128647
84.458486479174141 -222.730328411862814 73.914302711314917
-164.039510589340409 -222.532100262635169 74.629297794645041
-151.053791095696340 -221.891737490406712 74.303828629263592
-105.150998086213761 -223.393003015500057 74.797478305225695
-12.013258784663496 -220.578926041523829 73.029842868454452
88.084909401262095 -220.052611508475934 74.568075609086051
-162.968462009056083 -222.133661675942989 73.236822496644365
-157.656458505330164 -222.600252597429630 74.493009148951927
-155.306895313492987 -223.248636620425287 73.074037626563538
-150.086630695831275 -220.473793414999477 74.126178741114728
-13.036750128010800 -221.752461209452832 74.669294774756523
1.626981509543283 -221.261656979819804 73.143489215993171
79.333699525840515 -221.778906644068172 75.046174781607817
-160.920949689507864 -221.865037090713145 73.909254876675064
-155.319570484334349 -222.467420121775120 74.060631689959223
-106.373164477766124 -222.119997108474422 75.878489134209175
-23.241885420922735 -224.498494775815033 74.312488017159026
-22.844377377069776 -222.642096505408489 74.427728312358937
-10.342148432375481 -221.852128959865922 74.507772717191500
84.553834989785969 -220.219398569418445 73.056817675627883
-152.194625699855465 -223.065598993373982 73.827859744344437
-151.737515889609028 -222.210903916707281 75.339559972075321
-15.838280777758273 -221.712361724304003 76.518696258778945
-0.920524726142393 -221.701581871697613 74.573474824627439
-163.924902069530816 -222.701309703173109 74.173584734906299
-161.111706214269446 -221.650252763628032 73.259180282799989
-159.542335123346305 -221.868159976346959 72.617892592814627
-152.491701234333561 -223.716228112840781 74.352119049222054
-104.957572911143188 -222.847744508088113 72.852926806928053
-17.563374765783418 -223.172830125921251 74.301072666092352
8.341869880644314 -222.054197769744633 74.392026322419483
77.862274262763563 -224.143235089085977 74.260689367399536
79.209883624249400 -223.932742532701582 73.847353253167498
-154.323882361522834 -223.112070162374351 74.191759091034285
-106.555745284379753 -223.416820516402339 75.300194000582877
-106.576030253696288 -222.996929991046699 75.407292442401200
-100.840208237127698 -223.502163469877615 75.702494803705804
-21.790363064571110 -223.657947217809578 73.400329847748338
-11.484191105618017 -223.203864457500174 74.696158776372016
0.870806919068081 -222.466271452153478 75.153017473109884
2.677629638947717 -222.941549277080384 73.590799705003576
19.073808000939067 -223.709910211034725 73.360295528239206
-158.874917065788907 -224.231758440135877 74.874867781532032
-153.891763123115396 -224.589667598636197 76.024523187263611
-134.062859093438021 -221.829855211835735 73.895595670071998
-103.147442781228321 -224.074481287190025 74.871285432293135
-11.321955396257831 -224.197796842124092 72.667837435559576
83.175594087241677 -222.103887613268171 74.044503099181100
-163.680971566637425 -224.203470798220820 72.900827982004841
-165.411482839230871 -225.804125331839828 73.022876966823318
-154.289308309661152 -225.238288865918634 73.635460925043603
-132.499427855512124 -224.137241446388913 72.336583699859659
-129.469239722292258 -225.023430780527633 72.447468554087166
-126.678818547538143 -224.785844510493860 75.154655815352683
-105.208562463668116 -223.017108974141621 74.596832107366836
-100.696055877564092 -223.283297813426117 73.947961005172701
-13.889987523100810 -224.019203558509730 74.248727540863584
-10.343589878361259 -225.271888212734183 73.639762321397768
-6.369738398912377 -223.507800044994383 74.757857337796381
74.614414639161453 -224.742434209642312 74.643479740272255
-164.386515034096419 -224.950750184874721 72.788129505830412
-154.794343629268695 -224.769610840014110 76.922480546093837
-124.244094366104861 -225.846940469875904 76.016830712102873
-122.538551318816531 -223.658076284624258 74.411887555340940
-117.386574465182875 -224.744204332170511 72.435148171774301
-116.634638308008704 -223.446460476985436 73.143774609012993
-107.784806192151905 -223.849032368102115 75.033289832704156
-106.166110377326291 -225.388117100616228 75.483522083852392
-104.624074724641403 -223.618049016223608 74.714289125748863
-102.786841259717377 -225.606962435393115 74.171533256606594
-21.940931035886443 -224.620645293940100 74.303299393677207
-18.208406348640278 -226.341092845075281 73.765446953953983
-16.866900021640056 -224.721107521114163 73.948174044545553
-14.235815334374770 -226.205042626807540 74.464202903500222
6.232729016645679 -224.160681269848084 75.340665362055077
79.590328357333220 -223.231334219181605 75.115716768432108
-124.339411987018551 -224.992701568722140 75.935029771244800
-14.304103237080303 -225.158501680242296 73.331097456166319
78.694473351573208 -225.202018186263899 75.076279775773870
84.013337146893761 -224.526478039709360 73.882605311144346
-159.204688393706448 -224.826403097713921 73.539537807691644
-159.517996522002790 -226.927670555829849 76.008806647856886
-154.393574460465629 -224.966423839619154 73.549321678467209
-140.609194671029570 -226.256418543468527 73.788212480795906
-137.267701433037502 -224.814580903587228 74.076407832667044
-123.462144944354520 -225.396912094948618 72.653966698173363
-108.990945300268564 -225.162373460416205 72.682499617144558
-105.542552507112759 -226.803442453543965 73.661634049220339
-11.509366435904468 -226.181838928156765 73.943404551626713
-6.471131840669565 -227.441402882853794 73.974517216732195
2.855555976520836 -225.981446429240890 74.093165739704887
15.466446522090418 -224.836986350012182 76.587147337368663
-164.748666273225979 -226.330525998332803 72.803006973738860
-147.213335354551560 -226.080566937856133 75.023256312113872
-140.640326249627833 -225.759469630972404 73.773008541071320
-136.029944262597553 -225.569537742043849 74.364315897239408
-135.157610451292982 -226.060768024809647 74.896914728691300
-124.087331325479681 -225.866020219207371 73.843405362619706
-122.024821362081170 -227.351902911641218 73.300985347141562
-109.083129185607035 -226.608936670475742 72.687227591373784
-106.199264465158336 -225.230306331841717 74.565443334528837
-105.576080415741885 -225.988590822215116 74.823185301529378
-16.251695599812397 -225.616030647194037 74.441437076020534
6.941251912350420 -225.233741552685416 73.512814675956633
16.914357668523014 -224.957970735169624 76.392294214329496
-166.995142161414293 -225.884870157290862 72.440718925180107
-161.287120401072116 -225.912042833171114 73.396242662731709
-158.648992584675284 -224.563958484299945 72.747259078233995
-157.145480390486114 -225.045311920222190 72.608492117587701
-147.002635952681459 -226.155111892116054 75.254367356980666
3.831643865341172 -227.368962781578404 73.996978766174664
9.317385962594535 -227.991124701143463 75.919827669170189
72.673117241924118 -226.689290197803558 74.147329047481961
-146.740267986098331 -226.294965764046680 73.924678996552942
-123.985831269088095 -226.305005033651469 72.588923283503490
-123.056579460827919 -226.922065286436037 73.647965009691774
-110.463586116615375 -227.425273929291848 74.171351922270858
-15.246096396023917 -227.315278138103622 73.811876967762004
77.989438716586079 -227.627937872773174 74.706106519908900
-164.783654947364340 -226.839050504624936 74.795429416662571
-161.673034042534852 -226.476202237443744 74.945421477283247
-157.475580723261373 -226.524148147928287 73.023636247190240
-108.163555838131188 -226.776353356081472 73.344426140988645
-18.968592572460654 -227.217110982400357 71.874103126330183
6.083964264792609 -225.242121457980403 72.278752698241533
15.740569399040856 -226.683547137173434 73.439532214927539
76.857065971708749 -226.660443730301694 73.451076487345574
82.519242637071400 -226.807748029018114 74.274447780852654
-160.285343926864954 -227.967069923297913 73.705012598115644
-148.224267432588277 -227.591499449457928 72.729948224072885
-124.272124595810084 -226.384599182387291 74.328774491719329
-120.934174810648940 -228.113707517483078 73.085029539751858
-112.498729471681301 -228.109213787057087 74.640220575345992
9.158812236502271 -227.857128222515030 73.641448580419606
77.931268933150108 -226.792502611643641 75.243266173447310
-115.116480859198504 -228.950051824425941 72.394562553762626
-8.796772674700891 -227.625472565020090 74.572349204479650
15.085044895406771 -228.628061109599258 73.475883636887673
18.520429261842352 -227.993018032211637 74.748824045878465
17.442299382998268 -227.882250663120374 73.715111058635401
72.590926250730618 -227.142371551902698 73.381255406283714
-114.184445964198346 -226.208956880693194 73.742213364652969
-110.640816384327749 -228.273260567337161 73.507782721361465
-11.613149873653168 -228.950278545264865 73.473013460397723
-4.351142346040111 -227.870855500945311 73.310993921295179
5.376134119153017 -228.329375102281830 72.095525079577797
81.695774855015571 -227.820264197596430 74.787063364817854
-147.891162314171964 -228.053308717896357 74.616036960716684
-123.676395076787259 -228.913389840149193 73.340240346788107
-120.356759057579112 -228.533529529955814 72.946245095335158
-115.857585905020116 -226.705081376664708 73.867570890718383
74.692211519023758 -229.029310264542744 74.438251846218492
-156.325926363015128 -229.268222913249843 76.476867514582395
-123.518771093323338 -227.763140206921037 75.221527285991456
-114.506154649413702 -226.987208396125567 72.743206411444277
-14.866750504319004 -228.407859371820280 74.820254906310169
-10.024632790470834 -227.979415715575726 73.814500833758004
-3.440262870914013 -229.486663142272192 75.522548062081214
70.980802957295055 -228.868257661452759 75.373636723291796
-157.836764699494609 -228.774581247206868 73.825740957528907
-154.664224486421233 -230.027030071674744 75.278310503350625
-147.794986710854090 -228.809963608561532 74.627440561451365
-147.914854442059749 -228.882308415444015 75.776595439326385
-122.309516077102700 -230.434445626793206 74.702157664845444
-117.294469243098348 -229.680770009417188 74.113569144509853
-116.332670728526139 -230.306944939798086 73.438947451518032
-10.500650428624493 -229.266810137385761 74.873760169695245
3.850996821483282 -228.852306800297868 75.218474277113216
9.480397192782942 -227.702393779866952 72.933657461912503
70.580371965318221 -230.550163427739648 75.147256499166460
-166.378715028572572 -229.784652594024010 75.334826285149276
-161.047289272016798 -229.814880367967362 73.585940555477620
-133.340532828034441 -230.554641702915347 74.425482037655726
-123.054303772790121 -230.266696001890210 74.268590203046344
-123.503444535036905 -229.373496127962881 73.216664216992882
-118.075394335503447 -228.829118517522232 72.976311526690367
-115.823570981990443 -231.036136843541357 72.888272862770464
-15.346137636215710 -228.608453072092004 73.339854393699568
-9.255235771029994 -230.617567267904718 74.481900896418807
78.886536694651682 -230.662903032572842 73.984231443766646
-141.494653528612929 -231.479404521601282 73.878944966077555
-8.478788498938314 -229.562248773959197 74.325698509131072
-162.722691884588983 -230.881133594650805 72.745446192572857
-155.188787550112238 -229.518528598781302 72.744007058177857
-133.013689838564545 -229.741402707419667 75.256151143151769
-6.812848550513236 -231.800772900636360 74.395819842272516
-140.009029845269851 -231.350335388318342 73.265389943517022
-136.141408362676316 -231.596548145120863 72.185746800413582
-123.746818978707410 -230.453774321400857 74.997162457928567
-12.806963549168248 -229.792494177538202 74.253773285777157
-7.621286928615782 -229.874545820481814 73.796760238564275
7.661583971299768 -231.881706687798982 74.693270538421018
18.227852063568470 -231.144564208497428 74.206318725938303
68.525123547785924 -230.064688282234187 73.754911785907538
-157.185548284877285 -231.520107250120105 75.594558561203030
-134.395526968779961 -230.705334530717636 74.112913305503113
6.606812983114356 -230.603806260303372 75.650534351083508
-154.669765990270122 -232.072498025155454 73.531148034914523
76.756410507081370 -232.377361797052203 74.750993624433278
-163.897842163120686 -232.549202724948941 73.625313130181084
-162.501112499537300 -233.090562648288369 75.082775459296428
-11.289671189534415 -233.227009009688516 75.702792893807100
-154.540815491142439 -231.556155293406221 75.002621906169608
-132.162107913629342 -233.390939196054831 73.284439697861160
-129.348568589990492 -233.073441132571929 73.613637289044519
-4.326354791438267 -232.443497488196272 73.941467049718682
7.348799708060418 -233.732155678723075 75.195834598113578
14.921809004972260 -232.108071802050205 73.385407308868210
19.446777164464329 -232.909815621697504 74.860115683620577
-158.779427065626152 -231.811570744484271 75.370212813189980
-153.500931273781418 -233.924779203265956 73.852659711886034
-152.618315191671684 -234.414768100040391 73.549297904422659
-144.791481644709734 -233.519589673091644 73.773850416007207
-0.126871588968756 -232.710283584555071 74.884129633913673
11.477998496830804 -234.019369817160538 73.263274794045685
77.918233250665693 -234.169131227039202 73.558307531298098
12.591384827235601 -232.941430145406486 73.059060341388872
14.619850837552921 -231.885097278330790 74.073535227448488
65.914172915848880 -233.367936563181274 73.395042434031652
70.735460665297637 -233.075511745924473 75.382082950978997
71.039703509370312 -233.796130138151028 73.470538620631601
-158.422402165160889 -232.550107611294152 74.762989854085561
-151.935754525159609 -233.030653825262618 74.788718053489248
-145.970314143311526 -232.864152598326484 73.669596951878731
1.620190071187323 -234.574861067777817 74.268353906332663
-150.114582556252486 -234.854487387378441 73.045876830458965
12.385039755665041 -236.134815611871772 72.628061379334241
19.908855641805186 -233.323190195822292 73.261450428747040
70.610716615980024 -234.677076488671474 73.550977404667492
-156.342551617517927 -233.627462032853089 74.328014259350851
-152.305686607504640 -234.209527716594039 73.308650514293447
14.623628171831504 -233.303590790229435 75.073654220937385
70.105951096726983 -235.758489415212068 73.249982236150501
71.334037108597940 -233.494878750716367 74.207152646425342
75.048862614273773 -236.149345788214987 75.356222125633749
-166.126552780380024 -234.635547385307490 75.231410617581346
-145.346202049568319 -235.381188761979956 73.411773624715238
-0.135527288641855 -234.782570273467371 74.698173291573070
-152.417317469534282 -236.277921143665225 72.480293964161987
15.218618457093797 -235.015177402450206 74.116898920077119
19.137444198587222 -235.447982867630827 74.783820879462468
73.405589051166984 -235.638507015626857 73.888694866519813
-18.806826018574782 -236.797112814082425 74.708145278727329
-17.103698118067555 -235.367844652169566 74.403318189883493
12.271491417308601 -235.609003892620194 75.058341539048058
69.140513333519834 -234.532145817361567 73.899693342944261
-20.247440896148749 -235.981005878176035 73.132240661975061
74.736989406985671 -236.509229395102409 73.801867126293175
-156.008995015764611 -236.366475291721770 73.572100861563186
12.355024027217006 -236.818120646651778 74.012807701483354
16.163549508621816 -236.064577440370812 74.376820049835956
65.791735750513453 -236.356161888211233 73.626194308333211
-164.647626571956863 -237.742551992053109 72.318698850169085
-23.445324747003781 -237.109204415026085 72.890284560640737
-21.972445315311106 -236.814464990079756 73.681080605025471
-10.494482093607949 -237.293752850637787 74.614353730893754
-5.651650717354762 -238.158098470077647 75.217915714483297
69.477264531580303 -237.911720882925067 75.034551775382198
-9.954113129475004 -238.116567596009787 74.382860066600017
-2.128300926241105 -238.278702175008760 72.990909273259206
16.948685016107792 -237.682961471314911 74.272921214029736
-4.888851564146719 -237.157179458036893 73.037217934692848
0.107800104003933 -238.121371784237425 75.245139716679944
-153.697622133420566 -239.045901562392913 74.995428626760571
-25.391325493895845 -237.667747518522020 74.491792157366817
-22.769474731746904 -238.240303238225721 74.827836623563897
-9.946425131891395 -238.435553886189439 75.228698092377243
7.924353637495162 -236.749223539860367 75.270615914395620
-2.785113434106626 -240.528080037252664 76.369440557980042
-1.222198803377169 -239.139993209368242 74.241438139091912
13.516466526596936 -237.196859957393826 72.923819241181761
15.365741941223975 -239.010835738658642 75.301185711534458
60.646830233512809 -239.065992151441662 74.491466489658904
-23.289505836159137 -239.219640811410699 73.497085403543394
-22.451732415207111 -240.495131372224563 74.521461016674564
-19.990479095110981 -239.014364702438968 74.483088284179161
-11.089694241512490 -241.279359440849476 75.194654661125583
-1.414789564841897 -240.549361419467402 73.905586479910681
-0.410257133697346 -241.339002315478012 74.477361208621133
58.397248012885029 -239.992276667121160 73.593577472528338
-144.807319714223325 -240.959782550491695 74.294402619405901
-21.363308870619186 -240.519508869830617 73.133475397936280
-6.818905743392057 -239.853833517983702 75.051162447429974
-11.147998629052719 -241.114407182438498 75.429695087994105
1.619867647574493 -241.677946238420105 74.687359131732009
10.271967873705110 -240.900045364563198 74.806762419804954
58.194646163931175 -240.638294714694439 74.443374925733565
-23.094255551312120 -241.377666539392067 75.755376010392212
-19.325581364798346 -242.418347158126068 75.713443970701690
-19.276781662709062 -241.159867380232754 72.694138529414374
-14.425121659510593 -240.939154892403650 74.841871564730411
0.030060103493130 -242.776551688393369 73.289811537063102
9.012072044093660 -240.830887971082376 73.305943011924668
17.081282545039510 -241.679923564811929 73.401456223341143
59.590002952029089 -241.550282693263256 72.979431812693392
-144.122026838708649 -241.272998999697705 75.215579243673531
10.174888233019118 -241.436515343870354 74.848593990510039
65.191747791094429 -240.481331905784486 73.652428839577880
-1.448460889353761 -242.534410430234658 73.353181942435342
3.896955790796405 -241.214144782963075 74.319992383924486
55.735624119296332 -242.134736728662403 73.712524047391341
-166.487763279696793 -241.399395543898862 76.268102209546740
-5.656090501502037 -241.935340157880830 73.475169312497130
18.294590165554226 -243.527306112920030 74.083205328921466
-145.600096564788942 -243.889807952815772 73.112822768214258
-8.020080497482539 -240.705061473558430 74.682240404842474
-0.272439003180868 -242.539422087684670 73.384876726889516
11.372743604090156 -243.954539694910466 75.357353125270578
-7.612023844557346 -243.977602663918532 75.058153156546737
55.492757972047897 -243.162089159556444 75.827472680497479
-165.649015560815769 -244.122970362043873 77.011388771705512
-8.678906935087518 -240.764951351125603 73.711772576831393
52.488251147401158 -242.740464166335215 72.759496991768629
54.467226404410468 -244.668988330161170 73.650285215379569
62.441230616996599 -243.028686963271127 73.525035257438162
-10.021803572047958 -242.680145649161346 73.651361698816572
18.275603425200671 -244.014575080273261 73.897864431353440
-66.127596691437347 -244.170007777941152 74.634526204157254
-61.525915332811060 -245.050690621658816 74.216014671279737
-59.866813586661223 -244.899797693502364 72.076730142239668
-54.968602415528387 -244.044157425659193 73.524334339988840
-5.747960956452695 -244.003600250595326 73.337420048314826
-2.726701888691563 -242.956230402051091 74.526542071504494
58.766145402053780 -243.860167956516818 72.864809430538799
-9.166307079499397 -245.078583004643349 74.842212245729954
-6.023066603871894 -245.990692338284248 76.086902714473737
-5.823044319628372 -244.893571673348731 74.426597273780843
51.759024136342155 -244.165400099806163 75.214072947358886
52.043806886752058 -243.880233965412629 74.856757844045077
53.809017580241857 -245.681647659910794 75.455389012235173
58.438720214175021 -245.962454285826368 75.359681888894173
-69.851638653153060 -244.280836651400080 74.917653755610246
-65.357773539924992 -244.940731897497187 74.361829284245971
-62.993464359729565 -244.081389041572749 73.889423241128569
-61.845408862167815 -244.995897618329877 74.701423091303027
-58.666691907779040 -242.934907417197707 73.044729590536676
59.023453371728387 -245.260987547270872 74.358113663695221
-67.787373790871158 -244.032491909246829 74.290364101474339
-56.748197289083677 -245.796504608853581 72.992441454462934
-54.692334651619788 -246.009499325746418 75.215258074700017
17.955454139865783 -247.296763171301251 75.582579361437951
17.589576381981750 -245.751024472853004 74.482561001147673
-72.557745063023276 -246.910049151110712 74.918598244505887
-69.985677317401610 -245.626417345069655 73.546059653724583
-57.103857803149936 -244.662667676652717 74.880097422429500
-9.914147949957158 -246.011182562977865 74.869474326827955
-7.302688439816869 -244.273753504941936 75.218836389827601
52.242281321098879 -246.373740009313650 72.101058060473179
50.150294669839440 -246.067828323174410 73.241079655289454
58.633101214359932 -244.856205235274416 74.677050867163146
-146.018500663376898 -245.115956189607630 74.465302080250950
-77.403215172802604 -246.843259491741151 75.165964416663940
-57.124295260727493 -246.204692936452886 72.986029191647745
-8.123848447946433 -245.987168890941859 75.137517651725304
52.960836693733064 -245.594911072037007 74.607006697441705
54.166121381203119 -245.919985780046261 74.241448460949627
49.402521508238756 -248.875585281331240 73.175370138597131
53.609645607055064 -246.623434854854310 72.934882636803167
-78.046219492626392 -247.143302024165990 74.191507029222976
-58.890155845595032 -247.334960605138832 73.281328156203614
-7.770353132991948 -246.105379599278990 75.956745058641047
-166.126806711545782 -247.522804989364488 74.984368472097998
-61.155761732581823 -247.933324679706317 73.821083545298052
-10.694845285909041 -248.010593214329049 74.087333061141194
50.177713058856227 -247.757132179414555 72.865758675189525
-81.379470079634572 -249.841064617723305 74.042154733332481
-13.860166300017802 -249.066986669674662 75.270757181053611
49.558722153693999 -247.140977043399147 73.515386553439058
-63.026060504007795 -249.587376206470509 74.242397606602907
-64.997777957620059 -249.300295827628474 74.126888618327840
-15.922952118858870 -249.856395033182679 73.097303743174720
-11.050978004934048 -250.790888408346206 73.842432395922103
-168.321832908145268 -250.580334916694000 74.248574661462982
-67.481194495843980 -249.368514209596640 75.342454785202975
-9.359202070745214 -248.901375019204238 74.496602898350631
-86.961283896752249 -249.831863892906426 73.451795243751377
-66.057906004800842 -250.107496577699351 74.811908172698992
-13.247720377957929 -249.646127784235432 73.955455924009669
-12.969925730652683 -250.133198564788501 74.940511175030494
-68.280410300367208 -250.584083903529319 74.170935406126986
20.549359977310669 -249.484376490796308 74.669647481859855
-145.623465731760888 -251.916156546412282 75.516395739537629
-68.044211073293951 -250.543815171788054 73.988559862935688
-14.727805462373304 -250.811001092411772 73.389652061482877
-12.929831587576267 -252.644452511809334 73.463267312467394
-72.824870961287019 -251.426053753178877 73.623106383539053
-72.507597308796960 -251.365121784396251 74.416681807091962
-145.183559701619942 -252.163215771625374 73.933532697625878
-13.097190340531467 -251.092895268862435 73.280084639812458
22.867950552340815 -251.781008162897109 73.196804453641988
-94.137375832613614 -252.645364453774619 73.968581893923385
-94.220239706100926 -252.900877516445291 72.648711379978735
-77.048766103329712 -252.245041491525399 75.336801431330883
-142.337959304623496 -254.451813142119846 73.995005465441281
-95.844268480676817 -252.737402869127180 75.177059735837162
-97.775117223053044 -255.122236221069386 73.755088150536537
-79.742093157741721 -253.135054088756846 74.657896956779666
-14.590591041289915 -254.552501731541810 73.010210142900860
-125.381745911182279 -253.902887625196115 75.465727789191902
-123.056025309717725 -254.355656674321835 72.393437451427928
-101.518774882961566 -254.672492513998407 76.117107904589602
-83.309981361468971 -253.468328850843363 74.262415213237205
-80.876150225324338 -253.843764503733894 74.638580959535588
24.285580223997563 -253.817915792145413 75.502586794667877
-144.279798230470931 -252.451417116195501 74.711840671470526
-118.703197072517767 -253.900526478919943 75.861967100144383
-116.762520823003413 -253.548006425336297 73.470874279455174
-103.827929229985941 -253.845314670456474 75.509400319730617
-99.982816984388151 -254.314655033184437 75.350522147361488
-135.793688303655586 -254.503658571379219 74.802914408418388
-115.600211442716557 -254.976683449055827 75.657656379232606
-106.104760223632795 -255.365326382404874 73.788881802380203
-103.432500754423174 -255.801940356417333 75.237432900211644
-88.239920376169493 -256.182638845004021 73.353611889795673
-106.793181481514566 -255.350594192192432 74.372655960733923
-104.244604940068172 -254.307080315778251 74.668020157347883
-113.886169790982308 -255.525100769490507 73.195778470305470
-109.462301077231771 -255.716766512407276 74.918976947636224
-14.948448148067198 -255.884496259637785 73.524892235521335
-117.321559044617601 -254.191506412404010 74.883761571986696
-107.582184330074512 -254.864149418062084 72.740310764964022
-110.210367054248920 -256.755158479348609 74.825136295315716
-112.826822081436205 -256.704955558411370 74.607790288027800
-96.387907863888529 -258.329906429032519 74.469498740754830
-14.192040981827697 -257.427719979434244 74.707708808347107
24.110415613087419 -255.993769183857466 74.593996409950762
-96.863170893053024 -256.835107064796944 73.242491571363956
-103.121787210313286 -257.457435298383018 74.735157909823869
-102.055796655949507 -256.429884760506582 74.410903892280515
-96.668055677202133 -259.062705071588709 74.559580223135455
-99.618627825563621 -258.316061351139354 74.047253383479557
-114.293409860382923 -258.619116264483807 74.930536437031165
-106.481396675066321 -257.701966001499500 76.994551344460973
-104.225422891382067 -258.528249550405235 75.090158712114089
-110.383889558747413 -260.219031907633109 73.705913563750116
-105.491084598950465 -259.210338110774387 74.771382542698902
-167.394585461974771 -258.398377646204153 73.832696498662870
-115.265250269862321 -259.036295041728010 74.505885661584259
-110.155918469596173 -257.593560287002390 74.017336906194728
-108.014459606336729 -259.578706164782204 74.502332166668907
23.094538954736723 -259.244179475206920 75.550230706006417
-109.982667301458477 -257.718964569690456 75.128924957239406
-107.338624780872223 -259.371113123273290 74.443064918372855
-112.637540035660265 -261.971290948074738 73.396208356781642
-108.700893836918667 -260.302293076656781 73.944910477038377
-141.203258897272974 -261.341591819897587 74.077520670785248
-141.915243396683451 -261.655913209116420 74.038742217417436
-136.734541586335126 -261.214487455322171 74.844754538643159
-124.015728441639070 -262.432564027386206 73.551768005195981
-121.722670551791111 -261.803259762956486 74.883540692559009
-117.723957153632966 -262.246331786944836 74.394884187159278
-114.665622859152023 -260.218521985131588 72.963158964972834
-134.174227813285285 -260.257411451551775 75.005159032722048
-114.752313278228939 -261.443573575546907 71.709486790149441
24.055123087085335 -260.000713840976346 74.883742571892242
-166.706028979938424 -262.889941184079646 73.911509627389250
-124.043960224874553 -262.401344234415831 73.612826545166925
-143.578427237366213 -262.083959201147707 74.223501161648002
-132.303813319009464 -262.815023767160085 74.102292485655980
-124.875504354744038 -261.886101882651076 74.966257873597272
-144.705905890477055 -263.666384892112490 75.559519376547001
-130.737766573811768 -263.061409994128553 75.512058373977212
-126.851419700453306 -262.893317423871395 74.307647605657309
-125.545995605943759 -261.835349900138283 74.137214029108407
-166.299590888315123 -263.390496933029056 75.382516568022140
-143.644714573909908 -263.057087472395835 74.436820422473374
-130.638401185575390 -263.213410936182242 74.269204981072633
-145.030006382204789 -265.784434151520827 75.302376909014711
23.241161184538136 -264.977002417380163 74.897636140931198
-12.837281478450628 -266.208248568910221 74.277531154454891
-168.334514993552233 -266.793030334355876 75.288595792398752
22.230140889535242 -266.539119104828274 74.847792308055531
-13.366211679856617 -265.880309349916160 75.415558745211072
-145.889754830670029 -268.209586760505260 74.161171129118159
22.478395905306737 -270.301359138303042 73.829702382945683
-167.586241325786119 -268.127023279498587 74.423564276247959
-13.297770457856494 -269.080745249143945 74.776271573277469
21.252040364773272 -269.148002064586194 75.267486746000188
-144.734683490618096 -270.623312010921381 74.800204491045704
-14.279746722850270 -272.386931909385964 75.744949312192674
-169.304189179137182 -271.362339468145763 75.815474190687951
-12.907440848538554 -274.159965061945741 74.418164902306984
-12.872363465292649 -276.135431089298550 75.488747683634656
20.616191907370997 -276.833840130064061 75.756433986561575
-145.525770030733469 -274.695455940472868 74.121864978994367
19.933447535516997 -277.125871391834039 76.235798113118221
-145.088988813226536 -278.971136408382108 74.453598001567002
-8.027110177560539 -280.654342449583794 72.552852778612873
16.533202045954663 -277.954675446435374 75.110436350735299
16.484869156682574 -279.764333742151507 72.496302480873624
17.982009469399266 -279.538196980571172 74.928466560441663
16.668022973186797 -280.937212473174384 75.369529669825340
-144.860811747187086 -281.074685459714260 73.245300444597504
-166.376586770826066 -281.092619731169748 74.419111390790022
-8.248406166981663 -280.628772524294504 73.319251682479972
-146.247487591613492 -281.538224219298456 74.728701977737828
-8.345232722614021 -281.887967579201984 73.235837290929538
-143.245553269400062 -283.151659612135234 73.162050089755581
-131.061775623035004 -282.014380461261794 75.442079112044709
-129.997785449079629 -282.242754073101992 73.944342114892478
-126.893555830044335 -284.528047343535036 75.336709694813010
-7.250582006305727 -282.943352756736658 75.644257992252918
14.120356811711588 -283.510410896545977 74.460787217862105
-142.803098067376908 -283.326396236427627 75.457047849258927
-125.921098001470213 -284.386244141722443 74.438928448312026
14.597572382875109 -284.217067820908881 76.471682163161560
-138.057851710912757 -285.188802263272294 74.058540220769061
