# This PCD file was generated using the MATLAB® pcwrite function
# from Computer Vision Toolbox®.
# .PCD v.7 - Point Cloud Data file format
VERSION .7
FIELDS x y z
SIZE 8 8 8
TYPE F F F
COUNT 1 1 1
WIDTH 807
HEIGHT 1
VIEWPOINT 0 0 0 1 0 0 0
POINTS 807
DATA ascii
-58.460738751687565 -63.472492794429328 32.088985725616354
-95.754340423725679 -65.162917016679330 31.589187105248687
-94.695142296059899 -64.997053048737612 32.047241813020108
-57.236534896502945 -66.880841264700550 32.209544338176180
-58.301415108476718 -67.018604510568593 32.198542573605252
-97.513623419533090 -71.393151131094058 32.121307192474717
-57.001672299463479 -73.339986426788698 31.875916271662945
-97.944266414429677 -73.268757386762772 32.625817038198818
-57.485168686678357 -74.356511362082784 31.649574533809052
-58.047587824521727 -76.632614145117188 31.548816027642562
-97.337643319673120 -79.551893176187022 32.442938117326214
-96.597658383543859 -79.557641155386193 31.657956479142054
-59.705239205856806 -82.864645673144381 32.087714630610122
-59.395116623448104 -83.412964872339586 32.015554508621690
-96.953026266565985 -85.836641441331295 32.310765357348259
-95.300940896514277 -87.186843060636704 30.796273975963679
-60.272559531466470 -88.088756056966602 31.524146635630196
-96.435909633620355 -88.439521243174454 32.059084279537636
-60.088766046772960 -90.504775704585001 31.916297503878127
-96.710982554383747 -92.918107048517967 32.294770032212682
-95.458658433020261 -93.530081617152703 31.974002935219268
-62.445339281203260 -94.884049080513208 32.144080110743559
-63.283471054316315 -94.793651353741240 32.684594299711172
-95.423038649090174 -96.111691228883572 32.605975422256236
-94.163173313408322 -98.142930061599060 31.979401750632793
-93.368860294052809 -99.654608135950156 33.234857137281367
-92.977274831834762 -100.004903670603653 32.440877262416805
-66.780691877496693 -100.213316272586553 32.393754060903596
-92.266308648440102 -101.853996203598982 32.064943437055106
-69.330845267206399 -102.141010582285119 32.537856739234790
-70.901835182233924 -102.855266302492225 32.540539558646699
-72.637713391502118 -103.186518310575963 32.494502706847825
-88.622302579995136 -104.632605875057109 31.976161917716976
-74.657854974171016 -104.391490743637760 32.856955097584162
-76.389013501276509 -104.092541968246024 31.983737091236389
-89.024749834569974 -104.404999298344620 32.456292474699367
-87.209235512882529 -105.360266169903085 31.055102625863697
-79.158440346831767 -105.294115394054728 32.341921334485804
-80.912365224756172 -105.558133530427952 31.111553447011751
-84.665430676382130 -106.152577637903718 31.276849536302706
-83.749242266960223 -105.825759061497635 32.465408527048005
-80.814359102610666 -52.964496756143248 31.650845307689185
-79.220356116655424 -52.817122391391749 30.720045825420023
-77.910722849847318 -53.154290590379667 29.744345788590543
-73.047461256668782 -51.754265257013316 30.127910155371026
-70.076361905917423 -53.098616087185739 30.685728127653583
-79.146034071595679 -53.905027176411323 29.568409108690553
-65.685765735261029 -53.247786945410517 30.865360267045542
-83.657426771548828 -54.671984071490257 30.818152270928458
-87.013154475458961 -55.519196981382507 30.445674597759727
-85.767132013462671 -56.598173893193731 31.141296452933044
-62.528848568634842 -55.295809422047427 31.515233960342758
-88.806636492864399 -56.406807570449303 30.729429943372143
-60.792765191376596 -58.545410625769406 30.396367050486770
-92.082100404546736 -59.426997293179035 31.178722026116979
-60.296886992680342 -60.038046825315007 30.427834975588564
-93.210255000105036 -60.510517295315395 31.428247797113908
-58.330915243465959 -63.793955722001130 30.902240826756536
-58.631292097492405 -64.408893024099584 31.448706764008957
-58.257670223926020 -66.051684301912317 30.372655395235338
-97.016349615612597 -66.983404441931100 31.025291685011066
-96.564494714559700 -69.635390042567778 30.612318361833893
-57.889012095995618 -68.936536970019944 32.036647178783134
-96.710166479865904 -69.470067218454403 31.816078964777528
-57.490291660287504 -71.728360038490663 31.016357873251337
-97.759208333060727 -75.673692962402441 30.865223509475751
-57.913015119333728 -77.286628059224469 31.212378818532994
-57.602520414111886 -79.157751741032371 31.206833630535392
-59.818500712713451 -82.642382991576113 30.377780217386665
-59.297040719153692 -84.008752061236549 30.855498294533579
-59.254312184755783 -84.781610550083428 31.687626347117583
-59.518045001457345 -84.923154583454846 31.244371527501059
-60.473201343623749 -87.369776883215067 31.096212520982366
-60.111914947013688 -88.188629065778798 31.371503865216244
-96.463888359401736 -89.402535754218505 31.013900237534184
-95.563439762430392 -91.281155142423259 32.534744759101358
-61.728373088040634 -91.508561771218979 31.234883022706942
-61.799586206524417 -92.734041597336528 31.477442856766128
-94.991091772235734 -93.821379900067541 30.755420091912079
-94.724350802938048 -94.955219981164547 31.638991414331159
-64.059571625748561 -96.858346465892254 31.316628265287857
-93.900261060386114 -96.593150565267578 30.700590269117971
-65.413598671614807 -97.959899122567521 31.048787771022941
-92.413355603114084 -98.420620997698720 30.786877329341266
-92.552037558706203 -98.359718132390299 31.201899434378731
-91.376571153642317 -99.841015988437917 29.942537680522218
-91.005035304051390 -99.567234518204103 29.911474894894006
-67.999667356181618 -101.350583105163324 31.340604922825829
-89.691787826246426 -102.038606535094743 30.686191321674716
-88.964185578605182 -102.797253092313824 31.600039449081688
-72.490812437817695 -103.070540424197588 32.076571894069232
-87.487232973782781 -103.281760914314646 30.011878672654035
-76.687112547817790 -104.212402083760011 32.341389352517105
-76.495375962868138 -104.075567743823797 30.858058253258569
-85.306659821418933 -104.392297428622427 31.059444414846052
-83.451882107116049 -105.129973518783316 30.080906603208355
-82.330574231019838 -106.538210422697205 30.539449937064777
-76.515980818466872 -53.117116485317844 30.470860802462326
-80.991696823431710 -54.239512235380715 30.107375494197466
-69.012727511489189 -54.343976364969876 29.444734912254344
-62.849700982404549 -56.622034773548478 30.311997075521138
-86.711273128657041 -56.145970816959753 29.872266949820681
-89.839484908028567 -57.696898347293839 30.582877992502354
-60.806261002347618 -59.198415140184132 29.800706840984247
-60.604502623794509 -61.427449057216030 29.929425399331240
-58.873499083837046 -60.832810964557815 30.966732224944568
-92.997039415820012 -61.496053176658755 30.169111529072929
-58.640737900789723 -61.557116953194473 30.031317151507629
-94.344366159096381 -63.534270571635162 29.917748879607423
-58.992288156308568 -64.293669827282002 29.823442327835512
-94.477824747493131 -63.372297239372131 30.787917995218287
-59.454817827723218 -64.576507216097880 30.666411868665094
-95.295779032192499 -65.340237562395799 29.868879471822844
-96.074454745585228 -66.998761694501994 30.542579326804841
-58.419991767542705 -67.208751400319770 30.659406696857904
-58.043528583122466 -68.841256839654676 30.503180154827469
-95.655496971904839 -70.946312487097330 30.042679581032079
-97.159352693162475 -72.251617155812724 30.149065652202513
-58.547276239873028 -71.583616959096915 30.122111627007804
-97.842577413358654 -72.712470161102360 29.911561005117672
-58.983015008447481 -73.701594057635589 30.486954736000659
-58.287816997127045 -73.779405846520262 30.849268081588907
-57.345371187672114 -74.718430948462952 30.629244660680797
-96.978210331425927 -79.022817190919042 29.885661213370298
-58.436395373878476 -80.028623863340286 30.475944688220277
-96.850147680594645 -80.887338299163261 29.468337557553554
-58.955568374617080 -81.861481044844140 30.310125967263708
-97.135080923382333 -82.279028916004577 30.745196637313477
-95.654137978770663 -83.501408566594549 30.265252212333344
-58.974193767022179 -84.844637699095074 29.776805833443952
-96.164569008872903 -85.873344785687451 30.237290463053196
-94.179344361128770 -86.593480485452858 29.343732614889330
-61.425606675546184 -90.907811265466705 30.327116519806236
-95.617468763390164 -90.167912356069579 29.957447372599287
-95.111947344701889 -92.737331838156976 30.166807882675801
-61.955967484204869 -91.780658793263214 30.827208698615280
-62.922889517194086 -94.198333177177560 30.346649759580398
-64.603312664648385 -95.925359320899261 30.081642200740802
-91.349502292965909 -98.609330866976094 30.334542138334406
-90.930328707444147 -99.199361347869427 29.614633978634984
-67.228426939264793 -99.834871384479101 30.371833069809380
-67.937096239608152 -99.517012872648323 30.118095700249068
-89.651970898951461 -101.365977678324469 30.145110765273088
-70.642711069650005 -102.062552445191059 30.653864055649748
-88.175798045727674 -102.094313550259471 29.003052441860621
-70.376090655298711 -102.069659576016932 30.002896896291475
-71.919564682326836 -102.510415080960897 29.561210534608513
-72.992540428241298 -102.864890232058528 30.119321207033927
-85.507292709082762 -103.593456222108031 28.437626519128639
-75.060649587057185 -104.048421403943209 30.461436565914894
-75.387237962355258 -103.870568734802447 29.456279743073814
-80.338797073219610 -103.711993878331782 30.056125325678689
-83.475858564871942 -104.568594144499670 30.650626639086081
-81.437225394340899 -104.531530756772639 30.693009119869178
-78.893376079659063 -103.985648125922424 29.980554744371126
-78.257241367118056 -53.216876691271054 27.975965306061536
-74.107793193171375 -53.985663650118568 27.640692802392742
-71.291216723948011 -54.172029396877406 28.668142321685341
-77.561285681927714 -54.940062215865801 27.894361650379423
-82.051947872882110 -55.156974178877768 28.698123077851918
-67.620686454586789 -54.518416936868576 28.400554871695984
-83.803763094490904 -56.063717305523959 29.181420135018360
-83.904239595662034 -56.614834848384142 29.250478337871389
-64.671983104630428 -55.953658463630184 28.725681517877607
-87.375152679622971 -57.885292123098807 27.983040735496875
-61.116260748242311 -58.547101803789779 29.126028224026481
-89.896583121941646 -59.568324825456884 29.001326030780522
-90.719848271829662 -59.397711405303873 29.143278789497824
-60.104141845842925 -60.671042920112946 29.200744398794559
-91.588474809765088 -61.098875468629991 29.402258802148992
-61.005493158951055 -61.002357588172352 28.952338901644190
-59.582753050725728 -63.923247140427861 29.698071038297829
-94.403502306329756 -63.741205190517775 29.419292010333265
-94.858079757053972 -65.440700034448227 29.649178057703661
-58.263710759780146 -65.987382110779293 29.096206827398696
-94.736204653641252 -67.269419892974611 28.673246699172726
-95.295180934585503 -68.233109261760347 28.935876587532796
-96.043562935202075 -70.305976645156079 28.978403341872536
-96.163822258972516 -72.674400041233085 28.984881237407404
-96.938677276242316 -75.710743298432789 29.608230084849204
-58.313269884535721 -76.271210725114372 29.313702146101182
-96.050363127135583 -77.828292945206130 29.655581047485533
-95.418062218343238 -79.594010327121183 29.561057987054042
-59.829850686796327 -81.735971588933864 29.367447721747798
-95.979450689761151 -83.207673654449849 29.120686803052656
-96.664702379061950 -85.029142427065892 28.789933067720927
-60.419904625528872 -85.033790522226766 29.267047567248088
-60.836130837292686 -85.856087814820128 29.693489241435444
-95.236215229991842 -87.974017961709464 29.506582704611489
-61.574023383410008 -87.947448872241409 29.441254401039110
-95.442539530153923 -88.515108640276608 28.885601530995487
-63.058638300919341 -90.736620009953839 29.668409176491778
-62.911148773261779 -92.189583374849477 28.881415794340342
-94.847985617233860 -93.358223446059938 29.050176147850120
-93.315021204778901 -93.944419101284254 29.580450948055475
-92.603674003331264 -95.550927739490504 29.851922152672312
-65.675689573693617 -96.310485381416342 29.967015482858947
-91.536488732367658 -97.001481137953974 29.660648906013165
-66.431863721943529 -97.895019434365324 29.113561814815469
-90.005048071027872 -98.280714077054270 28.567984160706892
-89.293933757943122 -99.052720494695308 28.853336232615764
-67.917344679216711 -99.022110195213600 28.062054701826547
-88.602369508181695 -100.477522161154212 28.812775502347769
-70.272844135532139 -100.737646342059378 29.627802339853744
-87.539157146032338 -101.746339751123926 29.144475632384424
-71.356940951686454 -101.141186643981015 28.324467933446876
-86.421413440786040 -101.472324398321788 28.649040149532048
-74.651536655743413 -102.095866353853424 28.990381746939075
-83.357845890898091 -103.473652653315867 28.788675478865827
-81.720725127116253 -103.075245014270791 28.033306337245520
-82.924535454647966 -103.541830104000013 28.669812858980777
-78.967556639756793 -103.985105917051271 28.677243445691420
-77.660451267400006 -103.596968344181207 28.971092369591801
-76.258210699337269 -53.635997634684102 28.281789028449730
-70.883650734219174 -55.307682453522695 27.325011246858836
-70.716110409420068 -55.115453898998510 28.428264186332040
-79.554623782598412 -54.540036944868632 28.207180552779114
-82.449442744576061 -54.919790227136019 28.063653472485750
-85.532354850005163 -56.786915458122017 28.087784219054431
-61.654974588480108 -58.007841668129416 28.550483032911085
-60.869218786036001 -57.976039888236286 28.860455695825703
-61.013267929589603 -59.023585526211420 28.565562292893226
-88.782420150064851 -58.920724631369360 27.563741638511193
-60.122754456052867 -59.583457837555564 27.662319426355591
-60.221515776889525 -62.574844730152357 28.577839826557287
-59.708914742610233 -63.223853921914980 27.862974809469705
-91.396346588973699 -63.055312819144490 27.195235917696362
-58.616496405394095 -66.747131468933759 28.042905653497819
-59.190615613005676 -69.208348048345584 28.344685877450075
-95.591072699794523 -70.468431470994290 28.392086549072776
-95.025448532678539 -73.200404388435985 26.400375077048814
-96.423810515244838 -73.820769975591460 28.405457125656564
-57.648803922786911 -74.983656375913654 27.985788776172758
-58.152857704312026 -76.272553991288106 27.418731656799384
-59.092305739064145 -75.782915872871726 28.056778873480670
-95.468986618866538 -78.455893217825135 28.985897749029320
-96.328411578839749 -78.653155642459126 27.991754792603157
-59.587913146575076 -80.380167838325221 28.892898033805238
-59.452325719994462 -81.013758220923989 28.598998277322767
-59.558352487044615 -83.835653583343159 28.531213087840374
-61.302253453198631 -84.574602120577438 28.673690873515298
-95.726307217606248 -84.712070847466293 28.592292674031867
-61.603653126652041 -86.006540058897201 28.368325086154975
-94.517231519884035 -88.085146450923602 28.248271788186170
-93.622193156014177 -89.279619949475077 29.271452320493598
-62.518834374678541 -89.341421567900170 27.984659358445651
-61.968113992404113 -89.836519385818633 28.348894621562394
-93.783037665963775 -89.771207517755158 28.400906290801945
-63.430886460532300 -92.194634170534329 28.641345023380747
-64.109620133327425 -92.191804067051990 27.933215252094879
-65.156932169318495 -93.995893164346072 28.606312824221085
-92.891561024778042 -93.326905993991303 28.669474444678190
-64.806199128866524 -94.339306258411781 28.042600978156951
-91.675087624711836 -94.846954228198740 27.912005102115142
-65.647808146561857 -95.371669567345819 28.534741698854560
-90.227274627779465 -96.910450699637835 27.694323990486584
-66.793926371590871 -96.919950860576492 27.604914434067751
-68.507500494601501 -98.170969020084968 27.671993702962087
-86.196538818069286 -101.036188077779315 27.809399071062629
-70.616366945130864 -100.163732558020271 28.328685426073704
-83.583302593475040 -101.822245914919549 27.754153319245113
-81.478086929512955 -102.420126770846935 27.199907183968442
-84.445098244685227 -102.778558590675459 27.745813462781744
-82.495928077297435 -102.488680066643425 27.302331183380570
-74.911541241382920 -101.442705375210224 27.989678499728278
-77.885339142520408 -102.906581108063591 28.683547970148048
-72.599858857118321 -55.223821972205883 26.873672210585703
-78.881696319722252 -55.377776391541111 27.553880954921340
-76.030136657682490 -56.223121313288296 26.806329106416353
-75.787602308383484 -55.632572947716312 26.266736393393344
-80.387625032586669 -55.865178114551611 26.838950727973810
-67.374781833377511 -56.628255201196247 26.853410017949734
-83.438702719889562 -56.845040893845947 27.277500308935156
-86.054192915853008 -58.126367152132175 27.261914522428597
-64.531006307871792 -58.365237270877159 26.853833807354473
-88.332357844212353 -59.775898186713675 27.076120122912272
-89.532386411876359 -61.376966712549454 27.651745355190133
-60.376434917909791 -61.410022239997872 27.664035715094016
-89.734097345942416 -61.685121703628191 27.143073721399603
-58.668101747254582 -64.841154755404446 27.385768518446088
-92.413401536432659 -64.492324569182230 27.299484751256845
-60.047451746540091 -67.176909206998189 27.617343195364917
-93.612187739163176 -66.864668548826543 26.963252044787716
-58.778140288676752 -67.279457138909365 27.302311177657966
-58.528998721221413 -71.230679460384039 26.981758386201026
-94.664692147769358 -71.294527564969002 27.037942243204185
-58.946089229103578 -73.623626911624967 27.853284323587037
-60.375048758929736 -77.885247374717110 28.070760832951478
-60.585479451173207 -79.476705762182078 27.624817642948813
-94.569151433429226 -81.697387973175182 28.322366953683208
-60.280165961217605 -81.824136874193599 28.129563997075568
-95.197636549783354 -82.757645445707666 27.139894332338109
-61.947566915312969 -85.149938570735102 26.862222558608696
-94.351028054492858 -85.656896887592751 28.147195577602876
-63.357154016433626 -86.499002239856267 26.081930682566448
-94.564050298627564 -85.813603234324546 27.650254286972586
-62.241447431719919 -86.885263626439922 27.292633624138833
-93.563174952335004 -88.091330587044368 28.313047749778676
-63.264675089172655 -88.133274009248211 27.937847947449974
-92.712849543036469 -91.761486937247241 28.257637927770830
-90.660597715433468 -93.769518709067285 26.901630481523036
-66.680851069173954 -93.548852596457081 26.918920221199141
-90.206997194325410 -94.576597469108378 27.204692054679324
-67.872772028838511 -94.703465446003364 26.432380822133648
-90.312015971100948 -95.208457603627679 27.628020666162822
-67.812814270666507 -96.412400484998571 26.827873951653544
-89.228785968020759 -96.553901231390356 27.446857016466048
-87.459120046351075 -97.820241021735342 27.237789916839805
-86.933970756502248 -98.757395703152469 26.510550617353879
-86.119805957266863 -100.015144402170776 26.865538685054556
-70.368050422003577 -99.913974682369030 27.154939507035206
-85.838229565630186 -99.772754696453532 27.725510108231184
-70.965894182962217 -100.067785539109806 26.699380010493794
-84.385212074399561 -101.072265636705637 26.342685934325100
-71.528527852824723 -100.548525278947224 27.658389578972578
-81.573461006120482 -101.429645357340718 26.823770291302424
-79.593765725198878 -101.177272629414674 25.764345461009061
-78.014791744062592 -101.906469050641476 27.080358065752279
-78.609313959742508 -101.301116027445261 26.926687427713222
-75.408773526406890 -101.960239749615312 27.560310331165372
-73.385637974882243 -56.037925190930821 26.100779748446357
-78.763185831304497 -56.787249057640295 26.379192058951602
-69.921039030401133 -56.207563809587000 25.801219244680990
-75.902975565714101 -55.902039993563108 25.629838917185868
-72.732545727994236 -56.356923376807259 25.093650926183880
-70.010917227538059 -56.377635817406272 26.303812362632396
-80.592097287394182 -56.568375553062509 26.009911081077043
-68.114176321737844 -56.351378403829798 25.859697669987330
-82.107780635204790 -56.900352621690018 25.918080294016253
-78.243678207105518 -56.973567312207088 25.310973865904330
-68.332395358572612 -57.241858354921625 26.018725207863103
-80.436208935340403 -56.942875978935930 24.949882684415559
-83.019185764920266 -57.947233504930601 26.068913404462563
-64.643640179196396 -58.000071562703063 26.186534548817942
-64.424357435646584 -57.883419892478891 25.448532055725479
-86.024103426409212 -58.302910141288052 26.513617478787580
-62.564809141021101 -59.363061026707115 25.386434656122141
-85.939725882426572 -59.162222239794851 25.182807173734506
-61.100718171849074 -60.201802554594025 25.904991027008887
-87.408194633197041 -60.764841438806847 25.960335224473255
-90.955754669761390 -63.518504146515937 26.413765546668262
-60.617544800590579 -63.638790488927313 26.752102903822813
-59.297413247773370 -65.071478186020855 25.718555499513265
-91.775982542440943 -66.215077302884779 25.867665248716232
-92.257504123855199 -67.370678520127797 27.239906623162543
-93.599304942848278 -68.175985414002696 26.439755963088675
-94.275737605901853 -69.279292240148536 25.942345645284384
-59.211504550364026 -72.803291666752955 26.050884312380134
-95.306513677129288 -72.722333744236209 25.637633372657728
-58.847010342803785 -73.349366860555577 25.814055040508965
-94.519111025234622 -75.084046637453881 25.633230335256904
-59.197936914008800 -75.490034147928782 25.781687951375915
-95.082762600259088 -77.176905407432869 26.607872856570090
-94.691431541892442 -77.372503670473066 25.897069060703956
-62.285144041471177 -81.523778675116404 26.011933444395048
-61.781866036339927 -82.364873587843832 26.165770189854577
-62.797810364802302 -83.326678487626310 25.221409830135705
-63.372921162740553 -85.268511680636067 26.118509693435957
-64.013494199753964 -86.815110461315442 24.977404021651534
-92.217435479717068 -87.814760781505925 26.331914989995099
-90.988797417965984 -88.326257279685294 26.463957912256397
-65.247523028784613 -89.390024290035029 25.754350577579356
-65.386337941130563 -89.408464896356634 26.806946487013022
-65.343622879980998 -90.814708294212465 25.024501864185673
-92.251264429832204 -90.928981285261116 26.448783596471234
-67.016823018020204 -92.856467623558430 25.977831049182267
-67.331719585295104 -92.542703492817225 25.950810247655955
-88.915402101463854 -95.345522446248523 25.680224928535186
-68.770912181213760 -95.732627346450656 25.968707097137202
-86.486436395199092 -97.423662120896608 26.236052960374511
-69.979642004886315 -97.401341600256316 26.108525698268814
-70.172369530723699 -97.276141951928224 26.573609693606208
-70.370604120502421 -98.778758791551198 25.393741502097001
-71.449261884159668 -98.731020381757133 25.075146909688748
-82.340862050439583 -98.095382861043660 26.532478287335785
-73.891694770652478 -99.318222883943605 25.073031265866732
-72.336889409841604 -99.421311089310421 25.855016204927697
-84.110287892664616 -99.769627205985870 26.317263278911135
-76.773503691782622 -100.126308598708775 25.525010840843493
-79.301525317025991 -100.277898272858181 26.036774248304571
-78.406007083728639 -100.482004301726903 25.518125734704178
-75.128672578520877 -100.424058423151237 26.269726190262375
-74.155589439033150 -101.328433778337512 26.150274516286942
-76.950647367783262 -101.438571464460537 26.858727664757900
-74.604084016942409 -57.129942692866734 24.658944570079253
-71.243326429693752 -56.803204111324177 25.002180984729996
-75.951318013417492 -57.294599726141435 24.691113889187076
-68.259267658462818 -57.475925666525335 24.107104010473549
-80.474851709954109 -57.729947574612325 24.733244292927889
-66.428332025604149 -58.587446635847002 24.689308570494038
-82.892091968987415 -58.573101259319834 25.026042493565715
-65.291142064437125 -58.803276590917875 25.458558743248975
-83.710637299574600 -59.452971881002860 24.585181493932712
-62.999812932752860 -60.095481066139662 25.467380051079637
-85.720892750191084 -60.547289633877362 24.639601136134839
-62.184944160838306 -61.553872516011317 24.266599004325609
-88.401301785132731 -62.585713200371529 24.840275351566643
-88.321743281115872 -63.114228540428442 25.300086891512080
-60.426951076135509 -64.000023592608713 25.326452262992778
-92.132255030030265 -66.786786719880311 25.191330004764449
-91.903877294575054 -67.749754590107983 25.363394732316884
-59.480617841951926 -67.598321518354268 25.907343607922755
-91.696853256904788 -69.110991726195820 23.910760924047139
-92.605290098835653 -69.633821095814724 24.690215192627964
-59.755293975625719 -71.237852465720920 25.302481878788889
-93.210511593838447 -72.025830035765551 25.384474201359378
-93.942178582725418 -71.561254506316160 25.740169555473109
-94.106103391830544 -74.279625156929370 25.127087153097222
-60.090348298829404 -75.009985655152505 25.220567254404820
-60.715750756151785 -78.028029066703539 25.549143810486573
-93.974989557931735 -77.488353353662319 25.383793912020277
-61.371962899751011 -77.499220947011295 25.603678264716073
-93.427879071229995 -78.125604307409148 24.663550719837417
-61.445203781453770 -79.593705453715273 25.703237529396255
-93.716903800012588 -80.408671989491182 26.045596061348380
-63.079751474762531 -81.625715525131369 24.756347510555155
-92.352015469329928 -85.215463858093827 24.325265902630655
-92.716349801333521 -85.727015487228485 25.771325837524170
-64.137660059421421 -87.826754963867984 25.946836822050088
-66.418100699004299 -89.982578392738020 25.227643057369988
-66.106912159223825 -89.983387465985189 25.324622896129451
-66.704478654849282 -92.059054060252507 25.016259854764538
-88.949835606650197 -91.773003976492006 25.064308551690303
-87.957379133553701 -93.257905036160764 24.835400779801137
-68.227081446573507 -93.515653429942702 25.081301753616991
-88.743008433464723 -93.704917958778779 25.537368143683732
-68.941773170594900 -93.626873612900653 24.669567501573628
-86.222734517529375 -94.088698701310008 24.847676912105442
-85.131020231351997 -95.979870070692897 25.347216776567937
-71.051083115741392 -95.929783002904202 25.082570903897164
-85.633221728170980 -97.028360996307313 25.566622746532225
-83.009333379073027 -97.765395868263866 25.378740567769146
-72.566278912188338 -96.821505507390199 24.384699816272491
-82.471100636697315 -97.882074151527959 25.313824779354842
-83.660273223611583 -98.613770225015472 25.669114457224222
-81.633720924351664 -97.851632082444041 24.497193821688168
-76.526124093656634 -99.249454709152346 24.736141008725333
-73.096054066071346 -97.882620058158764 24.974889032441350
-78.653518085444531 -98.705991892877222 24.541739829868771
-80.636622362615910 -99.403026171038618 26.113564597933173
-77.563105239157593 -99.192217455908718 25.154097018833351
-75.504667906583919 -99.137248902255564 25.002315102125895
-72.776007574332723 -57.780740591697494 24.263541653091742
-74.612173818773556 -57.206007335615624 25.051262726568172
-70.467623678590527 -57.242071017738901 24.298765055432813
-68.135305206958222 -58.408858408951126 24.161538357436040
-78.531955408817254 -58.753275136694477 24.462196678273791
-80.731297886508827 -58.932593146249040 24.842517116667054
-69.072446109752633 -58.684571068946376 23.643633110361609
-79.112327194238944 -59.664717912742262 24.628196746279048
-65.942082194977445 -59.081304414885388 23.925028152142964
-80.955895359946666 -59.327879585403196 24.419020251328707
-67.228064159913004 -59.084044943773321 23.277156746978608
-65.033575223757722 -60.608193182130648 24.008405012573842
-83.978265732645426 -61.349969101292153 24.736683008099902
-84.043019112138168 -61.188581054107317 24.400540052482967
-85.591427746126683 -61.612109169606335 23.760386283236695
-63.063594810917259 -61.750731779186594 22.763109423387935
-85.967088795536640 -62.760267112313272 24.921794195652001
-87.353671431113355 -63.165888522653475 24.821621835584004
-86.073438157707201 -62.624187574224607 24.013892633694390
-88.102207150192797 -64.199204114708621 24.359185291455109
-61.862787843826219 -63.329113276220255 24.046941132746941
-61.086444793222078 -66.242709480965814 23.573646818230149
-60.833667595130990 -67.581551324006440 23.840993536320614
-61.096060371288260 -68.922538222893266 24.548577646827759
-61.192396057654783 -70.153079042560620 24.627276359243542
-93.208722057613414 -72.088421346635059 24.369049807288711
-60.573907471695634 -71.918516477057565 24.421032361379126
-93.114053862091282 -73.833915084343218 23.303210137753819
-61.588019300869213 -75.432009844891397 23.926380070795027
-61.269866602685148 -76.521088716694535 24.775168349078960
-63.292725414230503 -80.175995800679004 24.859082981162036
-93.042321782963839 -81.887955376575320 24.580705207264891
-64.184948588456479 -81.736992736404488 24.337403876290690
-65.101367665293765 -84.037757322841401 24.382672916039748
-66.522296714113310 -85.050354418710853 23.149667534492416
-90.581826150565476 -86.201567823122403 23.692750313768641
-90.923521068859614 -87.383053561559208 23.674533784823844
-89.531000754898528 -87.840722701485532 24.223337758515306
-66.435663135793547 -87.509942200607171 24.005610045048702
-89.494090382236649 -88.955007628694489 23.197858832852148
-67.430978330929420 -90.652139226695937 25.307692108324954
-69.308186994187196 -90.928658653477328 23.753312830185479
-88.354549595100806 -92.018941990726944 24.489734139197747
-68.911159914365768 -91.687949074805189 24.617733131755973
-69.531222869696975 -92.879557512815992 23.903716286385791
-85.686126036055768 -93.236369928968244 24.003059142834584
-70.768450229092977 -93.428877174120089 23.745414370912812
-84.711715654049456 -94.978905586499394 24.065964077622297
-73.293712272180457 -94.983244223395985 23.592310300792217
-71.097703158892216 -94.459494985325577 24.305368270967538
-83.882358193049711 -95.808293470267714 24.717593061196080
-81.854619096623026 -96.177326446989724 23.359148800797236
-73.102273964232111 -96.526683318610338 23.554439974916601
-71.532111550982464 -95.842106492502452 24.711261624549000
-71.830615833015415 -96.295828388979729 25.013564153767629
-82.152804981501689 -97.187238408462136 23.640561518041125
-81.012433053546985 -96.929972600080518 24.772210441703507
-78.859587003459779 -97.293431228615631 23.821362051886574
-75.092486512168179 -96.570006905799332 23.999553313285805
-74.361691390991638 -97.478022212675057 24.052311298541586
-79.612148634649870 -98.305060952110424 24.572082280338755
-74.558827979093408 -58.777135232049368 23.168369909160027
-70.835801842606969 -58.905729925999367 23.600259505441397
-77.282724053656921 -60.135473308920403 23.153614861153073
-72.762283108788637 -59.249309415430126 22.864191066702478
-69.750669456712274 -58.623371157496180 22.664639720954181
-80.034999550230424 -60.203846531270990 23.282165137961851
-77.308930494080585 -60.509674914451772 22.947562402386364
-74.373767241618864 -59.736518922706665 23.047204330642124
-70.317275211107159 -60.531065393019432 22.508788074239231
-67.801153770621525 -61.280181375228487 23.348115794608812
-65.983657031366931 -60.685878045601207 23.067819090256766
-84.068119310465931 -61.916888246263447 23.836668442358377
-82.485297145718420 -60.848166947583657 23.045207631736737
-64.820289871584109 -61.214463373616347 22.888091748413725
-85.046037072876800 -63.587177651167153 23.210950971061401
-63.182386252381427 -63.517421832061146 22.194400321980371
-85.056765203352683 -63.667039713819463 22.026553903632813
-87.092530290669629 -63.973354072467700 23.508664983168913
-63.152023895695990 -65.648964648624940 23.076604104400218
-89.265167166406812 -67.471546283156883 22.692242429677094
-90.659879139519717 -69.359094841407426 23.512988430694772
-90.256420426985031 -70.770001295027626 23.307180166262476
-62.953908350638919 -70.741326354645977 22.824864261716996
-91.240434163284434 -72.492084312963499 23.861578442128739
-62.924790835988702 -74.058561981930282 23.340315369142537
-63.160992239093510 -75.696401971279386 22.070360600464436
-91.147268471179061 -78.478480117176133 23.473254505400771
-63.411827328392640 -77.690150239626277 23.135556065458161
-91.351150539225941 -80.539333990761278 22.808220101636500
-65.019823845094876 -79.532176259755033 22.416879598390111
-64.104383647589884 -81.014144702026343 23.410739542309582
-90.345024390869909 -81.383836223247243 22.867284445022555
-64.909882957441766 -82.452356334980664 23.731736637179303
-89.452510312162374 -82.465904289090389 23.220004357719716
-65.244708201514726 -82.767700412002284 22.532457025269807
-90.252440291972789 -83.567618217314546 22.652427779542368
-88.260527279399525 -84.234120522361920 22.467301499342703
-67.594248495107479 -85.174880921765975 23.421721168247039
-88.348160882280453 -86.519817732702606 22.551477348874304
-66.060869683519186 -86.397311032584341 23.676215389308791
-67.587466892837455 -86.993800966210358 23.518579405303786
-68.907033304663088 -87.395339961729007 22.676116054798300
-88.408381787144435 -87.430572852608222 22.948758579183803
-69.436176751182529 -88.476901062538218 22.621887050010596
-67.882632750692352 -88.164133326878783 24.374761432567645
-67.804631975687528 -89.167407030535159 22.903993254160799
-69.396208058931748 -88.907752243039795 23.360432841603956
-87.222564676547506 -89.964282974272209 22.378610119282214
-84.462102153890456 -90.423525903268541 22.854821722867484
-70.341418209955449 -90.480214811207844 22.899082539279782
-82.971328702379921 -91.844649207693379 22.876654964051035
-72.067041534971239 -92.262345317126190 22.641937963127607
-85.607667567629690 -92.639024650653596 24.088666604755620
-85.204429570344274 -92.647749839906211 22.679954118865339
-80.495191838235257 -92.544104731340298 22.063892682078130
-70.603227168264425 -92.863957471343269 22.851658366797739
-73.128985657058323 -92.379886119548502 23.222205635981339
-84.244324366917198 -94.113729346640937 23.639829350822872
-83.727105063383348 -93.456550268330133 22.365938718844436
-72.868322802024807 -93.929946454853749 23.978445764385679
-79.960039270399051 -94.020468964761591 23.851984273561083
-82.555582031725862 -94.702143917660763 24.265796154498133
-81.221762030108266 -94.073978554514866 22.979022075851294
-78.959449811155409 -94.241639205750730 23.415531911844031
-76.871116964737240 -94.909979349910515 22.453794669656972
-74.968328715012419 -94.397284658115282 23.002801053401114
-77.473319330742214 -95.638593467786819 23.631920684489319
-75.657163692930581 -95.791079148107670 23.107629214173876
-70.541719508593715 -59.174407002055091 22.222159870241889
-71.079931563663294 -61.186722163071956 23.000564919015666
-79.973327021072961 -61.099479584364325 22.557824854746762
-74.358500072577243 -60.752272153046583 21.090472831224488
-78.006696338191119 -61.409111411373793 21.971243110634358
-70.873244667110200 -61.851118860845986 21.705056387932302
-66.807689894991427 -61.374862566387414 22.666080028555573
-67.385586855482117 -61.890102552801771 21.520021570710778
-82.598154240298385 -62.446816675130641 22.734133508769148
-80.835176837754190 -62.468759140822492 21.469691260150356
-64.945767816560846 -62.587859091716417 23.483199042240120
-82.002653430733275 -61.696004667885781 21.651072427133926
-84.197007029085199 -64.814707702487709 22.225691273927747
-64.572371056386601 -64.319811708063966 22.328315874650841
-84.901311819428642 -64.495958697619585 22.463701184007114
-83.629612923814349 -65.526300303619294 21.454399181263806
-63.103618874146797 -65.743673812947335 22.434753113208956
-86.697024952355250 -66.342756122850034 22.486385284917574
-64.134010735390675 -67.709922307659255 21.991109249753258
-87.388522321241226 -68.023324275677453 22.408057714195095
-88.003734331353044 -69.124109909068125 21.823563620382931
-88.792526353628475 -69.491449734247013 21.619846145742311
-89.506380891684572 -70.409002454168643 22.009321773184300
-64.065125204646904 -70.556741896912598 21.538336125112423
-63.532744525559956 -72.846119848502241 22.202347163547913
-90.020124312974161 -73.838251826498336 22.250888957666014
-64.514911282068482 -74.475872244133470 22.678654287880132
-90.565000962239409 -75.908479734677201 22.591609925423239
-90.152052151120131 -76.381831306260153 22.555028060046691
-65.131293615230504 -77.828172854878758 22.416985030728661
-65.747859044739798 -79.230465103159986 20.972636233487453
-65.586741526544344 -80.768129506014702 22.974429503731763
-67.331381970930082 -82.146116917824983 22.401120392696541
-90.051754528301899 -82.553127787947517 21.799305104887758
-67.241688370437004 -83.617835219677886 21.883110232904631
-87.946905389302401 -83.685367790275521 21.198189454147705
-67.634442408128848 -83.373050403630259 22.341797957416077
-69.559749771249685 -85.859927450580798 22.322642468994239
-87.099825383406298 -86.340110749337910 22.341460663278440
-69.869081050335410 -87.412489488547322 22.850731482685813
-85.898235566174620 -88.490722788307039 22.222547658597144
-71.191142224944457 -88.210851477815496 21.435171408810792
-84.600971853445387 -89.137024710720041 21.669784134363663
-86.155712350715959 -89.256433327542993 22.735771063174095
-73.733548236621232 -89.895033647727089 22.039823088044283
-72.133987920869245 -89.132751714065094 22.659535008658434
-73.967122223671751 -90.210154279541030 22.419781168418154
-71.713407764654761 -89.812846173350351 22.600120426648381
-84.021677661799700 -91.521896523446657 21.498806760411277
-81.186387333564994 -90.956267312208965 22.415667280347389
-76.071625943642104 -90.667525869751572 21.418301151967729
-73.061060769148980 -90.566697036248868 22.128090697149819
-80.532154049812007 -92.752426547801292 21.908878943815910
-78.328773592029208 -91.586002666100441 22.473548947669073
-76.298044281418015 -91.650328072777825 22.439445901617127
-74.015618868316807 -92.352672771629472 22.671201821733078
-73.508206069123403 -92.343798137119208 21.802685980018548
-77.321162094403306 -93.667718187113806 22.043149850261500
-75.770859271288089 -93.379438661809758 22.832083484707471
-74.516921841943926 -61.818250177631057 21.605679737436851
-70.661747029260439 -62.432419703514412 21.893370482611981
-75.743449155972428 -62.102845794828610 21.252450403319468
-73.208006083474345 -63.266418870442294 20.453854834724762
-71.212881548351348 -64.009853897943117 21.069309535070349
-68.398458889685827 -62.880155935162513 21.625920879699418
-79.099010261851802 -63.279608797808550 22.801524148125562
-76.255633858939603 -63.266046967501339 21.238909939604170
-75.963775749328775 -64.416257765642243 20.915575663488404
-69.986712646662340 -64.075006080884293 20.694212917089136
-67.600257857602983 -63.619687832898165 20.641758389697724
-67.426052010360877 -63.289391487045165 21.966700627925690
-81.741890740087101 -64.535370880508665 21.159791702697444
-80.629039966839542 -64.074035709614449 21.563411267885730
-72.213571082723277 -64.163689025256531 20.413798692082342
-81.365840057931209 -65.843517304723008 21.323093190724840
-66.466836487411896 -66.124742316511927 20.803458951018836
-65.241467054910004 -66.585707484432191 21.208033347122765
-65.950138187039798 -66.745143439443964 21.561945191986542
-85.019071745477703 -67.397785549293644 21.422865778897663
-86.135040718274098 -68.867870803656714 20.556327862960508
-65.618156854377489 -69.234655797220526 20.826859766622512
-86.372027525069498 -69.438044450599975 21.545085140044158
-64.311419965537652 -70.433083264038174 21.456934177707257
-64.677780997493400 -71.865432421755784 21.342333368948449
-87.858309705614374 -72.413209139909810 21.692222731261545
-66.925090347941676 -71.620535927652696 21.665833891633959
-88.439861505626908 -72.221528676663027 21.391691347191070
-89.166577149216678 -73.502402594196298 21.566069331327871
-89.114805524740675 -73.166701865149619 20.696464952084341
-66.211890258539810 -73.768455938499656 21.764041239949279
-67.819652461359695 -73.621252748972097 20.741168428349560
-65.815663437932272 -73.608793998300229 21.560823751276494
-87.930911126175374 -75.442360428574304 20.943026227080122
-88.762707746075947 -76.915400218686329 22.614786468152886
-88.046435943254707 -77.176986143936915 21.439473071980174
-65.755938662628608 -76.829865811654358 22.210963507532259
-88.403847413009316 -77.879621328440848 21.215759759867549
-67.133437344238146 -78.446589308038199 20.791974591700015
-87.820828399859892 -79.759802147300519 21.216977285959366
-68.498525953301709 -79.513327553034742 20.773750660382166
-66.475615726949798 -79.811469871623714 20.931840337681404
-88.305329437495459 -80.900532085345830 21.867234010639176
-87.807352710034564 -81.803997504876079 21.003879527851534
-69.194377661277841 -81.431633874473718 20.723464148053925
-68.883075452992870 -82.269966538354112 21.442535742410648
-69.362406255702254 -84.208372063620899 20.521956582637564
-87.172884013850791 -83.532591647984134 21.828924491920127
-69.419338171680110 -83.785233209656980 21.731981983182912
-87.829891663414458 -84.048767347486447 21.530541018036928
-73.336756546685933 -85.050760802828549 20.609627339655059
-71.512968366354755 -84.326858898448592 21.811352736485215
-85.586539419977527 -86.095697578664442 21.192100335573500
-70.655382552331716 -85.653745144797284 21.859998238930899
-85.025980682531980 -87.251887621954808 21.078220313356795
-73.766436879524932 -87.317465661232049 20.799012530809566
-71.863537619222413 -87.331787835363556 21.762087471717848
-76.619971168456814 -87.865739917364792 21.471828900090699
-84.867381210904867 -87.802813118840717 21.240054509553275
-82.437635820231819 -88.057487665817675 21.348992721265429
-77.949684311803949 -87.942105628085798 21.980687014520733
-74.626159449442738 -88.661686465437327 20.724943992249937
-73.399835141888119 -88.415249640903014 21.447587718397283
-81.957183099696152 -90.054108207750275 21.653931995299452
-79.801462761985249 -90.164978044003249 21.275352897229400
-76.456062884252091 -89.242624075644912 20.311677899891293
-78.426204987001668 -90.621195709028413 21.948643127307147
-76.415005664219962 -64.643741558544235 21.055255422801050
-70.515028891914540 -65.779757641209798 21.093102633817345
-78.690085740964378 -65.715171024615117 20.900809688904712
-77.334593997408831 -64.532001259012119 20.501610180691561
-74.538101998775204 -65.434015675364748 19.634979812781861
-72.222108844577733 -65.782427594303911 20.182552535742726
-80.925673900116863 -67.866268760396096 20.709054926799659
-70.048847450919254 -65.886221998534268 20.133047764586394
-77.210451553928991 -66.930618473707128 19.794125263069223
-74.229213684679493 -67.019289368747238 20.270204735126054
-68.281746001373349 -66.473495058696983 21.090442164620974
-83.978623201423204 -68.115508518258494 21.288226136463170
-81.514418034557451 -67.411686860221721 19.791082942837122
-78.448036449472397 -67.976201982812313 20.362888395978487
-71.111747362777933 -67.745197065468787 19.804178640384432
-68.170012759576565 -68.030346747815031 20.375629307135242
-74.152508159213227 -69.500370758592410 20.206471249988034
-68.542314009173396 -68.530623911653805 19.506259412675305
-67.341595460200338 -68.302069660536574 19.992502974861740
-84.657362767009573 -69.985499441651783 20.738615076074517
-83.816431379126897 -69.902137507077910 20.811697847654678
-68.793536088450793 -69.374228348073430 20.795522871936697
-81.478138466166101 -70.089977688013462 18.969676457074648
-83.672022511038733 -70.044453123503544 20.139011923809200
-66.718488221092116 -70.213574567473913 20.349676233840857
-85.944658861815256 -71.125764342506443 21.946794989059633
-85.277625846322366 -71.092830396535604 20.006048595911793
-69.208361433385292 -72.456271266015293 20.071196022466648
-87.192749056252552 -73.184452844132693 21.022916091785330
-85.996066173650675 -73.370463856050918 19.104382977205226
-68.668934730143064 -74.134646879916886 19.125327318510315
-67.276994542186713 -76.297178810606795 21.061876494248537
-69.791302127606798 -77.727020895807371 19.651766560501553
-86.159004750838818 -76.247420915010025 20.503173071446387
-87.625587297713025 -77.537714767093121 21.250405810717645
-87.308175879774709 -78.354285909233369 19.374198569991108
-69.269553181911135 -77.472612419707474 19.553320546754914
-71.483424594663475 -79.736302646433842 19.487358108608472
-70.855538521448366 -80.457925307385139 20.455885544885543
-70.020983003198097 -80.185282721818069 20.062954164087841
-86.699983547668936 -81.362050891565872 20.363343626143141
-71.403383206158480 -81.963730899586693 19.708014727653175
-69.444308495054131 -81.657621814983841 20.949636379753674
-85.563656498062286 -82.848950061818016 20.019029837585773
-81.533199172534424 -84.039632014691634 19.565405978336369
-80.212117442255078 -84.609859433473119 20.172638878682811
-74.140943822414599 -83.730017455797864 20.343012845733870
-72.268523107566608 -84.441401869305409 20.323078781144339
-84.521305746974946 -85.008107663317702 20.610698392535287
-84.344071308692932 -85.577294806981953 21.174369668230121
-83.696857011403949 -85.492488283308759 20.846537761862024
-80.505860572697486 -85.440247030638915 20.241072259371073
-78.646730373416958 -85.242956448517944 20.675237707852943
-76.110001564674079 -85.738397458318161 20.394387740112784
-75.397329212744623 -86.766482007252606 19.745743069081069
-75.322968672882340 -85.873872146237360 20.477993591149769
-81.708832615666040 -87.938245325028120 21.531723557844369
-78.583565736876537 -87.132936271543699 20.502446851140615
-76.659747873021473 -86.895678508120369 20.829786778465948
-78.381486782380662 -68.826880476237662 19.956406017301994
-78.065998003158725 -69.226941075970970 19.561061317439250
-71.682687703731105 -69.615596347925589 19.694350367401196
-75.888971691606571 -70.594274491249948 19.970393004678034
-72.788855479524059 -70.480380324248003 18.474583852695950
-80.104855459856225 -70.762829034245584 19.152176100056757
-71.087353181360825 -70.746944134363730 19.489253479249463
-83.601932556009942 -72.004110353714964 19.500595577018586
-81.480247760394008 -72.592016197016520 19.959263896841790
-80.562351040398042 -71.515362256843545 18.658621693560960
-72.575992622477543 -71.712980952697123 18.693043811651936
-71.928787811225988 -71.979723662064359 20.236662535822504
-78.884371178015869 -71.965610367533714 18.522228056651457
-75.457383748629439 -71.701216408685724 19.121817611052716
-70.570659633702093 -73.080381578822298 19.443317003640516
-84.097563705378846 -73.642171041530602 19.521193221473698
-82.634318458964287 -73.129483631801875 19.454396207172525
-84.688326019470765 -75.052834251008903 19.330585498978266
-76.411521558664973 -74.227567436920182 18.824567426433170
-71.852536022476158 -73.782373180957393 18.927441696771787
-85.457481103928444 -74.632243607007311 19.828187023982530
-72.721389827209649 -75.761148579531010 19.245444803260529
-84.345170002584268 -76.053155132864092 19.088496681547088
-74.059738401940834 -76.299984255166365 18.280511963730586
-85.305337123452247 -77.686875506449837 19.286824833048897
-71.053201984286147 -77.639730310789602 19.463214176025936
-82.797391933053589 -78.751545989137142 19.259218815595457
-75.913205213998992 -77.849123510965867 19.363217791256446
-72.692451019377685 -78.930020676418067 18.484281497198754
-79.187096377893582 -78.610539293643782 19.126878081264998
-85.702166497777569 -79.735537791537752 20.070092059241791
-84.694557355006310 -79.502895695261515 19.343623906801348
-81.942215847241940 -79.975867230693069 19.108148095222592
-78.223559472310995 -79.540675786163277 18.970405112985198
-75.238296106774513 -78.690964694784185 19.279095219371904
-72.487942841082116 -79.296514363054342 18.581565333493678
-72.735658383328229 -80.225919934363247 20.150637148931107
-84.502276666792085 -81.400501289031666 18.633494856721605
-77.569013074833961 -80.570388519187063 18.502565471434764
-73.249567706447067 -81.024176779458074 19.990352694656160
-84.787046434939271 -80.905846272195447 20.106616627888329
-81.377577502341808 -82.195176191247739 19.465508282123608
-74.911185457812181 -81.541388193308336 19.238946676735203
-74.935260471704936 -82.812347322567547 19.782375743013542
-82.690192251626598 -82.866645037903837 20.027551788853913
-80.635864869449065 -83.150766022593430 20.153480948250920
-77.879616087221052 -83.767034730183397 19.797067538776645
-77.275803698960630 -83.838780190618664 19.616932177984733
-77.760134232737087 -74.191760234976869 18.947395276281576
-77.843549310249912 -74.465892730715353 18.147651848005971
-76.011225642554720 -75.902637045048479 19.124849754357733
