# This PCD file was generated using the MATLAB® pcwrite function
# from Computer Vision Toolbox®.
# .PCD v.7 - Point Cloud Data file format
VERSION .7
FIELDS x y z
SIZE 8 8 8
TYPE F F F
COUNT 1 1 1
WIDTH 810
HEIGHT 1
VIEWPOINT 0 0 0 1 0 0 0
POINTS 810
DATA ascii
12.065894274291166 -253.606557745716628 56.929094133523655
25.689939253421279 -252.907810571168227 56.905587010245675
24.608364299308313 -254.125506324385071 55.933331184727592
-15.298543390632391 -254.119315959928741 56.421097123045946
24.946430445115105 -254.247281958363260 56.629774471673272
24.218954028502445 -256.728559365282365 56.863186015933209
26.247365323804544 -255.618006066825160 55.498684941608857
-14.628989353111969 -256.728042726859769 55.957739208787217
13.499621331830504 -255.538367059928760 55.950473021699388
25.432333509403460 -256.234215866887723 55.788706441433213
14.150569010406281 -257.845413049602257 57.247742894980959
-14.122243854659914 -258.407249439395002 56.590584420008078
24.039674012378573 -258.651234298596080 56.887942733052661
26.912200728264004 -257.583260533858265 54.627629058759304
25.846153540355225 -258.431487987691526 54.796946931054627
15.753636308912135 -258.175727063059583 56.850744432696374
-14.142655016726593 -260.791096012028049 55.894305611431371
26.064875428890410 -260.765960250610476 56.102313906926980
14.815004842848071 -262.356053059446594 55.179434453765417
-13.756499392170067 -261.282435504426815 56.257916749326235
-14.652218720120802 -262.783584114101586 55.930768055994498
-12.994675837408440 -265.992588197542773 58.181409099125112
15.558250402216684 -262.353090076019839 55.459156664807928
27.447142052155918 -264.294705169210999 56.237505662358842
-16.289201180704111 -263.359650780153004 56.211803887650312
-12.996778355155053 -264.752284366893491 56.444549296738927
-13.285876805134077 -264.615725440035760 57.455985484810007
-14.653372144817714 -265.797302420896131 56.242375389081964
-14.491503401030027 -266.687231223528556 56.378520770026647
-14.722361377902184 -266.293440873655641 55.729879657813790
24.941798739532405 -265.339136706552722 56.092546241894169
-13.337566516485815 -266.699416863769045 57.358348566757734
28.080648759865600 -267.671394718059275 55.685018308135867
-11.789243869129100 -265.971328817667995 55.750726812194671
24.137792625482980 -269.985390122222896 56.564484980626773
25.707477891404878 -269.012899361999075 56.190685141878959
-12.691888959591960 -269.055089952783703 57.731505682417136
-12.064628476829073 -269.219585448582905 55.038586664940532
25.535333788587071 -268.441631836681381 56.922685024509747
-14.660880879680876 -268.023652839476711 56.971023983572913
22.357172651096846 -269.315978568275682 56.938184627139243
-10.240633229813490 -272.516108477231001 57.535091743751593
-10.963714108601396 -270.071983630896511 54.683037994662847
13.339237344569376 -270.005506173506376 57.680955019629039
-12.864018360323133 -269.266509354253458 55.145951403680463
-13.647724914658248 -271.114589186743672 55.069562136434378
-9.046985012395940 -272.507169069355143 56.131242702321657
25.213263412131973 -269.153653945788847 55.693613290097353
-9.718672953342770 -270.948909859879166 55.523459874910763
-12.677248779587616 -271.574389667307344 56.559635707960588
-10.925659154132859 -274.436980615654875 55.118345205961496
-11.953509276339442 -272.297976823190652 55.913674131782933
-8.994189858456490 -273.349009392818289 56.021229838422066
19.983698435342884 -274.995901956622163 55.857208319270704
-10.845613599741396 -274.361395102336758 57.562647203619989
19.447539218939614 -274.857321046898505 57.998289113437636
-9.611872548672279 -277.565472486092744 56.139919420711706
-8.139141920144084 -274.708173758657722 56.220875152951145
12.014145301964378 -276.222543137864704 56.984818598765408
-6.502561992451163 -276.313384869509264 55.822298494773491
-7.388822722211424 -279.723774973350544 55.753951609151635
18.485615316509879 -277.563288703913202 56.626184050454732
23.257541761586939 -276.860212991328638 55.954808847632179
-9.108401399211704 -278.078124025320733 55.394997896196301
-6.104186061811964 -278.013428443863916 56.106508426625560
20.314021050245454 -277.940067453549830 56.890782984649164
-7.798526945116455 -279.138791431315610 54.953687415439894
-6.351717725513703 -278.421018589046355 56.592845278326998
14.457324662912930 -279.558144273236280 54.472398636624476
24.607088710285222 -279.502456514944186 55.400633539559401
-6.679413824882182 -279.554672257714856 55.985652287872441
-3.582318335143890 -279.208374948058463 58.837679758642501
14.325984899808917 -280.527071608937263 54.441990281223141
15.163664591913003 -280.889663552746981 55.392153009327494
14.910291253693710 -280.300703534952277 55.806319526791022
-4.491160680753761 -281.111384721529134 54.043484202970795
14.152887963433219 -280.469826044024728 56.640278045858899
-10.918994803128554 -281.956121484428650 56.371631114010540
-10.468573657499439 -283.373953789553923 56.483174965030784
14.616848545392994 -283.631759680882340 56.819246287387138
-9.637527567466975 -282.264859207656173 57.823596771799608
-3.257309986731314 -283.413744985135736 56.154208823335360
-9.947871231485447 -283.488604018629758 55.263023675538939
-8.877110736599954 -283.893832355235702 56.139082388187916
-2.510198330386649 -285.273978689913974 55.958959093825968
17.086676596772502 -284.691102944683678 55.902237643112876
-6.533375532833830 -284.489311339923120 57.487394733799228
16.648213468687342 -284.024815750032928 57.032643287180676
-6.104805756704716 -286.212242820046413 54.987144248357524
-6.060196679419081 -286.201092606655379 55.563798929720782
-8.088936720523661 -285.393265064332127 55.961431984375956
-2.389857470915768 -286.387539420591338 56.395483001946822
19.844993700434259 -286.112775789282409 54.813398884325004
-6.238191230221099 -285.509715728502727 55.112557365419818
-7.392249581464026 -287.436136637935249 56.474622704338643
-4.806238501845880 -287.399836602603955 56.393987108429343
17.212296448553325 -287.448166527645469 54.897310518346110
-5.193037607303152 -288.325705549374788 56.339045919413863
-1.370401937838537 -287.560746673021299 56.521073886547860
-7.321433005496365 -287.790587972649064 56.790510507507754
13.968284283428671 -290.745427256037260 55.742633396885488
-6.579679598591530 -289.658125444854022 57.639572536868428
-0.500847013178495 -288.451714131996368 56.945204887408856
0.722884986147211 -290.021421935867920 56.557574028316097
0.514307388183730 -291.205838493292504 55.008315752519998
11.105523904217520 -289.821855003994358 56.832241674518031
-4.122483381416142 -289.354049266211746 56.702104283568787
-0.835665232585223 -291.197788914502041 57.017969887124629
-1.534600525051480 -289.910300914638242 57.216459697352860
-3.098021459228169 -291.823300270008872 56.557331368285865
1.475740721761638 -290.803833614604912 56.781940724199458
0.446785769598266 -290.402592917125219 55.703326527084286
6.310570385281138 -288.316424170410073 54.721471288133941
9.911222630806728 -290.469805292640331 56.598025766206305
0.713402519102868 -292.213816684553194 56.761829183090505
5.566216011299529 -292.135345782284901 56.623715633141074
-2.083046433605388 -290.464824506321804 56.047088041147859
4.382120301370111 -291.477891174354511 55.580742941966662
7.314739564126041 -291.893813834097898 55.216989212749631
10.543229193438354 -292.362644213371766 55.366582833817560
3.822119868123623 -293.738994262850042 57.069000859443747
8.289782647980193 -292.840465011144829 56.230411900317833
-0.215707731637135 -293.631620559558087 57.836507026546478
4.030273686499251 -292.853820356960853 57.022227977495845
3.917666443895270 -295.489619160878476 55.906053834083366
5.610828041939547 -294.136840881493242 58.171070762180499
31.670360280726751 -11.972297097842276 54.104671717688042
38.985135737807880 -11.497809682649020 53.893925130309235
28.473628876086096 -11.093043864477851 53.320093927960080
29.814300113722162 -17.405024752449467 55.963195300886390
50.416278717502585 -22.425203311515027 55.628113477161229
43.720604991691530 -22.659285253501352 54.765049732864590
17.638961127622416 -22.582858940439966 56.356051183093122
50.565481172204386 -25.976170884234900 55.469193698221289
21.803356374020215 -25.007046506048447 55.326793087420320
50.421024812844699 -27.262064997119364 52.205360106091518
42.739064521122508 -30.025881614602806 55.263130275994868
19.720991809137001 -28.805277074149330 54.578658484561139
48.173100163296311 -32.400095962099080 55.008953470992410
40.516664957740304 -31.956911666925585 54.055174798355957
36.587814369155353 -36.299201197111387 53.644983179669346
44.653201995781579 -36.285162662862525 54.101952421577167
25.930285826111483 -37.609206386834629 56.018789446522334
33.263793727734871 -41.051791940614926 53.293691033243547
36.791933020190662 -40.767408573840918 55.066221687635903
35.964329501527850 -40.739460097100732 55.532846954029282
-68.330943969504219 -41.094159891475279 52.990142253303063
-72.486634783063295 -41.371688666916960 54.054548471930524
-70.736452280265283 -42.656685692437449 54.786637044709337
-55.140791804527950 -42.708536672019463 54.404095170462647
-78.522374595157984 -40.510275749676346 54.738372480012643
-49.980902707070754 -46.394475753238417 53.473916524760362
-82.807444224705918 -45.766332401641939 54.201856888489090
-46.710019218436607 -44.519569759608707 55.107814434706867
-44.734165656044382 -46.131146046182465 54.307323218239652
-39.034869153454558 -48.763351136685017 57.032756020605433
-36.079307289937304 -47.029355250766187 53.973134495756113
-87.687430817841502 -46.810751025117177 54.523887608235064
-31.829331257775280 -46.453802222521283 55.715786409149452
-29.662513877364265 -47.695934988514658 56.257541450406656
-25.349493904046408 -49.433723041677638 56.290065574761748
-91.443565883048961 -48.208122011877741 55.495037692150518
-21.748137154522393 -49.464246624738280 54.413213033793561
-16.189199932676175 -49.244109525922894 56.033548500646063
-12.734814692236730 -50.267003754426028 54.181316988067650
-9.887491437270240 -51.354494251171253 56.451225264602911
-92.995839697759521 -52.976801227314596 52.564290727756031
-94.704907330043596 -54.933034550407413 54.748937224867774
-8.531543082173805 -55.411258971128838 55.553152346355901
-96.586131769513415 -54.934794653723586 56.290123009766404
75.528911673382439 -58.190347470064438 55.180379144770214
88.506744263391923 -56.739319070307104 56.480650246066716
76.668725331034025 -57.273132975917001 55.509038378857440
83.539625667058303 -57.337447548809429 54.976594501078310
72.938034835449528 -57.435857780893343 55.394411128085572
84.383049173591729 -58.860863757527653 55.203061629624244
84.881229952767299 -57.083086777168667 53.670532633121951
92.014548612433074 -56.034398099715546 55.712117312848093
71.692755215745251 -58.586041941514580 55.166671212472586
94.260877080127202 -60.099542263671488 57.277116501513774
-10.078194160119683 -57.853973285956812 55.247879999205587
-17.846786521387518 -58.566471721150087 52.647582714681661
-13.026897665587613 -59.134062380487265 53.455816367015416
-11.602052899572335 -57.853800370998975 55.378132128793212
-12.549403107012120 -59.957251362239198 54.340976516595397
93.682549727330240 -58.866624489113988 56.469898554315812
-63.287613118517164 -58.412923788293028 54.197566304347070
-64.052642559306250 -60.399623624480071 55.418174581545934
-24.981906125892166 -61.758084911182308 52.358675942555649
96.884917236750823 -61.754868114195403 53.497147072595709
-95.982830438647426 -61.883023252789371 54.782988114691840
-64.250464021911327 -62.066155768200254 55.100779435280074
-23.934242477380174 -60.100820329739221 55.286581204642111
68.918933951542343 -61.476967049215190 55.538709346894422
97.448092298852302 -60.097359267845604 55.453752219612369
-28.280890262487354 -60.936094523127821 54.392520315760677
-28.449225868736921 -61.839965741341381 54.981521820423090
-62.909583422171430 -61.706453638792141 54.811978872332638
-61.755919231838490 -61.226609698124356 56.780622537775805
-30.951987376177971 -63.078625926820038 53.735957948124380
65.618168315877440 -63.467592669678993 54.868993456117920
99.720625774267603 -62.518447526636301 55.887125694161291
-61.288449758400198 -64.503753087556973 54.151088730809938
66.121339874668109 -64.412320476201145 54.918999202896643
-66.562039712657480 -64.510267457421946 54.788841751593765
-34.269956723305853 -64.568876443595983 53.172771858897455
65.187572249047662 -64.693292422285012 54.811692019274780
-100.302610402709220 -65.610843646422410 54.566202170361166
-35.699748426141049 -66.403257913113237 54.897756036422699
103.285146789517654 -69.383744956110647 55.138635423913875
-65.345901596897264 -67.401045444337342 54.431886736166426
-36.056003725033968 -66.557164795777908 53.935978977443959
-99.454803678794647 -68.083878274029630 54.977491828225318
-67.949064797831909 -69.117720814268068 55.470591305132821
-36.834578800334228 -69.510178968670900 54.408605274262158
-64.852664845525183 -67.486922258343156 52.009243728158211
-64.967751642890462 -69.809005252089449 55.364511050612947
-65.187421738707485 -69.225342189017383 54.509974617825726
-62.683215956236566 -71.521752024421744 55.273509064336778
65.278834174572722 -71.055476599612192 55.397599717454320
-65.943208674538212 -72.301275035792415 55.459975066982373
64.455008665739555 -71.617644698926966 54.522122681775137
-37.481051132713318 -71.857640331380892 54.232809039294843
-38.784914086913290 -72.174049806917381 52.857447929055205
65.035122564766326 -73.749027885389481 55.215174701924241
-98.993756176283640 -72.681159864283430 54.760530971194726
-37.202893919610773 -71.865112593241378 54.369357057292625
62.584240008507983 -72.694771013506511 54.498843068559381
104.950192669376534 -72.573617965721866 55.718273767451045
64.778903682607236 -74.891584874134978 53.326150710908358
63.009112083930731 -74.757870511629164 57.225483256536400
105.346549666875873 -73.797755594193731 53.713409622788198
83.510806623842271 -76.534449298480197 53.651302493328878
63.166498841069483 -76.979295951968567 53.261696341345086
73.223605148930105 -74.654893052495922 54.143632932177013
79.248151755550055 -75.153828820849327 54.377447386724661
104.121606295785625 -79.027927196288033 54.040950035883192
-39.280113651493139 -75.920342216469137 55.536547287513976
80.177538546825161 -77.871739005951426 54.883938204944862
82.427393343359071 -77.843710601530375 55.348630065834548
75.174089770483477 -78.098717575758130 55.128952224478972
61.867479020113507 -78.136323553958874 55.032586809404435
75.199813494870412 -76.555273386876323 54.994677396044814
76.506916269594612 -75.382426538553815 55.954843151478478
85.223550284579133 -75.718350995912772 53.615925866327281
88.621519482500261 -78.569412185436434 52.307525629645149
-100.024139173768759 -77.736473321568582 54.686206622479325
-43.238591517271523 -77.284735532097869 54.646830497608050
69.878984672980096 -78.745207114043438 54.330733780402639
-44.492654023332420 -79.030583581518115 55.554703629592865
-42.906241026838394 -79.170772176187739 54.386480423864576
67.293939118466582 -79.640663721190734 53.498577911336859
73.871378996070334 -79.441938878248408 54.529007276931971
89.029243326794756 -78.682169105563318 54.323933782649675
89.848214103316039 -78.398465114724061 55.150393106888373
104.834085157507602 -78.212631752040110 53.587165689764056
65.714351643813345 -80.435116950092691 56.832474975686452
65.337935336061051 -79.874570936140302 55.026871496528265
67.922778019335510 -79.811182590446293 54.997770556671725
68.719274577407106 -79.507050508552183 54.348169008302492
95.190551352339526 -80.340386220291421 54.719696727877668
68.513271482080754 -79.771504259460983 54.441925697967520
89.391062092342210 -80.972372704145172 55.173078275811882
-99.046698313283983 -80.532111096674456 55.524265793028896
-49.992194602771875 -79.462401772366448 53.540489775470206
-52.278978328799418 -79.524561927719745 54.519100070267662
66.796683521002819 -81.974009091884739 54.617433309897493
63.568682728031618 -80.709145243473571 54.551772388483656
103.820786554231276 -81.772089821172045 54.272996452740763
68.582051295365730 -83.385886004578026 56.075092752234589
92.810775849830051 -82.273951586701443 55.890103746047515
93.650312955538453 -82.323450325947888 55.319991074490311
65.538398117866350 -82.918153379914216 54.731670482346424
-99.406573547012641 -85.059884667410770 54.942029042494418
66.938886574169402 -83.866397410062078 54.565135471144664
93.547016147951538 -83.890965390454483 54.498041108381237
-100.769932102684550 -84.171901468500735 54.930498161178228
90.952106905123884 -84.576987897967129 55.671375973962135
95.296017658996874 -84.862653139890000 56.313614150542875
-100.710963642646050 -86.756859087368554 54.777589807422125
-61.947844309693366 -87.514261842473275 55.391261924039796
94.553789615751555 -86.315710879809373 54.380816389618552
104.140780685371581 -87.597989878353900 55.297496381378906
-62.295550385086983 -88.126523966612439 55.667902626776851
94.087693965161932 -88.701256106673000 55.930270184058926
104.808886180432694 -89.450340864055434 55.400235761635315
98.050535468832891 -91.454986697421319 54.804682727838298
103.571988954731054 -91.911887318386604 55.632193624395782
103.358692248961290 -91.941800921159910 55.438261048407924
-67.395509025715228 -94.000638905942040 54.616885949709207
78.523784777169979 -91.827448617745219 54.976896553077246
83.953844888757544 -91.715626225914463 55.657257633679336
84.670305814703809 -92.527191851873752 55.518216647233565
77.413130750435627 -94.127890128247159 54.530141671437306
82.007988619707660 -91.189509797077889 53.642746758854933
86.045239098761073 -94.427441302316467 53.667291210960343
90.339541145554406 -93.144644716977197 54.506570791291232
78.529105456593882 -92.138950152610718 53.791342003277606
84.010364919726626 -93.644802772929950 54.779213057229377
73.383774824470720 -94.623045329799083 56.194377358914167
73.296400951922649 -93.910248511381099 53.637576157336639
73.102624215963274 -93.913894410951698 54.565481430187347
91.116706443752648 -94.576086665007765 54.133115068883377
93.461045352329108 -94.309951191199843 55.165778553952073
-98.604765092965138 -94.690091319610062 55.363874435695621
68.295562883349689 -95.837223768235120 55.649240775950616
68.697437042720580 -95.779352528390277 53.173036256024176
95.111411878868381 -96.851184251386897 53.988794608810309
102.258572954226310 -93.175341768152435 55.173223296246363
66.112395859052810 -96.072089093422747 55.395134551980107
94.011506854780578 -95.756334577045209 53.348772096304025
95.838964015335677 -97.223875160543784 55.429045195418475
90.695091641344931 -97.496678966704877 53.847520772121229
94.022819087702757 -97.730581584396433 54.768275593292543
101.090484723334484 -98.014493151401069 54.451250261411282
-101.597515414072006 -96.464841215389242 55.065259671363812
63.993231316317058 -95.503351672386870 54.700453551312378
83.313867898645128 -97.629037006306319 54.249848896123751
88.537493732710828 -98.640100134740308 53.984378608299288
90.178532028947359 -97.611854965812881 55.834291771255273
64.461119243253393 -96.395535994746538 53.962731629090861
86.147700797379173 -96.983211203310162 52.518978481045409
102.270828249635287 -97.766691969034497 55.802395612589777
79.924705031379503 -96.943996984984707 54.787940335177012
80.994868864084026 -96.936890756579913 55.466346506840857
99.534435407904482 -98.141433802926898 56.350574404507469
100.844536836803684 -98.777762238836786 55.359103324860364
101.201242808151449 -97.602252181477880 51.939902254731862
-99.379196019531591 -99.458625213063669 55.776164434778295
61.072327524583329 -98.657186225036895 52.860037775693463
75.208340304724601 -99.018691866878925 54.943986023759713
74.793152771643491 -100.329752768585649 54.786240333903301
74.461400222964130 -98.984833273429018 54.662697339045998
102.091620052539312 -98.379018115468043 54.576726753861379
73.482085598839049 -99.768406341088934 54.634100096725284
69.727689024659810 -98.654445846434072 54.942534684739861
-99.668435612331635 -99.548752094699253 54.636591930570894
71.766856388252620 -99.903152476379930 56.087662649708861
59.282909485244957 -99.620837032032554 53.634993084730453
68.877987581431043 -99.527060315831051 55.307509387108496
66.296931256505033 -101.945457174156928 54.770515548414608
55.931168925267919 -103.306452770285091 55.176187522685503
65.715518827398327 -100.070208427196789 53.892308151808649
58.543941143411729 -101.659609622019929 54.242263543295444
63.118165301679170 -102.270963749743231 54.076885457780108
-99.382401429059712 -102.549424350063688 55.848745267966073
55.554233273986902 -102.331424746796571 54.011464351099370
62.949960131248538 -101.024397324826978 53.814592740856483
-74.244671389982472 -103.647892337765242 53.867285758647903
-74.572100368860788 -103.988086708532791 55.100148424003258
55.882738385977120 -104.166979767473379 53.604682469628820
59.414408983343733 -104.626388258436748 56.526444535326732
-63.980191333998626 -103.643389133164035 55.554340423487808
-61.434605623670564 -105.147288672833596 53.268416849617331
51.880186686179698 -105.193648672681135 54.339446112769430
57.864853679307039 -103.805128927061403 54.591837804512465
-60.691869393614006 -105.703573256914012 55.907950316028398
-64.092115323698806 -104.634322034531266 55.424927241730593
53.983968161167660 -104.325042646419021 55.906011316879209
57.408424342813518 -104.952492175018108 54.903431160808871
58.240313270629606 -105.442357700444475 54.669166259081521
-73.834935830564788 -105.372912710683678 54.934871327066809
52.453252620963319 -106.222117585414651 54.896648310076593
-97.440790344091781 -107.350391735803044 55.575195695373139
-75.728467802706376 -105.560370179181547 54.872823934974953
-64.917337432326491 -106.148731625460570 54.328020385346548
56.153925030369301 -105.864066023422424 55.611977927338863
-66.398304137191261 -105.217243002609493 53.217261267613026
53.220754929767210 -106.134740737116758 53.642773677190476
56.097406238616870 -105.578450385214936 55.779640061123239
-69.826135553232589 -107.064140138662452 54.522411469331402
-68.747836070736966 -105.997880021365347 53.725867655085096
-66.694665199007702 -106.934852905171454 54.830793819796483
-67.546922904175773 -107.034146299139763 54.186326847911971
50.928700089087663 -107.623909202763883 54.901980707313420
-73.003704004858562 -106.661838136495390 52.541367482587297
-73.948768367910702 -106.881676810545571 54.542109567724545
-66.961831951111378 -109.101079960264855 55.901691964562929
-67.010713175767847 -106.387476265120341 55.108752128620878
51.291378225432972 -107.447234153795037 52.912728978894322
-75.073814597210003 -108.227734626217725 55.701371149227548
-61.212397362534269 -106.989516720966392 55.228066110921233
-72.924765067988332 -107.757254268786937 54.835314273198165
-66.268190744048809 -108.293505903923460 54.816234971130790
-65.807950392212419 -108.230581973271825 53.654134072127398
52.217063406622280 -108.327982209025990 55.042071270297527
-97.319632792219650 -110.111404735803163 56.304714042957372
49.325474194394523 -108.557720755080553 54.192654302191869
-71.980759553238627 -109.824301914630482 55.637316690683782
-69.464852686183775 -109.250105488476621 56.539131313014636
-66.807510360596993 -107.473833045858214 54.454081653241637
-63.589116599479958 -108.852611015233933 55.091155997099037
-59.074336824215131 -111.234015643969855 56.159914486960112
-77.486549388793009 -110.166632184264728 55.216189699941246
49.407009751453835 -110.437251091489429 53.144312735719133
-71.525770649249210 -109.991039422208218 53.589917161279679
-68.209721659738378 -111.789477042000939 55.800816704875977
-65.434250513706914 -111.781395311381331 53.501718983337817
-97.512500794228174 -111.214784040618625 55.753697419923789
-63.523528212713728 -111.928381762668309 55.151096718986089
-59.951406372126101 -111.536999066362412 54.123852072019908
-71.186552809913124 -111.614394784477241 54.998843319240549
-67.168496798772736 -111.024915227347691 55.171044467947674
-79.160502075804274 -113.448278970093241 54.717972508163598
-79.990332095126760 -112.363895630685448 54.657582431744125
-63.407959696240667 -112.152289655093469 55.095566385465084
-72.247767219994955 -112.299739989135460 54.689666330375310
-65.065365305488982 -112.638687954647665 54.737597232765097
-81.393285222980865 -113.271005638868388 55.676213902597787
-60.503940031833544 -115.084760948183799 54.399784369640876
-70.379888158572825 -115.876600250407876 54.762153015574803
-96.314310510767953 -117.399770042516465 54.763230214738712
-83.809911968585695 -115.184578392965889 57.176476820752001
-69.125462238188931 -117.300497906852470 54.041826662505187
-85.634135054702568 -116.160916949379242 55.644150444503460
-70.215373037826993 -116.107738417553733 56.030781173617157
-84.599428272921088 -117.483202891242911 55.260625854732943
-61.579901885920947 -117.355899596788632 54.507334676723879
-68.952654174531645 -116.993019154143994 54.496720920367089
-97.119909844869227 -117.771891738801855 54.667676542713330
-65.999910243022981 -117.010065485057083 52.748098771125754
-65.338328995836946 -119.536148433256344 54.032388066693002
-94.605487659965902 -118.348002924001548 54.170168727881254
-96.208604677661270 -119.276984808745709 56.627899386378658
-65.742561359439492 -119.746992966110994 55.225701777746110
-63.335184096259006 -119.736780003444693 54.517781489719496
-62.432763222850845 -119.290610692611793 55.695734443197573
-89.112949836423994 -120.890451887280719 55.853234005810592
-63.010445957367651 -119.744197624558936 54.825482208558611
-62.567687309567837 -120.968874554094086 52.247160539941753
-62.432956829655495 -121.988215597017529 54.268609047816163
-2.952338142700908 -234.631399880151179 56.847631171150169
-8.841169466518682 -235.937032355203598 55.984894038554920
-7.644178925795510 -235.484386572817357 56.088890392179046
-3.990448625581679 -236.665619418325889 55.659542680930024
-10.262419111161249 -235.902818137481148 55.608165697813064
-6.254944252742731 -234.912188238356890 54.734435641967913
1.350928174109306 -236.698916430151058 55.601312310069432
10.652528033398465 -235.309565941304641 54.011362067174531
-3.094714032399410 -236.745985938063797 54.210389406207717
-0.502206691039476 -237.374710463220936 57.692281514090126
-11.019837114422446 -236.918136965276346 53.623313395284484
-5.716195593411008 -237.372770685857489 54.331135720123378
17.375576286911141 -237.049362121592566 56.657923475552877
-13.207848074878793 -238.641220727724033 53.972410558052715
-7.303029091853245 -237.958782335716791 55.549129847791285
3.837784839060354 -238.468356733389669 54.272656384184657
-11.708311487547965 -236.521390607120622 54.740512172445555
-8.193519124646945 -238.514690861033671 54.651840664587219
-0.134825185120008 -238.115334783801103 55.934194757653415
12.373684482370304 -239.384912546199843 54.635974458154585
20.343604632853811 -237.151005732278577 55.949382047700304
-16.045139155883675 -237.512423976911634 54.825409540254398
-5.668729788139215 -236.724678747987923 56.023521344833014
-1.977069498671102 -238.660542267369948 53.668893855475410
3.695293572406833 -239.233481508826543 55.637584843240283
9.538663273409023 -237.045221802055380 55.215724574423355
-7.452676946834623 -238.965536105787692 55.373733695481199
0.174370678642519 -236.013191829389967 56.149026131341387
9.615297266279230 -237.973985076659346 54.831051701331212
19.155134887038543 -237.338011693064317 52.483077765379129
-13.834787539712147 -238.453042407471287 55.425079277941272
-11.387725092854426 -239.086486170964321 54.373588986036907
1.294036469930439 -238.463148604345861 54.664079317339080
-5.570406230127467 -239.826258050603599 54.977413449599979
-0.101398904933287 -239.153418595603711 56.065022005469807
13.404943901833365 -240.622271588622993 55.377760274149345
16.670574325200537 -238.841717773624083 55.151141736804277
20.283313272289764 -239.803171717623883 54.807631580873739
-16.131303009814690 -241.709832932713198 55.405263024822375
-14.913985308282799 -239.761849889514338 53.418268371667324
-12.237540507272788 -241.015499720908309 55.289165508501874
-11.543223440399645 -239.697702559699081 56.066938634684419
-7.850734336164264 -240.589667521826982 56.035613873784627
-5.683238699082634 -239.619368671643514 54.563999762423819
-2.077267092919711 -239.433992502843182 54.854313655347426
7.921743336728753 -239.260648331803111 53.832533834260005
-11.524598287589466 -242.099619360390136 55.604947911876792
-6.064681275010656 -241.554656032346657 54.295157732860027
19.253406321278732 -240.783268529544557 53.724592781477135
7.225199342395780 -242.681990502543300 55.597262136945112
-2.776769524365671 -241.575032626524518 55.603517628452941
-2.177012625723512 -240.697947989044224 53.530002034682177
1.168631704843494 -241.129222254169520 54.334028153516698
3.110223337593206 -241.150198847960240 55.242058955694425
9.104402636588407 -241.716583452250120 53.846338893948896
18.251478427442219 -240.150084317451842 53.389825701342666
19.687267800041678 -241.193681521055254 54.498403203359906
-14.345653481272487 -241.973789066416657 55.658805278035189
-12.745663583522068 -242.633830136182780 54.981864707504137
2.585052503951858 -242.324083054869163 55.452623277829225
21.667690964643853 -240.705763995057481 55.510524943042427
-16.402973017812823 -241.834564396497200 52.951916184570166
-15.510405930786188 -240.679748860916533 55.425938078162524
-12.509807702142776 -242.646589360651433 54.700658408072641
7.320584111157842 -242.512364701809076 54.126741663750657
17.298191991552216 -242.609455162312827 54.612085693653988
21.908979876110095 -239.827180012671732 54.954164867201008
5.131069830408627 -242.899628203259994 56.900617444680627
16.173485525549246 -242.257440101301086 53.725480656850486
20.992795691549315 -240.583415386336327 54.823022523932003
17.400844462954307 -242.141391886690172 56.179921531807658
23.022990208687371 -243.552077801219781 55.163752181920160
13.850062354730783 -242.365703202459201 54.869059275418799
-16.443350971635923 -242.963137559747992 56.293013227223454
13.950448823556613 -244.657677677032950 55.634305390183805
-13.391282834991998 -245.011254011178153 57.109139089548435
12.754676684752932 -244.304000503049195 55.057659231056491
-14.243362611537979 -246.394089084405152 54.606273492097486
22.098529048446352 -244.912922473497815 54.730855077531402
-17.228334468827061 -246.333503040771234 55.299352655426816
22.867446019016572 -246.274004840290672 53.694313484056970
23.984921224454837 -244.467177126377038 54.853929191506680
10.374874785260834 -247.440804523765166 54.399704144735352
12.346421420276043 -245.822893768198554 53.461251774512178
22.699631007526509 -246.556745242220700 54.490216409826566
-16.789394843105715 -247.046127708502610 54.800375246463332
-15.106018560519560 -247.262976023599521 56.349110092811593
-11.907835035009164 -246.730530533726579 55.979771829902667
23.308119469697619 -248.364107281050195 55.134391774622735
24.634379688205712 -247.681812229407086 54.738714887797272
26.679027894875656 -247.517555065181313 55.277766125595299
10.548022694869010 -248.093338997204683 54.393671443484926
20.481308289439720 -249.348734319420430 56.505599624124343
27.020918039911052 -249.651523822423144 55.567257062456100
25.692639074827095 -250.844332566483871 55.931187969625988
-13.863136105129421 -248.341481589585896 56.443827100436430
12.330731412576498 -250.487029821550948 53.333792839734514
24.983512672606739 -249.038426903315326 54.362465271070548
26.303311454016736 -249.601588475529155 55.299052619611821
30.570978852523368 -249.435059250483619 54.687001343007744
26.244917942423882 -249.187827354958415 54.682914563246271
27.972953676935973 -249.915022576105770 56.286247431988009
29.324751172826858 -248.644341354360876 54.331790818136810
-12.551553432744242 -250.832564698503575 56.531057445377009
29.359384635657399 -251.054849110031313 54.778229191354072
13.975495002389934 -250.923800178666795 55.437810594523945
12.006893244150913 -252.723553271898282 55.837681828989979
-13.226411169796316 -251.405760705195036 56.551953081919315
27.477289263620104 -253.020838959097688 54.986424993757844
-14.919307776418552 -253.355975448930394 55.407100031248383
27.600224663347070 -255.129283881572974 56.224430754135696
-11.874950868686920 -253.487293989004343 55.962592750248618
15.230783510276709 -252.711978131470261 55.939293252836535
27.572786197487574 -255.332534078590641 55.196977339968704
28.313133004430867 -255.976851717916816 55.768110977744136
-13.329527579862637 -256.239467849584173 56.335487442586199
24.784497482709071 -257.158188520241197 55.565210129938279
16.124710629880081 -257.051873190102981 55.658418149016789
24.984788438070222 -257.499344001003692 55.918363007715129
25.881963434596656 -257.590046835547696 53.519713740328804
27.228260096087105 -257.419089759900544 56.944461381535532
-16.208072496912337 -257.770710459758675 55.818984957384558
23.027380290723848 -259.181579759379701 56.512610645855581
-13.857679833963081 -257.210405960082596 54.835995253270646
14.984903105059933 -257.960211306663268 55.132938991607119
-13.311012552990768 -257.631036504632846 55.276098292577878
-12.910835624842145 -259.874813641546666 56.121273926008648
-12.558076288514558 -261.188607208189921 55.878185083062455
-13.357364534303494 -261.086056558318660 54.895811906636084
26.262878647361472 -262.978709228988862 55.455661386112702
26.553449332287567 -261.038569582973651 56.519234798944019
-12.455436740579065 -262.306219246866590 55.696013580893535
-15.428813257401394 -261.874240073753867 54.297750446227653
29.328330414152486 -263.179127297928574 54.496220635985253
-13.057525167130082 -264.199939427774552 55.874280872600977
28.277654339046762 -264.076585290791741 55.155291480728110
-11.369285073727324 -263.395240520158211 53.991834670565510
29.053952364986852 -265.817147688529474 55.718256441341936
-15.697563046855294 -265.358944079305502 53.696818613739723
29.852705497548552 -266.415807392566137 54.954062323248124
-11.460385704092632 -263.881695339440796 55.112626794360146
-13.709871367218510 -266.541322377223025 55.566881837742450
-9.866313359936107 -265.906194536050918 54.838504986834337
27.478052834321922 -266.339743437860534 53.996947424107240
-10.399997003208368 -265.659010977512708 55.931193152174025
24.231851696333088 -267.725861030441820 55.554882840437408
28.099782757427842 -267.192378433796591 55.858944174945904
-13.316918425931970 -270.522984379328875 54.254098816347671
24.941596710912794 -267.913755325204193 55.616859177666399
26.363976193995160 -270.193973913803859 54.890151609519961
-9.433838449966689 -269.222455825954228 56.102712056343471
27.199642480574134 -268.306968908691374 56.994877007601183
23.464937626537456 -269.425711895944858 54.542229925466849
24.499079264433586 -269.867742765318212 55.932791201129447
-7.016037547535666 -270.352250572814796 54.189594514235182
26.394583488319068 -271.558078202358331 54.270563396590916
26.153255983405735 -268.844634123005278 56.649663685609049
-13.706141949282827 -271.522858084126028 55.840850296965598
22.770090307548951 -270.061330562062210 54.522432935958527
27.630723542131051 -269.053913945871955 56.120678922314859
-11.571558553125225 -271.158476183502273 55.956056732370300
-10.597302263414104 -272.175050200052965 53.585747920573603
-7.989577594199914 -270.005520992219203 56.038011293619306
-6.108832090515594 -270.050655748336681 55.587526465889141
24.175637526146193 -270.493706700877453 55.088932281308125
-11.281551309106067 -272.218307540321007 55.105932758128063
-10.184390413839091 -271.964149736809532 55.617966118051115
22.310471628964294 -270.961870245281489 53.882871434576899
21.434649462869555 -271.582604673127321 55.357624404877747
24.270824556611529 -272.679973137218269 54.057630171244213
25.892913811912919 -271.974947394572098 52.598496185528653
-6.356436965228533 -273.572506588249382 54.028796404030011
-9.611516700255041 -273.048896456426803 55.308041389679126
23.582619968425636 -274.397553839919226 55.837260932001904
25.978830603140612 -274.628034526406850 54.984677079174183
-5.176763335073187 -273.314473051054904 52.940187067083663
13.161694011787683 -273.844039622412822 55.154189547411768
-7.565000300449593 -274.159430219252272 55.900123717652029
23.479301153912601 -273.507538884117366 55.649655310019114
-9.688021755196285 -275.369097422103437 56.532242020425315
15.909916567853939 -274.611359216066035 55.949268444317362
24.442787750448122 -275.787415190075251 55.086916945769119
-5.015472577544018 -275.437357836085937 55.346654288715094
19.035077183038069 -277.162145318441901 55.380603742083103
23.530412828907735 -277.099348922577008 55.569747162033451
25.547512164385353 -275.193274853426487 54.480767173700023
23.091367558776565 -276.833073421898405 54.802720602883639
-5.611054251235322 -277.821713802264298 55.580945695933586
-8.332730850297386 -276.074156649678059 55.048277289853246
-3.370215965066842 -276.561434277859348 55.567338631679739
25.073197009116587 -278.360714753388550 56.048260669546821
15.856888128662410 -278.707034569239852 54.193264073637501
-6.931022135935211 -277.061683092916383 54.822224823250885
-7.155882315087440 -277.990649497278469 56.809778295497111
-5.562241112533737 -277.628906280143212 54.340843641068545
21.457085911294069 -277.983915870239628 55.065175050485941
-7.468786841523912 -279.262802545117893 56.832489807172216
-5.721257496445110 -279.814033448805162 55.632376400225425
-7.144063793268980 -278.955780987066362 56.594655084212846
-5.970982769425143 -277.552914798587949 53.951447101115569
17.601082463645572 -279.272550239047519 55.238727361346989
23.707224651205170 -279.430330775913831 55.935261335628155
-6.331741169646709 -279.157587817118554 56.087666179400728
15.933349086115605 -280.075118440087010 55.607177613913265
15.867272985635443 -279.094299316481681 54.776152857083126
-4.904461654856620 -278.662045419605818 55.202817852582434
0.031032062041926 -279.566864315277883 54.323611251446096
23.502242577461804 -281.757108012125798 55.230063703383436
24.176630242253765 -281.676238618176512 54.865232641003615
-6.390066857220822 -281.044074845132457 55.494103346152627
20.817853093666578 -281.238026730998513 54.328808018017781
23.727758067631317 -280.227673847682240 54.616291313536081
-1.917755821655397 -281.118881654437189 54.986151340997068
24.034709275441962 -281.139917921227322 55.669962899246116
20.117273106750712 -281.748692318018641 55.491542644416732
-6.142065170189467 -281.675626043837553 54.780551742972818
-6.361935065049450 -281.916479006471263 54.712590656350024
-3.649593803388048 -281.757123684731710 54.628195277745263
-4.610591195591664 -284.495362293214498 55.146968028638362
22.026234471098000 -281.044580703932866 53.768215691114889
19.324591895132006 -284.149676635399601 55.677572322504851
19.725063522454317 -283.757332397406969 54.656026104506672
-2.876210342379038 -284.435533883407516 55.792453598909312
21.120377983326595 -283.483896760050527 53.485641553307445
23.315539848418648 -283.555643528313794 56.583053444104571
-0.935901715160737 -284.014776928900801 53.980492755570211
18.173889017886129 -285.495063339139790 55.377102452576750
-4.488757090652772 -285.085408662198290 56.754520927651434
-2.041342100753043 -283.453808880793076 55.766114665350784
18.792712414097767 -285.595537127359592 54.311014845177318
-5.355627888672430 -285.302225205809577 56.263474563725673
-2.108025555318504 -284.357125355021651 54.446840649422981
0.909233359833666 -285.912527964972980 53.868889107179690
19.151457102892749 -283.850654790278099 55.456502559697846
20.281916098427331 -285.546700435776927 54.126148528370869
21.955910826799627 -286.289558488233411 55.140839917018170
-0.324360429013815 -285.325301690578897 53.550362867318491
-0.821881335393592 -286.284569962491162 54.844229098244718
19.503557405005392 -285.883969087146909 54.875623952047931
17.059735345306507 -284.370192431215401 55.297114638050772
3.058331041612361 -287.363966662127325 55.391360892429638
15.899173006916865 -287.011871767526713 54.848639314866126
-2.391552328062573 -288.548351101237529 56.210984457316414
-0.082201244188072 -286.658385283910718 56.413517267155051
-1.018833615108309 -286.436288753507768 54.556261364694585
14.902006380024837 -287.511306072886214 56.203850766360482
17.676078438657665 -287.071372924099535 55.961489424502794
17.477524719315340 -287.815652827218230 54.378559789467992
22.081759944534550 -289.491777027933324 54.659495458391909
-1.747247443263077 -288.492233201608315 56.645792395762221
2.259311190541820 -287.634409318872372 55.504180207566137
0.485555525382508 -288.203158232954081 55.181528930556581
15.512802613584959 -288.976266809338654 54.735108149692671
-3.726309509099841 -289.322370923063545 55.929560760504955
15.425557651960876 -289.250256919078652 55.899320178418307
-4.973476561695956 -289.385073501864269 53.426392370268175
-0.717610528332176 -289.437082419385376 56.690226898391671
2.614678301341384 -288.508069061264393 55.133555448777621
1.390598320637406 -289.971198237136946 53.422419246759461
11.121566189824948 -288.919341928046606 54.448198849539779
-1.283944087761223 -290.495047307393691 53.285447622525169
14.967070888248337 -288.746477320419274 54.830125994408164
18.226868177013895 -289.373423220383359 55.771527112963874
-2.741637819460086 -291.228868398503948 55.133178183084027
3.220336696535141 -289.904103833480690 55.828847064851878
10.177958616364613 -289.295172602121681 53.646759576214556
13.580407874450552 -291.375998091489862 54.473009093149130
4.007922118566179 -291.550956039742232 57.777359702970919
8.958242399728865 -291.073882775744892 55.065760111925819
14.280231070363570 -292.574353718350721 56.085822222257605
1.727039842972123 -290.609974463447031 55.485063862150490
15.477226828412750 -291.645477863818087 54.741390220884263
-3.979930833666611 -291.077722776800783 55.920486958352726
0.568429490405101 -292.763457859591995 54.385275312303520
11.038400816107380 -290.874265601338834 55.210999592484534
14.678940521331810 -291.273978795566450 55.627458610644361
11.570469690538774 -292.132018350761257 54.307597107780111
-1.314335757297022 -291.796995252955753 56.335169089666877
5.668197147726982 -291.693738905578755 55.272064861294588
8.105191136678691 -290.777288906427827 57.310790709418988
2.339445569754548 -292.651850476497202 55.307010362246913
13.333922817524222 -291.871621185550168 54.688135583485860
13.500764027382900 -290.393966416144963 55.198546009820014
7.815365224972078 -291.981655686543206 54.573984112856316
-0.133539757006218 -293.655135357297297 54.733237617628966
2.668896614424955 -292.024856760241391 55.035276854390091
3.960419768595014 -294.391566857649195 54.762084999535254
5.147424812149556 -292.952715526853694 54.736358496859324
13.312174803767881 -293.593856122647026 56.532348458234431
1.329532323877947 -292.616842973371718 54.605633772681394
8.982183641512826 -294.231312717191145 57.116796962726667
34.274501048381516 -11.799496753595982 53.903028691834336
31.563878651380836 -10.087671560551653 54.573989164950859
37.176919625774488 -11.635493536342578 54.412729829657664
37.960675869928281 -12.270043739181805 53.987876831994619
30.023425378459663 -12.549764937587678 54.563509350503516
29.765852859040905 -12.895788018008226 53.251481089682933
28.194257237027742 -11.920432456744638 55.170772341107217
42.050411569883401 -10.699270098908688 54.682521961860260
25.985085317202863 -14.274120514110210 53.326093189310370
43.627910337592532 -13.789870763535919 55.497870046258853
24.975382345763354 -14.664533685644576 54.209326373353058
43.783917283284673 -14.256513037290572 52.205498211901393
24.517516867771182 -15.448663230735111 53.038186535652855
25.235170469269690 -17.508017721419993 54.853470879806203
45.574028056442287 -15.824462281821081 54.147628236259024
45.459578463659589 -15.530149445986474 54.024577133918392
23.349505801088469 -15.687829892297998 54.250957900050302
22.584535710955002 -15.387940933898200 54.063729957202511
33.040245008688373 -17.528804018890678 53.198287256228717
49.088737164808876 -18.362363661554131 53.998056854527491
23.121953973027889 -16.629893474606291 54.332259054593393
39.139078481100363 -16.724807754217089 53.871854101281365
21.196746349609008 -16.639064916496064 54.683218352516896
30.284691695386890 -18.480227764489918 55.328506133260042
21.991734370527020 -18.329359784569977 53.117182200838208
26.828435467153039 -20.332402767793685 54.568943970398692
27.629250179226268 -18.468186794308036 54.696653157171447
21.283008409799798 -19.862623379359793 54.358660914729015
25.729270158668442 -18.777314138056884 52.126022906804934
27.327622808361603 -20.722103185417641 53.370903024342368
20.239088276187665 -20.294052930962071 54.236498904034036
47.797742258190809 -21.634926234867077 54.220899644586545
24.713033954186322 -21.743252983132248 53.970068689791546
19.560139421269557 -22.570455328525107 54.998433595677305
24.939871076687663 -22.015366468711260 51.745936648723280
18.300474337066753 -24.392663349558081 52.694526322141485
24.726791923692623 -24.288910532658701 53.401457151067653
24.238538176190652 -27.399197486011442 55.408647658800298
17.632580878700466 -27.044721582820078 53.944611979445959
26.146710191765983 -28.272054116665750 54.302931191504562
18.014493536546322 -29.638754093791860 51.697657492919475
19.633528531890672 -28.865776064977652 53.883854461386719
26.917204031866060 -27.738135921718186 51.764143365868264
26.440657238754003 -28.929850249494869 55.458362276019656
44.249188360252816 -30.591100585386609 54.207254244704515
49.543604885842072 -29.630828827917608 53.293675928631657
18.739754872932934 -32.768583333120176 53.954823020799658
24.717705787339447 -29.642347680669118 55.407263816823267
40.740824036848736 -31.541297568609544 53.410992545967318
20.849618912182081 -29.865011166664146 54.687851638869134
26.759287698887722 -32.559007134052898 53.811807864813019
42.183771008951496 -31.418767377213022 54.325312087518583
29.462142651224603 -32.487120353398751 53.786669921452109
41.870825976953761 -33.632234906196793 55.056357076165312
19.530981466389566 -34.640694515175333 53.928307837754616
22.913751682300994 -33.139637575980792 54.082497478418858
28.580602625235098 -33.561569192476689 53.638397915963786
29.776020993261699 -33.997545886898415 52.600424355630913
38.083948909870806 -34.531641885134981 54.562744875887105
46.084148157534628 -34.034731891597097 52.605196885791756
23.093383423630307 -34.873123824445351 53.856205732517751
29.313210707768455 -35.556080237455163 54.495606433165541
30.099089716765665 -36.083446473070566 52.745500913714835
36.902077649643836 -33.846743452497556 53.995104345957394
21.869535380433934 -34.708097209998087 55.343524478780488
32.957154203908814 -38.452007172960379 56.426488630101019
35.585919302177039 -34.891966120581102 54.530369414244468
23.470808462806875 -35.635738324839444 55.011990942814521
30.805293815166824 -37.554340835426103 53.531118708133242
23.675227969527043 -38.033106109021148 52.813383762511336
36.507040725719641 -37.234627968506580 53.258897818108551
43.423557382468545 -37.784441198916788 53.777943684787616
24.228310307528133 -37.726750162609527 52.585810713462301
27.406922793902890 -40.167120281413766 55.072505019809839
42.878340720857096 -36.821754865553260 54.300959097381330
33.021746743966375 -39.755420018191174 52.790451183116026
26.370940040233315 -38.448899841137042 53.985102430150484
27.850365945371792 -38.144260763098941 54.657790689870936
33.969873962293761 -40.012436598438065 54.773624576509427
33.521072746413004 -39.602125209221249 54.834366173711338
40.568974366831689 -39.581720156322113 53.688442120585634
28.937696718897950 -40.379808017716364 53.193797767816449
31.830673327570512 -39.409584907404799 54.165816673182213
35.541970364303289 -38.223324342019907 54.889743784689408
31.617219269233043 -40.615609247346121 52.842748400147684
32.254982414620976 -42.677106436850551 54.440253457490549
31.504017631748379 -41.158353817506125 53.169093880774575
33.650922241502997 -39.788629159444064 52.818435264674513
