# This PCD file was generated using the MATLAB® pcwrite function
# from Computer Vision Toolbox®.
# .PCD v.7 - Point Cloud Data file format
VERSION .7
FIELDS x y z
SIZE 8 8 8
TYPE F F F
COUNT 1 1 1
WIDTH 812
HEIGHT 1
VIEWPOINT 0 0 0 1 0 0 0
POINTS 812
DATA ascii
-13.082649887332348 -247.696137025837118 54.840959750352638
-11.893940320146253 -246.511629329600481 51.745005129900115
-10.523219675125151 -244.508988451798871 52.332323143574477
7.627491168463582 -246.530076870286024 55.375047512281370
9.978010344615845 -247.851460069133907 53.212187386967202
31.365188398507382 -248.960838342431117 51.497086204268733
-12.899156981613725 -249.595382657439302 50.760003100037856
-12.436375680153779 -246.937482036255858 52.229496194250977
-10.493324269947397 -248.786829039357428 54.764019295844342
-11.772698146358941 -247.271452610173895 52.478022469105476
1.455519718390612 -250.331928776315038 50.197180028322862
3.436970483387024 -246.955825759099554 53.812966917837009
6.605344717063207 -249.421890742244585 51.714376843706049
8.950861104521721 -247.928060874922039 51.250243927038071
21.057478852339422 -246.322080108491633 50.316986254325442
23.971557139460614 -249.389277464258072 54.704651220954595
-13.696026885817121 -249.503064028629922 51.789118927034870
-11.848706466997884 -248.114153380524186 52.757529958361964
-12.451471316189078 -249.334175216931044 52.612702625840839
21.255593566582682 -248.967361849732555 50.682333779970747
-13.229327069647946 -249.745078644542019 51.736570156059081
-8.917813118072642 -249.519897198151568 53.665558307036761
-3.165952025680666 -248.318437374376657 54.011636826539217
0.131103447382402 -247.664548857014552 52.962685026629579
2.626178015465670 -250.271600645555537 51.582886127821226
6.787684488118376 -249.591264866031509 52.197585077294505
10.771507577779143 -251.716687402330336 55.909116605807597
16.663638861854665 -250.602860558758465 53.718549028339694
-5.956235453472143 -250.170552196495549 51.632075803151707
3.579231688517302 -249.309630106322629 53.942804031272374
12.714238340245895 -250.292832009744501 55.969583307887312
15.935985354472699 -252.868332339716119 54.813005398077976
24.071585167816266 -250.757746688479813 56.128437417903164
27.469511588874752 -249.458840626195382 53.030352171127618
-12.627217142531814 -252.791238826605706 52.302168097059678
10.278776461611509 -250.351440983661803 51.004436303755668
21.846923681306571 -249.570945966779988 54.475725606843653
0.796098538112582 -249.840124633048760 54.036368027762748
6.532216602991417 -254.187451210390833 52.784905696408131
16.173613863371315 -249.179443810062196 53.088046254229646
26.027016819582624 -249.954903874821980 50.893167503320818
26.170102868924047 -252.420953794421564 51.873464267939319
-12.519430617304396 -250.385001530259672 53.091762601478358
-5.004547571569109 -250.019500370787426 49.954388998506751
-3.415643931239940 -249.305605945746265 52.160369188712238
15.990641319153514 -249.682121628679766 52.876385033385553
5.273970647816886 -252.165311633951944 52.391919090053761
22.505761706627140 -250.090750038508077 53.069947380359572
23.217458555869694 -251.262569649479218 51.896115149175259
30.011676760850101 -252.253312859972084 54.913060784349312
-8.859136151529889 -252.715430188850746 52.837765483501848
-4.438075833659448 -253.521710829919527 52.560589920149226
-1.764083969655153 -251.776285940896543 52.101334976078014
-0.132261178823032 -252.719835063469418 51.073998981334540
16.386018074420623 -251.709113993032815 51.586498655724746
17.642192805743349 -254.270584419999750 52.948339060279523
28.290849242665630 -254.382052943766013 51.341900573307548
30.337200396324082 -250.895868934149576 53.605523482040084
4.104175784168898 -253.320267910367249 51.820883623427207
17.915194956056308 -253.207386633737457 53.610313714805734
32.001676866878888 -251.912351366486860 51.744284966642610
-13.247784923383243 -254.277667610385919 53.343712307206324
-14.400946575935306 -251.047664205404800 52.996693024435402
-6.896689550717552 -251.120531142771398 50.689918623207042
1.240819708588270 -253.770955022108296 51.492307575438410
-5.392884439862584 -254.896280280471302 53.325844460014224
-5.235908849294758 -251.193467902850472 52.334917148596666
7.212074115865100 -255.005237085095189 52.149821513740932
-0.819637844287901 -252.992837198638313 52.674287264306827
-7.090339313673478 -255.588889104865245 53.876874131156661
-7.347494115919300 -254.607342296625859 54.473459453012950
27.263470264291609 -253.357323286486888 53.048259922688409
27.916932951659607 -255.220913634902672 50.034873761940183
-12.434740211392571 -256.550254644874826 53.370151510638976
-9.784660985051056 -254.309280165639791 53.292327442560158
0.982922812834881 -253.858867443395667 52.489170021730345
24.307416321953966 -251.181772961090303 51.296387550577371
28.178593740416670 -254.012572217800454 52.804681566106858
-5.122953857767685 -256.832242386117173 54.895485441472985
1.760541488548452 -256.492104433044176 52.052254437844063
30.745880970708569 -253.900007203551269 52.746097656458346
-3.269241469425869 -256.668151209224050 51.441716561104457
0.148957214252047 -254.337152651127411 51.341841335540700
7.308114992619411 -256.393764829736710 51.462446387826319
26.990941399719258 -255.865484011022488 52.212859075794022
-1.018541209133608 -257.825452071306188 52.619616664094792
24.524068432783437 -256.576657756903387 52.795510727931905
24.376085671081572 -257.575826978592204 52.321252182490788
23.163043251786799 -257.890556554643865 53.129616081438058
-12.005881820972853 -256.696235828574402 52.427710060179294
-11.967967536758653 -256.879044208937330 54.157005906035373
-5.653944372322177 -256.985221959172975 54.695246720482679
4.525350593431722 -259.485013075352015 53.110102871318261
-4.561778100436184 -256.658189181758132 53.030182551488977
32.279200974494408 -258.060892082739883 51.243413426031047
21.766720082283115 -258.223109125081976 51.840124209638198
1.888262071313478 -260.488872425358295 51.925616698548907
25.710586585135808 -259.057075016514602 50.349646307482715
-8.631770992684944 -258.535140669742930 52.534213898316494
-4.274300364586304 -260.666327903661625 53.158367602906274
30.161492973827830 -259.187129444713662 51.911654488606864
-9.630092957216805 -258.540549803530439 51.936089032553681
2.150825307349812 -260.901477463130959 51.182629633777317
3.425259335666959 -258.472431646555492 50.486452001193364
-2.084015665250188 -257.873880592427838 50.951000269838445
1.324454167757144 -259.228471965602239 50.294738449313698
22.910761791379208 -260.242989666502467 52.747990858287203
29.290010978835248 -262.224387985285261 51.436292520934124
-6.746405923450598 -259.306537720864469 51.236662788590309
-4.444141488874194 -260.720884029859064 54.938283008341322
-1.449107128735294 -258.340080091996299 53.233710861993018
4.500724887844502 -259.736733004296752 54.213559909581534
-9.711111682625454 -260.037238163154598 51.266408206208169
3.426272329805187 -260.653654416611346 52.504713801040623
24.043875166805829 -260.345009380182887 52.700895901502392
30.691254326783753 -259.569051814020611 55.129399155130997
26.179006337654897 -262.329106765874030 53.522197087272048
-0.559958950627756 -260.257942189760911 51.400212774529095
23.957555071807395 -261.599903866430054 52.579797624190519
-0.175948807362285 -260.382771180539066 52.514220375812471
28.625662587568090 -261.729072074968144 51.171176117702750
-8.243637427228103 -263.658257247626125 52.600981555514252
-4.633168693515024 -264.681357977162691 51.937318052474076
31.178391679770172 -263.767886916801501 53.950639451462138
-6.667687774008564 -266.866175120613036 53.116914446857820
-5.243378470229935 -261.549613265631706 50.914304925320685
23.000502348862565 -261.930794859340381 54.412234921803638
-9.034248650125374 -266.379202613922303 56.312449025745806
21.578254666642483 -261.578083218360746 55.376773877537559
29.216875437320432 -265.373856865155346 54.417032363231471
17.093292967680561 -266.160166770687283 51.975870184547340
20.390821353839328 -263.699028615390887 49.884879053190033
-3.825511370209482 -265.148597195975810 50.464300612338697
-3.769127211542543 -265.433060754359872 51.156871069621822
16.635785132681384 -265.213202613213923 48.863199161185996
24.026956791583377 -266.671550381887641 50.614383761532160
26.260488639459730 -265.246146115462238 52.654291545874415
23.580246324564065 -267.319868729226812 49.061397525051810
-5.049415425910203 -268.161726582860297 50.374189263819716
20.318837258616774 -267.479870767280204 51.180632787672252
18.459238588899435 -266.792405127469294 52.822104570189751
-7.547771215001841 -267.986763873131110 51.608818924520278
23.548562655366503 -266.865928107606578 55.450134956619451
17.445433873778079 -270.953768594106293 50.231424829703535
-1.805981003209809 -268.495787072089854 54.035071826366867
19.762657832173403 -266.641603372538896 53.211450596499752
-3.758460750472766 -268.471473902916330 51.380149917693856
24.974627860989557 -270.257576928792162 51.675616619944257
21.047686569131745 -269.599768342483173 53.067828902358535
1.251085995298805 -267.592246734100740 52.060182852253412
20.915244250391474 -270.611838805689899 52.949170213248998
17.114513221386307 -269.424024079533524 50.731498746702378
19.863295599285120 -271.658878867600663 53.585508082582869
-3.119157872716771 -271.795741932709518 54.888977841345444
-0.664877999677450 -272.816242294571339 53.343856367987968
3.959554955662579 -270.351495443900717 50.449934932901868
1.897969053931549 -270.655951268335912 55.233207466545899
24.181373374864133 -270.965795803830076 50.475354770917050
-1.787449280528843 -273.361685784443011 54.965972117318138
15.039476818387488 -271.494192062057095 51.728335398229319
-0.887467136312275 -272.604248622660293 52.846621484061764
3.253928601272441 -271.862874709100311 54.051622122303833
3.169350422623598 -270.416319071022144 51.354017306271878
13.355010008340793 -272.223362358710347 53.519397705519793
17.558156040243315 -271.009876500764449 52.668462874295024
21.822870816987439 -272.842604213320556 50.241039240799616
17.025527361373353 -272.304190409699174 55.906088401112136
13.114674159709610 -274.357723613229211 52.687905125354092
5.534346148299571 -273.848241772476513 50.250369724112808
10.372688625704258 -272.959898494345452 49.793709379823589
12.956960606948595 -272.121633559942779 52.555273608432103
-0.423920374796237 -272.992686683969396 52.257817698237908
0.192836000698454 -273.373933792063895 51.832766123110233
11.393097735123215 -274.345727224132816 55.227004519298781
18.055848901982859 -275.436623575402393 51.748763341135863
7.102819643651191 -272.687194148466688 51.388579211538236
15.671559284406801 -275.840052474822983 50.552809945967695
23.001376618964386 -274.079186027608102 52.144181087679868
1.078641141255226 -273.299762969319943 50.449679854318461
2.977997068167630 -276.384848102070407 52.016582140961475
4.199558899738875 -273.547299331698753 52.048445044041117
8.305203109768730 -275.748774915301681 54.502382125282914
12.435443320340928 -276.047767024019777 51.226428247021062
18.026181429384192 -276.679197196593122 53.256010497465802
4.744035221536411 -276.352405439798645 51.834859804851078
11.490010767857898 -274.999156647783991 51.797062815022464
14.046732281278889 -273.431475497891142 51.790765397315312
17.272457013264393 -276.924185329064812 49.891182046542987
24.194891155859587 -274.254594758798362 50.498655784178595
-1.486169358589653 -277.556907814773183 51.851809382032791
3.589198659503208 -275.649681457651980 52.256716958935520
12.832372620552535 -275.366063918245914 50.592738442856088
3.216300373353898 -276.106102414450106 53.417438407579269
9.689807213907624 -274.494998659957332 51.887730129350899
9.413797683915602 -275.361881280870307 53.003820687239035
18.906794646485967 -275.261889506125385 50.420185727952493
22.785805226746536 -277.016881085008947 52.516712522286468
13.078349352994405 -276.462573071759266 52.538323897417492
26.856962613437922 -274.941775962609938 51.180820832481807
2.102715800121218 -276.812886792627637 52.949521410859035
6.543462539373520 -280.722482761407036 51.900314930703097
10.877711801872334 -278.288801671498277 52.284880517913798
7.499364033971796 -279.777576679089009 51.080150201322972
16.142196800787953 -278.556375543449519 51.971631295062615
18.569378025651194 -277.238572044022760 49.586651783744998
8.193260606599678 -279.364861410368690 54.070741002879437
10.609624842867541 -280.601021264567464 51.148641857336841
20.252413007335278 -281.175413744396565 50.028416101508313
24.741450128201407 -278.782935608512560 52.198725108082030
18.985806941090082 -280.015813083738692 53.807609300425760
15.557204174172357 -280.429138894974074 52.716696567888739
24.819434027911662 -280.802331308259852 53.472646489822225
2.012024008619147 -278.056730165873660 54.928210644048228
2.641709900606086 -279.417724734851561 49.901478194442483
8.878397821639837 -282.288647932097433 50.311489971563866
24.539683992834725 -278.675182958302173 53.293951245494007
3.794613507981904 -278.482889802394880 52.278613083118096
9.343233828755661 -281.365535158324008 52.205211697509100
23.398805724382164 -279.099832999173884 55.453392830901286
14.375105189698340 -282.476593390267908 51.104198346943996
21.326757465352145 -281.049433692501509 52.561943492919880
23.044442587648131 -281.852633978320000 52.686409111980602
8.357374401207226 -281.610319481529018 54.475559541291240
13.881288449687586 -280.175917915383138 52.224489346078983
15.324447740091573 -281.741655711498424 53.714386633707996
6.185472635366411 -281.136228428150048 53.170849169656876
20.412633032596112 -279.856588162287323 50.903007754996132
24.613317681097886 -281.397262901835745 50.847212432871565
5.940860761318077 -282.169937809460691 52.326699664395719
10.193553112139197 -284.091240082821230 53.192871719260673
15.476881499527160 -282.661348078787910 53.819679849358444
19.169527971892087 -283.127157553180496 52.669500438206278
9.376589873357236 -281.008406266589930 50.557335972352611
11.983311902931419 -283.149034176095199 50.787865024336753
22.242157299464910 -282.701739142269275 53.313040031935273
9.722267917671665 -284.944833503868210 53.545921816958419
14.247651550244404 -285.449788848834203 52.635853381005859
16.220636891130376 -284.184696482484128 52.575022327829480
22.781086332531018 -284.728225692087335 52.637730134626956
10.832972791662865 -286.705164133132769 52.398008603304177
23.023701747949584 -287.468078517075924 51.444084904660258
20.078126633721219 -284.066523950363717 52.048526473765548
21.575739102654797 -285.652877162879975 50.789483907664717
9.325832812295440 -285.880531051440300 49.205060172332544
13.464495876108487 -284.426774138105714 52.392460743288311
21.317295727230999 -286.558484000781675 50.721500614407255
10.210720705401350 -288.682613118371250 52.203403197464944
21.575843259479527 -287.284540302036646 52.461810524071737
20.741817330814694 -289.036341554579508 52.057031684791404
19.664627903754646 -289.576919535871014 53.626830820467035
19.417270166824508 -288.229614745342928 50.640863011990007
21.001877699377033 -287.978502065170971 53.213156472368581
18.932950383604680 -289.180100531814844 51.756816769562391
17.005206747528462 -291.081834301299352 51.196739744269230
18.610686614975947 -290.501559207756259 50.410251304412540
18.128556907012612 -292.226844482921990 54.930363195274516
11.363851466540979 -290.699615540130139 53.797974918263570
17.222199790768027 -289.635490060901930 55.034262962222385
19.842465476960069 -291.014549817932959 54.253744941037098
13.453597197730835 -291.455966305305083 51.767454928115853
11.667994895099502 -290.861673058199472 52.642470704546071
18.957660690773093 -293.968542532658944 52.976614874850988
15.441205863578590 -293.684144775737707 51.755632876480867
13.355905178004051 -291.657453307691924 51.373403952828703
15.659281119781124 -292.491728855240694 52.549265755140738
13.465174630048590 -293.120279597270439 50.487153086917566
10.000313083710587 -294.148268248338525 50.911371608851233
12.326737898893507 -292.203648244408782 52.828143101779112
14.709612661148338 -294.001696170313551 52.349145162188087
6.723091487625414 -296.470740250584015 50.320814034657005
10.797445340682403 -292.680571590129375 53.554000377102213
4.736303955220803 -295.441295058553237 52.623988179115379
9.680930400356294 -296.344733051247147 52.172401381022425
-71.183739500437468 -42.926765986460993 50.288369865937099
-65.887872561609100 -43.436219879700083 51.559819288198682
-75.905902302120580 -40.780988123802352 49.134624267049809
-71.183320444985071 -44.883426710085018 52.348149208549444
-69.974263366277142 -42.256045581920901 47.469881068553221
-75.904350601015224 -41.968016385132337 50.013560471975410
-62.803610792189559 -44.853766300681883 50.244147444809116
-56.533252901785488 -44.356627563749626 50.108112691860832
-52.657536068542584 -45.420576356376067 47.325153159884941
-49.260332402537003 -45.847331692338003 51.519012502756219
-85.113307704471922 -45.688334254928279 52.757720529681400
-46.927676475538341 -48.002245578987399 50.701130639669834
-44.377263337768213 -49.305945002625961 51.466531258516234
-89.197323067863024 -47.984254182007902 54.126380466381782
-91.346627199431168 -49.216030166509910 50.769108982313114
-42.515184594138773 -48.967966979541380 50.943363428302717
-41.079460716285510 -51.026002427534451 50.461521645276576
-36.736317395288708 -48.553447164174763 47.483852909033232
-92.026440488755298 -51.113896116975731 52.125658552198281
-90.534316885677839 -52.999336995499689 50.119780416473731
-33.826342288893350 -51.124366890235201 52.299980739890998
-21.316892726968696 -52.019695250872282 50.525839735556410
-28.418559750120810 -49.334072686360784 51.756643669050135
-15.145861653403493 -51.606225067062127 52.421702952675879
-93.963971770393073 -51.598130892878451 52.181973183559066
-58.650206434299328 -50.942404040432052 51.397166243028700
-20.263169245514593 -51.851515433358983 49.328298631657063
-12.006334011777012 -50.979495779811373 48.065233421157430
-10.520731448968364 -52.186323490550926 49.286609790509438
-62.622439547851101 -52.164083401728341 50.457646513792362
-9.866840401794752 -51.490421423550572 53.462162875364136
-94.349138821335842 -54.544648463173885 53.117059818963583
-60.854511083102551 -52.810800306507652 53.153371497845505
-94.355175401790845 -53.804675637722518 50.233783632823396
-63.274990090480401 -54.519745377920422 52.814696934638327
-62.752109670355104 -52.974969278109903 50.670881649918037
-7.250057105903171 -53.060778141966878 49.439937071791149
-8.116145582363554 -55.439949006758141 49.447895699606740
76.954318836232787 -55.764787999551366 50.275597278196692
78.561705945238870 -57.631783715846723 52.075873807673347
-64.597340903426712 -55.320675884578577 49.855123933348118
79.509577455426907 -58.421820534112847 50.060241767162211
86.214156460145560 -56.422133704216606 52.679565144515365
90.985288124773120 -57.529876201271151 51.171473828067690
-9.419727861464086 -57.817744880964909 52.270751642033112
86.288330375913219 -55.656482764001026 51.137171909354400
-11.129216557574248 -57.401278735790022 54.372272820814182
-10.450642988098467 -59.528923917591889 51.266125947113210
-99.345078915613044 -59.536093050710456 50.723427243431289
-14.338158423627782 -59.575485140034736 51.273636574345353
-97.189695628630460 -57.093285245323713 51.680032560475532
83.988297767290049 -59.210938090690746 50.875435644834425
95.403874216121636 -58.918361922967023 49.010309380769897
96.570625771130594 -59.223895452359343 51.960123163576810
-61.041396440818680 -58.152479789129828 47.760785444666780
69.953243345661718 -60.997783519985418 53.167611881951530
-24.064661807909584 -58.106626139815923 49.571399680530746
-28.819495338600500 -61.917550253339030 51.180046969690160
-60.890800445912575 -62.941576318622033 51.371632466855452
97.178052292896936 -61.954515934835271 51.123249909391596
-66.030751925372257 -61.054400495045599 50.022528918980768
-65.893849949310237 -62.124286320483648 48.143078210717562
-61.724005400104879 -62.438956072436213 52.528483192466709
100.304845473737771 -61.991116699341546 50.879371538275997
-101.128963294310310 -63.008621562222359 52.434717204039949
-64.638936947575758 -63.568641572290090 52.375006329614223
-31.416878207886207 -62.826014758508826 51.486721571818293
70.305920106149955 -64.629910084125939 48.401387522982162
-99.243815863868619 -64.206558382435929 52.355913488720446
-34.810010822405808 -65.528370971379090 52.169445726218839
69.649911232648947 -63.057435278258467 50.411116883652170
65.585721917368588 -64.469101321365272 49.513198540208570
-38.772983669355575 -65.945800862152282 51.964909299110140
70.191987232189845 -65.788713585722249 52.577348372418903
-34.947585951412321 -67.255246181603169 51.224910180185915
69.796595094575792 -66.967635956714759 52.316960887043741
67.455814059086066 -66.112026542389614 50.155263986517625
77.132303498869348 -67.888012994396206 51.478397522343663
78.750706505947562 -65.673038788106169 51.421366438470450
70.260084520773276 -67.220887257906099 49.530418304135566
74.383856467153919 -63.516042823298406 52.804594256462238
82.098360423840489 -69.233000730168314 51.901680525420360
-35.560783788016629 -69.570289650465966 49.097013465880210
62.383008373551455 -65.658577805594689 51.186417134217159
83.482805965092183 -69.226253407777250 51.597855708046602
79.402439158166473 -66.918381452710662 46.803534003759232
-100.647151680675449 -66.040793277050255 47.585908764828581
68.669046855046304 -67.002444313498827 51.400773230601743
84.893086635926963 -66.206585303870398 50.342463765360876
86.110321279300933 -67.941269238704876 52.648873696146026
87.708032375452589 -68.831539179998501 50.559777883346769
100.765449370801576 -70.948119513054323 51.023965023048937
86.276326579817592 -68.887552645787508 50.992953187113599
88.835338033185181 -67.960621224806232 51.851787348765235
66.653822269642006 -71.576877648740634 50.526114675083825
86.065304107632102 -72.554307385073201 51.393276580604343
94.107579678418645 -70.360911362787618 50.812913257515987
103.818024761111772 -71.364344375496700 54.543748916262558
63.002038290893005 -69.046717333128470 51.872082232664575
88.804708097974782 -70.146669941112449 50.355183925608003
66.456016379120797 -70.006269756621464 49.704595531103038
92.519017542052737 -71.270688739635148 50.806372626125466
104.467110987466853 -71.490382825488055 49.732290220721772
104.026570366329111 -73.296305461874923 49.735622971263723
62.245096574389365 -71.454933788835831 50.824594162768676
92.944347335288413 -73.738052444200221 53.242855111448996
96.985379804226540 -71.889031149512050 50.131132614657510
64.562313268083443 -74.289378858753352 52.988134914279776
99.473016619371336 -75.269922459086260 51.408021048973396
63.879337798801913 -72.316019817826529 49.690368505526621
99.866419855108873 -73.271213782362494 52.562988850163734
60.764419530341705 -73.458557327866416 52.764031116612237
62.838089320895655 -72.942241387109760 49.973329424478166
-39.906347199947788 -76.722991126427331 53.266278315222372
63.819758144731111 -74.498775208229290 54.359871674432313
63.190197257094006 -75.051734081917019 50.637356257125404
60.845011493045703 -77.356774233652189 49.895677774394592
59.986563469761997 -79.069361077635023 51.849616903030871
-43.958420890596990 -76.777645096122754 51.475363649453200
-41.023131885471507 -78.621089801033705 48.132586516250214
64.801147534339194 -77.977245856881950 52.411853871673927
-46.950230405002543 -80.016118104825196 51.630378542249105
61.320945243632906 -81.012578209071535 51.082272731053067
-99.572752315244571 -79.675859769058675 51.484055052271678
-54.016584172815037 -82.224462720520407 50.514543048862691
61.519038331436484 -81.626054608023310 50.169549455596382
64.933520086254987 -82.395605549028218 51.410338679166763
-57.070913246351374 -82.398503921209638 50.464763386793344
64.651520189451062 -85.505578869156096 51.163155086575898
-99.403404778743521 -85.560597944070963 53.312213992861565
-57.650371769436831 -85.231607160352439 51.348025099857082
63.869802804495322 -82.787078165320722 51.644990414863024
65.327214523163903 -85.908388827052732 50.395785400032992
-59.503749259340914 -90.562699977566510 52.411984058708981
61.266492662100724 -85.587902331060974 50.600131839372629
62.370361282955670 -85.678072595129706 50.226477329294141
63.205256784098403 -87.236461403322281 51.830193712831957
-63.757279863776887 -90.270908563801498 52.864034042761958
62.914737737266655 -90.653409879673561 52.342833794739633
62.192923596628646 -89.567456321640904 51.640392375727806
-101.454816568094628 -89.570815471044540 52.809543426640289
-65.951270531653336 -90.189169984083506 50.950231674561529
62.623680025614433 -94.102900047399388 51.092476645499197
63.433286770023074 -92.414343995603687 50.889445768104402
-67.890918521909484 -91.475194413897412 49.751689220849158
63.845409103866508 -93.470051708501359 50.431873948148990
-65.609399152219211 -93.511975379123470 52.784242026185581
66.822216481585585 -91.865301569616889 51.347079112638937
62.496764103351175 -96.373637523520486 53.903498955959847
64.347344105599646 -94.846737512210979 49.756175466953749
63.269020183955298 -96.894716414556328 49.003282590316473
63.999907980962988 -97.488224423947287 49.686172341521079
62.746124421430501 -95.941100730476549 47.772375162569482
61.967063951984755 -98.610005734297346 51.046438277253841
-99.608961684225207 -97.838793845829869 47.836636186974324
-72.789187016622492 -98.259244872522601 51.182387523563598
64.083709297611634 -98.686416209692254 50.100768432092224
64.785880523296967 -100.353162035747346 52.680993388151656
63.148637587936307 -100.664324682218293 52.218477918823730
67.325311600800987 -99.206964463454142 51.337523091511564
67.371746769157824 -100.095897233318070 48.723550474656292
-100.804268611085178 -100.703487213845989 51.645474601317645
65.877316645569223 -101.319546544348427 49.016288719929904
65.041367030664091 -102.826705502258164 50.131100920740181
-98.415880486529062 -104.964152394028147 47.960400165833782
63.138243765903013 -102.524158964444680 53.116345232677325
68.043038402783850 -103.067722520816545 49.841252419333152
69.743076776278642 -100.724648423354196 51.654656496331306
66.897431979927205 -103.337150096640201 50.594342029371319
-99.594060064170236 -101.997821518931531 50.032792379482949
-76.217026528892518 -103.197349648167659 51.434521437653366
68.707496714423712 -104.915362294709098 51.368111120409736
69.880769988155720 -103.600202336325182 52.282340291527852
-98.756229720562729 -103.001830456887532 50.312317692756920
-75.751251311527199 -103.785468604504828 50.286264238658212
72.175614661375690 -101.360293130917142 52.274426736017546
72.156883151474204 -102.757877639259760 50.126324863437858
67.250338757395511 -105.472340862177816 49.537902552062803
70.616961654111449 -106.867106547044841 50.184730502453952
71.947044059160390 -106.483353492564973 52.517280243267201
69.755550700434739 -104.863706313383588 50.827769522398263
74.488850272733686 -106.505544137772958 49.364812341444477
70.726672731939772 -105.591225343496532 48.821972112910501
76.494158181462510 -105.496230296925248 51.147871229452377
74.919101028935188 -106.685901589420908 50.556133720366269
80.782505164734147 -106.478326564880390 47.686347396370380
-99.032766610299305 -105.566257186812535 49.556003409063933
73.178107902136858 -108.186679430520442 50.731205944499933
-79.211829987959263 -107.318479973114549 50.698988547784239
69.473149289540331 -105.785253037981761 48.614140778649528
78.631594031257421 -107.575166117847587 53.352505959402073
-79.006058441934840 -108.236337917839094 49.819743637694181
73.422119103540467 -106.879372560960846 51.446011827571553
78.274739035040668 -106.598469020719264 51.902186970518002
79.440841970339079 -109.335496468556727 51.171431986180394
82.157571903884943 -107.166696466085284 51.527727686857212
83.263093354348769 -107.993915201872525 50.120669680460544
85.080753717575803 -108.066894289176076 50.536490342366406
-80.690002452882297 -107.200993160267970 52.705610353131817
71.723880917882212 -108.657024827628049 52.401178641435557
81.187382116071404 -108.160998990878284 48.183938025639293
72.420946082854229 -108.832557269932650 52.450744558224784
81.682231627222265 -108.569203255543457 50.576159761690057
79.491351667834820 -108.884718850817819 48.996029119430077
81.974278557038247 -109.331398297243197 51.593220396833182
-80.462624615844859 -111.099804726015932 50.981412650095201
86.515248703686268 -108.809226770851751 50.838462384025753
75.291688802192141 -108.789112353045240 49.331178285837709
75.512409637285970 -110.455983134395453 49.264966432837895
-82.797856494993340 -110.963135707090174 50.085608862703296
-84.006612847622762 -114.241667416820874 50.096100515052527
-84.735153498703042 -113.886929771149823 49.841143131356567
-95.684546268018650 -114.913697408366374 49.551173154434721
-95.789605702393601 -112.411868499921724 51.124612449937104
-94.411206598220588 -119.297571305933772 53.278207256624810
-98.427538654078944 -117.640846589966841 51.484012365475252
-90.987900549126422 -117.395901778409481 49.872339585260981
-86.725548142755272 -118.474023335286049 49.429660450119634
-90.312026279253828 -119.251060156964343 48.985812976555977
14.684598702375032 -237.446321378231289 50.862283109415117
16.704263883756795 -234.738125223785431 52.300139879802572
16.061623294640018 -235.225490582352990 51.200022028733933
15.239501148365733 -234.548515080734120 52.173665061534031
12.630679209697323 -238.132807524201326 51.517176978733808
15.143961921261493 -236.182913638425873 52.303984508526632
16.882283592194000 -236.077026884206418 50.863123301807050
19.832601714171467 -234.005443557348656 53.990530999515236
16.860858919117074 -236.917737108167614 51.162512650406555
19.005338468778973 -237.118310040456748 52.136988741558717
19.991432354976922 -239.349330377788078 51.655184607728728
19.746286598817441 -238.039531205843275 52.525661666953937
17.081547923996730 -238.735184516081091 51.682766159892608
21.195685919623561 -238.601619730608746 50.374158499726470
20.059447964291685 -236.154015152162174 51.515402109970161
21.755318652772193 -240.324376531124670 52.003165468328561
22.001513816291872 -240.755285331978428 53.710591254501246
22.665294280612592 -240.330528640607668 48.390830201792525
-7.293250787004615 -241.807670501871598 52.979356488970609
-4.820631535950192 -242.150294843859001 51.602846069400833
12.812179625800772 -241.230416362115022 53.873091243116150
20.779147050126902 -238.217870696796723 52.482374453460416
-2.794048083279997 -240.136585520532748 50.915229390667839
3.290364868306080 -240.417294597807455 50.814892687851255
13.047826169959000 -240.274858123823492 48.884398834303255
15.245355556917010 -244.296307634959646 50.478693592175816
-8.282322444505473 -242.452356139688845 50.641562008666753
-6.992099556531137 -242.579812607259157 54.553961273146825
-0.119038436710902 -238.095669744226200 52.977369339188400
22.200089815438730 -241.808405325538899 51.525648242398248
-0.980639118838578 -241.452074029563363 49.247010661511581
1.089166773635235 -242.575489568587756 50.577336043944612
7.993173747565827 -242.761002234488529 49.982778607724789
17.210436670866567 -241.537913719466474 52.789788569315725
17.060922446034397 -240.543754023614525 52.518017738301580
-10.657748146719628 -243.429514802457504 49.085609130007242
-4.214936891977664 -242.713428129482907 51.991164742690955
2.974935540328066 -241.099623698382544 52.466853544881090
12.998335310227494 -242.074190632401582 51.871152123247327
17.401962118491088 -240.934663046349755 51.142080913086538
29.204389784310436 -244.620883544818668 52.078854838423197
-13.539458904361377 -244.308444071756753 50.418146466491663
-13.396247709322097 -243.588710953416950 50.641955984355981
-5.239582397618126 -241.896716295136912 51.912847456549457
4.276549101458301 -241.874370161144157 50.846527434398730
6.482700865787248 -246.192957210662371 50.570353461532648
-10.485778801877961 -241.880287361454350 48.739140410745996
-4.220018766344603 -243.093398938044544 51.894372533596744
-0.440138158776800 -241.340122401274158 51.175342667365392
6.969415060075547 -244.228089903493412 52.497797843756778
6.294091822037615 -243.505476380795756 50.294899393880179
12.508592484178939 -242.018381126086609 50.362145223015574
13.818620445284417 -242.419819205794710 52.963096506270958
1.518116766479215 -242.037012636777263 49.585243612981998
3.101395856836258 -243.307662467966111 50.991559820863081
7.923568631368195 -243.433765785384480 51.653615346482766
11.213482963728339 -248.113544782547876 48.463920921035836
14.853510752815815 -243.486725730764334 51.394264755909767
-8.160414326470356 -242.686842791022940 50.840518081266524
4.668577102821431 -244.242155750995835 49.672507083977237
7.732902138336164 -246.023517616053113 51.018062931430336
15.837071018880275 -245.348560128641708 52.213809237085975
18.196292040714042 -246.052499754974804 51.647190208217872
-9.592165512508810 -247.576920224963317 49.547581822830224
-5.545032016822282 -245.309452354948661 51.413883624852701
4.381120935657088 -243.082251959071584 49.487048683682211
3.885119172813915 -243.923062125063552 49.808721536744820
12.932289654364713 -242.326915749608901 50.901919234361920
14.606728801572338 -243.996870703865341 53.329979243522111
-10.576784213097424 -245.571324550529852 51.339121011443204
-4.926161185747820 -243.809451764316634 51.080384315733049
10.336711520604881 -246.334766517641611 52.416098204636910
19.067014423862918 -246.384058011647255 50.925183192843512
-12.613507362137604 -247.021538428261437 49.843843565881897
-13.211398842850810 -246.483573454682897 51.403692133268883
3.363285190526791 -243.775936615963303 51.856870584041580
12.762411061722210 -245.506011925450167 51.409743816930487
-9.033513193811196 -246.923836879464517 51.448370559156089
5.742201861123596 -245.191426329814846 51.302543106970958
12.170092453951234 -249.048994784766961 49.723668248640898
16.268957609868693 -246.711059613064776 51.111642943749949
4.467502534217672 -247.609684484861958 52.638058599867954
12.927082175030495 -244.748546992868370 52.057063109903019
15.449079646443147 -250.009701366733850 50.302066905047703
19.839742635875957 -246.354202713737521 52.224604084872666
4.712541797015783 -247.766682521362981 51.627393471807864
12.657307147341204 -244.868050911390895 49.268298591685763
15.385519632065300 -248.726349349534615 50.510987509934843
2.614244785466390 -247.696789751793546 49.723020631658585
10.384347018318323 -247.848986464435285 52.102706662568394
17.523466416970734 -248.370325752097841 53.378266197928319
20.628916935344037 -247.827373353011666 51.128606711082789
-9.237998645909991 -247.262285849336706 50.312140264591662
-14.416668745321637 -246.271332319246454 50.296488944795925
2.899472211963882 -246.985448446173677 51.644022789662152
6.055374892002661 -246.680563797875294 48.447033573725207
7.735437983655140 -248.891443832977416 48.801897146134216
15.321904648903844 -246.870387122777089 50.164428164314302
19.871424662641786 -247.190784472026223 50.162078766883077
-12.339321598432258 -247.430438466871493 51.311765045053058
-12.682446931476528 -248.911570960356300 53.660504083747796
-0.205934707175709 -250.659493934618553 52.972375229811121
12.014156040986871 -249.753973242855835 51.295772529753322
18.453179315689763 -249.731988038675524 50.473742598774081
22.102768502209845 -248.013456278923059 51.446634714609580
-13.557165400982916 -251.130258828045754 49.939357678062187
8.352285892444112 -249.241290339896324 50.314441899493325
21.128886142023738 -250.129924306312574 52.314427836420002
3.350945302233702 -250.158972049316759 51.309590216236096
18.467751103267204 -250.632665282891793 51.252392826908292
-11.022813228544777 -249.820345640717534 53.541666731382186
21.548283844906688 -251.961509942047229 49.956702716498413
-11.444914245939213 -251.411952950633349 50.766142940718915
-10.084889347496341 -249.715261366501835 51.930333515393968
-1.100308565198108 -253.003877143755972 53.728296878858416
3.857117385957726 -251.646208827875995 50.641993702872192
10.113077325143259 -254.436206121847363 52.128365045773194
17.077882476907785 -251.567356053741662 50.533468855827842
-13.055665070314733 -252.409624423196533 51.248969793278278
2.802781098691011 -252.171124133928231 51.228624146171661
9.983535476908383 -253.819558563124787 52.183660676453165
13.171246698223721 -251.367802664392570 52.541310149217431
22.593433028759325 -251.849122392631955 50.373041931315775
-8.682325326432949 -250.394367874143001 49.824331593691895
7.117278840720229 -248.709876202912000 50.471776401337571
13.095813935868003 -252.814473359020525 52.066274150839696
21.590558406711800 -253.931813461132407 51.690132783301678
16.074007289190121 -251.964934844697268 50.251704128864340
-10.660672681390356 -252.507559677122913 50.831869596288492
-6.913566109504869 -253.750946351035282 52.011011957393904
4.682440734322865 -254.351388857659146 49.604487349722270
9.425601940422826 -253.478292553781301 51.540793613362069
14.818037379406022 -253.599861688984873 52.616606970063565
-11.000458286329557 -254.714324234647563 48.509386291974380
-2.174247933885491 -252.920844126133915 51.566441794295777
12.009335331518670 -251.517421012978645 50.412679208038114
19.342023433925995 -253.118272943318345 50.144356496778769
19.855567382877641 -254.910636871439436 49.744740061935666
-7.061105779787309 -256.144677488151387 51.403263086672496
1.540860762663826 -254.302186209807189 51.366207746894851
10.269024257989994 -255.478118361412669 51.168228624764190
11.069422248788689 -253.038304738627858 50.454557405581802
19.737192029436297 -255.973893360019986 50.119859481225944
-4.081568326200994 -253.394108122222974 51.673186135120865
-3.647555177723369 -253.588614841619119 51.971868163164238
1.947745445778283 -255.540870409646004 52.105548014964008
6.915047016292188 -255.255863983067115 50.741861533444123
10.853170527013456 -256.941274696898915 50.224138409206041
14.136320520114058 -254.435679882530451 54.434548694423725
20.472923314464282 -252.726013447106396 51.986513282862667
11.585140569328106 -253.831059633440191 54.866481805409087
-7.906419916076654 -257.806057832682086 53.395824459602004
-0.667601818046141 -254.633597238782357 51.784453996247962
1.094289752796743 -254.106355164783338 50.515271253218778
2.657005025616110 -256.832787532084353 48.204207249103703
16.727986200345427 -254.538965292569173 51.293119440960744
23.266895033318139 -255.559033465453638 51.836644345662776
10.212380965162669 -256.282463480157219 50.965507658068312
9.088628696624802 -254.274894150427116 52.524782981645536
-4.353447222782210 -256.454026903002443 48.855445348259181
-1.240687206815323 -257.850320958323664 48.634675505882406
0.120185745361761 -255.994483668587748 51.539706901875697
15.706430105274883 -255.933155537927007 50.269692829491760
17.982445590277262 -256.234498657671850 51.183151781699685
-6.359232297659215 -257.375138454251726 48.820734840014374
9.806842208440065 -258.295124651101162 50.237896936939222
13.064032049293314 -259.204120943445560 50.623818160809186
-0.155489940905265 -258.394601308875224 52.293918726800442
17.543284267078313 -258.307218027844044 51.113263157742736
19.967652297079070 -258.540394694787437 50.795774241736389
18.286702571473022 -259.146813194681215 50.673135510425467
-7.668120865508861 -258.138188747689014 51.866683808492603
-3.735993130614479 -258.404215610286485 50.672665637815818
2.623233036701181 -258.596798449172752 50.788586789509544
14.761250112243097 -257.352690771532025 50.651969687886350
14.749299151737315 -259.385037158630155 52.413155847177215
15.884956017777906 -259.600022244049967 53.028807253531639
25.479643031704999 -258.746068365664712 52.461060881708818
-5.235644421429665 -258.571769381132583 49.163572327300173
0.347594477036333 -259.677137913137130 50.070076046169127
7.552535122422456 -259.219775020930115 52.362078780285763
11.347388472698450 -259.126060987960216 50.217808996009126
15.306729481724870 -258.560722169637756 47.572591371494532
-6.727376450727091 -256.799177409724962 50.823535054421562
7.762247202957230 -261.900893490610201 48.573717693840507
8.537208783118158 -262.066825523127875 50.684167942650419
19.209886217576273 -264.190464122988203 52.276440128695299
20.349244157473365 -260.075044514419176 51.568948681915522
2.613585724598717 -260.508406637189069 50.811095016277044
6.005731024782326 -257.428778617829153 49.764001355028014
10.575957986854874 -258.692543633499724 50.930857802846873
21.854205920386693 -260.617455327356367 53.710662373536294
19.533576637577998 -259.939284272438329 53.135391513125754
21.505479091879806 -259.677184319303137 50.137834901924606
1.225299129024525 -258.907297532739108 52.653185706103507
2.485962717735746 -259.558898344160582 54.493448059465322
9.838659690160121 -260.730453757424584 51.086882808735382
19.258345455787303 -263.242506801462525 55.239372664425652
7.478584688065617 -260.026360026088412 50.416107444162307
-5.646145205357999 -261.638990676103447 50.425497637422609
1.785768196454153 -263.108460565934024 51.150926394002120
16.668810457715217 -259.267626133928047 52.436161033107162
20.718561457091269 -262.414487009904462 49.509953184149033
8.511561666910151 -262.642992424004490 50.555915814825575
15.158987749444940 -262.428646896827672 53.597406626802993
2.639999600165816 -264.140753248368640 53.213629622031945
-3.980391849546912 -261.417299334662687 54.030558284392768
4.204941074597941 -261.293609682270187 51.712763234848694
10.296371827070892 -262.885511864650596 49.966596817642433
15.533183113607336 -262.331426159908574 51.189843732109715
17.920275703539652 -261.619279756922879 52.464524297238057
1.866561319991525 -263.021946951883763 51.673494443114002
11.914389029999455 -261.991191587556784 51.945358733983639
-1.906611429997267 -263.324061472132882 52.744520330831783
9.841172379406968 -263.673260193484680 51.737560273238678
-1.428297753883645 -264.934640573505078 48.269735762510990
0.600800701140954 -264.703066670245050 47.047027393869726
6.528072668623558 -262.466244691398401 50.897281683907892
4.716747369364255 -264.692963694042703 50.192815508525250
11.258894824537059 -263.834131411850308 51.935254349592945
15.836361670899096 -265.036997651566423 50.646610781009784
9.205971705755967 -265.992903744294154 53.274347919986837
-1.371838955406439 -267.859220617190033 51.186246835071159
0.751912618430230 -263.640587174860627 50.336762205471757
18.750396551145851 -266.614603803915372 52.256476057034412
11.686646124440552 -265.038251605270943 51.723810261406051
15.001444905738230 -265.077135792027605 48.960458175893955
5.673449841361476 -266.606225387528525 51.771940596720661
6.398568685301634 -266.820469113322986 52.085015596964553
17.930694077161082 -268.130598915906887 51.673365737014180
-0.927877550009585 -269.094766869767909 52.190316592610202
15.322050192327360 -265.154703699039260 52.447331965697721
10.191608639470198 -269.935109093987137 49.677249062909134
13.715272402750543 -268.662236309412435 50.373111613581443
18.177896074171571 -266.851954312116675 49.524054612966758
4.718892372211977 -268.132108361358860 53.636896599102933
7.886711822540749 -269.841374546128066 51.813155793804853
14.375453175764637 -265.713477059480908 54.320266575923625
2.460506738101716 -266.546339992629441 52.195712733836054
9.565835498995808 -269.709834815124850 53.172791362604364
5.883040483570161 -271.752737825779377 50.496931205099763
9.026160110682548 -270.163732158310950 50.511562294797834
10.701322650984322 -268.734530141496805 49.718128586150094
7.665711220594770 -272.209504712310149 50.113895040994606
15.774080977887685 -271.043062148099580 50.633218336546335
14.162572130856336 -271.024031181174223 50.700397080642006
6.562428065879545 -271.340824837213859 53.054090257088731
10.533911988348661 -270.908649275139339 51.242517605898648
3.360584773676829 -269.230199952406963 51.449246592085032
8.319412215723620 -270.664989053998625 52.944139996401354
8.853075045500914 -270.599184608206315 52.985742674679933
-73.639110295311696 -41.795542069720803 49.735664139780226
-73.432293214791940 -44.185489559976666 50.188026789252852
-67.812477066196323 -42.155672298899930 49.335246549025115
-65.921307424295762 -41.785235528961579 48.450690756632945
-64.266800084604895 -44.049741012803750 49.557056274837215
-77.686257807864848 -43.428164801676800 48.152633369318458
-80.494414248733420 -42.222390312607729 47.825422972024462
-61.371248580543067 -43.512099855473927 49.136652412169489
-80.175456456785980 -44.106376733908121 52.847799685168518
-56.564560351816553 -42.860632718739822 50.226708253494110
-83.902371549675749 -45.155358382029625 51.936327613592091
-87.765733483874982 -46.281715851520715 52.501940766349179
-41.694719290079838 -48.052985900020865 48.618482510318536
-41.074441276299027 -50.052205986419779 49.053795664515945
-60.024999345003245 -48.954632398448467 47.932046691018684
-37.831371406578882 -48.333857287528851 49.475826558701932
-36.070055430841840 -52.571262443727598 49.777883535518143
-30.944873839728277 -49.686149616273404 50.180592707387127
-60.337492197369613 -51.346617335539030 48.581821121851341
-14.080677919843598 -52.557314411284402 52.065105942454103
-24.321878610411417 -50.178432228468687 51.426661921120491
-10.473114147765322 -50.670462273411218 48.819208531003220
-61.098053845495436 -53.577431769031982 51.209045124699458
-62.175640921338541 -55.842274907153559 49.639206998621695
77.945623837191278 -54.428470955323810 47.105656929812085
76.312564524646419 -54.779442725528632 49.022124830708741
75.152701945590067 -57.563858944537387 46.801221215337648
-59.554878989853819 -58.033038981171991 51.181427347588382
71.034445411118611 -56.013227821880484 51.726775725089553
73.978291605685897 -56.763440681121359 51.178495925570438
70.948067109169699 -56.115753228358059 50.633747183785033
76.092910924822618 -55.420440433659785 53.931058175043304
78.932891877278138 -56.674088793966902 48.253223630311069
81.320955231965343 -56.577157294414484 50.581001669926650
-94.497714468243032 -56.987796859148425 50.944501255955757
-7.353846132875597 -56.221680276951446 51.268874837399302
89.812325941357116 -57.737261985937920 52.148799168514870
91.591462223345246 -57.217995698174320 49.128925224835932
-94.002501568810075 -54.395525113082755 47.919480339428830
-60.654297039971297 -54.473237307131662 50.392699233552754
70.079681662532380 -58.580852546107081 49.480177291666806
78.488336910753645 -57.681564404049546 47.050580048131636
74.511801942875991 -57.202139650589423 50.681127221771817
72.612566556334741 -58.742026067160282 50.836291568026674
81.594319600656050 -59.148862264905695 49.808809602361755
83.516268687121809 -58.406507686196129 47.857465222542537
-63.993008774504446 -57.172779101882050 49.075675798368074
-16.142194713370401 -59.349042845692189 51.008237460735884
68.433631333050954 -58.634180995540866 48.923057237662228
85.030340158941712 -58.803920538830972 50.015408707893712
82.447047545776499 -59.693739310769743 50.293811370617554
83.746078651066611 -61.289511704413975 51.087654728132215
-17.939250585207912 -57.315834890576092 48.856024516685416
-18.073510266667771 -58.019094726642869 52.187253252225780
81.958892211516684 -60.326317444733469 51.699898499092392
83.969864337666507 -57.029754103465557 50.375566677442322
82.198812412180928 -57.903154354723824 52.201975581018282
68.981186456552194 -59.449681005407818 49.452781109709420
-23.414173536954085 -60.494445091323527 51.883831842970324
-27.623149419891035 -61.301869464063984 50.530662248266353
96.063057159927709 -59.687364686831103 48.781895443706034
-64.504485890202616 -61.220011776057781 50.710886179346396
-26.383579840652729 -60.726417294670981 52.007176272878269
68.959805786432511 -60.812938070499392 49.392458111591004
95.482128857985956 -61.959435387369432 50.262776880014670
-62.427508199048489 -60.169054004280149 51.915907123502905
-29.275217862095424 -60.667216526434267 52.395889981287809
67.125100596027778 -60.481198903258971 48.740783937256289
75.188122948273374 -60.643045717899270 50.083726199761259
