# This PCD file was generated using the MATLAB® pcwrite function
# from Computer Vision Toolbox®.
# .PCD v.7 - Point Cloud Data file format
VERSION .7
FIELDS x y z
SIZE 4 4 4
TYPE F F F
COUNT 1 1 1
WIDTH 1414
HEIGHT 1
VIEWPOINT 0 0 0 1 0 0 0
POINTS 1414
DATA ascii
-34.453072 -78.693665 -207.239792
-41.379475 -73.776909 -207.641373
-43.598717 -78.279655 -194.879120
101.052086 -80.408638 -204.829514
-19.086988 -76.308281 -204.851913
-152.773682 -73.548256 -201.902573
11.113492 -75.423096 -212.194321
-72.813110 -79.758446 -205.505447
-145.839981 -75.863007 -212.073425
96.197060 -75.497406 -213.439911
-35.974869 -77.599564 -209.303879
-26.603670 -76.023994 -219.547165
5.021223 -78.694702 -214.190872
-73.102921 -76.059608 -214.578232
-28.036308 -76.228951 -211.238571
-9.162772 -80.889297 -220.755295
-81.239685 -80.668091 -219.469727
-14.551536 -80.656097 -222.367386
8.457370 -76.307068 -218.952026
16.483122 -84.258102 -225.035049
-147.221954 -77.239014 -219.029663
-5.204474 -74.367790 -219.291656
-92.796135 -73.251801 -224.309357
-24.036074 -72.798828 -221.366074
93.357323 -78.402214 -216.596848
5.227407 -78.987946 -232.428864
13.707095 -81.340950 -218.652161
77.858894 -70.045029 -226.057907
1.627764 -75.730240 -229.435883
84.494965 -74.844299 -225.639343
-17.380455 -76.032631 -226.227325
11.708214 -79.203697 -226.873291
-150.531921 -78.860840 -226.520004
-19.492970 -84.905510 -230.191971
0.231680 -81.586220 -230.117294
-152.605118 -79.627579 -229.730316
-135.043671 -77.469254 -228.187485
9.823897 -75.406570 -230.892151
-7.435099 -76.141220 -244.122040
-139.436996 -77.516113 -233.154739
-150.010544 -80.885452 -236.188232
-146.391129 -74.060356 -239.823532
-26.897717 -77.349144 -237.534409
-145.965256 -74.950081 -246.134705
17.527464 -75.692413 -243.275101
5.549719 -77.502884 -247.753571
-154.141083 -74.022614 -237.526184
-153.854385 -76.448235 -243.637299
-46.996655 -77.011139 -242.316742
-34.721626 -80.623428 -247.906601
4.900060 -78.909523 -253.083817
-36.758469 -74.494148 -250.002121
22.650887 -78.703682 -255.058334
-3.764846 -77.955986 -248.306702
-156.081238 -74.465553 -253.647095
-6.821373 -69.772499 -250.543579
-142.581848 -78.451981 -253.831223
-67.958809 -77.376129 -253.105072
-155.673355 -83.267357 -259.281464
-127.953903 -79.431984 -264.164856
-151.877823 -72.437080 -260.887878
-13.893541 -74.259140 -270.254120
-147.021378 -78.463432 -265.536896
-150.971420 -76.591904 -264.681122
-12.585708 -78.673630 -271.118744
-150.511612 -77.455803 -268.664154
-7.093120 -79.323318 -286.941254
-46.112518 -78.144554 -283.254700
-140.719101 -78.176491 -286.441528
-135.295807 -72.804558 -282.187439
-127.727570 -75.338661 -284.835022
-57.139095 -74.713921 -281.828094
-116.257645 -75.145897 -291.883209
13.218233 -82.121422 -293.236938
-64.786263 -75.448914 -288.647186
-143.543976 -72.982391 -288.068817
-64.764648 -72.154739 -288.912842
-145.838043 -81.821571 -291.645569
-121.580696 -74.524673 -286.223846
-49.414436 -74.942093 -294.287231
-42.450657 -76.180649 -293.330811
-136.736832 -75.838264 -291.419647
-14.238132 -71.027107 -295.830261
-3.839934 -79.412987 -295.595184
5.952622 -75.775963 -294.472839
10.853014 -75.335625 -297.056122
-150.417801 -80.544884 -296.721222
-147.815109 -73.775002 -299.378571
-69.164032 -76.427338 -65.173027
88.742165 -79.529381 -82.775108
81.185921 -80.273453 -80.648178
-25.651743 -83.776749 -77.305511
87.075409 -77.915855 -78.181259
-37.813332 -76.501122 -83.771652
91.823448 -83.709801 -82.459175
90.862976 -83.345230 -84.644829
-69.463646 -75.242676 -95.679146
80.103409 -78.830879 -94.662949
81.235222 -76.102074 -102.175194
93.588966 -77.901382 -94.327263
54.874699 -79.234894 -95.876663
-78.370888 -83.918404 -103.363052
-82.719429 -74.325127 -101.304749
50.961697 -78.022385 -113.763000
-91.566788 -81.959084 -111.356903
44.537827 -78.566750 -119.197403
111.984856 -77.534798 -120.248024
108.415825 -75.274170 -136.225296
25.308212 -73.769691 -141.479309
113.534180 -83.261841 -135.249924
28.365311 -75.963928 -137.485901
110.581161 -79.694206 -137.003738
32.900520 -82.358360 -141.764465
-52.571293 -81.042374 -153.432632
35.333328 -78.064957 -144.378860
112.383553 -76.593712 -141.929489
-50.518543 -78.618546 -151.977097
29.146400 -82.408623 -149.704468
-55.011635 -78.256287 -136.958176
-56.010048 -84.151031 -150.829254
-52.890491 -74.096451 -153.501266
-66.879166 -80.290344 -157.935242
111.805328 -76.548676 -152.749527
-51.376766 -76.573219 -154.385147
18.922861 -80.137550 -162.895370
109.071846 -82.462845 -162.251953
-68.363075 -80.907516 -157.825836
-49.075584 -76.171661 -159.588211
6.617617 -76.578178 -160.823853
-63.928329 -73.904831 -159.649246
-59.655910 -78.779129 -164.877335
-1.442588 -85.786842 -164.324768
-45.522057 -80.777245 -174.377792
26.437893 -74.629395 -168.209427
-67.380226 -77.138069 -164.944565
-50.768757 -72.603188 -170.845932
22.303658 -76.959831 -166.119080
-31.085941 -82.678238 -178.240372
-33.389397 -72.034370 -170.362991
13.628491 -74.863678 -179.634003
-39.135612 -81.932938 -179.026871
-8.354000 -76.643623 -177.730621
-64.749664 -76.744667 -172.893921
-6.649068 -78.150200 -173.984985
-23.991428 -82.918694 -181.033630
18.073828 -79.664635 -186.465485
-37.199398 -75.944054 -179.034103
16.584599 -78.291862 -182.015320
-18.376535 -77.369522 -188.972534
-33.947811 -77.676903 -183.123901
-146.516479 -70.099205 -187.690002
-25.743244 -77.086151 -188.877945
-146.769180 -74.413223 -193.684036
-153.349365 -77.036263 -189.283554
-46.800034 -80.484085 -191.481583
101.083557 -80.214661 -198.400803
-146.766190 -75.299057 -192.820557
-152.767868 -77.400772 -198.972855
18.937742 -77.339020 -199.495438
-135.934128 -72.988182 -195.842926
21.525494 -71.019196 -200.887299
-141.219925 -72.534569 -203.387146
9.526546 -77.594582 -198.849274
-138.436523 -74.570938 -203.317596
6.417954 -74.758881 -208.862411
-150.521973 -75.679642 -202.051636
90.126701 -73.014908 -208.273102
-15.122777 -74.387299 -209.871429
-27.685698 -74.724350 -208.811829
-11.257943 -81.522781 -206.100693
-150.837692 -79.377739 -210.644302
-42.132347 -79.346130 -209.961761
-84.345604 -74.967690 -211.594727
-31.405289 -77.290115 -215.631393
16.723845 -71.517677 -212.089630
-147.347626 -77.201424 -208.531342
-88.057571 -75.652344 -215.276093
-26.125969 -76.313591 -217.777374
-26.873791 -71.684616 -223.872635
-16.260056 -73.983696 -220.242569
-26.269644 -75.521980 -218.497665
-80.656914 -77.145775 -221.506454
-85.203026 -77.663025 -224.956696
-23.073843 -77.488312 -226.272552
-7.214080 -74.494644 -225.019882
-148.895508 -72.772110 -217.004364
-3.603667 -73.285736 -220.828781
81.149307 -74.209068 -229.739334
-145.681671 -80.099045 -229.676270
-7.431180 -74.790886 -226.501938
-144.999420 -76.094330 -232.115097
-151.527969 -83.698654 -226.678818
-7.509900 -75.649696 -232.018082
20.151251 -76.518311 -224.666397
-142.225693 -75.586693 -229.095673
-15.737318 -75.592773 -234.891586
74.668373 -77.117142 -231.555344
80.198715 -77.093498 -240.584137
7.185880 -73.044350 -234.813126
-26.563566 -73.447861 -245.961441
-22.094097 -76.093414 -236.752792
6.797652 -74.800262 -247.552597
-48.289429 -71.432266 -245.214203
-27.949598 -77.002365 -251.089447
6.621513 -76.901947 -247.959259
-66.256020 -75.521652 -252.551361
-31.985954 -72.919693 -251.551254
-45.238361 -74.456718 -246.081100
-152.151794 -74.205887 -244.340958
-51.310326 -76.833473 -251.890152
-55.993271 -75.543770 -248.779099
-66.413101 -81.351700 -252.892700
-7.731016 -72.039276 -252.860031
-85.882378 -72.330978 -254.811905
-150.136932 -80.883057 -259.717743
-139.639893 -83.235855 -260.330597
-126.774445 -70.664597 -263.322174
-155.924911 -72.514252 -262.895294
17.712151 -74.165253 -264.440033
-11.959660 -74.716911 -272.045105
-154.048004 -75.497124 -266.663544
-153.696381 -73.963226 -275.510498
-143.654755 -77.343300 -281.771332
-58.456436 -78.323624 -287.579498
-37.946201 -73.236237 -290.570190
-26.316719 -74.354546 -295.838837
-15.753886 -74.790901 -289.972076
-68.673103 -74.609276 -286.857086
-78.873909 -73.118088 -288.174652
-7.700702 -77.215332 -292.270294
9.502938 -76.729012 -294.375458
-135.585556 -77.195366 -290.735626
-78.961624 -71.828941 -291.287872
-149.583954 -74.514465 -293.267853
-95.019981 -72.882729 -291.470612
-70.847153 -71.787888 -292.064026
-85.897675 -76.893570 -292.164734
-65.954788 -77.537727 -292.073792
-23.101759 -74.531578 -297.648224
-3.955999 -72.878151 -294.085480
-157.488739 -75.475929 -295.507294
-146.990219 -76.464302 -298.465424
-146.764771 -74.093628 -304.102386
-156.230515 -73.460258 -309.195770
-58.340508 -77.378555 -58.549076
-46.768944 -75.626755 -55.760483
-42.127430 -75.220200 -56.347843
-75.557129 -83.310799 -60.848072
-30.133617 -78.207596 -61.544308
-27.728100 -77.822708 -81.144524
75.720177 -83.685883 -90.532166
81.133873 -80.058647 -90.795631
80.122978 -76.839363 -90.916016
97.267334 -82.381134 -95.478035
73.429932 -79.254875 -96.211029
57.424049 -79.729805 -98.164177
45.042370 -78.206863 -105.642799
-65.179398 -81.437904 -105.293129
-72.947029 -75.410789 -100.942291
44.614979 -75.488380 -106.733360
-83.765984 -79.098709 -110.498558
-91.682663 -72.960548 -112.985069
49.284306 -75.523094 -106.697861
105.173172 -75.925941 -117.857323
34.048252 -78.981499 -125.172531
45.137184 -81.813896 -120.401733
43.933769 -79.295670 -126.962212
28.897083 -77.875603 -130.309082
109.861824 -76.705460 -121.607018
32.868340 -80.447128 -128.810822
31.318892 -76.533218 -133.463608
-42.081146 -73.114204 -144.933456
-69.753876 -78.274643 -150.654892
-52.507782 -75.438553 -152.513702
-71.189331 -76.318771 -143.883347
-41.475342 -77.935013 -151.826477
109.491089 -74.574730 -155.875717
-71.771385 -76.597595 -154.922516
21.810535 -83.250443 -155.915497
32.380322 -72.233986 -154.459915
114.282074 -74.217232 -158.388519
7.350554 -73.288414 -159.521622
33.321449 -74.584457 -160.531494
-58.735340 -76.934135 -162.367706
-47.841671 -80.100082 -173.565582
18.678366 -76.534225 -168.108719
-67.892273 -74.255943 -169.743073
-64.732422 -72.174019 -161.895142
110.865921 -80.084686 -169.916306
-11.971076 -71.257370 -170.770096
-56.779629 -79.814766 -179.105942
-31.298828 -74.410881 -176.401306
-55.435497 -75.799652 -174.646591
30.236500 -82.396011 -173.127090
109.947670 -70.281418 -172.267136
108.473969 -80.585281 -185.849335
114.062965 -79.260056 -196.517883
107.392403 -77.914894 -178.203659
-59.531330 -77.208015 -193.671112
-53.221489 -74.634468 -183.515228
22.682713 -76.801094 -187.752197
-52.764091 -69.268204 -188.163681
-23.579775 -73.416733 -189.704468
-51.149509 -73.585236 -194.086914
-145.032852 -77.797546 -198.050903
99.133568 -73.519241 -196.492126
-46.641472 -75.601044 -193.158997
-14.922570 -78.093895 -198.189804
-138.431778 -75.862091 -203.678329
-45.151371 -78.138496 -197.746246
105.497597 -83.689392 -198.316360
107.535019 -77.549271 -193.884552
-48.269432 -78.450905 -200.295670
-23.852427 -75.159546 -197.921402
-150.751495 -81.574013 -201.988846
-28.163433 -73.807640 -204.015503
-153.106354 -78.730698 -199.006165
-153.498917 -76.410706 -203.766251
-142.340347 -75.947525 -202.320313
-38.239666 -75.181038 -199.330841
102.155449 -78.710365 -205.248154
-39.096069 -74.666405 -203.985977
-144.885880 -78.701019 -202.728958
-38.690220 -76.170616 -211.918762
-19.513208 -77.960495 -213.262115
92.970444 -77.326538 -208.211777
94.002853 -76.771370 -211.249405
-27.835651 -77.665321 -219.174545
-88.734459 -79.056183 -214.195313
-71.426842 -77.076874 -214.271362
-19.256838 -76.769829 -220.986298
-151.242126 -71.664627 -215.163361
84.731476 -78.603065 -221.262589
86.359612 -72.763832 -226.189835
87.077965 -78.869156 -222.843521
-101.716278 -68.660667 -225.260681
-147.608658 -76.970108 -225.886551
-19.253260 -81.752708 -222.181351
79.923637 -74.047264 -228.187622
-146.270172 -83.108910 -227.026184
-34.147911 -75.052658 -224.425415
-134.037247 -68.507339 -234.550079
-12.962418 -77.374969 -230.147247
18.752911 -74.867783 -223.168350
14.184856 -74.466759 -238.718109
-157.788910 -79.049820 -236.100815
-124.011459 -71.632393 -232.974655
-9.657643 -75.475769 -235.676895
0.077554 -72.877342 -243.336639
65.461807 -78.103180 -239.582672
67.010788 -74.591736 -240.664932
0.130924 -76.599457 -244.376389
18.845686 -76.230072 -240.861923
-25.419861 -73.804802 -245.025803
-41.095688 -78.845619 -249.272842
-48.941460 -78.374603 -238.589523
-42.747215 -77.940964 -245.689636
-20.531500 -78.342117 -247.790726
-56.215393 -72.079163 -243.378281
4.181972 -74.832962 -248.171738
-73.150200 -69.605965 -248.759399
13.416166 -72.401985 -248.526154
-147.665390 -77.269844 -250.010056
-70.427330 -79.742165 -254.362930
10.029983 -77.322609 -251.766296
-166.551102 -74.705933 -251.761200
16.134060 -73.073967 -253.069443
-85.222389 -76.953072 -255.706528
-75.696159 -71.341270 -253.340271
21.965549 -74.664536 -260.814331
-89.686493 -72.732430 -259.318481
-132.189041 -76.081589 -256.861664
-138.366974 -76.371002 -259.077820
-135.775589 -75.422417 -259.918915
-144.246643 -72.573349 -260.653473
-140.819687 -78.032211 -257.407013
-137.662842 -72.785698 -264.556152
-159.674576 -75.885399 -258.854767
-129.945969 -70.952438 -265.249268
-136.250687 -71.948799 -259.759247
-163.668259 -78.159355 -268.041962
-156.138031 -74.769753 -265.046753
-151.057129 -73.940880 -267.856598
-147.302048 -79.742897 -266.388824
12.280932 -83.636810 -285.432678
-165.414063 -77.845451 -269.297028
-156.674362 -70.490105 -277.809753
-7.161089 -74.409546 -279.737183
-161.730225 -74.887711 -268.491516
13.607975 -79.008652 -284.131042
-154.703339 -72.976456 -284.118683
-162.615753 -70.958618 -293.253113
-153.879089 -70.829369 -282.467896
-170.363678 -66.825745 -282.398499
0.972341 -73.124931 -291.809143
9.651344 -79.474869 -285.931396
-98.792068 -67.178726 -288.198273
-153.470322 -75.744934 -289.864563
-149.513199 -75.007324 -285.179993
-112.288673 -70.547806 -293.326416
-151.593079 -72.541306 -292.521454
-151.248764 -72.765083 -295.600586
-69.858704 -73.544472 -292.515106
-163.419113 -76.996155 -294.142059
-122.498344 -76.364136 -290.016724
-44.641533 -79.021057 -294.435974
-154.269562 -71.166763 -294.070251
-143.435944 -73.829643 -292.810455
-19.800972 -77.705299 -295.352936
-127.948563 -72.168861 -299.946960
0.753729 -74.948746 -294.124329
10.072647 -77.193489 -292.900452
-134.557068 -73.051208 -297.213074
-146.561600 -71.987854 -296.247223
-157.631638 -70.615547 -309.852631
-70.480667 -77.107063 -51.676929
-24.386690 -76.953659 -64.331352
-21.897968 -78.757942 -68.622810
75.299324 -76.788620 -77.459595
90.967819 -77.195618 -80.179321
-36.566277 -72.131714 -81.567368
81.074394 -79.963890 -79.426392
87.823601 -81.728592 -84.355171
72.941200 -77.720589 -84.173386
69.550629 -75.024559 -93.102219
-45.109138 -80.761978 -87.486687
-93.927574 -75.241264 -92.963463
58.785244 -79.419571 -95.798004
48.411308 -79.496445 -100.804764
96.996872 -73.179703 -102.281258
-93.975281 -73.488991 -105.883400
85.027184 -76.807281 -100.394424
83.442940 -77.263901 -104.276123
91.059082 -79.014488 -99.507950
82.635559 -73.017189 -107.870735
94.235840 -76.242088 -104.899857
-83.349991 -82.768394 -104.460968
41.698292 -81.522942 -114.378052
103.708138 -78.218910 -117.518578
113.043648 -73.272697 -114.215744
46.573105 -76.203972 -121.249290
109.906944 -73.318100 -129.445709
114.685905 -78.904472 -139.994553
-51.951744 -74.882256 -133.037766
30.678118 -78.003395 -136.461777
33.818619 -81.759277 -131.539368
21.478994 -73.795219 -146.170471
114.329010 -76.415268 -142.803513
110.524803 -78.153236 -138.425476
-74.632210 -77.822357 -151.589996
-48.725883 -78.422340 -151.487701
-73.614975 -73.558975 -151.262527
20.144312 -79.192444 -155.736115
111.121407 -74.903938 -158.689377
-55.407047 -76.665161 -155.100616
-70.848167 -75.234200 -152.031906
-41.177292 -80.685364 -159.280502
36.842171 -76.372772 -153.767838
109.119972 -77.925400 -161.198944
117.683464 -78.397354 -161.344193
-69.380417 -75.878891 -153.899841
-73.318832 -77.130310 -166.511612
19.434551 -80.554405 -166.335678
-57.570679 -79.517387 -164.878479
-30.867607 -84.753853 -166.845596
6.849551 -74.346519 -167.551941
111.393456 -79.009293 -171.004944
5.788538 -75.597633 -168.786240
-37.768932 -77.098434 -170.015884
-1.413559 -73.362900 -167.459900
103.755806 -74.707863 -179.519257
-42.441372 -69.536453 -177.673386
29.550747 -73.067055 -172.708160
112.167526 -74.243454 -175.198502
-51.786892 -75.009666 -182.402725
-28.712585 -78.440567 -172.982559
98.836266 -79.672943 -178.565475
32.830372 -79.239029 -175.979095
115.420837 -72.778473 -180.873291
-38.952827 -78.739151 -174.017578
106.292130 -74.146515 -185.345245
-58.045460 -75.113312 -180.972763
-24.546991 -75.480171 -178.784531
-143.395935 -74.811401 -183.368118
-55.256004 -75.530510 -187.793045
-147.293991 -73.265640 -185.048111
-32.945316 -75.174164 -189.630005
20.628614 -74.853424 -190.559784
110.898781 -71.610344 -186.030579
-30.841612 -75.222649 -194.095688
12.996173 -77.568939 -196.119446
16.161314 -75.750458 -202.421814
-149.890625 -71.415573 -194.917496
101.713638 -79.857147 -202.592010
-19.381845 -72.212257 -197.409470
105.139946 -71.109528 -196.066330
15.446977 -74.556030 -193.075363
-131.198975 -73.466820 -204.311707
-145.106384 -72.780136 -198.794434
93.798302 -68.910728 -203.469345
-12.234941 -74.237015 -203.447342
-16.437962 -78.009583 -199.725525
11.934795 -75.823318 -206.909302
-147.324249 -73.665573 -208.077988
-148.170013 -75.656929 -208.447968
100.040932 -81.465942 -210.133514
-75.348236 -76.759537 -212.815521
-37.159134 -72.779366 -204.303604
20.265446 -74.074150 -214.021576
-24.168066 -78.530815 -212.824066
-79.286385 -72.493385 -216.027084
92.573387 -74.547516 -211.219116
-82.709023 -70.691536 -217.388611
-148.334320 -74.923035 -220.757263
-79.326790 -77.039932 -219.028351
-16.464352 -75.812920 -215.229370
-22.840046 -76.864349 -220.704163
22.627808 -73.065750 -214.669098
-6.231175 -73.339767 -214.793259
-81.630157 -74.145828 -222.023315
90.297188 -75.630516 -218.981140
-95.051010 -76.368462 -216.447769
-146.452744 -81.376862 -227.358276
-12.801920 -77.004684 -220.821304
15.818289 -75.169861 -219.035767
-104.780487 -72.551338 -221.106567
8.728538 -77.334167 -222.653412
-27.718302 -78.342133 -218.530853
81.856133 -77.614342 -228.913040
-146.765137 -73.050301 -221.387482
7.295376 -71.948624 -229.306381
-6.626532 -75.641769 -224.480026
16.128328 -70.905258 -224.077576
84.591217 -72.341301 -231.105316
-14.144526 -75.774162 -229.245178
-130.012085 -78.128944 -230.203171
-7.957740 -79.405647 -228.415237
16.126904 -73.594269 -237.695557
-126.866379 -73.136848 -224.329147
-151.179886 -75.715195 -231.618362
-140.415817 -74.534592 -230.730865
-132.145432 -73.460945 -230.978241
-11.124032 -74.284248 -230.251083
70.805878 -74.532005 -233.767334
-142.196014 -75.047272 -238.105331
71.435722 -73.007462 -230.875000
-16.036726 -77.208801 -228.916153
-143.138290 -79.842461 -233.729279
76.105904 -79.249237 -237.601639
13.589509 -78.983421 -240.076752
-142.959473 -70.694984 -238.531021
-150.070053 -74.486687 -238.741318
11.696592 -69.485680 -238.131989
-3.146659 -75.444023 -242.247574
-24.577560 -71.638809 -247.034790
-6.008208 -73.863243 -243.430832
-162.964432 -75.283287 -238.176697
8.857242 -74.303909 -248.873856
-164.318253 -72.395836 -236.106140
-18.014936 -73.468987 -235.019913
67.425484 -76.216621 -243.194199
-8.839355 -72.952789 -244.282654
-26.763651 -74.666840 -241.997681
-27.278748 -71.409500 -244.296875
-15.931596 -71.307503 -248.737595
-144.166306 -72.303108 -237.185257
8.532771 -77.351074 -247.210358
64.227013 -78.253586 -244.488388
10.625559 -75.485611 -247.111404
-163.306580 -72.378998 -240.879181
-48.474606 -77.256546 -247.150116
5.342542 -78.168983 -251.470642
16.683126 -69.197517 -253.702438
-59.459152 -73.745117 -253.190002
-4.297926 -73.557709 -245.614838
19.719751 -77.256302 -255.034744
-166.857483 -73.179199 -247.037308
-73.030411 -76.938705 -256.177368
-53.995686 -71.352089 -250.193344
-80.856110 -72.168686 -250.184967
-162.939224 -72.197868 -243.906509
-153.239517 -73.964897 -252.680634
-60.431309 -70.006752 -256.141113
-69.872078 -79.647186 -253.238464
-155.531723 -71.701752 -253.944458
-153.650848 -70.921501 -250.612717
-78.909630 -73.544403 -252.882462
-93.437431 -69.428436 -253.802734
-164.087082 -74.778488 -252.687332
-155.687698 -72.628159 -253.425476
-136.063492 -69.494537 -258.798615
-82.672371 -76.661507 -254.954910
-164.885880 -69.399315 -255.455307
-148.386276 -77.902344 -258.105682
-93.782883 -73.550758 -256.448334
-101.564232 -67.153282 -261.614929
-150.129227 -71.537918 -260.180420
-98.246704 -72.727005 -264.399017
-152.864807 -72.089783 -255.201065
-101.354279 -75.270264 -257.490875
-168.209625 -77.130676 -257.477356
-163.599258 -78.377785 -259.150085
-123.879234 -71.303352 -257.933838
-149.804596 -77.514816 -259.818146
-109.891167 -71.788567 -261.476135
-15.673735 -79.044220 -263.711487
-144.144409 -71.491287 -262.796906
-127.234978 -72.282692 -263.266327
-157.508575 -72.177429 -266.210022
20.037672 -75.064781 -271.334167
-153.600861 -70.237556 -283.990479
-169.711594 -70.379440 -280.670807
-6.822412 -78.902580 -285.745422
-150.412094 -75.111267 -281.291748
-8.065961 -72.078751 -280.972595
13.657836 -73.579636 -289.584320
-134.821045 -70.453827 -288.935547
-71.275414 -76.508469 -284.301758
-41.162842 -72.125046 -285.083832
-116.996864 -70.085960 -290.123840
-92.086578 -72.415176 -295.772064
-92.091408 -71.692238 -297.156982
-49.922012 -77.305649 -291.243774
-116.574120 -68.405678 -294.409760
-109.633888 -73.227165 -294.112457
-33.527355 -76.048820 -294.300781
-117.210724 -74.097359 -291.005127
-127.319542 -75.225319 -291.308105
-146.112366 -75.014435 -295.960571
7.975393 -70.726875 -291.625153
13.421272 -75.209854 -296.876312
-157.664230 -72.315346 -295.831360
-156.430450 -71.815079 -305.057892
-147.668320 -74.617218 -312.192413
-152.173569 -68.577202 -309.687958
-153.842300 -75.649109 -314.798920
27.925177 -77.658264 -18.456049
27.116890 -75.821869 -24.905495
25.907415 -77.394806 -23.872458
29.506569 -77.946671 -43.634975
-51.382744 -70.117249 -57.069778
-63.038258 -74.727005 -54.861969
-38.158455 -75.722069 -55.342896
-80.230003 -77.689720 -62.263500
82.784035 -82.061035 -83.152496
-17.582792 -74.317177 -77.434731
91.829948 -80.428734 -72.349098
97.479507 -75.928391 -84.054939
-91.289528 -75.044304 -83.837669
75.994919 -73.217125 -80.340233
-39.551262 -79.698860 -87.629440
102.921432 -76.631882 -88.466034
-54.254539 -78.516907 -92.806847
52.225075 -75.800697 -92.117722
73.810059 -77.883606 -91.280258
58.291912 -80.496750 -98.555740
49.309631 -74.982307 -107.028595
69.520004 -79.018135 -98.782440
48.873657 -70.202927 -101.611565
102.769707 -76.831947 -107.278435
113.121956 -77.974945 -111.635162
78.318428 -73.052513 -104.679443
90.535362 -76.467461 -108.435890
102.679993 -74.722939 -105.222969
107.409676 -68.462936 -105.171913
40.899719 -82.630463 -110.864372
109.267990 -76.950645 -123.615662
115.399673 -78.454231 -125.935944
33.923004 -75.207962 -122.274895
41.126690 -77.312843 -122.702415
109.021759 -74.000908 -133.745575
39.284130 -79.724976 -130.088791
115.884094 -72.631218 -134.962906
111.067581 -74.990440 -131.327957
25.801125 -73.212914 -140.633942
-47.357540 -78.696869 -135.265442
-55.662621 -75.980576 -142.773956
115.250832 -74.358551 -137.605713
-73.769867 -77.802216 -145.503738
-74.518692 -73.820587 -141.159760
-57.929508 -77.687355 -142.687729
34.488811 -76.317207 -142.659302
106.638252 -73.906601 -152.025208
-63.814114 -76.465652 -147.589737
-44.175072 -71.143539 -147.010513
39.992428 -80.338776 -153.531799
-63.786667 -77.527519 -153.828003
113.936172 -69.841537 -148.667938
110.361221 -77.057709 -160.951614
111.831978 -77.500504 -153.072571
-37.864208 -74.767479 -158.537979
-65.248466 -74.727386 -159.554794
-69.417656 -67.422318 -155.538467
29.791119 -72.139946 -155.413605
0.103929 -77.541573 -166.972626
108.216431 -74.797890 -161.023193
109.367752 -71.126198 -159.957016
113.898476 -74.635452 -162.409241
-64.300430 -79.056648 -162.656265
-46.540756 -76.674416 -164.186951
4.738945 -77.290405 -172.646484
-24.805531 -72.264519 -176.318237
106.346848 -75.672424 -166.996338
-36.071548 -72.310730 -163.667877
110.680534 -77.424698 -172.853256
-41.218067 -72.401772 -174.351410
110.962608 -77.714935 -172.248779
-150.387421 -70.399452 -183.143600
-30.974533 -72.819084 -177.536789
-20.668880 -70.772064 -182.523239
30.214552 -79.434036 -178.989487
15.367661 -73.587608 -182.564377
23.189400 -76.174103 -185.329163
106.037407 -78.516884 -191.453552
-152.514755 -70.113350 -188.823410
-21.630919 -74.829834 -190.460938
104.932617 -74.375565 -182.656158
102.983765 -73.688789 -195.640320
104.884789 -75.709885 -184.985153
95.717438 -79.335808 -199.915817
-155.931961 -82.571632 -198.652634
97.905762 -79.908241 -207.494278
-32.430180 -73.796631 -198.439148
97.628120 -72.334740 -200.337936
-127.909348 -74.208328 -194.562744
-31.367893 -76.685760 -194.194290
-142.139511 -74.007370 -203.755768
90.696098 -73.921257 -203.319717
8.665738 -73.543854 -204.134750
23.321085 -76.851120 -199.323120
-149.892242 -75.011459 -200.687973
-138.523209 -71.081131 -207.975952
-15.664120 -75.448662 -209.067856
-126.033241 -79.925789 -205.386276
-147.439224 -76.306442 -203.074554
6.627431 -72.347542 -202.563065
-25.671509 -73.646194 -207.192368
17.960934 -73.598824 -210.476273
5.838300 -74.341995 -213.073212
85.894646 -74.775520 -216.518387
-25.361965 -67.315331 -214.226776
93.391792 -73.619743 -214.928268
100.186501 -74.860474 -211.356323
-144.933441 -69.037170 -220.277664
94.199654 -70.926842 -214.839371
5.658751 -70.396034 -212.392502
3.540309 -73.014572 -213.528885
-34.891544 -72.125893 -212.476334
-92.474884 -69.317749 -215.920029
-33.971695 -73.684059 -216.583694
83.717079 -75.554535 -220.309616
83.239243 -75.816849 -221.642288
-38.299782 -69.116257 -217.775238
-79.763855 -66.338638 -225.629913
-3.860330 -72.774292 -218.925034
87.802414 -75.268875 -222.169250
-148.426193 -75.671272 -222.764374
-170.035110 -74.779022 -213.246384
-159.180847 -72.087555 -221.518982
-20.468586 -76.131897 -231.268738
-153.045746 -76.264603 -225.098740
-8.164593 -79.639046 -230.989960
5.607783 -71.956062 -220.929749
-162.632385 -77.917526 -222.836929
-164.614792 -71.868912 -226.848404
77.134445 -73.630287 -234.082199
4.053256 -74.556107 -232.775543
-150.858063 -74.716011 -224.070908
-143.738617 -73.854897 -223.083481
-22.002142 -75.959084 -228.510132
2.622019 -74.720535 -226.480087
82.657806 -74.148109 -226.439636
-159.838867 -74.623962 -230.910553
-147.249359 -71.082085 -229.506638
-126.423759 -69.897881 -231.848038
80.920815 -77.534943 -234.885666
-116.244164 -68.952721 -233.510513
-147.196472 -75.488960 -230.681015
-153.955505 -77.262039 -230.696472
-147.936234 -72.769684 -228.707825
-153.187012 -69.185631 -231.336533
-167.506058 -68.967896 -237.426529
-137.754028 -72.281532 -237.203064
-136.620102 -71.743065 -234.762726
-156.492767 -72.512207 -230.295578
-146.416885 -71.444595 -233.406387
-153.002686 -69.112991 -234.758499
70.911568 -73.086426 -224.711685
67.102844 -70.113449 -242.855118
-162.073776 -70.919617 -240.157425
68.305946 -74.234154 -237.771545
-21.545185 -72.382858 -239.061478
8.134228 -73.512337 -242.146332
14.395516 -77.483429 -238.485748
-144.188766 -71.878883 -244.883514
14.843235 -73.078865 -246.549271
65.043175 -75.169807 -240.962234
9.606405 -72.419823 -238.967316
4.066627 -76.570343 -247.535065
-8.676156 -68.680168 -243.221817
-19.493401 -77.091751 -249.743896
-0.054231 -76.988998 -245.515091
1.868145 -71.469002 -244.648849
55.711281 -75.485909 -244.782684
-59.898533 -74.199142 -248.176132
17.484755 -74.214233 -253.056839
-59.419163 -71.661682 -247.862762
-8.442043 -72.545113 -252.632706
-65.215370 -70.106987 -255.568710
-85.713463 -78.785133 -253.586639
-82.452110 -76.932640 -254.335251
-17.743971 -72.020874 -254.764816
-125.558197 -76.613274 -262.699982
-16.401096 -68.826385 -258.892914
-123.550842 -71.940407 -257.593842
-119.103424 -68.704414 -260.281311
-105.085396 -76.916237 -259.516785
-143.789459 -70.939575 -261.729034
-147.499298 -70.005844 -268.064636
-168.370911 -68.878670 -266.189178
12.625583 -74.922920 -284.869202
-61.700493 -75.453552 -286.195251
-66.862442 -73.485596 -286.312714
-46.047386 -74.650093 -287.445038
-28.245163 -74.557045 -285.373199
-94.154549 -72.213524 -296.159821
-31.915661 -70.571838 -291.201111
-3.120540 -67.586304 -288.463348
-166.489456 -73.377243 -291.148376
-16.880907 -74.740860 -293.158844
6.203035 -68.418076 -293.120148
13.523705 -67.084442 -294.523407
-56.997009 -73.710350 -294.773071
-29.828413 -76.301056 -289.527100
14.251097 -70.026680 -293.156464
-69.506790 -73.872818 -296.472290
-39.331615 -71.836800 -293.141205
-18.033722 -71.344055 -294.634674
8.642509 -72.365227 -294.907440
-15.311744 -75.644882 -292.258179
4.754322 -70.461502 -295.821014
10.591542 -73.049637 -295.709869
-135.542694 -74.731293 -292.269257
-142.362350 -73.355217 -303.718384
-151.414886 -75.882858 -312.123993
40.071953 -68.479240 -15.350846
31.693148 -76.169289 -12.241926
41.356869 -76.572784 -18.371536
22.152588 -76.450050 -24.646681
43.372211 -76.428513 -29.123554
22.438976 -73.643349 -22.872057
25.045023 -80.371521 -33.685284
23.312851 -78.743736 -39.355846
43.482044 -72.987267 -37.223911
28.014675 -75.262840 -41.575321
40.877766 -76.579254 -35.492950
34.790195 -72.814545 -40.698551
32.057983 -76.455452 -43.863693
33.566933 -73.972504 -44.946232
44.806522 -75.854271 -47.415043
35.156853 -71.309052 -48.212978
-37.331169 -70.609657 -58.633762
-28.561264 -70.897041 -47.394886
-88.048347 -73.356194 -58.025578
-85.994225 -77.422745 -66.034721
81.745232 -75.922844 -70.465050
82.986855 -76.456245 -74.785690
-14.284620 -77.767136 -78.310684
-84.333832 -77.054794 -73.552429
-23.354950 -74.864799 -82.354507
-48.884472 -79.881073 -92.572342
63.764229 -75.108925 -88.999832
56.096127 -71.598289 -94.761597
97.333801 -76.458931 -91.837463
75.420868 -77.997940 -99.227325
-63.070648 -78.801216 -94.612923
-64.279869 -72.818085 -98.270622
45.056072 -75.840797 -100.206314
72.453918 -81.236656 -104.657608
51.056145 -79.454155 -105.057549
102.371590 -79.271591 -101.563660
-88.786484 -75.438835 -109.132500
40.048271 -81.622505 -113.672401
107.948563 -73.216705 -112.341873
46.592178 -71.701210 -113.880112
104.191879 -72.695641 -111.072342
-83.331215 -73.132904 -116.953056
36.277882 -73.222366 -119.909920
111.153351 -77.685112 -123.284126
102.067322 -75.112663 -120.794220
107.640480 -78.818573 -119.141075
110.303841 -80.477936 -120.041153
33.426804 -76.337677 -118.250168
33.615215 -79.778404 -121.847931
44.519619 -74.687660 -116.205795
110.166054 -75.754517 -128.304962
41.192127 -73.212952 -127.481201
111.176544 -77.434662 -136.550034
115.085693 -73.403343 -132.769958
32.837006 -73.941223 -123.847855
-76.885643 -77.416046 -127.612534
117.349380 -80.010414 -140.185455
-59.742592 -80.480736 -144.144302
34.093552 -76.795715 -139.677338
-73.748138 -74.330338 -141.752518
29.629427 -73.025063 -138.159348
-72.632889 -76.584824 -144.163391
-42.980522 -77.261345 -150.916321
-72.660568 -78.438721 -137.772263
110.372879 -69.458351 -142.103424
117.304451 -76.400864 -144.595673
123.966499 -75.201416 -150.578613
-71.859848 -76.191742 -147.310196
8.776155 -73.475479 -153.285507
-57.956520 -72.105057 -156.228256
-46.544678 -77.485359 -155.949417
109.020866 -72.623306 -163.542175
-39.403587 -77.372192 -154.114029
10.595250 -72.234940 -164.061951
22.616909 -72.975723 -162.946762
113.222809 -75.894897 -168.143143
32.293766 -69.953056 -163.187439
-2.659955 -78.932610 -162.274948
31.276140 -73.513718 -166.678131
-69.019173 -67.481026 -160.460037
-62.015064 -72.092896 -161.002502
-66.562431 -72.445732 -164.692139
112.287811 -73.621300 -165.634552
-46.142891 -71.076965 -166.114258
17.048027 -79.231071 -174.390503
-63.003490 -76.934525 -176.602951
-59.985531 -76.685204 -176.479950
-43.061413 -76.324280 -165.001251
-36.976883 -67.019989 -169.557220
113.350929 -69.950714 -178.564682
-34.943024 -74.979225 -176.837036
16.159126 -73.574379 -173.444275
106.386871 -79.509384 -194.301346
-152.748032 -76.067459 -178.320923
-143.133301 -74.735374 -175.816376
-152.034683 -71.947601 -178.784058
-144.289673 -69.226685 -182.084763
-27.194210 -71.782074 -183.840775
-25.226479 -72.896210 -187.183823
22.664452 -70.133583 -193.844009
-141.847061 -72.980812 -188.575867
-144.410690 -71.287926 -185.106567
-22.737656 -65.563751 -189.596893
14.181677 -78.231819 -185.437759
-141.041748 -73.960831 -194.049423
-35.880344 -78.045723 -184.203735
101.400734 -77.662315 -193.451538
106.827423 -72.119453 -198.218292
20.362175 -73.570442 -192.636475
-20.961208 -78.835754 -192.788162
-25.459698 -77.369469 -200.876709
-148.014862 -69.308739 -198.210617
-134.781052 -71.571861 -200.150330
-123.315742 -71.859863 -196.125183
-124.347679 -75.632278 -199.238953
-18.515713 -72.525177 -197.825699
11.351940 -76.382713 -196.080383
93.629219 -69.569656 -203.702759
-146.775742 -73.516731 -197.009277
-146.805176 -69.715942 -203.792145
-146.939499 -66.781281 -199.716751
-156.038971 -68.047333 -202.152939
-29.500954 -72.392944 -203.397186
-14.153629 -79.349213 -196.697647
-144.823654 -65.984886 -197.240311
-19.428419 -76.555191 -198.503326
-163.693588 -73.706100 -200.725311
-131.676865 -72.919441 -200.660583
11.175560 -70.208275 -212.605026
-162.774826 -71.199188 -203.974243
-144.176208 -74.579475 -204.133316
10.584344 -75.641800 -204.057083
-156.284012 -75.646828 -207.625885
-23.727972 -74.835030 -204.022705
102.375946 -74.099510 -203.855347
-154.180084 -72.321091 -215.729401
-163.578308 -73.236473 -214.534439
-80.191536 -70.640167 -215.773117
91.740112 -73.474419 -213.753952
-4.488482 -73.229057 -215.780670
-154.059433 -72.519218 -212.037033
-90.070953 -67.103790 -217.754318
-6.638213 -73.342056 -212.213638
14.602204 -70.558121 -225.142975
-144.525543 -73.826218 -219.872391
-3.481302 -75.168327 -222.531097
-16.367149 -67.712990 -222.458252
-19.879265 -69.149246 -221.324554
86.446938 -74.830635 -218.761887
-22.849861 -68.619980 -217.455948
-29.301838 -73.263794 -220.743393
-104.085861 -72.213928 -222.984756
-15.697071 -72.228813 -228.128799
88.912994 -72.375008 -222.612717
80.755417 -72.292068 -222.132004
6.363823 -77.417320 -227.485596
-13.293872 -72.051109 -229.056824
78.287376 -80.995354 -226.046356
-128.861008 -72.085571 -224.414459
-24.441183 -74.999466 -224.226471
-103.048965 -70.155106 -227.199280
-107.921280 -74.832581 -230.638794
-134.959412 -70.632156 -229.393723
77.854126 -74.214729 -227.415268
-127.487068 -74.286133 -229.775620
0.650648 -72.332077 -233.103409
73.343559 -73.428764 -227.207886
-15.771451 -74.180168 -232.712631
-9.931489 -74.423714 -233.074966
-6.330135 -71.226425 -235.412964
6.702535 -73.971939 -232.933182
82.267174 -73.742104 -229.179443
14.388211 -73.727661 -235.366043
1.764708 -74.312508 -234.701141
-6.335937 -75.174011 -228.616226
-6.771949 -70.719559 -236.772720
14.987718 -71.227074 -235.329437
-10.340106 -70.105255 -238.036621
72.983376 -72.602821 -239.915054
-9.313786 -70.296349 -237.099686
21.070492 -73.416908 -232.409500
-162.712921 -68.106094 -244.365738
-6.106461 -72.416580 -245.287216
-11.137130 -71.965012 -243.947174
-168.172043 -69.785583 -259.152039
-10.601093 -73.714912 -246.747131
17.896729 -75.384888 -246.629623
-148.503067 -74.772118 -253.099792
-68.162811 -71.863792 -250.674988
-59.020920 -70.174706 -251.026199
53.345982 -71.471153 -251.078491
-78.023872 -72.575096 -248.392929
13.848412 -72.882637 -248.539352
-77.901962 -72.893394 -253.087906
-19.552547 -73.033989 -250.435822
-150.408630 -72.959595 -256.390015
47.221535 -70.610855 -252.148590
-84.014305 -68.445862 -251.084824
-97.244095 -72.442307 -257.707092
-96.946350 -78.170097 -254.819122
-124.306831 -72.419777 -260.875488
-109.695404 -69.403244 -258.953979
-108.620262 -69.476280 -261.848358
16.602226 -72.210701 -261.826874
-130.121582 -68.024002 -267.948151
-9.956179 -75.074051 -279.946930
-147.873672 -74.339600 -283.935425
-170.495804 -69.921631 -283.856384
-129.240692 -71.814835 -289.519104
-117.373131 -73.150818 -282.360107
-80.731560 -67.050804 -289.895813
-57.671677 -66.265602 -292.006439
-46.003059 -70.458382 -288.908051
-14.724304 -70.362617 -292.343719
-12.457020 -70.086174 -290.610260
-36.661198 -72.288094 -292.284454
-36.060406 -70.553131 -290.153046
-21.660191 -68.190147 -295.175537
-74.512428 -73.467079 -294.638794
-55.699017 -68.168312 -296.857361
-14.788352 -66.929939 -293.866119
-16.298647 -71.535065 -293.969727
-6.287673 -70.605988 -294.669373
1.972746 -67.099617 -298.233124
-89.094322 -70.127411 -287.658203
-147.975891 -68.631401 -289.715485
-119.129036 -71.816208 -297.673492
-155.364304 -74.416862 -303.553192
-156.869446 -71.681725 -300.405975
-145.396103 -70.575859 -304.741974
47.083714 -78.374321 -28.412106
19.144537 -75.733543 -27.437469
51.212116 -77.921112 -29.393839
49.900166 -79.530319 -36.559597
87.107735 -70.948730 -71.017731
98.051300 -73.315247 -79.268875
97.693619 -74.000031 -84.402412
96.307442 -73.406891 -91.862190
51.003044 -75.109673 -91.006828
50.742584 -75.127075 -95.600029
61.268230 -72.543419 -95.929001
-64.517311 -70.119507 -94.748985
72.546852 -76.120598 -93.969666
103.204758 -73.764915 -96.483498
74.150154 -78.293320 -103.400467
94.379372 -71.398804 -100.406052
-80.846550 -75.502029 -103.532600
46.165039 -74.958984 -107.500420
-87.563393 -77.112587 -111.244995
50.586700 -75.904884 -116.572578
42.412140 -70.472420 -109.462631
103.081490 -77.301872 -109.774193
40.500374 -71.452988 -111.869934
41.320923 -76.959114 -118.399048
41.418522 -71.248756 -119.439148
104.100136 -69.588417 -121.257408
-81.005180 -72.680565 -121.814171
113.547462 -76.720474 -126.083885
39.257015 -68.893562 -121.267731
43.938599 -75.261597 -120.232681
33.260315 -75.245399 -123.560165
-55.215389 -72.831253 -133.676437
29.752562 -72.744942 -125.402985
-77.860001 -75.082520 -138.846863
-59.953423 -72.714302 -136.484787
-76.373703 -71.414032 -133.452911
34.214928 -73.489311 -130.079437
-56.175713 -71.658783 -134.563522
39.057224 -74.003029 -135.707687
-76.214073 -73.727615 -140.816437
-57.445980 -76.128853 -142.861649
28.973228 -72.839035 -141.777451
111.532867 -77.900040 -150.048584
118.862183 -74.626045 -141.984146
33.487122 -72.923538 -143.546463
-47.654793 -70.929123 -146.437073
109.096252 -73.482567 -161.765121
-73.417793 -72.694305 -150.577637
-50.336620 -75.130768 -141.206924
34.471661 -77.808350 -155.021423
-70.131607 -74.626312 -145.795319
-70.175377 -75.294441 -148.256454
117.038200 -70.097832 -151.404129
-63.434402 -71.494835 -150.918839
-40.579884 -71.676941 -153.105331
30.872269 -68.665245 -155.630035
-75.639381 -72.400192 -150.620193
8.358423 -75.516441 -162.058853
33.865433 -70.087090 -159.220306
25.993044 -74.379036 -153.925369
6.583447 -77.407257 -158.158340
-47.955116 -70.691513 -155.765182
24.862690 -73.201431 -154.761536
-47.451614 -75.142990 -151.911377
6.320297 -75.503639 -153.272903
20.814842 -74.626076 -151.314224
-72.606102 -76.835701 -155.359924
-45.034203 -73.307068 -157.384933
-70.971878 -69.914452 -163.377670
11.007606 -66.539330 -167.332001
19.450703 -74.297768 -149.007797
1.169865 -71.038971 -165.463531
21.884472 -69.782478 -157.914322
28.633804 -73.980110 -165.288605
-46.559254 -75.314903 -164.885925
-32.842361 -72.678322 -162.894562
-37.196552 -71.572182 -163.376511
30.219940 -74.593040 -166.430588
-46.017380 -72.868347 -168.002609
-43.309376 -73.511482 -164.794800
20.291929 -75.830109 -165.598862
-42.537605 -72.336105 -174.970551
32.222065 -70.217445 -176.474838
117.135666 -71.184448 -167.452194
-32.564384 -71.937706 -175.707001
105.415695 -70.450562 -173.795456
-33.801773 -69.084656 -180.040970
-38.901398 -73.457191 -181.908279
17.407206 -74.947548 -177.692383
102.541000 -70.269226 -182.289520
-29.236641 -71.849800 -185.223206
-31.265028 -66.517151 -176.303467
-22.747711 -75.152946 -189.043121
-146.550491 -76.819206 -188.970062
12.708692 -75.526627 -185.141922
106.155128 -71.411049 -197.273621
-159.214539 -71.461914 -195.202362
-26.257692 -72.873749 -192.815369
-115.563545 -69.389755 -196.186386
-131.406921 -72.315392 -198.819229
-108.052986 -69.494675 -203.632111
-110.793182 -67.533852 -201.055206
-16.571922 -68.703873 -201.807510
18.390223 -74.510933 -200.651962
-22.070374 -64.457481 -202.950089
-126.136734 -69.164536 -204.023651
-26.783455 -70.143600 -209.570435
-130.174011 -75.617485 -204.506409
-11.840436 -68.233513 -203.610291
-144.857956 -71.438278 -204.553925
89.823547 -71.913231 -213.130096
-165.717926 -71.422173 -204.782364
-0.942543 -73.748543 -216.136215
12.723902 -65.656853 -214.724152
8.207838 -67.382607 -218.998459
82.515671 -71.821236 -221.891830
2.749633 -67.775108 -219.106903
14.723377 -72.529816 -216.325500
-14.996974 -77.174576 -214.604813
-89.304955 -71.742699 -216.131088
-102.330200 -73.245148 -219.285706
-3.775722 -70.859764 -223.596191
-169.866882 -71.261536 -231.911926
11.079909 -69.341339 -221.922363
-143.497757 -72.668221 -224.213013
11.353511 -68.687813 -228.561508
-135.140442 -72.040543 -222.709564
-116.470253 -70.348717 -229.960754
19.003706 -65.966179 -227.522888
73.513855 -71.159843 -232.938614
2.813821 -68.938568 -228.302124
-115.977997 -73.595062 -222.457703
73.153923 -71.039619 -230.047089
78.197021 -73.821655 -234.820038
-123.021835 -71.746498 -231.758240
-120.921371 -73.528870 -233.965134
-11.991138 -70.964722 -233.873917
68.522812 -74.864098 -231.553192
66.346077 -69.875183 -239.164200
71.579491 -70.614845 -236.908142
-134.592072 -73.588661 -239.424118
68.023842 -77.149132 -237.269348
63.710384 -75.373718 -238.642914
-168.433716 -73.966965 -228.322769
-1.739686 -73.787483 -244.470535
14.189470 -70.469261 -248.028488
-4.330105 -73.895370 -245.416000
13.565449 -75.178825 -246.581879
68.097450 -73.502998 -243.814331
9.155727 -75.936028 -242.584045
-8.460958 -68.350510 -246.884171
-5.582503 -72.891739 -248.815079
65.311218 -71.101196 -248.607010
5.236632 -74.460945 -248.857666
-11.056123 -71.655357 -242.312515
13.922722 -73.979317 -249.788940
-166.421417 -65.565590 -241.963867
60.192184 -69.750130 -253.117950
51.580021 -70.877510 -254.902344
55.764771 -75.758934 -244.800110
-15.432927 -70.462173 -255.152878
52.963013 -75.326950 -248.631882
-75.073708 -73.428185 -250.700058
50.582867 -73.512444 -254.556702
-89.933304 -73.546188 -256.954468
-129.329269 -73.652336 -255.195038
-136.100937 -65.720673 -253.175262
50.281422 -69.897072 -260.445465
-139.119766 -67.853912 -258.236847
-107.028351 -78.606812 -253.994598
-112.779823 -69.930580 -259.554291
-85.761581 -71.970055 -252.892776
-113.845856 -72.784431 -264.957977
-126.241745 -67.409737 -267.412598
-145.714752 -70.341515 -267.034637
-13.505342 -73.131607 -262.875305
-173.996078 -69.185715 -268.210999
-10.557036 -74.867905 -273.842987
-159.372620 -64.862015 -266.515656
-156.011093 -66.447739 -273.168884
-170.496140 -64.038200 -274.403229
-13.777923 -68.106613 -278.888367
-134.994202 -70.534920 -284.582581
-158.699219 -66.353668 -289.407349
-144.528854 -69.460747 -283.128967
-137.961258 -72.709656 -285.821075
-10.604833 -71.416405 -283.721954
-125.509232 -75.060936 -284.168701
-143.349136 -70.867188 -287.012634
-115.517441 -68.329514 -286.783447
-79.649422 -67.836754 -292.079376
-63.257713 -71.112053 -285.050140
-6.813473 -71.742279 -290.948212
-51.264812 -72.162422 -292.359772
-63.723141 -72.640709 -289.310944
-71.085548 -68.329109 -293.139069
-88.644775 -71.390671 -298.044800
-106.538559 -64.204803 -289.976196
-160.960358 -69.489594 -291.624237
-157.181519 -68.596779 -289.639221
-128.478302 -72.370583 -298.454498
-146.646301 -69.719391 -294.263977
-159.177338 -67.811592 -299.915405
-148.877090 -69.913330 -318.418762
47.609486 -73.869255 -23.761198
20.844690 -83.219002 -28.712149
46.651188 -76.250076 -40.549583
-18.423084 -76.123596 -68.294815
81.424057 -73.663414 -70.100243
86.240150 -68.427948 -75.282303
76.970016 -72.877289 -76.588066
78.500336 -74.241531 -71.439323
97.751038 -75.940536 -77.707062
-95.584236 -76.135338 -75.203125
69.578979 -76.741280 -81.864838
-34.786674 -70.900314 -78.990005
99.622726 -75.462814 -90.849846
65.565407 -80.470627 -92.470093
110.998497 -73.696327 -94.726288
106.736656 -77.600838 -102.090775
72.343681 -76.564003 -100.420738
-77.915718 -74.601509 -101.012482
56.441010 -75.688927 -112.291786
108.524033 -75.673294 -109.722961
49.382641 -79.792053 -117.852959
85.858307 -74.988861 -105.519806
44.005184 -79.198837 -113.856682
106.970886 -72.095940 -103.677505
49.038364 -72.676079 -110.844055
112.417885 -77.373047 -116.787399
108.142044 -73.669365 -120.046455
-78.284561 -64.915413 -115.651588
-75.845833 -72.395943 -116.767281
43.117886 -73.770523 -121.343361
116.772873 -69.644630 -121.338264
116.533989 -71.051941 -125.845985
-80.072060 -72.505943 -128.049850
108.952362 -72.891647 -125.671524
-65.504318 -73.013863 -137.242401
-88.338570 -69.624306 -128.924866
-74.084557 -70.821884 -130.868103
-56.816425 -66.860947 -126.776428
36.229290 -72.330353 -133.466187
43.128323 -72.199982 -137.436081
-74.598778 -73.628426 -136.978760
28.839838 -70.679146 -133.131577
105.626884 -75.951820 -139.302704
-38.583431 -72.976593 -151.246689
25.769123 -71.832764 -148.592010
110.875725 -66.941483 -150.257324
35.692047 -74.991585 -147.344376
111.435028 -74.987144 -147.759796
-55.065235 -72.823090 -149.653412
-66.649330 -74.999847 -151.740601
-53.425880 -75.304405 -156.787109
-45.255989 -70.847557 -171.030045
1.627050 -70.317154 -156.194702
110.234192 -67.904755 -158.390594
107.850975 -71.101013 -165.159592
9.391336 -66.832489 -162.829239
1.055134 -71.331589 -162.916519
15.060189 -69.123589 -162.511322
20.786884 -71.312210 -151.920013
115.468895 -76.860023 -169.592224
106.558266 -74.770737 -176.893677
26.517101 -71.039398 -176.464249
27.173771 -70.993690 -167.388748
115.424660 -72.747925 -166.263229
-31.440317 -69.918282 -176.077667
112.485588 -70.800858 -174.915329
20.331882 -67.134956 -181.391373
16.072206 -74.894951 -168.155701
108.402901 -71.179443 -181.900360
23.352718 -72.359703 -173.085648
109.818855 -69.112122 -185.014359
-40.541111 -69.282036 -179.136612
27.171993 -68.624680 -174.920456
107.857964 -71.519485 -189.644104
24.048185 -69.600098 -179.982941
-153.629166 -66.792221 -181.748688
-32.810921 -71.639122 -190.581421
24.784777 -73.623672 -188.819656
-113.171585 -70.588074 -196.263672
-113.342598 -72.383156 -191.095261
21.030107 -67.956230 -195.672729
11.887071 -72.760391 -189.615891
-26.855953 -74.185608 -194.434128
-28.727615 -71.963448 -189.240509
-25.630466 -73.292961 -188.136246
20.751846 -75.137558 -181.691177
-153.656616 -69.893806 -194.152313
-146.906708 -72.610123 -201.247940
-141.990952 -70.202515 -194.100174
-18.746807 -67.551643 -194.200180
15.089548 -71.077652 -201.807236
98.411575 -73.404015 -200.188599
-116.457848 -69.984383 -204.655289
16.456240 -69.056793 -205.079285
-16.836123 -69.774658 -197.896164
-19.196091 -69.895729 -198.130768
96.022446 -71.260597 -205.276154
7.547875 -73.662682 -201.688339
-27.273228 -70.309029 -196.971268
-122.261612 -72.202965 -203.966599
-134.994431 -68.647369 -200.756409
-110.272949 -67.816925 -209.027893
-146.617508 -70.540298 -205.276566
20.476797 -72.929459 -200.399658
95.100494 -74.395470 -211.703262
-167.395950 -68.884491 -206.809601
100.771255 -72.274277 -207.249237
-16.698610 -70.655319 -213.216431
90.499039 -78.058357 -218.224579
90.218109 -68.717705 -222.114487
10.333273 -69.659981 -214.396622
14.309870 -71.690529 -213.440613
9.142237 -71.345825 -215.202179
-10.001479 -69.631844 -221.400116
-99.416992 -69.338211 -220.394928
-7.872034 -72.941376 -222.621109
90.909660 -70.272339 -217.873978
-92.967857 -72.990013 -223.331940
-102.853516 -72.911255 -222.701904
-95.948288 -68.799759 -221.287064
88.192184 -75.245003 -225.717789
-135.417175 -72.977280 -228.278259
-133.801743 -61.980465 -232.662033
-120.836029 -69.221588 -229.040802
-113.787071 -67.639557 -226.998169
-133.168823 -67.216759 -222.225388
-107.796471 -77.423027 -228.981125
-115.203979 -66.499420 -229.883057
-12.747301 -68.023430 -226.816315
-21.389353 -73.266396 -228.986038
-2.015245 -71.149925 -235.830643
-9.655076 -68.611961 -232.000214
14.728533 -72.801559 -234.931000
-19.459105 -71.955803 -229.892944
-162.076904 -70.478226 -224.706314
