# This PCD file was generated using the MATLAB® pcwrite function
# from Computer Vision Toolbox®.
# .PCD v.7 - Point Cloud Data file format
VERSION .7
FIELDS x y z
SIZE 4 4 4
TYPE F F F
COUNT 1 1 1
WIDTH 1458
HEIGHT 1
VIEWPOINT 0 0 0 1 0 0 0
POINTS 1458
DATA ascii
6.892479 236.041580 -69.253578
-5.939786 237.065674 -71.185509
-142.620865 235.940796 -68.772537
80.399300 236.800217 -69.966583
-12.841979 236.884125 -70.941757
-137.313126 236.276657 -69.533211
15.926414 236.130142 -69.687439
19.767857 239.887466 -71.287132
-140.068893 241.853882 -70.085213
4.748729 241.256836 -72.340271
-144.855759 244.951279 -69.483879
19.323442 247.641586 -72.623482
-151.269974 249.549683 -70.452484
-145.230911 253.961227 -68.165627
16.117210 252.414139 -67.158646
6.957842 250.758438 -70.158905
4.103974 255.866714 -68.617325
-34.997993 251.936050 -70.920097
22.202734 253.879715 -73.693359
-2.792453 258.231079 -69.225609
-72.082428 260.528168 -69.027542
-62.427399 258.075287 -71.780190
-75.717804 261.154785 -71.013062
-66.747032 260.494690 -71.804062
-147.426971 260.053955 -70.335304
-148.905579 261.607666 -72.391823
-126.991837 269.491974 -67.488937
-132.134567 273.601166 -67.618423
-125.748032 269.212402 -69.681389
-138.462463 273.238342 -71.283997
-149.326401 275.140320 -68.853645
19.718641 272.991211 -72.490326
-153.994995 283.758423 -72.065285
-2.892155 290.142273 -67.520821
-133.036804 296.094360 -70.205612
-125.054543 297.980530 -71.423409
6.415634 297.753540 -70.343613
-54.643627 295.254669 -68.405716
-8.938837 295.949493 -70.274925
-65.730797 296.561676 -71.626534
-1.735430 297.081818 -69.489319
-118.316917 298.409515 -71.378799
-76.424767 298.883179 -67.899826
-56.945370 298.655914 -67.558495
-68.940018 298.932404 -68.521347
-142.104614 301.773651 -69.505127
-126.914917 300.116119 -73.434158
-52.174129 302.249115 -69.534004
-147.113632 305.793213 -69.439903
-146.971573 307.512054 -69.149536
-54.095097 65.985924 -66.380577
-64.715614 63.083591 -68.380775
-39.610077 69.924904 -70.682350
-21.540466 79.329727 -70.435493
80.145683 84.315773 -71.344154
80.162399 85.807228 -73.185272
76.770584 88.065392 -71.778587
-44.982456 92.872704 -69.916321
72.751617 96.997269 -69.443710
-89.172806 100.084091 -69.971748
56.643372 102.121414 -68.608948
87.685181 103.398262 -70.291092
95.156425 106.946388 -70.845932
77.544121 108.072411 -69.032944
50.621834 109.146706 -66.291115
92.450943 105.740051 -68.315369
56.098694 109.185349 -67.120583
-84.390350 116.741425 -70.838028
36.614155 121.486984 -71.540092
48.626804 126.017830 -68.673241
37.930134 128.036987 -70.573181
106.583389 128.040192 -70.039787
29.063457 129.822052 -71.062889
110.983414 129.511887 -70.141914
111.711571 130.319000 -67.985641
33.237694 137.013489 -68.991737
116.194321 142.123688 -68.982620
-54.600601 148.788773 -67.464615
112.567970 150.049667 -70.944893
30.689392 153.137833 -67.611664
-48.673615 151.450104 -67.843910
-50.657833 148.157928 -70.223518
35.943012 148.729095 -67.934715
-70.292870 158.429916 -71.648964
-71.718216 156.869537 -68.470184
-50.557774 159.942429 -69.830254
-40.123924 162.935532 -69.086349
-40.212006 161.503922 -69.368401
118.770996 163.469986 -70.572823
31.500425 164.291809 -68.055786
-66.229546 161.831268 -68.527161
-69.400505 162.778137 -69.952682
19.365477 163.978821 -67.653923
22.874441 164.525528 -72.389198
8.059826 166.135910 -67.123619
109.674255 162.982040 -68.435951
30.946190 168.871460 -67.364594
13.362531 168.603226 -69.597733
-63.092762 170.110229 -69.732788
-0.645194 173.117340 -70.723526
28.443718 173.084488 -69.309349
-30.862350 175.106644 -66.434227
-31.848587 178.840134 -72.652534
-9.548037 178.787445 -69.509254
109.396896 180.256393 -69.450722
-2.945407 180.803589 -69.674599
-5.495441 178.207581 -69.343796
-57.846157 183.763184 -68.162094
18.170944 184.563553 -70.746025
104.563072 185.060913 -69.497963
107.502838 185.914017 -69.556831
-62.962112 188.128662 -70.596611
109.856903 186.977585 -68.613037
-48.880981 188.105789 -70.294228
26.648174 186.385971 -72.790871
109.876106 191.293747 -69.236580
108.430084 188.968307 -74.169640
-22.383871 190.568573 -71.607964
-146.272339 194.765305 -69.839912
-150.131241 193.775269 -72.113289
101.529053 199.144379 -70.686554
106.030327 197.623413 -69.503883
-30.020823 199.896759 -70.552078
-45.868477 199.211121 -70.962669
22.881800 199.182327 -69.813484
106.519417 195.226425 -69.731316
9.884027 199.401749 -68.964218
-19.776178 202.921478 -70.963860
109.213547 197.588516 -70.237045
-143.838318 201.494751 -70.236710
97.203110 204.152908 -71.003716
19.572186 204.007217 -69.793694
-134.890091 209.951126 -72.965485
101.744469 205.890198 -68.477463
-148.244095 207.790771 -67.512619
-43.743935 208.930267 -67.745827
-21.154268 207.971390 -67.558640
-138.014771 208.500732 -69.479698
99.536270 216.163025 -72.937393
94.216080 214.330933 -70.047928
-148.499954 217.638931 -68.504494
-21.085402 214.490555 -71.218979
-142.423172 219.014023 -65.154915
98.141335 217.079224 -68.632881
-8.724874 220.121048 -72.530670
94.839325 217.410614 -70.163734
4.992254 220.013641 -72.073250
11.742303 219.036758 -68.407425
-38.130741 218.427505 -71.077911
-76.791603 222.312088 -68.473389
-26.676510 221.632507 -73.270905
-148.293289 221.197891 -70.804520
-83.886032 222.554382 -70.835922
-148.063019 219.601486 -72.750931
-27.609304 223.380783 -69.261330
-23.070837 225.060501 -67.800362
-1.015085 224.312775 -66.693001
-91.357643 222.589996 -68.698395
-149.831711 227.981903 -67.305954
-96.294746 228.412811 -71.173378
12.555671 228.715515 -73.056839
-24.168060 229.323181 -69.152359
-18.611391 231.129364 -70.706192
-149.759460 230.079361 -69.323448
-148.396347 234.134033 -67.951691
-17.993940 236.606400 -68.294571
-7.033409 236.711731 -75.617188
2.350885 233.360580 -69.734856
-23.460825 232.579132 -68.825104
76.983643 233.933029 -69.294212
84.742065 238.062927 -65.899757
-13.501267 241.101624 -69.202995
7.157942 240.733994 -66.370575
-8.837921 240.122467 -68.176331
-2.870638 240.011856 -68.470345
-14.191003 251.173126 -69.300491
-32.377892 248.619858 -67.546814
-1.414060 249.035294 -70.186356
-35.386372 253.710068 -70.518959
-44.427109 252.604446 -71.322220
-19.847034 250.716202 -68.982834
6.638102 250.179749 -68.167320
-27.797937 255.332245 -71.807930
-57.682617 253.758469 -68.855438
-32.919426 253.621155 -66.918457
7.719148 254.044632 -67.686882
-38.535507 257.760437 -69.881485
11.494357 254.328049 -71.636574
-0.424283 250.446518 -72.029205
-42.473267 256.106476 -68.440117
-152.057770 255.953094 -70.132584
-146.033188 254.213242 -70.077744
-74.119377 255.590210 -70.782616
-58.542141 256.607056 -69.225060
18.922544 257.522644 -69.893967
-80.029564 264.221039 -69.057274
-65.571770 260.216522 -69.128471
-9.610356 261.359894 -70.497856
-84.096901 262.690582 -67.545052
-129.337463 264.593872 -69.699203
20.725248 268.904724 -69.760902
-133.185440 267.816559 -71.053337
-141.670044 269.296753 -67.026642
16.623865 287.306519 -68.700485
-162.546783 289.813293 -70.988937
-151.626389 291.960968 -69.909721
-147.193634 291.729858 -72.800232
-33.735863 295.578583 -70.531815
-151.609131 298.215515 -71.253227
-67.792488 297.627563 -70.570793
-24.259090 294.138763 -73.067749
-69.238205 298.547058 -70.812614
-166.244553 296.214172 -70.858437
-142.914444 295.982178 -72.150505
-146.688538 296.416473 -68.391853
3.690764 299.568573 -71.493774
-114.284714 299.156555 -70.075546
-136.923950 296.812469 -70.778427
-95.973938 297.438599 -69.425461
-73.193047 301.606934 -69.615074
-134.834961 300.586212 -70.974892
-82.745193 302.042755 -70.593132
-62.729748 302.523804 -68.516342
-41.466747 301.120026 -71.143478
-26.007029 301.564606 -69.717606
-6.236543 301.498322 -69.186958
6.098028 302.418671 -68.241241
-136.911697 303.448761 -68.143875
-128.329559 305.645081 -68.408417
16.146242 303.969727 -68.364990
-153.658264 312.381927 -69.048828
-154.751160 321.661743 -68.507439
-47.690941 57.747746 -67.534637
-72.825356 60.490250 -68.307602
-21.849194 72.615036 -67.974365
-20.273207 75.475883 -70.314583
89.668259 82.871254 -67.708397
-88.965111 80.902855 -69.562576
-26.737169 84.670792 -67.665398
84.445343 87.844521 -68.928955
73.816292 91.083992 -67.587166
-47.033836 91.776306 -67.926575
97.028542 94.682213 -66.862122
-92.898674 106.923912 -67.512787
75.478363 107.187958 -68.169807
51.977779 109.484276 -71.786819
-66.024742 109.684990 -67.787514
82.453445 110.278580 -67.041229
-78.762840 110.830597 -67.406227
107.886375 116.619278 -71.661301
48.547562 119.183105 -69.395035
35.550137 117.796234 -69.256821
109.041718 123.337372 -69.047241
-90.899727 123.219315 -68.249397
113.766434 124.169655 -69.081596
44.260895 128.539124 -67.027367
36.464462 129.259964 -70.554192
41.834892 129.706573 -70.690125
44.237885 134.512115 -70.002823
111.087341 139.661987 -67.879890
45.183044 140.784195 -69.790787
-53.353092 143.970932 -69.144844
-57.534927 146.466995 -68.299194
108.144928 149.437378 -71.077652
-74.818085 149.254990 -67.213295
-43.854729 154.201477 -66.045166
-69.519478 156.926468 -68.843964
33.401112 157.903549 -70.620476
108.839638 160.756531 -68.740425
-55.704945 162.674271 -67.508850
-63.506439 163.476669 -66.498085
-63.303764 165.216446 -70.494453
-49.007465 165.338440 -69.647430
114.067184 167.540634 -67.301575
108.406982 170.724258 -69.501175
19.560326 166.695450 -67.879234
116.532402 172.315170 -68.950157
-63.910179 169.651291 -69.159958
-59.367519 174.029358 -67.226669
-56.560638 173.412720 -69.233620
-69.013634 177.318085 -68.343864
-46.346058 176.212082 -68.715752
2.882428 180.988739 -67.049759
18.543060 177.500122 -67.065079
114.892723 179.969742 -66.897697
30.285273 180.519562 -63.578957
-55.853626 182.437668 -74.601326
17.294146 183.226471 -69.682297
-58.076813 188.010742 -67.781822
-50.938381 189.058228 -68.783119
12.906650 194.375076 -68.170052
16.281046 194.353607 -69.435318
-21.409607 192.019363 -71.642761
-30.772144 194.584900 -69.822922
25.340118 190.862106 -70.000511
23.687912 196.951538 -70.019531
-51.196831 195.191803 -67.503952
-145.055832 194.241913 -68.355621
-147.373108 199.743683 -70.631889
-30.479740 198.525909 -65.086075
-44.971981 199.921829 -68.401443
-149.804504 204.637314 -69.956703
25.809412 205.449600 -69.068398
18.161573 204.552216 -67.036606
-46.543140 208.295258 -71.684593
12.093124 205.905518 -70.645866
-139.134979 208.198441 -71.598442
91.753326 206.831055 -67.295372
-46.350170 209.150223 -68.254761
-138.223892 212.026489 -67.292267
-35.849930 214.894058 -69.935493
16.592445 214.298508 -65.662651
22.578079 218.494720 -67.859680
-3.823382 218.401871 -68.358177
-34.568886 218.247726 -68.649666
-14.918100 223.082382 -70.089973
-77.251686 223.930649 -68.288322
91.581841 222.334686 -68.935448
-88.266983 226.005219 -71.011940
16.699907 222.927170 -71.485321
86.621063 225.918732 -68.207413
89.898788 226.056763 -68.871605
-144.870605 227.660385 -69.184647
89.646271 229.139435 -69.545204
-16.232025 229.347519 -71.585007
-2.044946 229.470444 -67.924866
-99.636078 232.456589 -70.821815
-94.872070 228.219421 -71.003326
5.520423 232.311539 -68.194855
-27.214741 231.279587 -73.794411
-100.897942 233.645874 -67.540062
90.535492 235.776733 -68.929138
16.139635 232.798767 -71.799408
-19.388546 235.732132 -72.483353
83.464546 236.373505 -70.809418
0.938958 234.782242 -70.985352
81.761833 233.574936 -66.451241
-13.898968 237.099319 -71.526825
-12.327079 236.478180 -69.330307
-128.846634 234.550217 -66.969566
-124.936745 237.593262 -67.790382
14.249478 238.219299 -66.747871
-142.367538 241.597519 -69.736465
-7.838748 236.792038 -67.618477
-130.454956 241.028015 -66.335121
-122.271301 237.542572 -70.721680
5.138053 242.055176 -71.445740
69.400421 246.552933 -67.347641
-19.983654 246.121902 -66.116791
72.075539 244.939606 -70.497849
-165.688202 245.795883 -66.856628
65.084526 248.218704 -67.347458
4.162864 246.454163 -69.485832
62.778458 252.162552 -67.371910
-35.441860 249.307495 -69.225906
-25.302605 250.130432 -68.380013
-48.168221 254.462357 -67.067909
18.815668 258.130676 -67.753288
19.702862 254.482529 -69.478027
-157.297043 261.316620 -70.428581
-87.625740 260.579529 -70.241608
-93.183998 265.505798 -65.785980
-78.760857 265.319977 -65.816307
-94.097267 263.053894 -64.530083
-85.448570 264.889893 -69.183037
-132.741699 267.745209 -70.101334
-126.967934 271.350220 -68.975769
-163.015488 271.189392 -69.291748
-150.015335 270.478638 -69.462952
-140.122406 272.807983 -66.052574
-163.870529 271.730103 -69.044624
-150.022446 272.169983 -68.712662
-126.380318 271.800140 -70.277527
-152.857727 272.269867 -70.565308
-145.191406 278.183533 -70.897148
-160.744370 276.496857 -66.759636
-165.089905 276.095734 -68.543709
-150.704865 279.748749 -70.562119
-169.561707 284.670532 -68.105667
-150.062988 284.031769 -71.524574
-150.193863 288.870392 -69.978668
-151.292236 293.912750 -68.406868
-164.105011 293.951111 -67.911659
-125.588570 294.489899 -67.942284
-26.422842 293.821442 -67.457596
-44.671906 297.259491 -66.941261
-156.674118 293.402405 -70.036003
-7.798066 296.006805 -69.086250
-88.131348 294.442902 -69.128410
-98.150871 292.571899 -65.996696
-123.212196 298.156769 -66.499489
-111.531319 295.471893 -68.008659
-99.435226 299.164459 -68.021881
-153.068222 302.421875 -70.517342
14.466138 296.917847 -71.592957
-121.788528 301.135956 -67.879120
-109.410789 299.994507 -66.562622
-60.094093 299.002289 -70.134605
-100.922874 302.513733 -66.560638
-158.395767 304.852417 -71.279991
-15.749624 301.141418 -68.905418
-141.484177 302.495300 -65.236588
-129.082764 301.290161 -66.074318
-158.895416 304.659546 -68.441940
-152.861603 304.627991 -68.522011
-145.230804 305.279510 -72.063713
-153.999191 309.100281 -67.600594
-145.727325 310.950226 -70.931122
-145.719772 309.727112 -69.890160
-144.019043 318.246490 -67.438194
-147.205170 325.269836 -69.090454
-62.647671 60.800735 -64.562210
-53.298306 57.825836 -69.796158
-34.105343 62.573727 -65.113068
-29.120668 66.874931 -69.579437
90.908920 81.709129 -63.809258
74.676163 80.443420 -66.837151
69.311867 83.173523 -67.930733
-38.055378 89.331482 -66.829872
96.064613 89.383224 -70.903053
97.237091 94.806824 -68.301506
71.573334 92.576317 -65.963966
60.769451 99.962639 -67.066841
57.240162 102.773003 -66.696732
50.198494 106.303757 -67.961006
56.899906 106.644730 -69.530655
102.128342 107.126709 -67.263351
44.511627 109.206200 -68.986511
76.902916 107.488647 -65.951477
42.778778 108.876549 -68.165703
56.216263 112.260811 -66.853249
91.252464 109.115952 -69.848961
99.952614 112.132080 -69.226883
-94.415543 119.053284 -67.328003
39.679420 117.244217 -68.953110
-85.803268 124.757050 -68.950401
49.673447 129.913498 -67.940727
108.232903 133.894180 -64.222290
29.899538 134.781921 -68.015244
32.397675 132.719589 -69.083984
113.280037 136.915161 -69.307678
108.221085 139.569183 -67.547821
37.698406 140.371506 -66.981140
31.526249 140.422211 -68.041290
27.553005 143.172638 -66.612732
113.396568 143.201675 -66.798691
-71.763321 152.072098 -66.089355
-47.681992 149.967514 -64.809853
112.915970 153.701279 -66.624977
113.345993 150.553299 -68.069221
-46.556393 154.238739 -68.446457
-58.739052 152.551086 -72.377762
22.150297 156.583359 -67.404617
-74.169243 155.633301 -66.550522
34.993313 155.940628 -65.782028
-70.074112 161.490036 -67.552765
-73.520477 160.187408 -69.100082
-40.826977 160.328934 -67.980797
-36.147709 163.090698 -64.580101
11.575229 161.901978 -67.147575
114.164299 166.900696 -66.486008
116.178986 163.258759 -66.184151
22.560001 165.149948 -68.469788
12.395566 163.179169 -68.920280
32.234818 170.510849 -63.948952
-66.139664 167.140656 -68.306747
-32.674877 168.612289 -70.446190
7.674387 166.229370 -69.543030
22.884140 169.025665 -67.090843
33.764725 174.080475 -66.700890
-46.311413 174.107071 -69.668320
-3.928914 175.920578 -66.493561
106.790306 172.910660 -67.478004
-3.636015 177.642075 -66.409492
-67.383720 176.439270 -65.786469
110.446304 180.370956 -67.839272
-58.584473 184.837631 -64.968689
-27.796837 184.112030 -67.693672
-55.686874 184.169800 -69.058723
25.503162 185.487823 -67.671349
109.701004 185.294373 -73.108658
-22.113577 188.828140 -70.365234
-36.910873 186.740814 -67.657906
-38.346989 185.886169 -67.848320
-148.582809 189.498764 -65.572510
-53.695435 187.549377 -69.990814
107.190926 189.157150 -67.028015
-144.550598 191.375778 -65.626465
105.515076 192.916733 -70.228737
-16.822882 194.578964 -65.697250
110.562683 196.514450 -69.321609
-149.503372 198.014801 -67.178955
98.785233 200.254562 -68.234001
107.739922 196.076126 -66.551666
101.102646 201.926361 -68.465134
-18.486977 201.812714 -67.842659
8.357293 198.809998 -70.970390
-14.513897 208.263672 -68.878685
-133.203201 206.452850 -66.501213
-126.641579 207.866562 -67.852242
103.131966 208.625397 -66.095673
-131.456161 208.965088 -67.125671
102.812790 210.459320 -67.641785
-15.947750 216.426010 -68.986984
7.321080 212.024414 -68.444534
-39.224850 214.278763 -68.160629
91.099457 215.757233 -65.028557
94.654739 215.852325 -72.088524
6.215350 217.384308 -66.557152
104.513275 218.415314 -70.037201
93.989731 221.512558 -66.440262
-17.474447 224.255814 -66.405327
-84.906487 223.623077 -68.946564
-30.630812 226.084839 -61.564957
-25.111988 224.109940 -68.273499
91.124237 222.757935 -67.489120
-83.148308 225.917953 -66.308754
-145.640640 227.064270 -68.309998
-4.219426 226.690399 -64.778305
-87.363518 229.987061 -66.035149
-16.760916 230.803726 -63.993935
5.528586 226.550629 -68.553017
83.583466 228.877075 -69.371552
-20.638359 230.996323 -67.094803
-148.379425 233.413788 -65.559784
-13.027442 231.074829 -65.263275
14.070678 233.277344 -66.542191
79.888191 231.231323 -68.035881
-162.019608 236.202820 -68.240723
78.412262 232.894592 -68.071411
-131.186859 237.091003 -66.070892
-24.946932 234.564713 -67.902626
7.713919 235.764328 -66.256660
-137.785995 236.696243 -69.022552
-146.328354 238.643036 -70.020767
70.821701 239.207535 -68.740929
-140.171539 239.539993 -65.619667
-133.863892 241.911896 -65.872459
-152.252945 240.375000 -67.819000
76.595535 243.958191 -66.386520
-134.243622 244.716278 -66.362137
-125.936165 243.197983 -67.954247
9.822589 244.952789 -69.098106
-12.786154 245.299713 -67.803909
-157.335571 242.765182 -64.796677
-151.844055 250.203384 -66.314194
17.532698 247.699860 -66.693787
-162.185120 246.678711 -68.621040
-1.668578 241.577240 -65.673828
-4.330622 245.310104 -69.106949
-143.458359 245.414291 -69.741447
63.268204 249.562454 -67.557938
-29.017992 251.498734 -70.797417
-153.249588 248.621628 -67.548866
-155.411942 250.370804 -68.029427
-166.004120 251.655472 -71.257454
11.430024 250.616882 -68.256256
-6.594566 251.217209 -65.669373
19.746906 252.677399 -69.591011
-58.553207 255.117249 -65.222626
-49.344406 259.088013 -69.323746
9.795274 256.230011 -68.649460
60.829937 256.185944 -67.929832
-46.483871 256.093811 -67.437965
1.065592 257.746582 -69.667854
-152.370483 253.247192 -68.597160
-67.518906 256.850708 -68.391876
18.600731 256.491760 -66.278618
-150.831055 254.918808 -70.670601
-161.293716 257.659088 -66.318138
17.077425 258.231903 -68.448784
-164.055618 259.142578 -66.373787
-147.886917 265.453186 -68.602257
-154.203262 262.852264 -68.729515
-162.436890 261.951630 -71.187309
-130.686600 265.408936 -63.331738
-14.701787 262.389282 -69.392639
-155.269348 264.155914 -64.453827
-117.888596 265.043182 -67.962440
-96.990585 266.688019 -68.243553
-120.896057 265.711700 -66.652962
-103.409660 267.075958 -67.860023
-97.388481 264.019226 -68.465775
-93.490211 269.188171 -68.961464
-147.852951 269.487610 -65.537025
-116.805573 270.054932 -68.453659
-148.319351 267.728119 -72.053673
-114.307350 273.007050 -66.973312
-16.263342 270.398254 -68.194916
-155.381851 269.821259 -69.833633
-140.234344 272.782501 -66.962173
-164.772369 278.483063 -68.264946
-10.180659 284.766510 -71.149246
-167.987778 293.948395 -68.595825
-136.001694 296.763214 -68.682610
-74.982170 292.902313 -68.653137
-29.833057 296.259583 -69.753746
-27.063244 298.229797 -66.799667
-116.132652 296.034668 -67.383087
-3.509421 298.866180 -68.788467
8.608258 295.119965 -66.620796
14.656723 302.499176 -68.987831
-46.721420 301.088928 -69.238800
-73.941734 301.541962 -67.532875
-112.328979 303.003235 -71.157219
-18.731253 301.438293 -69.602516
-14.001817 300.717712 -70.434189
-124.828606 303.296692 -67.841850
-1.064155 304.760590 -67.260422
16.801970 301.203186 -68.896591
8.969193 304.543396 -70.633186
-161.670624 305.644287 -67.863785
26.852850 26.670248 -66.218239
29.615299 28.313719 -68.119850
28.626522 30.294281 -68.916527
23.443098 36.182632 -64.565781
24.439020 34.894447 -67.675468
20.836470 35.754856 -66.542084
24.200211 42.705330 -67.198471
43.744968 44.999363 -65.933876
25.965574 45.090855 -65.793015
34.629326 46.973644 -67.361359
38.070488 50.223568 -68.293938
31.881376 51.420979 -65.713531
-80.981766 71.181656 -63.226345
-21.611000 67.974167 -67.011505
-86.856354 78.143341 -67.208588
-21.747860 77.139954 -65.843040
72.601860 83.385231 -65.971809
-29.250772 86.780975 -70.513237
-46.049809 94.039177 -66.620956
97.459488 93.870750 -67.967705
97.979019 106.377907 -66.752846
62.062538 105.819977 -68.208313
48.815334 108.905563 -66.501381
52.664089 111.327202 -69.772369
-74.191307 105.161118 -66.437370
94.736679 108.404678 -66.478386
-71.703377 109.183708 -65.931847
-76.054924 110.139610 -67.508675
78.837601 114.218559 -64.211670
54.082962 114.326920 -67.861595
38.807537 117.207588 -69.452972
51.370953 119.718208 -65.704971
110.197357 122.709007 -66.936279
40.606922 124.092194 -70.765625
-93.403343 128.758148 -64.235023
113.004585 127.490211 -67.874863
110.388550 130.319199 -69.340675
47.750317 129.936813 -63.950867
39.144577 135.752029 -69.084404
107.072525 137.131989 -68.077248
-52.159546 143.168961 -63.451824
114.058884 140.446213 -67.477005
-75.456444 143.559097 -66.297714
116.906395 146.972076 -67.708038
-45.971340 147.444000 -70.088310
111.923134 144.009827 -68.816574
38.995815 148.167709 -63.904060
-42.373009 153.004990 -67.362221
114.092834 154.172913 -66.535774
-65.162643 156.001678 -65.564217
27.440102 155.136276 -69.437752
-55.613670 155.289993 -67.272614
-70.536591 157.222656 -66.441154
33.907253 159.307343 -65.890434
107.546974 160.805206 -65.987091
-66.245720 162.250824 -67.850868
6.952487 161.430420 -67.027351
13.153651 164.296585 -69.451141
111.056198 161.831421 -68.518997
-51.907780 164.288284 -64.234322
-49.717590 162.971771 -66.157539
-64.301071 169.859924 -65.927895
115.057098 167.785095 -69.815445
112.627609 171.225739 -67.995209
12.613762 169.922913 -69.474663
-68.718384 168.580856 -65.488335
-34.808552 170.225311 -67.840363
107.118729 171.321884 -67.104362
-48.567577 172.375107 -67.072426
-61.330338 174.476212 -68.732307
113.066269 173.531082 -66.060547
-61.064194 174.951935 -66.172844
29.148550 179.696335 -66.462662
110.900169 178.528763 -64.694389
-42.386902 180.994690 -67.684471
-41.894650 181.612976 -64.510696
-27.412388 182.470703 -71.448807
-147.465775 187.097458 -65.582222
-143.032120 183.988556 -69.778786
103.830841 187.833633 -69.064461
110.822441 187.630692 -70.869385
13.827127 189.074860 -66.482162
106.382172 194.092407 -69.069588
24.131496 196.087494 -67.522079
-16.818604 194.531982 -67.199387
-146.584335 198.125214 -69.720055
11.519688 198.447128 -68.119835
110.115761 198.033142 -63.394867
104.241867 198.304993 -69.483696
-31.889507 199.531296 -65.710663
102.689049 201.237106 -68.171730
-148.660736 200.312790 -64.883362
-145.720825 204.643250 -65.996956
103.494423 202.819092 -65.394897
-24.532753 205.971375 -66.064613
-132.487686 207.474426 -69.181473
-126.979889 203.735580 -67.339691
22.454863 207.506897 -67.254921
-141.063049 208.830078 -66.419121
-134.138092 210.309158 -67.335236
-139.220566 213.424805 -68.295166
98.725334 213.364777 -67.922829
-133.251328 215.010742 -68.486893
-11.469092 209.578094 -67.589447
-27.644251 210.808548 -71.447502
-128.895538 213.579926 -65.437096
-124.539696 210.722794 -67.900093
98.559517 212.367722 -69.770988
-148.268143 217.994049 -63.179985
-144.205551 215.680969 -66.161644
-9.468550 217.967194 -64.415062
17.452826 216.645157 -65.449608
12.147767 216.054703 -68.919060
-23.884663 216.566620 -67.487282
-164.478668 221.253235 -66.990791
20.494553 222.380264 -67.146461
92.894669 218.653168 -65.899689
-2.729368 220.544922 -65.734489
92.064278 222.265579 -66.530159
-27.157272 222.186935 -64.497055
-15.993674 225.727997 -66.278748
84.727501 221.465576 -67.755257
-149.550446 223.855835 -68.529411
-166.242722 228.787613 -67.983955
-22.561182 229.106033 -70.519531
-88.927528 230.103302 -66.690353
-155.107788 226.972427 -66.645248
84.011055 228.159058 -66.905197
18.168579 231.581680 -65.386993
86.989258 233.021667 -64.706985
-104.424164 233.621399 -68.244576
-149.864243 229.338562 -67.199272
87.368034 232.639328 -67.933708
-161.908279 231.283981 -67.080704
-152.144394 233.586945 -66.500824
-18.807865 234.743073 -66.275101
83.974701 234.142868 -67.518715
-106.934227 233.794983 -66.098946
-123.742043 234.622635 -67.371803
83.232643 237.334671 -67.502419
-140.094345 238.176788 -69.337860
-162.929626 235.403000 -65.965492
-145.031174 241.289490 -67.037354
-15.315910 237.085724 -68.145973
19.057732 238.707169 -67.076340
-156.742340 240.381592 -69.169266
4.425241 239.905533 -66.536736
6.015786 236.418671 -66.708817
-121.594070 237.904251 -67.242744
76.488197 239.507019 -67.928566
-162.385147 236.238968 -67.760231
-8.627029 237.684982 -70.479225
-109.384964 238.542664 -69.401978
-3.903211 237.511490 -69.005440
-149.260986 240.746292 -66.540070
-125.345558 236.305923 -65.923370
-146.864029 241.054077 -65.176987
-121.612473 243.211227 -66.269569
-9.857391 241.671310 -68.777176
80.594353 240.939423 -69.283279
-141.580521 241.735855 -67.333252
-136.339417 242.945175 -69.005363
-163.446747 244.487900 -67.194290
-155.204483 244.101852 -68.024940
-152.697983 245.019699 -66.054451
68.620781 241.694733 -67.044334
-1.285236 246.484329 -67.754181
74.980637 246.044693 -67.959633
9.366727 244.298477 -64.977676
-21.344582 248.326843 -65.843185
19.705235 246.149750 -65.250015
69.514832 248.980667 -66.480072
-8.463483 247.686432 -67.201874
-25.474504 251.339447 -70.174294
16.990959 250.735947 -70.612740
-20.475981 254.315552 -65.666359
-1.092853 256.823212 -67.837654
-9.132955 257.389771 -68.429176
51.646065 257.112183 -65.815262
-59.504505 259.496552 -67.233047
-10.615251 259.276550 -66.298279
50.669144 258.235901 -67.942261
21.881620 258.352203 -65.796669
-13.834873 259.741974 -69.749001
-11.522011 259.698822 -67.266525
20.679655 261.871094 -68.890533
-96.344246 260.778961 -65.284622
-124.003517 266.055389 -66.903275
-100.070694 265.314575 -64.386040
-85.015137 262.108398 -66.167664
-142.300262 261.741730 -68.225662
-89.912804 265.551361 -67.272423
-103.535355 270.485291 -65.677307
-108.331200 268.869812 -66.223557
-107.109039 268.629547 -68.671638
-117.487823 269.440918 -65.538391
-137.276474 274.158966 -64.015953
23.556822 272.561859 -66.132233
-166.511902 273.635651 -66.093529
-14.418429 279.637024 -71.596436
-142.514679 281.331726 -67.506477
-144.759537 293.895264 -69.627197
-9.329803 292.311340 -66.141907
-131.669312 293.895752 -68.543274
-142.403061 292.061340 -67.854874
15.300458 294.208710 -68.709877
-52.251511 298.588409 -65.951218
-124.882721 294.501617 -68.624924
-101.360413 297.813690 -65.916328
-44.065331 295.940613 -65.780457
-29.404499 297.455078 -67.269470
-167.822037 299.252045 -66.372742
-111.960991 297.624481 -70.122307
-25.276682 296.455750 -63.079773
14.552731 297.654083 -66.342125
-56.526241 300.649200 -68.949570
-52.837021 301.453522 -65.335739
-36.465492 301.115784 -65.796661
-17.806227 300.904785 -66.102852
-15.473049 300.098053 -64.777931
-161.991409 302.050598 -68.420357
-91.802650 302.061768 -65.013519
3.144965 302.908569 -66.559303
12.421416 300.948944 -67.177185
-132.027634 304.751099 -67.151436
-146.539154 308.855347 -69.629601
-153.657883 305.974915 -67.951393
-152.813431 312.529602 -68.136703
-151.894440 310.818695 -69.812073
-153.678635 318.287567 -67.089104
30.863174 24.940920 -64.707695
39.459869 25.047123 -67.485085
33.091839 24.944902 -67.263603
43.806709 26.687778 -64.227768
43.814892 30.030386 -65.610992
44.536877 30.932571 -66.572609
41.752048 32.416092 -66.079674
48.324505 31.903793 -67.387276
47.417393 40.930420 -63.837906
38.803577 45.542339 -67.530350
42.554996 49.304111 -64.065643
36.623634 50.762432 -65.054390
-66.690079 60.031845 -66.562660
-70.963760 60.754681 -65.608521
-40.911175 60.710014 -65.765213
86.517365 77.029495 -66.486206
85.654762 81.689301 -63.807877
-35.943985 86.227509 -64.183022
-24.417141 86.143120 -66.695808
-39.533638 87.651085 -64.969818
-51.209190 95.422394 -64.789635
58.409363 97.395515 -63.808437
69.116417 98.554550 -67.592491
-55.921181 98.925819 -68.622955
54.788628 102.261459 -67.877739
-67.540726 104.194923 -62.034451
46.106148 103.842903 -66.391571
106.611954 106.860085 -67.646782
49.378208 107.457245 -66.765305
97.882973 109.580353 -65.156403
96.585457 114.272858 -64.101341
41.574631 118.330559 -67.187317
108.415970 117.960533 -65.043114
50.556469 118.933327 -66.969025
107.920227 119.950249 -62.851688
112.376419 121.522530 -64.860619
47.976074 127.229683 -66.414955
-86.765038 126.989204 -66.159195
45.329651 129.896683 -65.143578
112.180145 127.804672 -65.727753
32.699516 132.528549 -64.990952
112.084984 134.198761 -66.756577
114.856781 134.829315 -64.376434
-59.327290 136.861649 -62.615387
116.617264 143.425598 -65.568878
114.748535 140.988876 -66.149124
42.862881 140.662003 -67.938026
-58.081638 142.537048 -65.805908
29.787983 141.522614 -64.251892
35.417461 146.595337 -65.025887
-71.752991 146.654327 -64.376366
114.570282 144.271942 -67.862701
-46.398655 149.096375 -70.294624
-77.828026 151.616714 -63.546249
-58.019611 147.092514 -64.120918
29.271599 149.704391 -66.886726
-41.013191 152.558136 -63.927563
112.951180 152.170868 -64.711594
-45.072582 151.411911 -62.236710
-76.295601 154.974258 -62.839882
-71.338417 152.781342 -65.738998
-42.967266 156.885025 -66.077255
116.189262 156.127350 -65.725624
-74.665207 157.872574 -68.234680
-67.753845 158.266815 -63.501099
-72.930260 159.110382 -67.638481
-71.805183 157.458923 -64.730721
-53.734730 160.656235 -64.415283
15.944268 158.809280 -64.455193
12.693056 160.222641 -66.970680
25.117144 161.213242 -67.338043
22.817017 161.956879 -68.175079
4.408882 170.377243 -64.836327
13.415874 162.238892 -66.028679
31.184391 165.736313 -66.420929
0.630125 169.597824 -65.523026
-64.170662 172.229202 -66.879051
-36.745647 169.789169 -67.728966
7.546655 171.305389 -65.564133
1.174849 173.942215 -65.730469
112.650833 171.899750 -69.650337
26.308784 177.539780 -68.574173
-31.078594 179.789597 -65.216797
19.049231 184.475754 -66.499207
106.009766 185.181351 -65.559616
-39.566822 184.325073 -65.826675
112.293411 183.584351 -62.309639
-34.077457 185.208801 -65.284447
-151.438797 186.311172 -65.732330
-26.170750 188.017624 -67.341660
24.334442 189.250214 -66.688660
-142.327026 191.056076 -63.353695
-35.169544 192.270203 -65.681076
-26.134615 195.341599 -69.439148
-32.828514 193.626892 -65.141029
-31.633919 194.117065 -65.487053
101.991188 194.396378 -66.290894
-141.773193 196.889252 -67.175209
25.363047 197.468216 -67.273499
-23.214619 193.832474 -67.049881
-23.145748 202.170532 -64.374611
14.627957 204.344406 -65.688118
-152.885864 207.515305 -67.139854
-113.782967 206.055664 -65.753128
-141.101868 205.962189 -69.538025
95.723495 203.975037 -68.176460
-158.633057 207.072952 -67.026703
-146.728958 206.176163 -65.446350
-121.724648 205.438599 -64.084999
105.624138 207.385880 -66.520523
20.995640 207.134064 -67.601555
-145.160919 209.912125 -65.835213
-148.459000 210.781540 -63.256290
7.696410 207.264297 -66.557816
-124.750595 209.493958 -66.070663
-153.969330 207.357834 -65.967003
-147.113708 210.853363 -64.073601
-111.397156 210.258255 -64.148605
-15.421177 213.404022 -68.516624
-139.992279 214.770569 -67.254257
-165.314194 214.118271 -64.478401
-155.969452 214.000244 -64.332291
101.043671 215.745758 -66.439049
-21.401411 218.932861 -67.296417
92.122269 217.340408 -67.711609
5.286067 221.876236 -63.986244
-155.454605 220.803635 -65.752075
95.112175 223.892105 -65.972496
-2.851276 225.638443 -68.038818
15.340899 225.532913 -64.208557
87.071953 227.840485 -68.172485
-98.143120 227.843063 -63.293213
10.960033 225.914001 -68.940147
9.244358 229.952545 -64.160225
85.079277 230.444412 -66.584328
-20.846806 233.716003 -62.352425
-0.304870 232.008850 -62.978954
-98.724838 231.478897 -65.073975
-22.626207 234.363632 -61.814121
-142.140991 237.105927 -64.058388
-10.497926 236.389999 -66.406670
-18.326052 233.287460 -63.880974
-104.247643 237.864975 -67.126602
-110.991135 238.967834 -66.673889
79.634331 235.126602 -63.806873
-106.581718 238.274139 -63.901802
76.076973 239.879547 -68.062576
-10.399716 238.469482 -65.041809
10.153233 240.551819 -69.430702
70.222084 241.685013 -65.118744
5.112355 242.011063 -68.549255
-18.297649 243.595795 -66.909622
-114.721581 237.740936 -64.125282
-122.540184 238.516373 -65.704712
-140.584442 242.541443 -65.186226
11.361694 241.976654 -64.014099
-123.816666 244.186768 -67.965157
-133.901123 242.083420 -65.848862
-144.360138 249.097748 -63.777203
72.462685 244.912094 -66.164459
-168.491501 247.724518 -68.925323
3.075817 249.991226 -66.196259
70.472878 247.437012 -63.437893
17.470303 251.054504 -66.655975
64.707191 249.546906 -63.291599
-4.897534 249.206955 -63.736954
-17.360266 251.726532 -68.812576
0.247472 252.181259 -63.263729
-9.718334 254.000168 -66.399208
11.341781 254.124176 -65.398544
15.923669 256.920654 -67.209877
-63.643578 259.357910 -66.520035
-72.414597 257.287537 -64.254173
46.257416 257.361542 -65.729477
-79.208008 259.501129 -69.382286
52.592957 261.947784 -65.552948
-66.565750 263.205200 -66.306984
-166.160507 260.541260 -64.159027
-89.726891 262.128113 -61.198616
-72.046097 264.247467 -64.450119
38.315033 262.347656 -64.709351
-142.221771 266.317261 -66.143883
-112.401299 266.115631 -64.496048
-95.671440 267.646393 -66.844780
-122.891388 270.035126 -65.737679
-132.470688 273.940338 -70.967140
-167.602051 283.604126 -65.514824
-10.718522 289.276031 -66.787514
-162.104996 296.549591 -67.513069
-83.050705 295.328766 -67.381767
-73.708633 294.065796 -64.861290
-59.886868 293.016113 -69.837074
-167.554245 296.049744 -69.067566
-2.589329 300.127045 -63.367764
-26.237970 300.871582 -67.125183
-41.582508 297.565521 -66.639465
-16.533955 298.312408 -68.929207
-40.997585 299.739105 -65.501663
-23.795465 301.178284 -62.861115
-6.574435 301.046234 -69.284615
-76.656555 301.105560 -64.881485
-0.212699 302.880035 -65.220467
-87.836678 301.261536 -67.418633
-94.250122 298.793427 -66.264992
-121.793465 304.363220 -65.236259
-124.436760 304.673584 -62.331226
-145.575760 314.591614 -67.511414
-141.893311 317.541260 -67.418045
-147.039825 325.585785 -63.703514
27.944893 25.113960 -66.064468
32.683147 28.743231 -67.605003
32.384899 28.122812 -63.700558
24.729206 26.950850 -65.158195
18.429070 32.349899 -64.882187
18.433033 40.895462 -60.912628
26.065832 36.152069 -66.368401
21.072653 41.699768 -64.293236
28.243086 40.757507 -68.490150
29.130123 39.955055 -63.196083
29.535967 44.711658 -62.496296
21.860029 44.935051 -64.949486
27.921461 49.294537 -65.779282
26.655485 51.122326 -63.737995
34.019825 52.256969 -65.402779
-53.993958 58.484779 -63.382065
-30.277449 61.886589 -66.757843
-13.008880 74.393013 -66.681473
-14.321697 75.958984 -67.700539
84.065620 76.695236 -64.249367
-91.542862 76.947052 -64.590248
77.631996 79.335915 -64.317757
72.454308 77.545586 -63.508713
70.680473 82.144928 -63.328121
-23.638329 86.238220 -65.038231
101.553329 85.928879 -64.613495
99.941872 93.068878 -64.941673
-92.968819 94.375404 -65.467415
-53.921837 95.234047 -63.169693
66.771660 98.172325 -63.556641
99.291321 101.629890 -64.659210
101.751518 107.929932 -70.707115
105.376297 105.374680 -66.569374
43.828674 109.210190 -66.098862
57.406597 107.818794 -63.041416
42.816738 109.332497 -64.553200
82.021729 111.741402 -63.665062
50.910187 113.050522 -64.678337
109.673653 117.929817 -62.008232
107.392090 120.032532 -62.730862
38.174381 122.116615 -65.707413
43.490494 122.963394 -63.035469
-80.942940 125.044891 -64.791534
-75.761597 125.013458 -67.219292
107.238121 123.561653 -66.552711
35.913795 122.707016 -66.350380
109.688789 127.468948 -63.986664
-96.867645 126.332306 -65.675629
109.690132 128.674622 -69.203316
30.529522 127.839058 -64.825768
40.929844 128.452789 -64.581665
108.284180 133.212769 -64.762650
-82.832802 135.027435 -64.946472
32.480545 137.275864 -62.275181
-87.651398 134.512619 -66.486900
36.155220 136.099167 -66.299721
36.311596 139.630508 -66.410629
108.943321 143.374161 -64.308846
-61.169052 142.294418 -66.288239
-50.122250 146.353241 -63.108959
118.946892 150.652878 -63.292732
34.986359 148.417633 -64.768318
-57.308289 150.253754 -62.788544
112.210213 155.929657 -62.979954
33.005527 154.049011 -63.812740
28.231142 154.674850 -64.440712
114.528908 156.745819 -62.210239
-45.552101 154.692978 -60.543690
24.322403 157.076828 -64.361404
31.125910 159.680466 -66.709526
31.302017 163.416428 -67.273285
110.221237 161.691040 -65.625450
22.422932 164.359299 -65.040924
-49.013748 163.624298 -64.673103
-65.820366 165.334900 -65.313072
-42.699390 169.131287 -65.766357
-70.066017 167.052124 -64.786804
-41.406918 166.315323 -65.040024
8.532656 169.856796 -66.326561
110.712936 172.995041 -63.460342
116.046242 173.633560 -64.294319
-40.406898 173.930298 -65.830276
30.132483 176.409744 -66.580956
18.156532 176.607086 -65.626579
-41.441360 182.281204 -65.284683
108.667641 180.950394 -65.055336
-31.479078 181.668198 -66.562065
114.885437 180.741837 -64.113846
24.472469 186.651016 -66.332207
27.005053 183.868423 -66.364075
-32.382198 188.786819 -64.665146
108.328934 191.301651 -63.896328
13.617473 188.100922 -62.378632
-25.280439 190.082260 -64.784653
107.796761 188.367096 -64.546806
111.658005 190.239761 -65.145744
-23.722578 193.583740 -62.747242
-20.669596 192.433655 -66.134796
-149.387924 195.175278 -63.425793
-26.740118 197.725067 -62.740005
-18.444731 198.906174 -69.107933
-153.038361 202.062210 -66.284134
103.071907 199.972076 -62.818909
-26.595976 204.390045 -61.377728
-151.644180 203.111145 -64.990753
-152.102325 201.889786 -63.280643
-141.593521 203.965515 -62.919857
-158.126236 208.839355 -62.628460
103.746246 204.242661 -64.458160
-19.913187 205.499268 -64.286385
-114.093376 206.895264 -65.320511
-12.552543 204.676483 -67.490791
-26.083733 208.699081 -67.379745
99.183723 208.734421 -66.297951
12.649047 212.132446 -60.987782
-125.079529 211.746826 -65.234634
-163.433868 214.587646 -63.262959
-145.047287 213.779495 -64.132713
-143.785843 216.211975 -65.394203
-6.106788 214.111130 -65.369705
95.630959 218.489075 -63.915409
12.132213 224.405396 -64.363853
17.484909 227.747894 -65.664070
11.849050 223.793655 -66.286156
-93.436996 226.301697 -66.016953
-100.588280 228.895065 -62.792484
-89.264542 226.849930 -63.764763
-2.471391 227.874527 -64.912773
-166.880188 232.105072 -62.114410
-14.168000 228.293549 -66.996246
10.364094 227.537552 -63.895149
88.225060 233.733536 -63.634430
-12.494304 232.527008 -67.341133
11.057066 232.362183 -63.727474
77.529335 233.007782 -63.095501
-125.774460 234.167664 -66.444862
-113.453972 234.149368 -64.950035
-135.897354 236.743439 -66.289139
16.973597 238.292221 -66.428955
-111.515152 236.904083 -65.081078
-163.787918 236.763626 -64.438118
81.580528 240.293839 -65.290695
-7.602705 241.820541 -61.203098
10.001424 244.251160 -65.689575
74.465408 241.704224 -62.215187
8.330352 246.395096 -67.506851
-143.413055 247.453323 -62.943718
-5.804359 248.355698 -66.750610
0.130364 249.971619 -65.755249
-9.188989 250.490128 -64.148880
-5.710067 252.137619 -63.794758
13.489182 250.697418 -63.905548
9.405606 251.932373 -63.588352
55.254448 250.666473 -65.165405
8.290273 251.451859 -65.723694
-7.945403 250.861832 -64.398445
58.953621 251.387924 -65.732430
61.502064 254.840027 -63.983364
56.936882 258.527527 -64.981621
57.371155 256.243591 -67.360954
-68.266556 262.897583 -64.187172
-144.551590 261.508545 -65.946426
36.951546 262.950684 -61.576389
-134.507309 266.445831 -65.971840
-15.708166 264.466675 -64.049614
43.587090 266.910278 -62.423340
32.074299 267.863647 -68.310081
-157.623398 269.511292 -65.789902
-16.269711 272.923309 -64.660797
-112.376266 274.102570 -63.425468
-139.645905 272.691528 -64.615562
-115.816078 271.226715 -68.066345
-156.115555 276.882996 -63.719906
-125.166107 276.899109 -62.582981
-158.018082 276.477905 -67.229324
-144.179474 279.109406 -68.579498
-158.660416 277.140381 -65.083038
22.924543 278.199188 -61.755123
-16.764694 282.332672 -63.604340
20.722019 284.824097 -62.706322
-165.984161 282.112793 -63.644711
-160.556305 288.737762 -64.460167
-153.657532 289.152222 -64.526222
-166.868027 292.903748 -65.534889
-134.863495 295.796448 -65.633636
-144.981003 294.293884 -69.487213
-135.858200 294.065918 -68.263184
-117.810081 294.441620 -63.557587
-159.552704 296.545410 -63.533432
-107.860992 296.395477 -66.474480
-73.051834 297.047058 -65.241997
-64.480209 300.168884 -65.388405
-56.852676 300.663879 -64.152245
-52.455204 299.005371 -67.074348
-49.505630 302.628235 -68.050819
9.215886 299.520416 -65.730118
-70.484352 296.362427 -65.722504
-66.081047 302.923370 -64.301132
-4.154010 299.973938 -65.687965
-162.114365 300.740631 -62.014210
-93.808327 303.889252 -64.986412
-114.672646 305.244202 -63.178074
-136.300476 300.183990 -65.181946
-118.340942 303.907959 -64.913612
-160.633591 301.713074 -67.993530
-152.602982 305.950134 -63.541645
-153.120041 323.880707 -66.002243
28.824856 22.810389 -63.805130
43.600903 24.923542 -63.006943
25.181301 28.355402 -62.001270
45.057507 26.592600 -64.157333
42.658730 28.470085 -67.125999
28.602123 31.721121 -66.454979
50.396149 35.984692 -65.123444
45.580555 37.922638 -64.015862
41.153702 40.689480 -64.863396
47.546513 44.062969 -62.683952
39.772820 43.429657 -61.933933
50.246521 46.387280 -63.409138
36.425438 45.645893 -64.496994
37.171371 47.266022 -65.992470
34.568886 46.873001 -62.924503
46.617870 48.753479 -66.586784
34.038754 49.674240 -62.860172
34.641865 49.430595 -63.279560
32.589249 50.828217 -64.818001
35.796532 52.322933 -63.905823
-60.303776 55.663815 -63.728016
-43.989521 59.018551 -64.401611
-20.526199 68.599106 -63.255848
-85.357758 68.056488 -62.404125
71.006897 83.180183 -63.904499
-20.213852 83.074104 -64.734169
65.347588 91.211250 -64.374237
61.165134 91.410660 -63.874130
56.290318 95.602882 -62.221523
62.540550 96.598969 -61.811825
62.397217 100.962479 -62.356441
-63.327606 100.440842 -65.772018
107.843506 104.097404 -62.329559
-97.684982 103.801636 -64.427597
102.943253 109.666222 -61.673668
100.402603 109.284874 -60.941742
-72.276497 111.046532 -67.034409
55.867332 111.606537 -64.640907
73.670715 108.842461 -62.552231
-80.760864 114.624603 -64.068588
40.767174 112.302063 -63.495022
103.607033 115.900490 -66.727303
53.667652 114.218452 -63.751732
88.416901 115.724396 -61.822144
-85.190460 117.049637 -62.951210
44.694271 119.812744 -62.256065
45.399742 119.191887 -66.872124
45.420551 116.631058 -63.259724
-76.315781 120.925926 -64.401207
-95.388176 122.151886 -63.125130
108.566284 121.931580 -66.138306
-87.587410 121.335037 -62.684231
112.938461 124.111412 -65.705559
41.585800 123.904343 -64.424088
35.302940 127.061256 -59.875793
41.669357 130.580765 -65.830788
113.336914 133.036896 -64.167984
-76.205284 132.439774 -65.262199
-59.966522 135.883423 -60.523422
-58.829720 140.121490 -62.545132
107.734886 137.848373 -67.463280
-51.977039 142.283936 -61.170109
31.724909 140.361374 -65.649963
-85.181839 139.143539 -65.823906
-88.333351 143.561966 -62.776516
113.668098 140.992081 -61.307465
-76.675331 140.801788 -62.948158
38.137959 139.394897 -66.297653
-73.683426 144.949097 -65.697647
110.136566 148.940948 -64.498497
-89.221268 146.952423 -65.338898
-68.232689 147.452820 -61.488556
36.949722 151.241318 -62.089008
-74.748123 152.315216 -66.157387
112.282722 154.668686 -64.418968
-70.478294 154.457184 -69.028923
25.382862 157.712082 -64.787224
112.790665 156.561234 -62.230469
-43.024921 157.396957 -62.230896
114.157402 156.590134 -68.215424
-46.640846 163.670914 -62.879192
-50.755775 161.688675 -66.588867
8.375182 159.123016 -66.388199
-74.589775 159.622955 -61.498344
-54.303596 162.138489 -62.060471
17.258791 162.515533 -64.890892
-43.244064 162.270477 -62.760181
14.657001 162.923691 -63.741982
-51.320206 167.326813 -65.107780
13.408948 168.682770 -61.707886
9.817426 167.351791 -64.787155
21.703400 168.587189 -64.051331
26.478107 165.689041 -63.175758
112.985374 169.760757 -62.440090
26.365664 171.961700 -63.683678
-33.544712 175.188004 -63.715637
22.985149 176.539230 -65.343246
110.862640 177.171616 -66.027969
-41.551964 177.955078 -62.688210
26.110287 177.133560 -64.803848
107.356842 179.242538 -66.034592
-148.514816 183.471832 -62.497723
-143.344864 186.154831 -66.186546
19.823969 187.279297 -60.832947
21.102291 188.716568 -64.039017
-107.928932 191.819122 -66.486488
22.890724 193.257004 -62.944775
-21.156151 192.177856 -64.438934
-107.844925 195.919968 -66.165672
-109.135231 195.983170 -68.034874
-26.937483 193.166580 -61.128952
-141.484756 198.959671 -62.992973
24.602821 203.878891 -66.194824
-22.734659 199.265396 -65.507889
12.889894 201.329514 -63.472946
-22.193424 201.287247 -67.707893
15.909464 200.500183 -61.278465
-130.458313 203.833527 -58.608646
21.085300 204.763321 -63.253265
-140.172028 205.975357 -62.903038
-21.184563 204.443741 -64.996788
19.997013 206.604980 -61.781494
-162.952301 208.091934 -61.000584
102.533264 206.288971 -63.550457
-111.926651 207.341248 -62.408710
11.457067 208.092560 -60.346283
-21.079262 207.446106 -65.151459
14.848566 212.353195 -63.539577
-142.087540 212.131882 -63.713169
-132.035858 215.445374 -63.696339
-129.348694 213.708527 -64.331940
21.233715 215.427628 -64.369453
-10.422894 217.944794 -65.300827
92.741211 218.136444 -66.860947
11.741250 217.058380 -64.896332
-16.000626 218.271149 -65.836639
91.291389 218.413773 -65.954086
6.615286 222.547699 -64.501938
-15.935108 220.938614 -60.330360
-5.219090 221.257080 -62.358109
85.274246 228.251175 -68.699516
89.520882 225.580505 -64.537483
-9.622326 228.798325 -65.943535
3.065059 231.192062 -63.843449
-104.009621 228.063385 -66.001030
-144.311813 232.670471 -64.801537
-3.178977 232.189316 -64.171509
80.450592 233.361343 -65.320694
-129.446625 232.703400 -64.090553
-3.353175 231.772171 -60.828743
-139.273132 236.747650 -65.892868
-133.747391 234.586090 -63.208866
-132.496506 232.652557 -63.739449
-19.624880 234.537903 -60.881920
-14.006496 236.954254 -63.363354
-7.537452 236.900223 -65.304626
3.843690 237.417130 -61.355698
0.025221 240.064056 -63.128578
-155.499420 242.141159 -63.708797
0.018435 242.268036 -60.970860
8.869469 241.545441 -60.765694
6.744548 239.593216 -65.158806
-133.475143 242.267624 -65.672890
-3.755312 245.044296 -63.556149
-152.672821 244.501892 -65.497665
-122.938400 244.036667 -65.326698
64.484039 247.002335 -67.787758
73.100739 244.033127 -64.189888
68.966019 244.788361 -63.173943
-145.557571 246.858017 -64.810646
69.685623 250.188721 -67.520180
61.930000 249.214325 -65.446014
-154.404724 245.543594 -63.272011
-16.316586 250.006760 -60.972286
72.317398 251.201416 -65.438332
6.156429 248.986191 -62.969662
7.148287 251.633484 -63.963261
59.706337 251.091934 -62.331455
-168.710312 252.138382 -64.345123
65.313133 250.852402 -66.834106
-12.299782 254.332108 -65.123917
-153.043106 257.606049 -61.648705
48.044083 259.887878 -59.930534
-86.681984 263.855621 -66.343552
-78.253494 258.845856 -63.724136
-92.998779 262.162354 -65.090950
24.353012 261.811371 -61.539787
-148.461182 263.235046 -62.762123
-158.595383 263.271667 -66.226875
-151.037033 262.877930 -63.229488
-82.111542 264.581757 -62.998016
-106.250465 267.784698 -64.469376
-92.401016 265.688995 -61.704281
26.335470 268.984222 -67.387169
-105.620735 271.412781 -63.373375
-14.055489 272.113892 -66.705933
22.063032 270.973389 -64.702515
27.916166 272.418640 -64.342590
-126.374832 273.365479 -63.605736
-137.411194 274.688965 -64.556305
