# This PCD file was generated using the MATLAB® pcwrite function
# from Computer Vision Toolbox®.
# .PCD v.7 - Point Cloud Data file format
VERSION .7
FIELDS x y z
SIZE 8 8 8
TYPE F F F
COUNT 1 1 1
WIDTH 778
HEIGHT 1
VIEWPOINT 0 0 0 1 0 0 0
POINTS 778
DATA ascii
-56.887287139895314 -26.241485595715631 -333.982261657777372
-37.794370651247853 -20.003723144543756 -331.728614807191434
-39.750844955447072 -26.390563964856256 -329.428730011048856
-47.394271850588673 -21.090484619153131 -332.076835632386747
-28.676825523379200 -21.577545166028131 -331.405860900941434
-57.972080230715626 -25.768463134778131 -330.061523437562528
-55.542373657229298 -24.519073486340631 -330.719455719056668
-39.830310821535939 -29.148406982434381 -334.269172668519559
-28.229239463808888 -24.155487060559381 -333.742637634339872
-19.526598930361622 -21.840728759778131 -332.547935485902372
-70.853019714358197 -22.483886718762506 -332.508384704652372
-32.343687057497853 -24.509765625012506 -331.045089721742215
-82.432666778567182 -23.405548095715631 -334.316474914613309
-76.207904815676557 -19.540557861340631 -333.749870300355497
-62.950248718264454 -25.462493896496881 -332.986915588441434
-29.563820838930958 -22.798370361340631 -330.561809539857450
-28.047516822817677 -23.341644287121881 -336.016403198304715
-19.815731048586720 -24.381103515637506 -333.565490722718778
-15.580743134024493 -23.967590332043756 -332.502258300843778
-10.309467315676562 -23.250640869153131 -332.522850036683622
-124.520137786867963 -22.921203613293756 -333.495399475160184
-108.517383575442182 -20.816284179700006 -335.087394714417997
-101.424312591555463 -20.005889892590631 -336.586463928285184
-173.935276031496869 -19.405181884778131 -340.662055969300809
-154.183673858645307 -23.059509277356256 -333.013870239320340
-133.985744476321088 -21.193542480481256 -336.152976989808622
-149.201114654543744 -19.648315429700006 -333.628318786683622
-157.914402008059369 -19.312530517590631 -336.036087036195340
-171.086505889895307 -15.313415527356256 -337.835823059144559
-172.831989288332807 -15.325622558606256 -333.070655822816434
-156.983478546145307 -14.440063476575006 -336.359199523988309
-169.731296539309369 -7.871002197278131 -337.785415649476590
-161.324527740481244 -10.409576416028131 -335.318405151429715
20.414909362790233 -295.916061401379693 -331.636947631898465
22.701606750485546 -293.762226104748834 -331.660484314027372
30.111629486081249 -294.242511749280084 -331.431320190492215
27.843898773190624 -292.823465347302545 -329.502479553285184
8.204910278317579 -293.083326339734185 -332.337539672914090
33.433998107907421 -284.619335174573052 -329.845527648988309
31.824932098385936 -286.203754425061334 -329.993232727113309
2.656955718991407 -282.405765533459771 -331.312950134339872
30.625339508053905 -283.088203430188287 -330.958934783998075
16.752759933468944 -277.752948760998834 -333.458381652894559
24.170204162594921 -280.603107452405084 -332.738525390687528
33.048358917233593 -280.901405334485162 -333.674720764222684
33.043762207028514 -273.078842163098443 -332.161521911683622
22.879402160641796 -272.543941497815240 -334.165802002015653
-81.234378814699994 -264.565509796155084 -330.039955139222684
-70.270919799807416 -265.126762390149224 -334.246650695863309
-64.225646972658978 -264.990627288830865 -338.490020752015653
-91.451770782473432 -261.670173645032037 -331.111881256166043
-39.740148544314259 -258.818572998059381 -330.556613922181668
-33.641000747683400 -247.659042358410943 -337.763748169007840
66.366298675534381 -243.412101745617974 -329.075046539369168
77.032436370846881 -244.371063232434381 -338.227882385316434
77.296787261960162 -242.907714843762506 -333.567481994691434
-33.569614410403126 -236.953369140637506 -334.743972778382840
79.774105072018756 -244.041435241711724 -331.512268066468778
79.011211395260943 -229.577293396008599 -329.121490478578153
-60.046787261965626 -238.997833251965631 -330.502128601136747
87.749546051022662 -232.896865844739068 -334.799995422425809
84.634387969967975 -226.140670776379693 -333.045494079652372
45.989704132077343 -225.568420410168756 -332.347007751527372
51.515422821042186 -227.292037963879693 -330.367420196595731
44.957439422604686 -221.513328552258599 -333.589630127015653
34.467300415036327 -219.248405456555474 -333.645484924378934
47.385772705075389 -222.995109558117974 -335.044395446839872
83.018383026120318 -226.399261474621881 -330.122993469300809
-79.066310882571088 -218.099548339856256 -325.418071746888700
56.887027740475780 -224.887672424328912 -336.317176818910184
31.537811279294139 -219.257644653332818 -330.979675293031278
37.465660095212108 -213.790824890149224 -331.059974670472684
-79.919864654543744 -214.065887451184381 -331.608978271546903
-89.288654327395307 -214.235664367688287 -334.089118957582059
62.152599334714061 -211.444648742688287 -335.067398071351590
90.468975067135943 -212.414459228528131 -328.716934204164090
62.078159332272655 -208.903831481946099 -335.721420288148465
91.762378692624225 -207.761604309094537 -331.783020019593778
84.176959991452350 -209.970657348645318 -332.631774902406278
-95.137226104739057 -207.477760314953912 -335.606117248597684
28.380451202389843 -214.240432739270318 -333.237594604554715
31.978000640866405 -206.001190185559381 -337.493080139222684
60.144466400143749 -208.134712219250787 -330.289276123109403
72.094257354733600 -211.584953308117974 -335.445541381898465
78.503978729245318 -209.876983642590631 -333.878211975160184
-97.799472808840619 -209.829582214367974 -335.066238403382840
72.108921051022662 -206.192146301282037 -328.455310821595731
36.871936798092968 -206.127464294446099 -338.048477172914090
27.213150024411327 -214.357292175305474 -332.079307556214872
23.130084991452343 -202.535285949719537 -332.492263794007840
94.215259551999225 -204.819549560559381 -332.520042419496122
-102.722835540774213 -204.510704040539849 -335.283523559632840
90.746227264401568 -206.184104919446099 -335.281440734925809
89.623813629147662 -203.567481994641412 -335.714859008851590
19.380493164059764 -195.182022094739068 -333.285247802796903
24.732093811032421 -199.817817688000787 -329.372554779115262
26.500087738034374 -199.022636413586724 -334.268013000550809
25.758480072018749 -198.867576599133599 -332.775032043519559
-111.813129425051557 -198.461944580090631 -337.499366760316434
27.151542663571483 -193.894485473645318 -333.856185913148465
21.596900939938671 -192.396820068371881 -333.924240112367215
95.758327484128131 -194.488616943371881 -333.094039917054715
92.336147308346881 -191.452453613293756 -335.289016723695340
96.367259979245318 -198.807464599621881 -330.138454437318387
101.766124725339068 -193.190719604504693 -328.284343719544950
-102.794727325442182 -191.625396728528131 -329.824474334779325
-99.391490936282025 -186.534454345715631 -330.760269165101590
96.009563446042193 -195.299034118664849 -331.065219879212918
13.640451431271680 -193.736419677746881 -331.114818573060575
98.753787994382037 -187.333236694348443 -329.388298034730497
24.904800415036327 -191.410522460950006 -332.037055969300809
32.415130615231639 -191.442352294934381 -333.091201782289090
21.852977752682811 -187.823760986340631 -331.805618286195340
21.106876373288280 -177.992721557629693 -333.279266357484403
100.979534149167193 -186.038436889660943 -330.578319549623075
-91.185573577883588 -186.981521606457818 -331.853324890199247
-72.511161804201947 -182.132858276379693 -330.558013916078153
14.924976348874219 -192.411636352551568 -332.577796936097684
-97.770877838137494 -185.972351074231256 -328.038795471253934
9.290224075314649 -178.852172851575006 -330.883846283021512
-90.289005279543744 -183.223541259778131 -329.193653106751981
-75.738468170168744 -179.074645996106256 -327.114635467591825
23.154800415036327 -182.959838867200006 -335.674507141175809
-64.961364746096478 -179.533248901379693 -331.931785583558622
-70.936431884768353 -178.620086669934381 -335.459426879945340
23.826690673825389 -183.473587036145318 -333.655838012757840
-92.029140472414838 -178.897796630871881 -331.369262695375028
-76.092357635500775 -182.696640014660943 -329.173065185609403
-63.333866119387501 -181.018295288098443 -331.158489227357450
20.644218444821483 -181.054794311535943 -334.204742431703153
-88.286144256594525 -174.971481323254693 -329.269767761292997
-73.683364868166791 -175.746429443371881 -330.962280273500028
-62.319755554201954 -174.212738037121881 -337.792320251527372
19.636272430417186 -173.661407470715631 -333.085716247621122
-90.602443695071088 -173.418167114270318 -334.030540466371122
-73.955371856692182 -176.566650390637506 -330.636196136537137
15.627475738522657 -172.401641845715631 -330.806388855042997
95.467578887936725 -176.267410278332818 -336.499923706117215
-72.259719848635541 -171.881790161145318 -334.893203735414090
98.530155181882037 -174.806579589856256 -328.376495361390653
-76.502342224123822 -175.269439697278131 -335.201408386292997
15.581964492795118 -175.236770629895318 -329.313102722230497
-85.223445892336713 -171.040496826184381 -335.026725769105497
14.256160736081251 -174.673583984387506 -330.897525787416043
-60.845706939700001 -172.578582763684381 -332.333099365296903
98.205852508542193 -163.144149780285943 -330.670814514222684
12.991186141965040 -169.468521118176568 -326.051269531312528
-86.505336761477338 -171.648864746106256 -333.091796875062528
-70.007236480715619 -165.042846679700006 -336.216003418031278
17.084770202633983 -170.572021484387506 -333.157363891664090
-91.380283355715619 -168.567825317395318 -329.235080719056668
18.002643585202343 -166.276397705090631 -329.707996368470731
-83.375484466555463 -173.569595336926568 -331.764274597230497
-91.039875030520307 -161.704269409192193 -334.432426452699247
-84.497074127199994 -163.701339721692193 -333.038635253968778
98.849674224850787 -167.801086425793756 -333.327445983949247
-78.529247283938275 -157.439941406262506 -332.704765319886747
-51.272979736330861 -161.878051757825006 -334.594497680726590
10.271495819089063 -161.320327758801568 -330.929340362611356
-90.104717254641400 -164.192092895520318 -335.123489379945340
-0.489440917971484 -163.988037109387506 -332.291725158753934
18.871524810788280 -166.149734497082818 -329.742729187074247
14.846265792843946 -159.136657714856256 -331.968811035218778
16.684495925900585 -160.954711914075006 -329.484195709291043
-0.950911521914355 -155.933425903332818 -334.135795593324247
14.287954330441602 -163.514068603528131 -331.408180236878934
-66.876716613772260 -162.098556518567193 -333.349113464417997
-62.767326354983204 -163.872436523450006 -333.608169555726590
-82.906162261965619 -161.668594360364068 -331.505241394105497
102.360721588132037 -159.797119140637506 -335.430923461976590
1.391551971432813 -163.382141113293756 -330.971416473451200
7.776397705075391 -163.650543212903131 -326.038200378480497
-58.491283416750782 -163.071777343762506 -334.345924377503934
-8.494196891787402 -153.797088623059381 -333.532508850160184
0.689734458920606 -159.232559204114068 -333.271301269593778
6.889743804928907 -163.251724243176568 -336.743209838929715
-1.564225196841113 -152.536987304700006 -327.624229431214872
-50.800716400149220 -158.064834594739068 -330.546504974427762
-1.569482803347460 -152.748504638684381 -335.326080322328153
-82.561626434328900 -151.450012207043756 -336.752853393617215
-57.149688720705861 -156.791580200207818 -332.650222778382840
-90.394573211672650 -155.588958740246881 -330.293540954652372
2.771202087399610 -153.781021118176568 -338.360740661683622
95.268009185788287 -158.220977783215631 -331.099906921449247
-83.032886505129682 -151.811843872082818 -336.384727478089872
-62.439037323000782 -157.676345825207818 -329.165481567445340
-1.943261146548144 -154.219390869153131 -331.206794738832059
8.614284515378126 -157.896499633801568 -330.566047668519559
-67.195011138918744 -154.061294555676568 -336.541107177796903
9.806844711300977 -159.183227539075006 -330.814037323060575
-10.064521312716357 -149.203613281262506 -329.998077392640653
8.310329437253126 -155.700820922864068 -337.542472839417997
-57.667732238772267 -152.722137451184381 -331.486663818421903
18.124652862546093 -152.374786376965631 -334.313117981019559
-60.929252624514454 -153.397689819348443 -333.775398254457059
-45.262762069704884 -149.931777954114068 -329.407478332582059
9.630201339718946 -144.210845947278131 -332.512237548890653
-52.986286163332814 -152.028137207043756 -331.261550903382840
-52.451328277590626 -144.471908569348443 -331.008316040101590
4.393423080441602 -143.621490478528131 -331.101829528871122
10.060842514035352 -153.141113281262506 -329.111892700257840
-57.669303894045704 -147.337203979504693 -334.808074951234403
16.014183044430858 -148.346481323254693 -332.474044799867215
8.373910903927930 -144.008804321301568 -335.582351684632840
-54.443904876711720 -146.184997558606256 -332.668235778871122
7.180187225339063 -144.611450195325006 -332.165435791078153
17.686656951901561 -141.973419189465631 -336.222030639710965
96.927967071530475 -141.381622314465631 -333.391128540101590
-52.457702636721486 -140.848876953137506 -334.580352783265653
-51.665496826174611 -141.153625488293756 -335.163963317933622
15.834932327267774 -137.935592651379693 -337.774421691957059
94.796825408932818 -142.177429199231256 -329.550201416078153
-50.233013153078907 -138.478698730481256 -331.888916015687528
-40.035514831545704 -135.193252563489068 -329.796779632630887
92.436649322507037 -142.281356811535943 -329.476131439271512
-50.832363128664845 -135.972549438489068 -332.689941406312528
-51.904796600344532 -133.560729980481256 -332.878929138246122
0.789769172665723 -137.216171264660943 -332.967269897523465
-37.761657714846486 -130.707534790051568 -338.305496215882840
1.510498046872266 -134.553024292004693 -337.445449829164090
-35.726131439211720 -126.825897216809381 -331.659225463929715
90.247890472409381 -127.919555664075006 -334.186401367250028
-48.883167266848439 -132.308837890637506 -330.152694702210965
95.771961212155475 -131.839233398450006 -332.335868835511747
-49.749271392825001 -133.174896240246881 -332.781944274964872
-168.678974151614057 -123.581695556653131 -331.621543884339872
92.895008087155475 -122.826660156262506 -332.838562011781278
-42.729417800906056 -130.098861694348443 -336.320060730042997
91.938137054440631 -124.068328857434381 -329.087703704896512
89.278919219967975 -129.302520751965631 -331.130424499574247
5.544279098508008 -122.673934936535943 -333.941184997621122
-43.162397384646290 -122.558105468762506 -332.322204589906278
-37.127630233767384 -125.550201416028131 -331.038696289125028
-36.095951080325001 -124.168457031262506 -333.110992431703153
-162.308673858645307 -124.152069091809381 -331.565307617250028
-159.777271270754682 -119.358398437512506 -333.915420532289090
-3.531847000124804 -123.123977661145318 -331.397567749085965
4.015972137448438 -114.011428833020318 -335.702423095765653
-128.728618621828900 -117.524810791028131 -334.221160888734403
92.393337249753131 -125.232650756848443 -334.434463501039090
86.678279876706256 -124.106765747082818 -332.805580139222684
-170.784229278567182 -117.525787353528131 -331.068836212220731
-42.784154891970509 -120.075714111340631 -331.397010803285184
-4.138931274416796 -114.601409912121881 -330.908042907777372
-5.228789329531542 -113.327041625989068 -332.078742981019559
-138.578189849856244 -114.284225463879693 -337.394882202210965
-128.884189605715619 -119.648422241223443 -333.242012023988309
-143.562717437746869 -116.897781372082818 -335.192512512269559
-125.733554840090619 -116.518890380871881 -333.268104553285184
-32.453521728518361 -119.614990234387506 -331.866111755433622
-131.711589813235150 -113.916595458996881 -335.299179077210965
-132.635646820071088 -113.071380615246881 -332.920715332093778
-28.341773033144825 -115.725418090832818 -332.998405456605497
-5.623147010805956 -113.610977172864068 -331.259910583558622
83.104938507077350 -102.680023193371881 -330.282352447572293
6.998142242428907 -117.056976318371881 -334.121589660707059
-182.533100128176557 -108.747039794934381 -332.478157043519559
-31.509937286379689 -111.064392089856256 -336.846832275453153
85.774166107175006 -107.306350708020318 -332.637283325257840
-152.043369293215619 -112.083251953137506 -331.588035583558622
-140.238407135012494 -107.835372924817193 -332.480110168519559
-38.571445465090626 -113.355102539075006 -339.006988525453153
-146.749042510989057 -113.487030029309381 -331.710830688539090
-148.794574737551557 -110.553131103528131 -331.104164123597684
76.414386749264850 -111.598587036145318 -331.367118835511747
-25.695709228518361 -105.923873901379693 -336.058349609437528
-3.229921340945117 -105.147155761731256 -331.111686706605497
-157.203037261965619 -104.472167968762506 -335.462257385316434
4.079967498776563 -108.482833862317193 -334.981491088929715
78.187084197995318 -106.923751831067193 -333.515869140687528
-178.116748809817182 -109.678817749035943 -332.923027038636747
-26.164422988894337 -100.141418457043756 -333.605743408265653
-18.627349138262623 -97.592803955090631 -335.458053588929715
-4.406276702883593 -98.529296875012506 -334.933395385804715
-3.622375488283984 -99.893798828137506 -329.262184143128934
-107.102184295657025 -98.468490600598443 -334.456649780335965
68.971004486081256 -97.442550659192193 -329.830867767396512
-103.362567901614057 -98.825439453137506 -337.282173156800809
-105.788936614992963 -94.615203857434381 -332.601524353089872
-6.235191345217578 -100.532363891614068 -333.598136901917997
1.751121520993360 -98.144317626965631 -328.105907440248075
-31.080421447756642 -97.312469482434381 -332.862541198792997
-27.112071037295216 -101.673828125012506 -331.082080841126981
-106.434055328371869 -96.748992919934381 -330.177352905335965
-112.619159698489057 -94.572021484387506 -329.055553436341825
0.466084480282911 -94.032791137707818 -334.006721496644559
-118.807979583742963 -93.216476440442193 -329.636596679750028
-17.213235139849537 -94.834060668957818 -329.796421051087918
-28.110219001772755 -93.193725585950006 -331.441688537660184
-16.527391076090687 -91.249923706067193 -331.810997009339872
-176.685001373293744 -95.177413940442193 -330.786861419740262
-3.156847000124804 -94.902862548840631 -329.269058227601590
71.625949859616412 -88.208526611340631 -330.210865020814481
-4.220303535464160 -94.224105834973443 -331.239631652894559
-162.932651519778119 -85.353652954114068 -332.119537353578153
-5.335401535036914 -87.604034423840631 -334.111457824769559
-146.763263702395307 -89.374496459973443 -328.753799438539090
-113.104755401614057 -89.301834106457818 -334.140625000062528
-24.969665527346486 -90.503341674817193 -332.327842712464872
-132.821178436282025 -86.862747192395318 -334.249618530335965
-31.491439819338673 -89.344619750989068 -338.686920166078153
-28.632131576540822 -89.518112182629693 -331.853507995667997
-150.348789215090619 -85.394332885754693 -337.175270080628934
-133.053318023684369 -82.258346557629693 -332.178894043031278
2.677940368649610 -86.115844726575006 -331.318344116273465
65.436542510983600 -86.714416503918756 -336.534179687562528
-11.105057239535205 -91.425201416028131 -331.510787963929715
-180.022754669192182 -83.153869628918756 -329.331512451234403
-12.546179056170336 -87.594543457043756 -334.288116455140653
-121.952533721926557 -86.464813232434381 -335.550521850648465
59.672908782956249 -85.483749389660943 -336.716018676820340
67.592662811276568 -79.729446411145318 -333.862823486390653
-125.802158355715619 -81.337234497082818 -332.760185241761747
-13.369645118716113 -79.084747314465631 -329.855163574281278
-137.741275787356244 -78.864242553723443 -334.912902832093778
-132.080692291262494 -80.237060546887506 -332.102653503480497
-20.912031173708790 -79.939941406262506 -331.683700561585965
63.047260284421093 -81.883895874035943 -332.485534668031278
-22.418575286867970 -82.574493408215631 -335.256553649964872
-148.908237457278119 -77.848510742200006 -333.718833923402372
-7.160601139071337 -74.297042846692193 -332.348228454652372
57.609348297116405 -85.660614013684381 -333.930648803773465
52.892574310299999 -80.034439086926568 -334.023002624574247
56.681453704831249 -78.243072509778131 -329.954448700013700
-147.637561798098432 -82.605758667004693 -333.114349365296903
1.053289413449415 -75.137222290051568 -331.444061279359403
57.939174652096874 -81.896255493176568 -330.183383941712918
-22.220523357394093 -80.269607543957818 -334.052917480531278
-17.049389123919362 -79.363082885754693 -332.508407592835965
-0.838223457339160 -78.472061157239068 -328.116420745912137
54.964412689206249 -76.840408325207818 -336.035186767640653
47.331764221188671 -78.390075683606256 -332.126243591371122
49.494441986081249 -69.278961181653131 -329.950839996400418
-185.306232452395307 -78.508804321301568 -332.799530029359403
-158.883380889895307 -76.583694458020318 -332.869926452699247
-3.854806900027148 -80.224304199231256 -329.168636322084012
-17.931581020357960 -74.798919677746881 -333.049156189027372
7.869016647336133 -73.387512207043756 -335.194335937562528
39.608283996579296 -74.873397827160943 -334.218505859437528
-18.416201114657277 -73.757507324231256 -331.640914917054715
-2.186053276064746 -72.753204345715631 -333.819557190003934
47.906421661374218 -72.306671142590631 -332.914215087953153
-37.653667449953907 -70.152877807629693 -338.292076110902372
-5.053245544436328 -72.060409545910943 -330.771923065248075
-22.132504940035695 -69.071319580090631 -327.028423309388700
-13.530717134478442 -67.381500244153131 -331.613677978578153
-10.915335178377978 -71.022216796887506 -333.370170593324247
50.224781036374218 -69.147735595715631 -332.109771728578153
-18.557539224627369 -71.352188110364068 -330.726539611878934
-9.108503341677539 -68.725280761731256 -329.808479309144559
-160.996723175051557 -75.274154663098443 -333.623550415101590
-19.419113159182423 -71.139236450207818 -332.433967590394559
-179.370059967043744 -75.334594726575006 -328.438404083314481
40.657135009762889 -71.732635498059381 -333.815696716371122
47.072959899899608 -68.735794067395318 -329.732982635560575
-0.318501472475878 -71.182052612317193 -335.378135681214872
-179.132480621340619 -61.397735595715631 -333.844627380433622
47.714370727536327 -65.049530029309381 -334.039749145570340
43.573684692380077 -63.502288818371881 -332.764663696351590
38.660552978512889 -67.300811767590631 -336.407569885316434
-90.335414886477338 -63.694763183606256 -336.066482544007840
-22.994913101199025 -62.003234863293756 -335.910263061585965
45.960670471188671 -64.586242675793756 -328.408611297669950
-82.317310333254682 -64.501129150403131 -330.601242065492215
-91.031810760500775 -65.827850341809381 -331.595733642640653
-85.629566192629682 -63.320709228528131 -326.875823974671903
-103.065029144289838 -59.597290039075006 -333.544067382875028
-83.410892486574994 -61.564208984387506 -329.039653778138700
36.576946258542186 -62.637664794934381 -334.048843383851590
-109.080425262453900 -63.722503662121881 -336.140373230042997
-98.370792388918744 -58.692321777356256 -331.021324157777372
-143.181125640871869 -54.014526367200006 -328.687374115052762
-187.005039215090619 -58.576538085950006 -332.203765869203153
-149.000003814699994 -56.375183105481256 -330.842323303285184
-92.764133453371869 -58.434112548840631 -337.321197509828153
23.461143493649608 -63.388061523450006 -332.385963440003934
-152.142627716067182 -62.882415771496881 -330.863388061585965
-123.806461334231244 -54.663146972668756 -329.517951965394559
-96.811435699465619 -59.239074707043756 -338.442276001039090
24.266090393063671 -56.364440917981256 -337.131439209046903
-127.243282318117963 -53.876770019543756 -334.392997741761747
-99.133548736574994 -54.467102050793756 -334.940704345765653
-111.122264862063275 -51.556152343762506 -336.751167297425809
19.818359374997264 -51.969635009778131 -333.394042968812528
-27.617829322817677 -51.164306640637506 -331.378273010316434
-124.258609771731244 -49.482055664075006 -336.843170166078153
-153.698856353762494 -45.212493896496881 -329.435550689759793
-135.318950653078900 -57.161163330090631 -330.771701812806668
-172.745960235598432 -50.786193847668756 -332.263801574769559
-142.958805084231244 -45.312438964856256 -330.670757293763700
-185.994083404543744 -52.211425781262506 -335.220878601136747
-161.466129302981244 -49.341979980481256 -332.202423095765653
-167.311023712160932 -46.725433349621881 -330.412475586000028
-33.567228317263478 -46.582305908215631 -330.744144439759793
-180.335285186770307 -37.476867675793756 -332.502624511781278
-30.532459259035939 -41.785736083996881 -334.292381286683622
-174.338596343996869 -37.927917480481256 -337.609367370667997
-169.558231353762494 -41.991333007825006 -327.545349121156278
-183.922122955324994 -39.015075683606256 -331.423744201722684
-173.404834747317182 -37.786163330090631 -332.343009948792997
-28.329463005068654 -33.362670898450006 -329.563682556214872
-175.733005523684369 -30.863708496106256 -331.675880432191434
-168.386112213137494 -33.191528320325006 -332.319984436097684
-148.988040924074994 -31.402770996106256 -339.094459533753934
-171.295032501223432 -25.130310058606256 -328.728931427064481
-159.622684478762494 -35.046142578137506 -324.782386779847684
-147.790821075442182 -25.421630859387506 -338.967697143617215
-24.994461059573048 -28.299835205090631 -329.575756073060575
-135.772739410403119 -28.319427490246881 -335.582221984925809
-158.374897003176557 -30.810974121106256 -331.460678100648465
-155.024143218996869 -33.066955566418756 -330.748508453431668
-130.456287384035932 -25.962219238293756 -332.946929931703153
-113.142658233645307 -31.160095214856256 -332.369636535707059
-90.019496917727338 -26.462524414075006 -337.344573974671903
-88.905605316164838 -25.678680419934381 -334.343498230042997
-81.824329376223432 -25.788543701184381 -331.832084655824247
-80.135280609133588 -25.323974609387506 -330.916160583558622
-74.404373168948041 -27.142730712903131 -334.871292114320340
-21.097213268282765 -25.321044921887506 -338.235641479554715
-64.513710021975385 -24.614807128918756 -328.196640014710965
-65.797092437746869 -21.081604003918756 -333.934242248597684
-69.481536865237103 -25.149261474621881 -332.772689819398465
-83.629413604739057 -25.059173583996881 -332.383110046449247
-74.731052398684369 -27.158813476575006 -329.081741333070340
-80.293064117434369 -25.524749755871881 -334.079887390199247
-107.080936431887494 -19.014343261731256 -334.179824829164090
-95.934276580813275 -23.491882324231256 -333.859062194886747
-13.053957104685656 -22.613769531262506 -332.062973022523465
-114.697460174563275 -23.190795898450006 -328.912509918275418
-139.605220794680463 -21.513610839856256 -337.478698730531278
-175.297351837160932 -22.265747070325006 -333.390365600648465
-153.385959625246869 -17.963165283215631 -334.270507812562528
-174.198474884035932 -20.343475341809381 -330.834472656312528
-139.906978607180463 -16.389617919934381 -333.267669677796903
-144.279056549074994 -19.213989257825006 -334.282455444398465
-161.340457916262494 -19.026550292981256 -339.573028564515653
-173.071491241457807 -15.452117919934381 -329.180515289369168
-162.518955230715619 -8.215728759778131 -340.266433715882840
-169.916980743410932 -9.773010253918756 -328.011096954408231
-158.829135894778119 2.930603027331244 -334.778762817445340
12.549083709714063 -299.139963150036920 -333.959075927796903
32.869930267331249 -295.300498962414849 -331.536437988343778
8.098085403439649 -285.267070770276177 -332.007133483949247
29.600566864010936 -284.918785095227349 -330.669208526673856
25.818260192868358 -278.786441802991021 -332.088661193910184
33.415481567380077 -280.554580688489068 -334.496543884339872
13.539079666134961 -274.712928771985162 -334.275833129945340
-63.083106994631642 -265.632518768323052 -329.223304748597684
-68.469169616701947 -264.656623840344537 -331.476203918519559
-81.203556060793744 -259.537391662610162 -329.958606720033231
-88.988307952883588 -260.402130126965631 -333.238578796449247
-107.779415130617963 -250.512687683117974 -327.722553253236356
-29.833451271059864 -245.054878234875787 -331.375068664613309
70.388317108151568 -247.450653076184381 -330.517395019593778
66.588970184323443 -246.053413391125787 -327.911270141664090
59.716876983639843 -245.204208374035943 -333.845024108949247
59.897769927975780 -244.995391845715631 -328.714286804261747
79.513011932370318 -242.957733154309381 -333.723571777406278
77.567707061764850 -242.944931030285943 -332.245925903382840
-106.643238067629682 -246.516166687024224 -333.579910278382840
56.608196258542186 -241.698127746594537 -333.883842468324247
-104.372539520266400 -235.875167846692193 -337.832603454652372
-55.068798065188282 -234.185478210461724 -329.897762298646512
-47.335826873782032 -235.636146545422662 -330.796546936097684
-58.099071502688282 -228.137573242200006 -333.336128234925809
-109.671482086184369 -224.376541137707818 -326.427417755189481
38.778781890866405 -226.440696716321099 -333.357208252015653
48.717681884762889 -226.509872436535943 -331.580421447816434
89.824527740475787 -226.206680297864068 -331.456214904847684
-70.359966278078900 -225.808471679700006 -330.729484558167997
50.509441375729686 -221.842674255383599 -329.780086517396512
81.845035552975787 -215.798881530774224 -334.384651184144559
28.970375061032421 -216.068016052258599 -331.629791259828153
81.560169219967975 -210.997688293469537 -332.596069336000028
29.559833526608593 -215.348365783703912 -332.102455139222684
89.234966278073443 -213.716423034680474 -334.419586181703153
47.138008117673046 -217.349380493176568 -334.441543579164090
54.818210601803905 -216.716125488293756 -332.912170410218778
91.896137237546100 -216.481750488293756 -337.484878540101590
61.324481964108593 -218.623260498059381 -334.300834655824247
-87.460285186770307 -215.160400390637506 -329.030967712464872
-88.018558502199994 -213.028068542492974 -333.506202697816434
43.257053375241405 -212.959098815930474 -332.785987854066434
84.821842193600787 -212.872123718274224 -328.562931060853543
88.724002838132037 -206.993850708020318 -333.322753906312528
87.208187103268756 -213.658950805676568 -331.102294921937528
67.302165985104693 -211.028594970715631 -334.202072143617215
94.598873138425006 -203.935142517102349 -329.909290313783231
37.174613952633983 -207.669410705578912 -334.383255004945340
74.009258270260943 -208.359626770032037 -327.238132476869168
64.759586334225787 -205.200828552258599 -333.694557190003934
32.729892730710155 -206.959426879895318 -327.933219909730497
97.466289520260943 -201.173126220715631 -333.435737609925809
32.570014953610546 -200.305633544934381 -329.515441894593778
32.229942321774608 -203.501930236828912 -335.144737243714872
-95.892765045168744 -203.375442504895318 -333.710411071839872
95.015026092526568 -199.642372131360162 -330.432487487855497
93.744091033932818 -202.117874145520318 -328.966537475648465
22.851219177243358 -204.769767761242974 -329.308391571107450
97.233852386471881 -203.009239196789849 -331.087451934876981
32.215488433835155 -200.777610778821099 -326.922943115296903
93.411251068112506 -201.134330749524224 -329.919006347718778
95.719081878659381 -204.431381225598443 -330.175174713197293
-93.427509307864057 -200.875885009778131 -333.578048706117215
-90.788730621340619 -195.194976806653131 -335.477874755921903
27.340385437008983 -191.329757690442193 -331.275798797669950
-99.489025115969525 -193.960784912121881 -329.429130554261747
32.191253662106639 -193.235733032239068 -334.169372558656278
21.183162689206249 -196.421936035168756 -334.143157959046903
100.013004302975787 -195.209754943860162 -334.968605041566434
99.916011810300006 -185.456649780285943 -330.255599975648465
-102.450618743899213 -188.063751220715631 -331.258029937806668
21.780349731442577 -193.188598632825006 -331.910285949769559
92.472438812253131 -190.063079833996881 -331.967117309632840
-96.138599395754682 -182.619445800793756 -332.653213501039090
-92.306995391848432 -188.209381103528131 -335.988960266175809
-89.075763702395307 -187.992080688489068 -332.688682556214872
19.187389373776561 -186.288284301770318 -334.798515319886747
-65.310092926028119 -183.001892089856256 -334.022529602113309
-79.260738372805463 -184.843795776379693 -334.649322509828153
-70.997520446780072 -186.175354003918756 -331.817771911683622
-98.895702362063275 -178.080093383801568 -326.914791107240262
-89.016452789309369 -179.830932617200006 -331.127143859925809
-94.155559539797650 -179.855545043957818 -330.482116699281278
-65.618412017824994 -182.393966674817193 -334.734039306703153
91.882419586178912 -177.790771484387506 -330.500537872376981
-106.035556793215619 -173.116104125989068 -334.385108947816434
16.469089508053905 -181.429779052746881 -333.279624939027372
-88.052913665774213 -176.909683227551568 -335.065124511781278
23.374637603757030 -174.294799804700006 -338.834915161195340
-93.563053131106244 -182.884185791028131 -337.972610473695340
14.769269943234571 -170.536636352551568 -332.305267334046903
9.456832885739454 -177.363601684582818 -329.525135040345731
93.870243072507037 -176.329910278332818 -332.213577270570340
-66.366207122805463 -168.058242797864068 -329.919410705628934
14.832263946530469 -169.750976562512506 -333.436317443910184
-84.706951141360150 -167.107574462903131 -329.614253997865262
-85.162654876711713 -165.838653564465631 -328.847457885804715
-63.177925109866017 -164.832763671887506 -331.895629882875028
23.802612304684764 -171.407470703137506 -329.670173645082059
93.736293792721881 -168.546112060559381 -328.935462951722684
-58.840961456301564 -166.433746337903131 -328.424449920716825
10.677740097043165 -163.999771118176568 -329.849174499574247
101.118122100827350 -162.403549194348443 -330.202735900941434
16.712978363034374 -164.411575317395318 -326.198680877748075
97.502445220944537 -171.228958129895318 -330.591659545960965
-72.405452728274213 -162.781890869153131 -329.762081146302762
10.550701141354688 -166.157333374035943 -332.310821533265653
-90.155773162844525 -165.739547729504693 -328.308498382630887
-71.227642059328900 -164.524429321301568 -333.565422058167997
-83.249683380129682 -163.931579589856256 -325.951461792054715
0.706008911130079 -171.354843139660943 -330.704730987611356
-63.154514312746876 -165.229263305676568 -331.906730651917997
-66.194034576418744 -161.883972167981256 -332.749755859437528
-71.161018371584760 -161.000991821301568 -334.046394348207059
11.595838546750196 -161.929138183606256 -328.678970336976590
96.664745330807818 -162.451736450207818 -327.639053344789090
-78.991764068606244 -164.777389526379693 -327.695121765199247
-63.824172973635548 -162.891235351575006 -332.024429321351590
-80.725101470949994 -157.273544311535943 -332.434303283753934
-6.008069038393847 -161.232437133801568 -330.397350311341825
-13.733089089396350 -154.622634887707818 -329.521514892640653
-55.188793182375782 -152.641525268567193 -333.517471313539090
-62.381229400637501 -151.768249511731256 -331.637702941957059
-11.692137241366259 -156.230133056653131 -329.543750763001981
-5.302746772768847 -155.787460327160943 -330.442504882875028
95.047428131100787 -160.378311157239068 -330.376365661683622
99.712612152096881 -156.944656372082818 -331.511734008851590
93.829425811764850 -152.514663696301568 -331.605117797914090
-6.072690963747851 -156.212310791028131 -331.433609008851590
-11.050479173663012 -148.150314331067193 -327.072998046937528
4.701915740964063 -157.905853271496881 -332.667076110902372
0.112344741818555 -156.184219360364068 -332.190017700257840
14.541646957394727 -152.515838623059381 -332.378128051820340
97.424930572507037 -151.460891723645318 -328.667755127015653
94.307048797604693 -148.230133056653131 -329.687076568666043
95.447147369382037 -145.045684814465631 -329.330295562806668
10.015083312985547 -151.926879882825006 -331.518592834535184
94.891689300534381 -151.298355102551568 -328.454967498841825
9.772048950192579 -146.382766723645318 -330.336528778138700
11.760328292843946 -144.884124755871881 -331.161621093812528
97.524387359616412 -148.185455322278131 -329.500820159974637
95.541622161862506 -140.609054565442193 -328.821315765443387
-45.716281890871876 -138.607910156262506 -333.485809326234403
96.617168426510943 -141.791793823254693 -337.227638244691434
1.444713592526563 -138.214630126965631 -330.538799285951200
7.689649581906446 -145.400588989270318 -328.965728759828153
99.708454132077350 -138.041351318371881 -333.633155822816434
101.874332427975787 -147.365798950207818 -327.074325561585965
4.777069091794141 -136.467178344739068 -333.027343750062528
7.126998901364454 -146.890762329114068 -330.573509216371122
-54.605884552004689 -137.171722412121881 -331.066635131898465
97.605838775632037 -136.358535766614068 -330.079189300599637
-121.336460113528119 -137.607788085950006 -328.749443054261747
-156.653797149660932 -133.367187500012506 -331.481590271058622
95.110210418698443 -136.605651855481256 -334.129524231019559
-48.468601226809376 -128.918975830090631 -332.026351928773465
11.105665206906446 -135.114807128918756 -333.655693054261747
-4.487880706789843 -128.036926269543756 -330.249710083070340
95.801235198971881 -131.039688110364068 -330.277164459291043
9.858839035031446 -130.443893432629693 -332.926956176820340
9.103719711300977 -129.555709838879693 -335.862495422425809
-169.032154083254682 -133.587265014660943 -336.993507385316434
-47.797973632815236 -131.356002807629693 -332.362449646058622
-129.228092193606244 -127.250701904309381 -329.156238555970731
-40.189786911013478 -120.726119995129693 -327.595237731996122
0.593244552609571 -128.314117431653131 -329.630886077943387
10.842617034909376 -124.396575927746881 -332.436820983949247
-127.734050750735150 -124.291625976575006 -332.812889099183622
-127.457553863528119 -124.669006347668756 -329.951759338441434
6.585954666134961 -125.011535644543756 -334.317443847718778
90.857532501217975 -124.863632202160943 -328.852756500306668
-1.766713142397753 -121.516082763684381 -331.856346130433622
-38.725276947024220 -126.340393066418756 -330.468627929750028
-44.616893768313282 -120.427764892590631 -332.137390136781278
-37.801321029665822 -124.672042846692193 -334.862998962464872
-1.840602874758593 -128.821151733410943 -332.691047668519559
6.144983291623243 -117.417984008801568 -329.664340972962918
-169.748737335207807 -118.901687622082818 -332.402816772523465
-156.293201446535932 -121.035415649426568 -330.921619415345731
-29.701425552370900 -120.609512329114068 -329.631889343324247
-138.258266448977338 -120.576797485364068 -336.474815368714872
-35.535720825198048 -124.074722290051568 -331.985725402894559
-150.984134674074994 -115.813140869153131 -333.179519653382840
-34.251466751101368 -118.370819091809381 -328.680206298890653
-2.519945144656054 -120.232986450207818 -331.286529541078153
-181.286289215090619 -120.929061889660943 -329.377273559632840
83.871395111081256 -117.080291748059381 -329.599613189759793
-128.114536285403119 -117.930099487317193 -328.004714965882840
-39.423818588259572 -113.377151489270318 -330.142673492494168
4.357772827145704 -112.850601196301568 -332.266975402894559
-30.487607002261036 -116.804687500012506 -329.620193481507840
-2.854212760928027 -115.642929077160943 -332.162017822328153
4.550460815426954 -118.908248901379693 -331.768882751527372
-33.090414047243947 -114.930145263684381 -331.338745117250028
86.039737701413287 -114.245208740246881 -333.623786926332059
-6.718041419985644 -113.944793701184381 -329.143272399964872
-128.905467987063275 -113.366409301770318 -327.805477142396512
-42.968534469607228 -109.647949218762506 -334.308372497621122
-134.221538543703900 -110.675781250012506 -333.725234985414090
-148.760105133059369 -108.431396484387506 -330.100540161195340
-132.788616180422650 -109.510864257825006 -328.271873474183622
-128.020092010500775 -106.435546875012506 -327.659042358460965
-4.875615119936816 -110.455612182629693 -332.227195739808622
-0.787811279299609 -111.070816040051568 -328.049522399964872
-159.752918243410932 -105.463882446301568 -332.181510925355497
0.703332900998243 -113.496582031262506 -330.395767211976590
-151.528095245364057 -108.220382690442193 -331.251914978089872
-36.387022018435353 -117.026458740246881 -328.697818756166043
-29.799029350283497 -107.430587768567193 -331.413551330628934
-1.858365058901660 -105.016662597668756 -333.746246337953153
81.893047332760943 -107.685592651379693 -331.729461669984403
-183.911746978762494 -102.191009521496881 -334.639106750550809
-25.786757469179982 -106.889419555676568 -330.673477172914090
83.611179351803912 -108.895950317395318 -331.193675994935575
-31.194128036501759 -100.908630371106256 -335.267318725648465
-6.104257583620898 -95.916976928723443 -332.832649231019559
78.353923797604693 -98.390991210950006 -331.246536254945340
-33.838533401491993 -99.394088745129693 -336.440025329652372
-4.094124794009081 -103.090957641614068 -328.403427124085965
79.860836029050006 -101.196929931653131 -339.108406066957059
-3.187407493594042 -107.312637329114068 -333.551300048890653
5.760881423947461 -102.119979858410943 -337.872924804750028
73.051418304440631 -100.303863525403131 -329.243793487611356
2.437482833859571 -97.433990478528131 -330.652690887513700
4.028478622433790 -96.578582763684381 -334.827583313050809
-33.671491622927540 -98.106658935559381 -336.706573486390653
-5.622621536257617 -103.705902099621881 -332.922027587953153
-157.739871978762494 -90.156036376965631 -327.932098388734403
-26.462583541872853 -97.614685058606256 -331.077491760316434
70.249515533444537 -100.115402221692193 -330.998298645082059
-30.593477249148243 -100.000854492200006 -333.368087768617215
-109.676990509035932 -95.245513916028131 -330.394199371400418
5.974636077878126 -96.330245971692193 -329.994770050111356
-104.611087799074994 -91.932098388684381 -335.594642639222684
-19.364221096041554 -100.224624633801568 -328.662704467835965
69.862453460690631 -94.121154785168756 -333.105056762757840
77.897106170651568 -94.985488891614068 -330.692905426087918
73.042171478268756 -95.054977417004693 -332.244071960511747
-111.398517608645307 -91.130126953137506 -327.724098205628934
-181.518329620364057 -92.610260009778131 -328.540077209535184
-119.317691802981244 -96.573577880871881 -334.794624328675809
-104.641231536867963 -91.500930786145318 -335.735366821351590
-2.738523483279101 -86.603485107434381 -329.960681915345731
-13.918103098872058 -94.191040039075006 -332.792137146058622
67.844684600827350 -94.868621826184381 -329.045593261781278
-151.953739166262494 -87.579101562512506 -328.460601806703153
-144.529987335207807 -89.108337402356256 -333.228378295960965
-129.889064788821088 -83.786987304700006 -329.654979705873075
-124.211673736574994 -89.764358520520318 -333.091339111390653
-8.083979129793994 -92.273208618176568 -336.231185913148465
-147.817111968996869 -85.875549316418756 -333.214729309144559
-132.344333648684369 -87.824584960950006 -332.353622436585965
-36.267871856692189 -94.593139648450006 -330.353664398255887
-25.158263206484669 -83.565887451184381 -334.125778198304715
62.356189727780468 -87.374786376965631 -328.524448394837918
-126.152614593508588 -85.629547119153131 -329.752521514955106
-22.641431331637257 -89.845428466809381 -329.306877136292997
-31.521282196047657 -86.359909057629693 -329.598548889222684
-20.833177089693898 -83.141876220715631 -335.979515075746122
-17.623873233797902 -86.685241699231256 -338.684638977113309
-22.128748893740529 -88.214080810559381 -329.204017639222684
-119.561878204348432 -80.043151855481256 -331.755538940492215
1.219934463498243 -83.617034912121881 -328.004718780580106
-25.977703094485157 -85.678161621106256 -332.526466369691434
68.192417144772662 -87.551544189465631 -327.308658599916043
-177.277515411379682 -89.168350219739068 -334.508789062562528
-127.178165435793744 -74.714584350598443 -330.472381591859403
-5.571516990664355 -82.840698242200006 -334.254753112855497
-17.788783073428029 -82.274078369153131 -329.879386901917997
61.340999603268749 -81.360824584973443 -330.552612304750028
-11.301679134371630 -81.270706176770318 -331.899032592835965
-28.414431571963185 -80.972396850598443 -334.524124145570340
-131.079662323000775 -81.542556762707818 -328.601284027162137
-152.447055816653119 -81.011932373059381 -331.189060211244168
-2.389015197756640 -82.340927124035943 -336.350769043031278
-169.084430694582807 -80.441879272473443 -328.986583709779325
-24.548422813418263 -81.149322509778131 -333.198570251527372
-169.356357574465619 -75.705139160168756 -326.225044250550809
-155.205890655520307 -76.950622558606256 -330.534751892152372
51.350200653073436 -83.688949584973443 -335.667060852113309
-20.223145008089894 -75.513046264660943 -331.056892395082059
-9.458631038668505 -74.446243286145318 -333.904144287171903
52.636234283444530 -79.059188842785943 -329.780361175599637
62.033733367917186 -76.663482666028131 -333.222663879457059
-5.523497581484667 -76.701934814465631 -334.879005432191434
53.574726104733593 -80.680892944348443 -329.983352661195340
51.897403717038280 -72.054107666028131 -331.448265075746122
-15.223815128209941 -77.300064086926568 -329.849315643373075
44.839614868161327 -75.561050415051568 -332.322067260804715
-14.160177111628405 -76.636764526379693 -331.213714599671903
43.133708953854686 -75.406097412121881 -331.853004455628934
-180.235279083254682 -75.188507080090631 -326.874534606996122
-34.160692214968556 -76.016662597668756 -331.017368316712918
-8.641006946566455 -71.945022583020318 -331.838928222718778
-15.844163119795672 -73.440322875989068 -327.225063324037137
-3.374069213869921 -71.028823852551568 -333.115684509339872
-31.340274810793751 -69.956771850598443 -335.459991455140653
-8.287463188174121 -72.798980712903131 -336.422508239808622
47.885944366452343 -69.185607910168756 -330.827701568666043
-170.859134674074994 -69.720138549817193 -332.578224182191434
-170.825778961184369 -68.077377319348443 -329.371292114320340
47.081474304196483 -72.867340087903131 -335.959541320863309
-30.703823089602345 -67.547805786145318 -331.593368530335965
37.595565795895702 -67.628128051770318 -332.035545349183622
40.777584075924999 -67.067718505871881 -333.479393005433622
-158.570911407473432 -62.430206298840631 -335.391319274964872
-29.764589309695118 -63.602844238293756 -333.222953796449247
38.897563934323436 -66.416748046887506 -329.854503631654325
10.654472351071485 -61.933380126965631 -335.109687805238309
30.606273651120311 -63.721923828137506 -330.988716125550809
-97.679592132571088 -62.874389648450006 -330.158504486146512
-92.120899200442182 -63.912780761731256 -330.974578857484403
34.002506256100780 -66.467773437512506 -326.250843048158231
-100.452045440676557 -59.071807861340631 -331.197128295960965
-88.006946563723432 -63.675903320325006 -329.314338684144559
26.753372192380077 -61.635864257825006 -331.697875976625028
-107.874050140383588 -65.857879638684381 -330.573089599671903
-92.447933197024213 -60.311645507825006 -331.536369323792997
-91.279270172121869 -56.759429931653131 -331.136203765931668
-29.761034965517872 -62.405456542981256 -328.626464843812528
-160.401020050051557 -61.194366455090631 -329.642757415834012
-169.701648712160932 -59.112792968762506 -334.779930114808622
18.809883117673046 -55.329345703137506 -332.047424316468778
-111.516246795657025 -59.401672363293756 -331.988739013734403
-28.345909118655079 -55.351867675793756 -331.668586731019559
-167.514575958254682 -58.178314208996881 -327.571151733460965
-155.095630645754682 -61.942993164075006 -330.680946350160184
32.998786926266796 -60.672271728528131 -333.888328552308622
-149.176792144778119 -56.580169677746881 -332.275344848695340
-137.821926116946088 -56.560363769543756 -330.607257843080106
21.406017303464061 -56.529449462903131 -334.985137939515653
-138.712154388430463 -56.547790527356256 -329.031791687074247
-133.316364288332807 -55.250915527356256 -332.674301147523465
29.545635223385936 -56.740875244153131 -335.680030822816434
-111.863925933840619 -59.815551757825006 -329.353778839173856
-170.996524810793744 -57.043945312512506 -332.942123413148465
5.116559982297071 -57.187469482434381 -332.192863464417997
