# This PCD file was generated using the MATLAB® pcwrite function
# from Computer Vision Toolbox®.
# .PCD v.7 - Point Cloud Data file format
VERSION .7
FIELDS x y z
SIZE 8 8 8
TYPE F F F
COUNT 1 1 1
WIDTH 776
HEIGHT 1
VIEWPOINT 0 0 0 1 0 0 0
POINTS 776
DATA ascii
-91.649005889947659 -235.304191589436698 -343.816581726008621
-45.380664825494534 -234.161262512288260 -342.271392822200028
-45.880550384576566 -232.668258667073417 -344.924667358332840
-94.446666717584378 -228.358345031819510 -342.436027526789871
-60.453609466607816 -226.109771728596854 -342.565284728938309
-68.569015502984769 -220.865470886311698 -339.497657775813309
-75.298931121881253 -216.695594787678885 -344.765853881770340
-76.069622039850003 -213.748847961507010 -341.201736450129715
-87.710224151666409 -210.323051452717948 -343.405754089289871
-98.093852996881253 -205.267761230549979 -341.885833740168778
29.522842407171485 -203.666564941487479 -342.853332519465653
25.488826751653907 -194.923110961995292 -344.323074340754715
25.222400665228125 -196.918792724690604 -341.662986755305496
30.952365875189063 -195.138031005940604 -341.378982543879715
26.971313476507422 -194.487014770589042 -340.942352294856278
21.503356933538672 -179.613800048909354 -341.830924987727371
23.645500183050391 -186.521743774495292 -342.792228698664871
20.163074493353125 -174.658691406331229 -343.442024230891434
15.475421905462500 -169.323898315510917 -341.830535888606278
15.155084609930274 -158.847808837971854 -343.938644409114090
-55.485023498590238 -151.532440185628104 -342.943908691340653
-53.103481292779691 -154.149688720784354 -341.794616699153153
-51.102348327691800 -146.431747436604667 -342.479873657160965
-74.210113525445706 -145.614822387776542 -340.533004760676590
-18.666830539758447 -142.268920898518729 -340.544372558528153
10.877220153753516 -146.626434326253104 -341.577964782649246
-22.314488411004785 -142.172500610432792 -340.529228210383621
-74.194278717096097 -143.780288696370292 -343.232078552180496
-69.834007263238675 -139.475128173909354 -344.095809936457840
-45.229257583673245 -145.299133300862479 -339.705253601008621
-17.918430805261377 -140.209167480549979 -344.754737853938309
-34.129915237481839 -137.070602417073417 -343.023300170832840
-67.828090667779691 -133.698684692464042 -343.637260436946121
-66.358150482232816 -136.198699951253104 -342.319290161067215
-48.442813873346097 -140.354080200276542 -341.789825439387528
-24.786118507440332 -133.848281860432792 -339.724273681575028
-64.599002838189847 -131.667037963948417 -343.517875671321121
-38.305189132745511 -131.638092041096854 -340.452430725032059
-38.082769393975980 -130.656555175862479 -341.608825683528153
-40.383253097589261 -129.480194091878104 -341.687561035090653
-35.612308502252347 -127.622070312581229 -341.577445983821121
-62.978603363092191 -131.092590332112479 -342.643974304133621
-159.369701385553128 -127.162948608479667 -341.909973144465653
-62.646209716851956 -129.499557495198417 -341.882667541438309
-54.745018005426175 -119.292419433674979 -344.681571960383621
-37.412069320733792 -128.045532226643729 -340.574630737239090
-42.471199035699613 -126.619903564534354 -343.490684509211746
-37.702997207696683 -124.800430297932792 -342.696121215754715
-45.324935913141019 -123.073303222737479 -338.605247497492996
-50.085742950494534 -123.381759643635917 -342.259201049739090
-49.128952026422269 -119.173248291096854 -343.452774047785965
-47.535514831598050 -119.333618164143729 -340.200119018489090
-52.005588531549222 -118.660873413167167 -341.943931579524246
-35.382890701349027 -123.778518676839042 -342.504798889094559
-57.522922515924222 -117.487716674885917 -343.912315368586746
-159.199916839654691 -117.770629882893729 -342.645530700617996
-32.906377792413480 -115.819061279378104 -341.667976379328934
-52.283168792779691 -116.538833618245292 -342.905990600520340
-37.971527099664456 -118.507080078206229 -342.304290771418778
-51.881992340142972 -117.123519897542167 -343.994201660090653
-57.158679962213284 -113.913574218831229 -343.889930725032059
-59.673107147271878 -114.184585571370292 -341.178260803157059
-145.210781097467191 -114.977615356526542 -341.723716735774246
-150.292507171685941 -111.492279052815604 -341.009284973078934
-62.267215728814847 -111.573364257893729 -343.571624755793778
-72.167343139703519 -109.882247924885917 -342.744567871028153
-61.876991272027738 -113.370620727620292 -341.910346984797684
-61.149524688775784 -112.310546875081229 -344.282608032160965
-158.102870941217191 -111.950866699299979 -346.548149108821121
-68.040500640924222 -111.914443969807792 -341.628356933528153
-65.098842620904691 -112.844726562581229 -340.868011474543778
-62.708740234430081 -108.544433593831229 -341.314628601008621
-2.624000549371484 -109.826644897542167 -341.700744628840653
-157.289974212701566 -111.492279052815604 -342.643997192317215
-67.983234405572659 -107.426681518635917 -342.822479247981278
-50.852630615289456 -109.123992920003104 -342.425758361750809
-49.224109649713284 -108.815582275471854 -339.980598449641434
-157.807445526178128 -108.265563964924979 -343.640609741145340
-83.777416229303128 -104.759277343831229 -342.991592407160965
-83.809566497857816 -101.593917846760917 -344.381408691340653
-47.289436340387113 -106.134414672932792 -341.069908142024246
-25.264150619561914 -102.075866699299979 -341.446182250910965
-90.823123931939847 -102.465286254964042 -341.644897460871903
-73.410388946588284 -103.128311157307792 -343.193534851008621
-158.474147796685941 -104.533508300862479 -342.746566772395340
-43.318237304742581 -99.572540283284354 -342.060852050715653
-1.910986900384668 -103.285339355549979 -342.709075927668778
-164.234874725396878 -102.737396240315604 -343.683723449641434
-94.106243133600003 -101.301742553792167 -341.810386657649246
-87.853031158502347 -100.339080810628104 -341.398895263606278
-42.546516418512113 -100.161468505940604 -341.011123657160965
2.211477279608008 -98.246017456135917 -340.200454711848465
-38.252082824762113 -96.681457519612479 -341.689300537043778
-25.551492691095117 -98.084777832112479 -342.110832214289871
-1.101556778009179 -96.538787841878104 -341.582366943293778
-20.750198841150048 -96.975723266682792 -342.909523010188309
-163.094036102350003 -95.571731567464042 -342.226554870539871
-2.660972595269921 -90.244506836018729 -342.076744079524246
2.059999465887305 -90.211990356526542 -342.862518310481278
-6.584440708215478 -93.460311889729667 -341.960876464778153
-19.603636741693261 -91.831008911214042 -344.094398498469559
3.022150039617774 -84.948608398518729 -344.391738891535965
-151.337932586725003 -85.539367675862479 -345.274772643977371
-164.000209808404691 -85.893157959065604 -342.827545165950028
3.954574584905860 -82.326339721760917 -341.576744079524246
-159.280757904107816 -83.681228637776542 -342.164985656672684
-150.576747894342191 -82.157287597737479 -344.592079162532059
-154.203762054498441 -81.209213256917167 -341.784667968684403
-1.000451088006738 -79.671615600667167 -340.299865722590653
-0.175048828180078 -77.047332763753104 -342.075866699153153
10.236223220770118 -71.352905273518729 -343.370338439875809
-5.621316433007959 -76.209991455159354 -345.444534301692215
3.035684585516211 -78.944641113362479 -340.913360595637528
0.239119529669043 -72.128326416096854 -342.816535949641434
-164.740154266412503 -72.640090942464042 -344.804718017512528
-158.098522186334378 -71.986907959065604 -347.834152221614090
-47.896652221734769 -73.178771972737479 -342.170578002864090
2.159033775274512 -75.607391357503104 -342.257331848078934
-46.827762603814847 -71.331390380940604 -340.529251098567215
-53.853569030816800 -70.123428344807792 -340.437408447200028
-45.049396514947659 -69.744506836018729 -341.708656310969559
-63.389598846490628 -69.229385376057792 -341.531547546321121
-53.467235565240628 -70.342254638753104 -341.262153625422684
-1.431797027642968 -66.121215820393729 -342.655288696223465
6.370130538885352 -65.880218505940604 -341.620292663508621
-53.079120636041409 -67.495849609456229 -340.800033569270340
-163.619976043756253 -68.629760742268729 -341.977500915461746
-158.648677825982816 -64.553955078206229 -345.143089294367996
-159.417934417779691 -62.611999511799979 -344.407447814875809
1.877297401373145 -60.480621337971854 -342.141685485774246
-18.556790828759912 -62.873901367268729 -344.323875427180496
-157.129512786920316 -56.520416259846854 -342.861999511653153
-165.380107879693753 -57.914978027424979 -345.746269226008621
6.109956741277930 -57.138000488362479 -339.269752502375809
-23.607162475641015 -59.367248535237479 -341.038421630793778
-20.089972496087793 -53.774658203206229 -340.538002014094559
-21.964010238702539 -52.098907470784354 -342.831634521418778
-150.043972015435941 -53.785491943440604 -344.952537536555496
-159.780239105279691 -52.764404296956229 -346.003807067805496
-168.364269256646878 -51.815734863362479 -341.705368041926590
5.159402847234961 -50.489807128987479 -344.175254821711746
-157.381038665826566 -48.853851318440604 -343.323509216242996
-165.143001556451566 -49.710815429768729 -341.308242797785965
-163.041515350396878 -45.808105468831229 -345.953063964778153
-21.851398468072656 -45.808746337971854 -341.106964111262528
3.138305664007422 -42.609222412190604 -340.677238464289871
-16.428552627618554 -39.677124023518729 -343.400650024348465
-3.215380668695214 -39.958557128987479 -344.640876769953934
-0.878038406427148 -33.494384765706229 -338.531501769953934
-5.946782589013818 -33.835205078206229 -342.684913635188309
-165.865932464654691 -34.072967529378104 -341.166130065852371
-7.805732727105859 -30.510955810628104 -343.319664001399246
-157.082958221490628 -27.937377929768729 -343.046249389582840
-150.864299774225003 -26.504333496174979 -342.590385436946121
-162.947322845514066 -26.427886962971854 -342.774406433039871
-151.318904876764066 -21.628051757893729 -343.039291381770340
-147.224040985162503 -21.337554931721854 -339.658813476496903
-149.333400726373441 -22.688690185628104 -340.549766540461746
-155.245830535943753 -20.250244140706229 -343.797119140559403
-167.611705780084378 -20.300872802815604 -338.500373840266434
-160.896266937310941 -18.803771972737479 -345.732650756770340
-165.396572113092191 -13.310546875081229 -342.316902160578934
-81.566417694146878 -249.467483520589042 -340.243278503352371
-74.075241088922269 -248.690811157307792 -339.779296874934403
-65.164230346734769 -247.845893859944510 -340.350967407160965
-72.635967254693753 -246.580307006917167 -342.249076843196121
-56.924652099664456 -248.864418029866385 -340.408058166438309
-65.187583923394925 -248.514099121174979 -338.545356750422684
-79.464145660455472 -249.519584655842948 -341.925048828059403
-60.985290527398831 -245.819480896077323 -341.370826721125809
-54.372589111383206 -245.813285827717948 -342.453376769953934
-85.579502105767972 -248.957794189534354 -340.816177368098465
-84.730190277154691 -245.086296081624198 -340.189231872492996
-56.294067382867581 -245.881141662678885 -338.733520507746903
-47.299182891900784 -243.908378601155448 -342.343742370539871
-91.180713653619534 -244.327957153401542 -339.741226196223465
-47.906990051324613 -243.731567382893729 -340.409034728938309
-90.836101532037503 -239.785095214924979 -341.304489135676590
-41.647579193170316 -238.018554687581229 -340.445549011164871
-41.220396041925198 -235.106262207112479 -340.539466857844559
-93.732151031549222 -235.101654052815604 -340.388244628840653
-49.488719940240628 -230.794639587483573 -344.577842712336746
-99.260196685846097 -230.156547546467948 -342.402641296321121
-52.536903381402738 -228.497978210530448 -340.861549377375809
-51.495784759576566 -227.987976074299979 -340.761604309016434
-62.589172363336331 -224.735885620198417 -343.365585327082840
-100.040767669732816 -221.312301635823417 -342.690269470149246
-66.957355499322659 -220.127113342366385 -343.055236816340653
-91.401309967096097 -210.640975952229667 -339.237411498957840
34.734939575140231 -208.752662658772635 -339.636604309016434
33.075843810980075 -206.762268066487479 -341.214187622004715
-97.590320587213284 -201.948959350667167 -343.468536376887528
-100.858669281060941 -201.652862548909354 -341.031867980891434
29.609489440862891 -198.733718872151542 -343.006301879817215
25.060958862249610 -188.963134765706229 -339.942016601496903
18.490201950018164 -188.422302246174979 -339.931411743098465
27.257236480657813 -186.405899047932792 -342.397697448664871
20.340698242132422 -189.215316772542167 -340.213005065852371
17.062845230047461 -181.185363769612479 -340.224395751887528
23.946556091253516 -180.107681274495292 -342.002067565852371
22.187862396185157 -174.083892822346854 -342.904670715266434
13.170448303167579 -169.335021972737479 -339.083480834895340
20.144592285101172 -167.701751709065604 -342.032012939387528
15.189447402899024 -171.801849365315604 -342.001403808528153
19.671413421575782 -164.206329345784354 -338.098320007258621
-64.203308105523831 -168.391159057698417 -340.103515624934403
-57.042488098199613 -162.645782470784354 -341.537025451594559
17.949598312322852 -164.825149536214042 -343.031219482356278
12.387609481756446 -158.697875976643729 -342.159866332942215
-59.139038085992581 -157.655349731526542 -344.214126586848465
-54.424961090142972 -158.377273559651542 -344.557464599543778
16.765430450384375 -158.045867920003104 -342.835502624446121
12.813276290838477 -152.846160888753104 -342.307266235285965
-48.863006591851956 -152.795516967854667 -342.427986144953934
-56.768817901666409 -150.238372802815604 -339.454101562434403
-16.884028673227075 -149.792449951253104 -341.692352294856278
11.545015335027930 -149.189926147542167 -340.504478454524246
-75.020385742242581 -148.898635864339042 -342.315696716242996
12.955476760809180 -147.048416137776542 -340.526214599543778
-77.554943084771878 -146.681793212971854 -342.979652404719559
6.822866439764258 -141.397094726643729 -340.292701721125809
-23.118360519464257 -142.992004394612479 -341.530616760188309
-71.508750915582425 -143.242172241292167 -342.510238647395340
-16.352104663903955 -142.097320556721854 -343.545867919856278
-51.032711029107816 -144.267166137776542 -339.874168395930496
-26.985753059442285 -140.057800293049979 -341.697853088313309
10.924896240179297 -142.661071777424979 -340.771499633723465
-26.365464210565332 -143.993911743245292 -339.432067871028153
-40.606895446832425 -135.390258789143729 -342.063613891535965
-67.303466796930081 -138.078613281331229 -342.918907165461746
-48.702373504693753 -139.019683837971854 -340.491867065364090
-73.377677917535550 -134.150405883870292 -342.032928466731278
-21.306108474786523 -137.766082763753104 -342.379882812434403
-45.200695037896878 -135.273727417073417 -340.225837707453934
7.680847167913672 -135.909820556721854 -342.146835327082840
-28.476182937677148 -130.889114379964042 -341.712997436457840
-35.980539321954495 -128.248352050862479 -341.205619811946121
-71.172512054498441 -132.920379638753104 -342.780693054133621
-42.292768478448636 -127.192977905354667 -340.437973022395340
7.682863235418555 -130.791839599690604 -340.540557861262528
-64.222690582330472 -132.277633667073417 -341.553718566828934
-62.415672302301175 -129.159484863362479 -341.303657531672684
5.975326538030860 -126.055236816487479 -339.924659728938309
-161.497936248834378 -123.734100341878104 -339.849212646418778
-41.874656677301175 -122.464614868245292 -343.971664428645340
-44.221149444635159 -122.714523315510917 -340.544586181575028
-58.854057312066800 -121.274978637776542 -339.403411865168778
-67.292541503961331 -123.890335083089042 -340.251937866145340
-64.296955108697659 -124.632034301839042 -338.181152343684403
-56.079895019586331 -119.424087524495292 -337.662307739192215
-165.409145355279691 -118.836135864339042 -342.768798828059403
5.859659194891211 -122.681457519612479 -339.748794555598465
-35.935846328790433 -118.388214111409354 -341.338394164973465
-165.155925750787503 -117.538787841878104 -343.561630248957840
-63.474689483697659 -120.295761108479667 -341.148361205989090
-55.808502197320706 -115.793991088948417 -338.949996948176590
-155.590618133600003 -117.873748779378104 -343.133186340266434
-58.680610656793363 -116.731979370198417 -339.452850341731278
-29.409727096612695 -115.797210693440604 -339.856933593684403
-166.319484710748441 -114.665405273518729 -340.721328735285965
-161.403148651178128 -114.103607177815604 -343.011672973567215
-49.741680145318753 -113.786605835042167 -341.015533447200028
-33.113195419366605 -114.145370483479667 -342.430198669367996
-28.894346237237695 -110.133560180745292 -339.335990905696121
-155.786525726373441 -112.687271118245292 -343.462188720637528
-62.875137329156644 -112.566024780354667 -341.962623596125809
-35.756511688287503 -112.762161254964042 -338.779434204035965
-66.087554931695706 -111.591735839924979 -342.345558166438309
-57.472141265924222 -114.126159668049979 -341.692436218196121
-69.536746978814847 -108.694274902424979 -340.167953491145340
-32.080898284967191 -109.279724121174979 -342.916725158625809
-73.564380645807034 -109.140869140706229 -340.692054748469559
-75.214210510308988 -107.705001831135917 -340.011299133235184
-160.954692840631253 -104.888458252034354 -343.840599059992996
-1.410112381036523 -109.274215698323417 -340.149925231867996
-69.529174804742581 -110.330581665120292 -341.217086791926590
-73.398735046441800 -106.248016357503104 -341.475257873469559
-45.044759750421292 -106.152114868245292 -340.311515808039871
-30.861557006891015 -110.152496337971854 -341.674507141047684
-88.982448577935941 -104.307266235432792 -339.020668029719559
3.025325775091407 -107.333343505940604 -342.007492065364090
-77.380550384576566 -102.589584350667167 -341.114089965754715
-49.949718475396878 -107.088973999104667 -345.438354492121903
-88.347797393853909 -101.570617675862479 -342.101242065364090
-163.286647796685941 -101.564895629964042 -340.532440185481278
-160.696712493951566 -101.452133178792167 -341.589462280207840
-159.023967742975003 -101.745620727620292 -342.838874816828934
-44.311414718683011 -102.597061157307792 -340.986892700129715
-2.495030403192285 -99.990661621174979 -342.631484985285965
-78.777454376275784 -102.082794189534354 -341.779319763117996
-1.583870887811425 -105.623611450276542 -340.688301086360184
-83.140804290826566 -99.544097900471854 -342.620208740168778
-41.213594436700589 -101.035720825276542 -340.824630737239090
-88.444950103814847 -98.794982910237479 -338.281898498469559
-98.365741729791409 -98.049026489339042 -343.231796264582840
-25.312164306695703 -101.681167602620292 -339.199005126887528
-92.433078765924222 -98.023986816487479 -341.820617675715653
-19.041692733819726 -93.555679321370292 -342.830894470149246
-163.392818450982816 -97.294281005940604 -343.643745422297684
-36.371786117608792 -95.710983276448417 -340.492942809992996
-31.776308059747461 -93.214309692464042 -339.592918395930496
-2.321318626458886 -92.077575683674979 -339.748451232844559
-3.547556877191308 -96.217834472737479 -340.929237365657059
2.797418594305274 -96.304351806721854 -342.059104919367996
-163.747066497857816 -90.519073486409354 -343.419944763117996
-14.371016621644738 -89.731979370198417 -341.819656372004715
-21.378110885675195 -93.574401855549979 -341.224586486750809
-167.246852874810941 -83.938568115315604 -341.735275268489090
-2.916448593194726 -82.300872802815604 -341.618301391535965
-1.736026763971093 -87.193176269612479 -340.630119323664871
-160.722026825006253 -86.557113647542167 -343.531448364192215
-159.596065521295316 -85.154144287190604 -341.412010192805496
-18.680698871667627 -89.234786987385917 -341.410713195735184
3.641130447332618 -87.249069213948417 -343.671348571711746
-146.760280609185941 -83.468963623128104 -344.364936828547684
-146.824214935357816 -83.107177734456229 -343.736450195246903
4.331415176336524 -81.854873657307792 -340.108360290461746
-3.502700805719140 -82.128311157307792 -342.760955810481278
-165.157146453912503 -80.357467651448417 -341.789978027278153
0.566819190923926 -83.834060669026542 -342.660781860285965
-11.036790609414819 -82.996093750081229 -340.459365844660965
-159.092433929498441 -78.793212890706229 -343.440299987727371
-13.012786626870874 -86.298248291096854 -342.718917846614090
-3.664392471368554 -76.337631225667167 -342.655624389582840
7.034738540594336 -72.879806518635917 -338.165115356379715
-42.320611953790433 -72.618453979573417 -340.573211669856278
-159.314968109185941 -71.926727295003104 -338.810295104914871
-49.566108703668363 -74.763687133870292 -340.491096496516434
-36.268291473443753 -73.078659057698417 -342.303482055598465
-53.640110015924222 -71.595596313557792 -338.519706726008621
-56.500587463433988 -70.592483520589042 -341.768630981379715
-40.167293548639066 -69.690231323323417 -340.428504943782059
8.586366653387305 -68.639770507893729 -343.786682128840653
-59.566135406549222 -70.184234619221854 -343.042732238703934
-2.593242645318750 -71.453079223714042 -341.839729309016434
-63.833354950006253 -70.186264038167167 -341.463981628352371
-3.974748611505273 -74.417205810628104 -339.658638000422684
-1.851356506402734 -68.302413940510917 -342.610534667903153
-62.774440765435941 -68.670959472737479 -341.954231262141434
-56.469608306939847 -68.329849243245292 -341.018005371028153
6.025039672796485 -73.692825317464042 -340.396926879817215
-66.474708557183988 -66.962768554768729 -340.875061035090653
8.830074310247657 -66.203460693440604 -341.394195556575028
-4.894143104608300 -67.438964843831229 -341.263481140071121
-157.113185882623441 -64.597503662190604 -342.754364013606278
-8.924244403894189 -63.471710205159354 -340.107818603450028
-5.082180976922754 -64.734191894612479 -339.366943359309403
7.271831512396094 -63.973144531331229 -339.350250244075028
-14.609844684655908 -64.240234375081229 -341.601249694758621
-2.310682296808007 -64.861175537190604 -342.130470275813309
-165.584606170709378 -59.532012939534354 -339.922836303645340
-150.271526336725003 -54.839233398518729 -343.188270568782059
-160.405956268365628 -53.157745361409354 -344.409873962336746
-155.694591522271878 -52.894653320393729 -340.450592040950028
-167.904476165826566 -50.952545166096854 -341.547981262141434
-159.362453460748441 -47.362701416096854 -338.583091735774246
7.920707702581641 -45.550628662190604 -340.451820373469559
-22.941106796319726 -46.873840332112479 -340.366004943782059
-19.728994846399072 -42.183288574299979 -342.478424072200028
-164.027263641412503 -43.889526367268729 -340.565406799250809
-159.833156585748441 -40.171081543049979 -340.314872741633621
-19.609166622216943 -40.051696777424979 -343.115592956477371
-17.257700681741479 -38.580810546956229 -339.965065002375809
-162.528804779107816 -36.689270019612479 -341.123649597102371
-159.256175994928128 -38.531402587971854 -342.067497253352371
-166.553905487115628 -36.601593017659354 -342.464012145930496
-164.747325897271878 -31.822723388753104 -342.379821777278153
-167.587657928521878 -26.695037841878104 -341.061729431086746
-162.277690887506253 -26.318572998128104 -342.552383422785965
-149.852886200006253 -26.143707275471854 -342.483940124446121
-166.125499725396878 -24.335876464924979 -344.986457824641434
-163.262493133600003 -22.702087402424979 -343.026885986262528
-161.215969085748441 -24.153778076253104 -346.338363647395340
-158.043529510553128 -15.983367920003104 -341.515563964778153
-165.407299041803128 -19.705657959065604 -345.093566894465653
-161.183544158990628 -16.681365966878104 -340.353462219172684
-167.483257293756253 -13.911712646565604 -340.329521179133621
-163.408290863092191 -10.289154052815604 -338.705955505305496
-159.839717865045316 -13.018981933674979 -342.663589477473465
-164.495342254693753 -11.435791015706229 -342.351593017512528
-64.367126464898831 -253.681549072346854 -340.130386352473465
-70.053386688287503 -252.933662414632010 -340.778343200617996
-73.865631103570706 -249.137458801350760 -340.250152587825028
-58.546855926568753 -253.596023559651542 -339.748077392512528
-76.743141174371488 -252.342521667561698 -340.251495361262528
-59.448513031060941 -249.860557556233573 -339.703025817805496
-82.513126373346097 -250.238441467366385 -339.603942871028153
-67.120853424127347 -251.500083923421073 -340.092498779231278
-54.264953613336331 -248.086006164632010 -340.440963745051590
-55.204570770318753 -251.833625793538260 -339.025123596125809
-45.323751449640042 -245.506904602132010 -338.461242675715653
-88.154697418267972 -249.732101440510917 -337.856704711848465
-45.485637664850003 -246.496658325276542 -338.103469848567215
-90.868946075494534 -245.851524353108573 -339.356437683039871
-47.385456085260159 -245.033203125081229 -340.018707275325028
-41.817607879693753 -243.953491211018729 -342.680664062434403
-41.593040466363675 -242.352699279866385 -339.844451904231278
-45.417503356988675 -236.776100158772635 -338.519943237239090
-64.250865936334378 -223.274650573811698 -343.610832214289871
-103.704357147271878 -220.628768920979667 -342.598052978450028
-78.077930450494534 -220.285530090413260 -341.231254577571121
-99.420879364068753 -212.165611267171073 -342.635154724055496
34.282691955511325 -208.457000732503104 -340.485542297297684
-92.862979888971097 -207.493537902913260 -344.426261901789871
30.182308196966407 -204.334167480549979 -341.081138610774246
26.405628204290625 -201.639709472737479 -339.582206726008621
-101.831493377740628 -202.570808410725760 -338.630828857356278
28.754253387396094 -197.808555603108573 -338.034484863215653
24.461257934515235 -197.137207031331229 -339.938987731867996
34.002517700140231 -198.599128723225760 -338.588264465266434
24.932708740179297 -195.685470581135917 -340.277725219660965
27.720027923528907 -196.181732177815604 -341.435752868586746
29.491554260198829 -188.743286132893729 -340.266349792414871
23.062137603704688 -191.866729736409354 -339.440528869563309
29.459812164251563 -181.230453491292167 -339.376464843684403
23.686336517278907 -180.911895752034354 -341.032485961848465
19.059185028021094 -181.014923095784354 -340.334960937434403
12.289360046331641 -175.107955932698417 -340.244468688899246
17.958574294988868 -173.867721557698417 -341.038383483821121
21.846881866400000 -180.819000244221854 -338.549324035578934
24.018287658636329 -174.587570190510917 -339.518119811946121
17.782865524236914 -173.378417968831229 -338.648292541438309
17.686943054144141 -171.565979003987479 -339.730049133235184
16.505043029730079 -162.772598266682792 -341.857978820735184
-58.985378265435941 -165.564025878987479 -337.557495117121903
-55.965110778863675 -164.462188720784354 -341.829765319758621
10.029087066595313 -160.381027221760917 -338.933654785090653
18.069530487005469 -165.321472168049979 -340.289199829035965
-64.859931945855863 -164.259780883870292 -338.955055236750809
-62.683132171685941 -162.888061523518729 -340.097671508723465
13.070247650091407 -162.309799194417167 -342.817665100032059
13.659645080511329 -164.134490966878104 -342.417121887141434
-61.094173431451566 -159.864562988362479 -341.763313293391434
10.419620513860938 -150.245361328206229 -343.558113098078934
-79.032138824517972 -158.060485839924979 -338.973937988215653
-52.470981597955472 -156.470611572346854 -341.306259155207840
17.682361602728125 -151.661437988362479 -339.047889709407059
-77.849605560357816 -148.976287841878104 -342.900817871028153
-77.341300964410550 -151.901473999104667 -342.123130798274246
-56.692569732721097 -153.918914795003104 -339.199455261164871
-50.841880798394925 -149.598785400471854 -341.737129211360184
15.314401626531836 -158.173934936604667 -339.539077758723465
14.721046447698829 -154.728240966878104 -342.230361938410965
-13.576512634809259 -150.121765136799979 -339.207695007258621
-45.883655548150784 -147.889907836995292 -341.086509704524246
-15.408650636728051 -144.293212890706229 -338.978851318293778
18.406738281194922 -149.335098266682792 -338.243881225520340
-19.525992870385888 -148.386932373128104 -340.285125732356278
-72.680335998590238 -146.834121704182792 -340.286949157649246
-51.889945983941800 -145.287521362385917 -337.365615844660965
15.431427001898047 -149.239791870198417 -339.301696777278153
-46.991523742730863 -142.279296875081229 -340.000144958430496
-45.046882629449613 -144.485382080159354 -339.956794738703934
-49.830223083551175 -138.048141479573417 -339.296630859309403
12.593589782659766 -140.700637817464042 -341.869575500422684
-74.731254577691800 -140.222732544026542 -341.116950988703934
-20.547998428399804 -140.603378295979667 -339.040794372492996
-53.451122283990628 -139.314346313557792 -339.085998535090653
-69.206043243463284 -140.432449340901542 -339.358543395930496
-69.298103332574613 -138.292510986409354 -340.891601562434403
-38.041589736993558 -136.961563110432792 -341.624176025325028
13.148965835516211 -137.888763427815604 -342.525711059504715
-72.301017761285550 -133.581008911214042 -338.853950500422684
-35.255653381402738 -135.260437011799979 -340.697593688899246
-63.996704101617581 -131.259490966878104 -339.452621459895340
-42.088735580499417 -132.842681884846854 -339.391036987239090
-36.504171371515042 -130.546371460042167 -340.475791931086746
-35.338489532525784 -132.241455078206229 -339.244155883723465
-29.346254348809961 -133.203674316487479 -337.137802123957840
10.203979492132422 -135.625305175862479 -341.070426940852371
-38.084573745782620 -130.241470336995292 -340.942581176692215
-64.212856292779691 -129.672348022542167 -341.912765502864090
-46.112857818658597 -132.983551025471854 -338.398719787532059
-39.197893142755277 -131.592102050862479 -339.501823425227371
-68.666534423883206 -130.722625732503104 -340.633934020930496
5.308027267400977 -129.948135376057792 -339.938964843684403
-59.746143341119534 -126.540756225667167 -342.812988281184403
-44.959659576471097 -126.633377075276542 -342.079048156672684
-39.711984634454495 -127.948074340901542 -341.858642578059403
-63.939434051568753 -124.329315185628104 -339.028472900325028
-54.502319335992581 -120.249313354573417 -340.653297424250809
-42.762174606378323 -124.658645629964042 -340.906471252375809
-56.691238403375394 -124.933197021565604 -341.094085693293778
-56.830665588433988 -117.126281738362479 -342.581085205012528
6.199829101507422 -122.419845581135917 -339.404647827082840
-155.895275116021878 -118.573486328206229 -339.337867736750809
-36.277389526422269 -122.647201538167167 -341.624374389582840
-38.496438980157620 -120.229598999104667 -338.951850891047684
-150.378993988092191 -116.578521728596854 -344.549186706477371
-38.784488678033597 -118.219009399495292 -340.129417419367996
-158.560558319146878 -116.351821899495292 -340.889228820735184
-165.779201507623441 -116.310653686604667 -343.340133666926590
-147.845348358209378 -116.210586547932792 -343.298278808528153
3.263439178411719 -115.977767944417167 -343.894348144465653
-147.962139129693753 -115.991592407307792 -340.390533447200028
4.497341155950782 -111.485092163167167 -338.737289428645340
-35.492599487359769 -116.196136474690604 -339.462333679133621
-30.978551864679101 -116.946762085042167 -339.546173095637528
-50.986053466851956 -114.473419189534354 -341.179183959895340
2.438357353155371 -115.005844116292167 -342.876968383723465
-166.155742645318753 -111.260848999104667 -340.650947570735184
-154.058666229303128 -112.619110107503104 -341.735717773371903
-28.513218879754785 -113.412277221760917 -343.035156249934403
-47.002685546930081 -109.154037475667167 -342.145988464289871
-163.506572723443753 -109.638458252034354 -339.032546997004715
-47.961193084771878 -107.198608398518729 -338.651626586848465
-82.035785675103909 -106.395126342854667 -342.627326965266434
-51.034248352105863 -108.170059204182792 -340.790138244563309
-80.466617584283597 -104.872512817464042 -338.650192260676590
-78.616764068658597 -104.383010864339042 -339.492752075129715
-1.523866653497461 -103.810485839924979 -342.973464965754715
1.727671623174903 -104.891998291096854 -340.667373657160965
-96.023540496881253 -100.509887695393729 -340.560691833430496
-41.106121063287503 -100.511581420979667 -339.506568908625809
-39.771909713800198 -102.811172485432792 -339.706771850520340
-50.846691131646878 -103.801254272542167 -340.467323303157059
0.555929183904883 -105.361297607503104 -339.097320556575028
-97.433727264459378 -97.873214721760917 -339.044731140071121
-43.186676025445706 -99.277496337971854 -339.022407531672684
-28.110430717523339 -100.860824585042167 -340.754051208430496
-21.844566345269921 -96.565231323323417 -339.857231140071121
-36.987535476739652 -98.347183227620292 -343.087188720637528
-2.441039085443261 -97.994766235432792 -338.233367919856278
-94.604610443170316 -96.937454223714042 -340.365036010676590
-100.786663055475003 -96.572052002034354 -339.027328491145340
-95.398548126275784 -97.163833618245292 -341.208885192805496
0.513699531500098 -100.713104248128104 -338.482864379817215
-156.288890838678128 -95.057968139729667 -343.001792907649246
-19.602686405236962 -96.326858520589042 -339.189071655207840
-17.528680801446679 -97.096633911214042 -340.110610961848465
-23.981442451532129 -96.846511840901542 -342.188621520930496
-3.009926796014550 -96.891876220784354 -339.578399658137528
2.390852928106543 -89.530624389729667 -340.599159240657059
-18.326784610803369 -91.064331054768729 -339.240432739192215
-3.033702850396875 -87.812194824299979 -341.029830932551590
-7.255600452478173 -85.679702758870292 -338.633872985774246
0.222815513555762 -82.996200561604667 -339.392990112239090
-157.042324066217191 -88.679870605549979 -340.506004333430496
-12.372476637418512 -89.429580688557792 -342.240310668879715
-18.020204544122461 -86.891387939534354 -339.372756957942215
-146.657039642389066 -84.939132690510917 -337.812499999934403
-4.662606239373925 -85.906784057698417 -339.717460632258621
-160.669002533014066 -83.174331665120292 -340.999534606867996
-161.278911590631253 -82.208068847737479 -343.211891174250809
2.273317336981055 -81.568191528401542 -343.238883972102371
-0.891784668023828 -81.579696655354667 -338.699241638117996
-16.328822612817529 -80.081314086995292 -339.642585754328934
-13.932610631044152 -78.441955566487479 -339.565467834407059
-12.437674641664270 -75.128005981526542 -342.161544799739090
-38.970777511651761 -75.175872802815604 -339.701766967707840
-34.472312927301175 -72.739303588948417 -339.893447875910965
-49.704639434869534 -72.080810546956229 -339.476005554133621
-163.885723114068753 -73.975601196370292 -340.608161926203934
-160.760311126764066 -72.110275268635917 -343.019927978450028
-162.160030365045316 -70.857849121174979 -341.808731079035965
-35.958332061822659 -71.543487548909354 -339.618721008235184
-1.045626640374902 -70.109375000081229 -340.481536865168778
-41.471170425470120 -70.393341064534354 -339.193977355891434
6.215541839544532 -74.179580688557792 -339.172691345149246
-49.530387878473050 -67.939163208089042 -341.290977477961746
-67.724727630670316 -69.209335327229667 -342.682960510188309
-59.555019378717191 -66.929626464924979 -340.612281799250809
-4.443633079583886 -66.840820312581229 -340.362762451106278
-69.497283935601956 -66.482513427815604 -342.364906310969559
-60.787025451715238 -65.608764648518729 -340.166915893489090
-158.913356781060941 -65.907806396565604 -344.929458618098465
-71.361568450982816 -64.453430175862479 -341.827407836848465
-70.319168090875394 -69.966293335042167 -339.944335937434403
9.276363372747657 -65.312683105549979 -339.619163513117996
-16.114968538339379 -65.804260253987479 -339.780700683528153
-16.209662675912622 -63.566680908284354 -341.643989562922684
1.366861343328711 -63.135284423909354 -341.183670043879715
-23.397956848199609 -55.490417480549979 -340.204612731867996
-157.708919525201566 -58.792724609456229 -342.370429992610184
-150.759578704889066 -57.457305908284354 -339.947273254328934
-162.238765716607816 -57.184631347737479 -346.515403747492996
-148.644802093560941 -56.507659912190604 -340.522224426203934
-167.541179657037503 -52.619293212971854 -341.130668640071121
5.544900894109961 -54.181365966878104 -339.639251708918778
-148.071117401178128 -53.924957275471854 -338.955085754328934
-154.868785858209378 -49.697692871174979 -338.046638488703934
-151.919033050592191 -51.964538574299979 -339.694961547785965
7.143484115545508 -52.306610107503104 -339.549720764094559
-25.794560432489160 -52.622619628987479 -339.834419250422684
2.746377944891211 -48.089569091878104 -342.759384155207840
-159.728298187310941 -45.053405761799979 -342.592147827082840
4.651653289739844 -43.361968994221854 -339.014511108332840
-163.090221405084378 -42.961120605549979 -340.441360473567215
2.500383377020118 -34.363311767659354 -339.395202636653153
-11.165946722085717 -33.806732177815604 -340.305145263606278
-1.004487037713769 -31.608154296956229 -338.857170104914871
-10.605536699350122 -33.187805175862479 -340.234260559016434
-159.793315887506253 -28.442169189534354 -342.620567321711746
-10.407328605706933 -28.887542724690604 -339.400024413996903
-166.767864227350003 -29.080993652424979 -341.643325805598465
-155.316051483209378 -26.770690918049979 -340.534896850520340
-156.139080047662503 -27.134460449299979 -339.846977233821121
-46.008537292535550 -24.881134033284354 -339.933937072688309
-151.142711639459378 -25.779968261799979 -340.550231933528153
-44.342502594049222 -25.107818603596854 -339.920059204035965
-33.807262420709378 -25.980529785237479 -341.066940307551590
-161.595912933404691 -22.186584472737479 -343.679374694758621
-152.478572845514066 -22.533050537190604 -342.397659301692215
-33.073694229181058 -23.641387939534354 -339.241958618098465
-156.086162567193753 -23.247863769612479 -340.884193420344559
1.051627159063575 -22.514801025471854 -341.007415771418778
-167.826808929498441 -20.422454834065604 -342.453865051203934
-164.975963592584378 -19.682189941487479 -340.538391113215653
-162.079586029107816 -8.980224609456229 -340.832252502375809
-166.250682830865628 -1.977600097737479 -340.511123657160965
-163.585170745904691 -5.104766845784354 -340.556472778254715
-71.614974975641019 -254.868286132893729 -337.168502807551590
-66.930053710992581 -255.356124878010917 -338.714233398371903
-72.204338073785550 -255.911437988362479 -340.550468444758621
-63.969066619928128 -256.129966735921073 -339.123138427668778
-56.495712280328519 -256.034835815510917 -337.927154540950028
-81.888744354303128 -254.603233337483573 -339.073402404719559
-51.216442108209378 -250.630851745686698 -339.187759399348465
-86.739040374810941 -253.631958007893729 -340.156738281184403
-52.491539001519925 -251.752052307210135 -338.486923217707840
-92.398151397760159 -247.522827148518729 -338.604232788020340
-91.864513397271878 -240.560249328694510 -339.768157958918778
-37.550376892144925 -243.101524353108573 -338.077316284114090
-42.360940933282620 -245.651557922444510 -337.911056518489090
-40.101530075128323 -238.454597473225760 -339.914924621516434
-98.192195892389066 -235.548110961995292 -340.360237121516434
-40.033346176202542 -238.966865539632010 -339.327323913508621
-43.678874969537503 -237.446594238362479 -342.021865844660965
75.534000396673434 -229.125999450764823 -340.765228271418778
-47.152431488092191 -229.535446167073417 -339.834495544367996
70.001781463567966 -232.596443176350760 -339.743438720637528
68.800479888860934 -226.948150634846854 -341.205238342219559
73.921031951849216 -226.260177612385917 -338.488327026301590
62.562908172552341 -225.923362732014823 -337.108619689875809
-100.383640289361722 -227.052131652913260 -339.722763061457840
63.120418548528903 -227.057266235432792 -338.611869811946121
70.552234649603122 -226.996986389241385 -338.759590148860184
75.818470001165622 -222.823532104573417 -339.291526794367996
70.909748077337497 -222.857604980549979 -339.729545593196121
67.475215911810153 -223.515258789143729 -338.587081909114090
71.389560699407809 -224.143486023030448 -337.239303588801590
69.285320281927341 -221.597526550374198 -337.948593139582840
78.470218658392184 -219.570022583089042 -337.995605468684403
-105.115245819146878 -217.468566894612479 -335.873725891047684
-77.194095611627347 -213.107109069905448 -337.949905395442215
41.303894042913669 -214.586402893147635 -336.185539245539871
35.015792846624606 -213.969123840413260 -338.737030029231278
39.207901000921481 -212.619110107503104 -338.967483520442215
31.748683929388282 -212.466499328694510 -340.332160949641434
37.624561309759372 -209.014724731526542 -338.214294433528153
38.065643310491794 -204.231033325276542 -339.743476867610184
30.833187103216407 -208.981002807698417 -338.491706848078934
32.125091552679294 -204.792037963948417 -339.070045471125809
22.132358550970313 -204.502029419026542 -339.013664245539871
-103.477527618463284 -201.047477722249198 -338.556625366145340
28.589424133245704 -202.656204223714042 -339.637222289973465
35.148132324163669 -195.728538513264823 -338.754981994563309
24.479618072454688 -197.588714599690604 -338.823814392024246
32.363647460882419 -202.041954040608573 -338.294242858821121
15.961463928167579 -191.244781494221854 -337.083847045832840
27.818927764837500 -195.579002380452323 -339.451942443782059
17.810485839788672 -185.424209594807792 -341.638046264582840
27.196308135931250 -187.213119506917167 -338.166954040461746
19.672863006536719 -179.646682739339042 -340.404464721614090
14.600870132391211 -172.435394287190604 -337.255828857356278
8.511516570989844 -165.511459350667167 -334.585739135676590
18.376979827825782 -166.911209106526542 -339.459884643489090
15.165624618475196 -171.258148193440604 -341.220779418879715
-65.729770660455472 -169.954757690510917 -338.220909118586746
14.013612747137305 -165.220870971760917 -338.569198608332840
-58.005428314264066 -161.183425903401542 -338.548530578547684
-63.463600158746488 -158.656265258870292 -339.296051025325028
-79.900257110650784 -159.485946655354667 -337.842155456477371
-58.848758697564847 -160.713317871174979 -339.938949584895340
-54.132747650201566 -159.924484253010917 -339.523559570246903
-61.710765838678128 -155.508300781331229 -338.860145568782059
18.816413879339454 -157.626174926839042 -339.768074035578934
13.724803924505469 -155.885665893635917 -339.349113464289871
17.562480926458594 -158.723587036214042 -341.124458312922684
12.381799697820899 -148.883789062581229 -340.912246704035965
-82.487964630182034 -156.745162963948417 -339.279457092219559
-49.915706634576566 -151.861618042073417 -340.085891723567215
-79.340114593560941 -145.596084594807792 -341.213409423762528
-47.953323364312894 -151.178909301839042 -340.728569030696121
-10.746560573632959 -150.312728881917167 -339.719924926692215
-58.034908294732816 -155.952056884846854 -338.749191284114090
-9.384274721200708 -153.079025268635917 -339.295265197688309
10.395294189398047 -153.710891723714042 -340.741035461360184
-75.162574768121488 -151.004730224690604 -340.200698852473465
16.436105728094336 -151.565093994221854 -339.680801391535965
-75.198120117242581 -144.400405883870292 -339.336288452082840
13.103258132879493 -143.812057495198417 -339.641471862727371
5.131849288885352 -143.235733032307792 -339.329177856379715
-61.050247192437894 -150.857376098714042 -339.761268615657059
-18.623448848779443 -144.419403076253104 -338.219650268489090
-23.226292610223535 -144.736175537190604 -339.214096069270340
-14.755682587678674 -141.895553588948417 -341.273948669367996
-68.541137695367581 -144.019088745198417 -339.594352722102371
99.421680450384372 -144.899536132893729 -341.323059081965653
-72.225887298639066 -143.081634521565604 -338.682052612239090
-14.291994631345514 -144.887100219807792 -337.107711791926590
15.063091278021094 -141.740188598714042 -340.823272705012528
-71.697967529351956 -138.449432373128104 -340.051101684504715
-54.258182525689847 -143.671234130940604 -337.524566650325028
-47.270175933892972 -146.240783691487479 -338.328704833918778
-49.974979400689847 -141.099502563557792 -339.882766723567215
10.164670944158789 -145.398223877034354 -339.349021911555496
11.568170547430274 -141.642166137776542 -340.841247558528153
-31.187921524102929 -137.403091430745292 -340.888595580989090
-23.173000335748437 -136.083740234456229 -340.448188781672684
-70.503036499078519 -139.579040527424979 -337.440299987727371
-49.343566894586331 -135.655899047932792 -342.559799194270340
-77.285064697320706 -141.810134887776542 -340.833953857356278
92.717517852728122 -133.181106567464042 -339.754409789973465
5.118665695135352 -138.744323730549979 -338.658996581965653
-26.230280876214746 -135.680465698323417 -337.343688964778153
-62.637969970758206 -135.017333984456229 -340.962509155207840
-41.288265228326566 -135.581665039143729 -338.207618713313309
-65.695621490533597 -130.199005127034354 -337.217872619563309
-30.861707687433007 -133.731857299885917 -336.325057983332840
96.181781768743747 -137.441299438557792 -340.764732360774246
-63.299381256158597 -134.614898681721854 -342.569694518977371
10.088069915716407 -136.971237182698417 -339.095245361262528
2.486826896612403 -127.978988647542167 -339.573760986262528
14.673381805364844 -133.155776977620292 -340.490432739192215
-68.588317871148831 -132.513168335042167 -339.700332641535965
-36.457424163873441 -129.518966674885917 -338.555801391535965
93.003894805853122 -130.042098999104667 -340.943511962825028
-66.365795135553128 -130.879501342854667 -339.648513793879715
-42.881038665826566 -130.619522094807792 -339.572540283137528
-42.062519073541409 -128.032196045003104 -337.199928283625809
2.222249031011817 -128.304382324299979 -339.020034789973465
-46.113197326715238 -132.902496337971854 -338.752388000422684
-42.467803955133206 -125.066497802815604 -341.897369384700028
-160.699031829889066 -126.227539062581229 -339.145004272395340
-66.219207763726956 -124.199295044026542 -338.999671935969559
-64.976226806695706 -127.455841064534354 -339.168327331477371
-60.541481018121488 -127.848983764729667 -338.300933837825028
-37.698261261041409 -127.281692504964042 -342.014633178645340
9.342399597112891 -124.122390747151542 -340.950279235774246
-163.778209686334378 -125.830352783284354 -337.375663757258621
-61.804073333795316 -122.006805420003104 -337.182975768977371
5.520069122259375 -123.725204467854667 -337.640464782649246
90.561397552435153 -123.827514648518729 -336.942512512141434
-160.506160736139066 -120.924057006917167 -337.493522643977371
-66.159530639703519 -120.472595214924979 -336.711395263606278
-57.143795013482816 -121.336624145589042 -341.371467590266434
-0.655906677301171 -119.219696045003104 -339.084983825617996
6.209154128973243 -119.778930664143729 -339.815338134700028
-158.565151214654691 -118.068649292073417 -343.622917175227371
-58.862113952691800 -122.114257812581229 -339.283126830989090
-36.733835220391995 -123.468917846760917 -339.672683715754715
89.387828826849216 -116.524703979573417 -339.377281188899246
87.709545135442966 -118.814514160237479 -340.321411132746903
-61.324291229303128 -120.677093505940604 -337.880920410090653
-28.993892669732812 -118.154495239339042 -337.461326599055496
-56.264724731500394 -117.894012451253104 -338.465225219660965
-160.746028900201566 -114.364776611409354 -343.601142883235184
-60.095375061090238 -114.357330322346854 -341.009353637629715
-157.659572601373441 -114.886413574299979 -343.596015930110184
-35.864177703912503 -115.204849243245292 -338.658630371028153
-53.235519409234769 -118.428497314534354 -341.236755371028153
3.394699096624610 -115.055404663167167 -340.781776428157059
80.447422027532809 -111.079757690510917 -337.850349426203934
-149.209972381646878 -111.369873046956229 -338.855621337825028
-27.194438934381250 -109.678848266682792 -337.552795410090653
-53.622589111383206 -114.145431518635917 -340.588562011653153
89.904201507513278 -115.553894043049979 -339.457054138117996
0.698899269048926 -109.251068115315604 -339.572799682551590
-47.902809143121488 -108.256103515706229 -339.655578613215653
-34.084997177179105 -107.131668090901542 -339.137969970637528
-30.484588623101953 -110.186706543049979 -339.588005065852371
4.204095840399024 -109.853591919026542 -338.528724670344559
82.627048492376559 -108.374755859456229 -337.991081237727371
-3.238322258050683 -109.583206176839042 -338.472084045344559
-48.795669555719144 -110.822174072346854 -339.299522399836746
