# This PCD file was generated using the MATLAB® pcwrite function
# from Computer Vision Toolbox®.
# .PCD v.7 - Point Cloud Data file format
VERSION .7
FIELDS x y z
SIZE 4 4 4
TYPE F F F
COUNT 1 1 1
WIDTH 957
HEIGHT 1
VIEWPOINT 0 0 0 1 0 0 0
POINTS 957
DATA ascii
40.211819 -72.537354 -109.367233
101.875023 -43.136997 -80.468437
68.419220 -49.061924 -67.556206
-147.966431 -61.912075 -256.695221
-142.053513 -70.969200 -225.496948
-126.705528 -70.222183 -266.588654
7.131270 -79.636902 -221.328171
20.716629 -78.137077 -187.352127
-42.338821 -76.640549 -246.093246
74.841049 -46.809010 -60.676792
-62.673100 -26.024054 -89.716667
-22.977299 -71.604019 -185.851990
-49.561653 -69.723831 -152.487793
17.195683 -50.633480 -243.945526
-13.123598 -52.944538 -265.018097
-63.230770 -44.484863 -47.773720
62.334312 -49.442978 -84.505646
-77.481422 -70.320313 -127.093979
0.992707 -65.459724 -234.080078
94.769371 -45.084023 -105.790459
-86.421165 -67.022377 -123.480003
-17.643679 -58.152565 -260.559570
-5.652649 -49.391979 -252.684464
46.608471 -50.943062 -17.811956
-35.634693 -78.691536 -161.467102
-161.970932 -74.042824 -234.896790
-14.511048 -55.775990 -241.518600
75.845253 -59.476460 -59.074726
-55.814312 -40.915642 -70.917160
-93.121475 -75.573456 -93.169418
-140.436584 -76.013359 -201.415131
38.621326 -77.405251 -109.765755
-95.424492 -76.284332 -220.108047
-35.721802 -71.961777 -160.654770
23.305559 -71.606308 -148.116852
20.966028 -72.417046 -27.700602
30.056538 -71.854912 -17.841290
55.451508 -58.167709 -91.243889
95.392265 -67.745735 -66.198799
-123.647545 -64.183556 -195.317383
23.304678 -75.285919 -151.403061
-135.072266 -65.061424 -261.630249
86.560165 -69.751877 -215.416702
-60.725143 -53.726936 -64.524780
-14.957799 -71.788521 -64.690331
-148.043152 -84.797806 -232.395844
-36.808445 -70.491806 -49.108337
-162.955627 -68.584023 -249.747925
-50.955055 -76.330345 -151.515366
24.150076 -68.647835 -258.355957
-151.154617 -68.458244 -281.106750
-111.062538 -70.855637 -192.091110
-8.706476 -73.606392 -291.278839
27.930372 -53.510540 -258.517242
16.508224 -65.814995 -199.626938
65.741722 -53.858959 -63.755524
95.784645 -60.294174 -108.152733
-146.434692 -77.143761 -310.749451
-119.476181 -68.243927 -290.541962
-28.592350 -69.753731 -191.639297
65.730247 -47.116447 -86.856598
-69.745514 -65.368546 -100.552238
78.355774 -77.516991 -93.213158
-1.278841 -73.929138 -168.041260
85.962074 -46.188484 -61.563869
-43.239483 -78.501923 -200.544800
47.085175 -66.258530 -250.259155
-117.802940 -76.329788 -289.079254
-148.374069 -62.067726 -252.462875
-142.631607 -61.627132 -228.853455
93.916435 -55.486092 -99.829529
90.438606 -68.257538 -63.722496
66.665359 -74.268486 -237.128204
-96.535744 -30.433798 -76.674446
-7.519359 -67.400291 -280.329681
-81.852020 -78.724487 -78.745277
16.657185 -64.469086 -241.709442
5.386558 -77.466393 -291.375031
43.150700 -66.827225 -256.602203
-57.763878 -76.730888 -288.633240
-30.026432 -80.208801 -78.444000
-157.132507 -68.544472 -263.703552
-167.259323 -69.902054 -258.847839
-41.381760 -67.600784 -156.440033
-157.279373 -64.955544 -196.305038
-151.344727 -83.834045 -289.874939
21.284739 -51.398289 -270.484955
6.241502 -49.891285 -295.972656
-106.237877 -71.680717 -291.004425
-84.226677 -78.931145 -111.375504
19.088560 -80.341507 -190.342361
-145.323074 -80.057411 -247.974182
67.422974 -45.687263 -70.731049
-135.533752 -69.267174 -291.920502
-9.205833 -71.103867 -223.928787
-59.079361 -63.691956 -135.208038
-148.141403 -75.770767 -215.892105
-140.312576 -67.269302 -261.806946
-67.497498 -71.740669 -247.551224
-12.258924 -72.126740 -228.170746
-99.704231 -74.052147 -257.553314
98.627617 -46.593143 -105.294495
-163.734528 -74.179321 -215.034851
-0.593560 -68.172577 -227.304901
39.721066 -60.806694 -124.032997
-106.871758 -69.021591 -170.927902
-146.867584 -84.281952 -269.108246
-127.624405 -76.955139 -291.311340
-42.440857 -73.938225 -172.696381
-27.518848 -80.576805 -183.065048
5.630232 -85.408249 -271.083679
-27.581442 -51.278191 -50.889439
107.950073 -69.617783 -182.929688
-42.850643 -57.520908 -46.975143
36.239182 -71.369164 -16.571417
-67.463860 -61.194424 -94.682304
-69.348083 -74.235222 -153.458130
-13.395959 -67.599251 -68.115875
64.446793 -48.085049 -99.368423
34.944149 -69.248543 -131.683502
-149.858856 -73.322098 -192.355972
-10.041762 -71.060135 -241.341019
98.911789 -43.605595 -99.445610
17.102362 -69.386787 -177.289795
106.751450 -67.582443 -108.892212
22.641924 -52.742401 -249.083923
-39.764793 -79.809235 -242.252258
23.946358 -67.065773 -253.901184
-44.545612 -73.442436 -83.863541
-73.729095 -34.335205 -51.491226
26.783655 -63.873222 -262.648590
-81.810547 -40.078011 -106.298409
-42.673244 -52.199562 -80.191727
-80.615356 -61.088100 -111.566986
-10.545647 -55.992409 -283.545807
104.250053 -42.608112 -68.015198
-31.014608 -53.395859 -63.039169
-95.316872 -55.826607 -120.143211
11.232599 -56.268906 -245.422211
-67.087242 -78.170403 -156.999390
-115.569794 -71.813042 -263.172302
38.112488 -78.445396 -123.338783
-77.357994 -63.160439 -116.055794
-141.528717 -74.292549 -233.088043
4.011780 -50.329239 -295.355560
83.839958 -54.977100 -95.196213
110.893211 -75.396965 -135.401505
-32.757610 -80.151901 -77.336891
-108.035332 -66.783783 -261.749054
-8.033517 -72.733246 -239.900665
41.716072 -69.055183 -40.016933
23.419806 -55.234142 -270.964020
-30.120625 -78.261353 -178.986038
-15.161927 -52.285812 -255.768066
58.902763 -56.728695 -88.472298
43.665024 -68.949455 -33.265472
-136.466919 -68.332329 -287.318848
46.590332 -71.527512 -118.341537
-104.661095 -67.731308 -287.700378
-41.176693 -72.094994 -288.923096
103.785316 -72.174179 -190.889969
21.756340 -61.264252 -19.428188
-73.456192 -74.367317 -252.477966
-11.861770 -68.483826 -230.247330
34.884041 -63.431011 -255.802078
-144.737991 -68.578201 -264.757202
-60.222412 -69.794853 -90.737450
-22.730610 -80.961449 -188.006317
-79.491692 -73.478134 -214.554398
37.667469 -63.370209 -41.467911
-71.150345 -69.070656 -139.545517
-16.346560 -76.666969 -291.525665
-150.335876 -84.015785 -258.452972
3.888151 -55.945385 -243.302948
23.539202 -71.077782 -179.683563
96.622536 -44.074921 -112.174141
-22.811836 -78.223885 -217.330063
3.895106 -70.211685 -293.079193
8.812953 -68.430428 -243.018692
66.490105 -47.553169 -91.186348
40.412445 -66.905190 -252.708710
-155.090424 -80.636887 -256.721985
-9.914902 -55.508942 -54.606251
-47.890476 -39.720524 -56.900063
-161.662827 -73.094826 -227.201126
-159.363693 -67.496391 -223.785919
-123.277313 -73.514336 -197.892990
-45.276756 -80.103127 -152.686920
-67.950554 -52.442230 -107.169937
50.205013 -65.938286 -252.426605
21.506182 -76.203163 -190.912643
3.097126 -71.545883 -163.565247
33.689503 -51.031769 -37.005123
112.321030 -70.192245 -164.917114
-141.486298 -79.295532 -194.362167
-24.601149 -77.509888 -218.479019
-151.718674 -65.689957 -313.685608
66.375946 -46.592510 -93.495239
3.355957 -67.511749 -229.758072
-30.433193 -77.770424 -80.060272
-93.183144 -37.386131 -108.603592
15.058773 -75.171120 -289.625092
-78.974327 -65.911057 -126.082932
66.286270 -48.751678 -89.406487
-96.291115 -49.323742 -113.293045
114.266029 -75.100746 -162.328644
18.270987 -54.179821 -241.897827
2.160163 -81.560638 -276.598785
-114.764526 -73.841003 -258.142487
36.596989 -68.470360 -129.600128
50.569489 -69.162514 -28.244692
-67.989876 -55.493679 -121.865723
-64.510529 -51.622631 -67.566467
-32.451031 -75.400986 -237.771179
-11.014349 -56.745144 -273.388947
-148.738342 -65.900482 -220.870178
-160.434998 -71.949791 -287.500275
-106.418488 -70.874207 -223.966080
110.381912 -66.152664 -110.845085
13.153542 -52.430241 -239.374985
-57.316006 -75.971153 -137.114410
28.953781 -53.490208 -263.400848
-21.835144 -75.818535 -198.427948
-75.093262 -65.793076 -126.919724
21.391685 -72.028145 -33.304928
5.757904 -75.722481 -239.429138
-79.419975 -78.777611 -210.756104
86.094551 -74.147743 -213.036423
-10.949244 -72.584694 -237.477249
77.130920 -71.457443 -225.909027
77.893372 -42.869419 -61.344418
-147.421371 -77.813553 -295.898407
-101.829643 -64.415962 -258.916870
-96.104782 -64.828201 -72.132385
-117.876572 -77.884109 -288.860718
-74.373184 -72.084183 -143.275787
-76.759048 -69.511826 -109.216919
46.491104 -69.375717 -109.918732
66.878845 -57.260735 -94.616394
-99.282829 -65.447685 -161.496002
39.471691 -77.396423 -106.565918
2.381531 -52.197010 -235.680893
-1.410444 -85.213722 -266.722046
-93.013870 -71.552177 -118.576195
-6.805975 -57.927971 -288.729004
28.385290 -58.368309 -131.628220
37.323406 -67.566971 -252.255249
104.792206 -60.083744 -78.414978
-160.924225 -72.860146 -236.653671
-80.701477 -31.147764 -53.842377
56.617100 -65.461250 -99.143806
-54.126236 -74.959908 -148.170914
-58.584476 -27.785221 -81.842751
17.443777 -78.088486 -251.791931
92.627060 -53.424938 -59.229218
-66.812424 -83.320099 -83.987778
-155.771851 -79.874733 -289.721802
-32.612835 -66.865196 -78.078979
-93.253944 -53.302132 -52.977566
18.221186 -71.921646 -244.521820
79.631729 -71.242149 -101.899292
20.239519 -53.447906 -21.970568
-136.076324 -75.766991 -196.583725
-156.369095 -74.852333 -289.217255
-60.869976 -83.044563 -202.566803
-8.001889 -79.293236 -168.287155
-59.804707 -74.324303 -166.942688
-34.157639 -73.670326 -185.199600
-16.772617 -79.603676 -203.867584
-54.078934 -78.719719 -175.083435
-10.719784 -50.100006 -252.409714
-135.143341 -66.607903 -289.797852
-11.487070 -66.953232 -255.487701
-80.297203 -23.994045 -98.818909
78.220596 -45.541378 -111.701393
-104.513962 -61.926624 -166.923401
-6.367640 -68.624237 -289.192902
-116.198608 -65.475395 -229.133484
98.018654 -56.435692 -108.264717
95.829430 -49.650665 -60.923698
105.632957 -74.306969 -175.757721
61.492516 -65.499329 -82.941925
105.898621 -46.331627 -97.592484
-26.446823 -72.566757 -218.677170
111.769180 -72.427200 -169.423218
-69.915825 -35.294876 -50.938763
13.530203 -78.276749 -209.127808
19.202103 -71.016655 -174.217010
30.243425 -70.707626 -34.932251
14.086313 -55.581444 -271.110321
-60.245865 -50.229553 -88.293381
-78.583794 -84.268570 -87.511635
-144.046387 -83.288383 -239.557831
63.712864 -49.963116 -66.843887
-8.080949 -72.593048 -237.947647
-95.824730 -65.689339 -156.996384
-2.614369 -72.639114 -217.633179
-25.386518 -72.744537 -57.786224
-25.751871 -75.451515 -285.413086
98.537857 -67.194458 -103.003571
-8.737485 -72.791840 -205.769485
-64.528221 -71.677025 -249.653564
-151.308762 -83.198212 -201.086319
-34.739582 -70.104790 -176.510895
-19.658871 -77.549591 -239.768921
-80.740913 -59.749573 -122.371193
-10.535365 -45.310020 -57.834366
-148.410187 -86.229248 -291.769440
-116.598671 -62.969532 -201.073242
-106.201057 -68.095657 -185.913651
-86.267937 -58.078892 -47.404659
12.010839 -80.940147 -251.217438
110.553772 -67.731010 -114.651306
-14.865946 -77.174507 -222.639816
110.809998 -76.550705 -126.495880
-46.880688 -74.416275 -239.816925
6.458748 -77.541107 -233.402466
-166.043442 -68.048958 -250.805237
15.065945 -52.194115 -241.587967
69.167465 -47.822208 -61.171383
33.668713 -72.597198 -122.958290
18.868933 -71.951385 -245.766968
95.669632 -43.758251 -91.685867
-137.828888 -79.020149 -289.529602
-109.678162 -73.141701 -224.804077
1.859453 -71.476891 -162.858459
95.392029 -54.532204 -99.858093
-47.238789 -78.989494 -87.196167
-79.349373 -62.302601 -126.722031
-12.471055 -75.187973 -201.309937
41.146446 -69.642952 -14.181198
-62.655693 -62.286732 -109.455292
42.707489 -70.010086 -18.660036
-92.893692 -73.201622 -111.916481
-151.961792 -81.552803 -202.010223
-98.250717 -54.122047 -108.295975
-18.668154 -56.052097 -260.738922
-151.308426 -79.166924 -275.144867
-98.813011 -63.545547 -85.463150
-166.296997 -74.603874 -249.944427
47.281517 -61.021526 -32.555252
-142.437744 -85.647926 -288.044617
32.552433 -61.107460 -38.327717
-98.811234 -59.622005 -67.721519
8.872142 -70.863403 -149.882828
18.369354 -69.997849 -146.989822
-41.401432 -77.895164 -194.306091
-131.212524 -73.026901 -199.868134
-33.958103 -79.558014 -191.930847
-68.849640 -74.293259 -151.368103
46.617828 -78.448204 -117.773788
10.724213 -79.521217 -232.033096
3.625388 -77.628540 -232.544037
-89.705902 -74.034622 -72.453133
-142.941071 -60.748417 -178.371353
56.405235 -68.765274 -245.221268
-43.157528 -76.306229 -290.453766
72.619209 -48.055077 -105.493301
-153.641663 -66.620575 -199.913132
-99.415436 -39.761772 -69.770233
62.100620 -48.254158 -88.723099
-71.495399 -60.013416 -97.676758
-101.734985 -43.488335 -84.748032
55.272469 -72.618988 -97.543732
-95.703514 -63.652866 -154.942413
7.231400 -65.575142 -245.710205
102.237892 -65.019661 -96.479958
-4.733082 -74.204681 -167.323593
79.447258 -75.115639 -230.094574
-80.649689 -86.338661 -97.368477
-41.562004 -78.284279 -240.083206
74.333199 -71.136971 -230.537598
-145.473557 -69.055687 -244.086075
9.704733 -81.782875 -235.418671
78.757286 -73.348763 -72.965218
16.543150 -65.017677 -285.146820
-93.726852 -68.296646 -146.262848
-37.561596 -79.898842 -241.393661
86.222198 -56.101055 -98.446487
82.742859 -56.388424 -98.590630
-87.344116 -71.168465 -215.349747
-134.993057 -67.776817 -264.143738
-44.878738 -79.011353 -148.289276
13.984948 -76.975716 -190.710968
-150.270035 -79.659836 -193.707932
96.226166 -72.263992 -75.441010
14.557200 -72.252022 -223.341965
108.942390 -71.426628 -183.585144
-21.644920 -76.224266 -198.114731
-12.646101 -49.914070 -254.938141
10.242384 -80.349823 -229.784592
-45.899708 -71.692650 -163.776382
-77.746498 -64.021133 -133.482773
49.615200 -70.171593 -20.231754
109.748795 -71.821953 -130.991516
94.234634 -47.837051 -60.623703
31.531839 -60.725895 -135.624863
17.348022 -61.543633 -151.855942
-124.842537 -75.276680 -291.940155
-96.498001 -55.518990 -59.167053
-157.960907 -69.587959 -201.896149
80.175774 -45.799820 -111.569809
-5.160662 -77.017654 -288.845215
102.965736 -44.048985 -104.867188
114.308777 -68.505630 -130.007813
-96.955322 -38.133286 -103.589294
-117.483925 -76.483315 -286.902496
-169.011337 -74.481468 -284.717346
-125.552078 -70.152145 -225.089050
60.971729 -47.732700 -97.791649
18.829964 -73.209740 -166.645401
-143.981415 -67.512367 -256.426056
-153.194092 -61.011463 -231.352661
-58.318245 -77.328140 -167.757263
-16.347370 -56.727215 -270.622528
93.198204 -70.781227 -105.783936
-11.944450 -49.053577 -246.015503
-76.036926 -84.335175 -94.036522
-82.376152 -71.872299 -255.283203
19.896049 -70.962463 -31.322464
-143.624680 -75.700562 -304.210876
-47.388233 -81.249939 -201.729813
-64.978996 -74.005959 -52.863956
-21.205446 -73.136780 -217.516953
38.387348 -64.434280 -252.360977
-63.324028 -74.801422 -53.027405
109.990791 -74.371620 -173.173355
-132.887177 -74.973083 -226.651413
103.716606 -43.134266 -83.789749
-161.603546 -68.948189 -264.837555
-45.527416 -47.202408 -50.325459
-137.633865 -77.815765 -255.174210
90.894356 -46.459061 -83.804459
-144.803757 -66.184738 -294.441528
35.316803 -71.128777 -135.889694
102.145226 -43.184334 -83.998024
88.562675 -62.272709 -61.927624
100.388901 -43.108025 -96.327492
-22.363316 -72.229073 -182.904922
-15.946912 -79.977631 -181.235565
85.703766 -78.041359 -90.908447
68.185516 -47.837112 -68.095139
-56.239140 -83.643906 -78.130592
85.776932 -44.474972 -62.698639
24.516529 -53.463612 -246.582474
-6.302648 -53.363289 -237.061401
-93.889778 -43.942982 -115.203957
-21.051395 -69.564064 -193.291763
-149.871750 -61.413914 -200.414017
-43.878941 -71.802170 -162.743652
-31.762516 -72.900620 -54.526058
-35.725986 -70.924812 -52.015369
7.614635 -73.470802 -290.262512
-68.443886 -58.210583 -106.516685
-139.612396 -74.726250 -200.431458
9.546178 -86.116302 -265.120056
78.816513 -53.970493 -79.797974
-84.734543 -67.733475 -105.038948
-151.743271 -79.666039 -201.334763
40.165352 -77.749184 -131.408020
-79.099892 -69.010071 -120.559074
-82.737007 -64.732536 -122.784081
-2.162759 -64.510246 -258.632965
-41.163105 -85.109901 -197.549576
-24.427143 -63.231003 -69.141060
-143.688553 -62.458672 -234.722626
39.032326 -69.739281 -110.329628
-68.048416 -54.380547 -117.330154
-12.975862 -53.025242 -254.779633
-32.232609 -78.687943 -204.202988
30.465508 -65.660210 -42.088173
100.157188 -53.561329 -101.075554
2.526543 -72.076454 -161.970276
-54.234409 -62.730923 -44.607914
-50.183086 -76.316528 -149.801529
92.536713 -55.066666 -88.633087
62.265755 -72.479515 -242.293182
19.427649 -76.855560 -182.817871
-92.628868 -62.653229 -146.258835
-167.923599 -69.909241 -286.080811
72.847008 -58.721722 -60.794224
-146.683075 -61.806099 -222.163116
-12.403202 -50.683811 -242.257019
-167.140396 -67.682304 -207.069473
111.895096 -73.772346 -161.409134
26.417007 -58.678471 -260.299530
-110.006477 -71.186287 -261.516785
-148.235870 -70.514771 -313.109406
-61.652287 -52.288158 -120.795784
48.461678 -69.581520 -253.375000
27.229263 -71.803123 -179.613007
42.371731 -64.003197 -250.213730
-160.814194 -65.365227 -224.891830
19.268993 -80.871468 -247.618622
78.773438 -69.583939 -229.088257
-109.733398 -65.790886 -224.636719
-48.424393 -79.977928 -202.686615
34.174805 -71.206024 -155.535034
-154.935242 -64.985153 -255.059967
97.914825 -77.304329 -199.332855
54.994938 -69.006912 -245.358185
-101.723640 -66.719666 -174.554443
-142.918900 -68.736534 -225.829803
90.986794 -47.154591 -111.360817
98.605980 -53.310745 -98.998283
-48.116493 -78.797447 -154.155762
-3.184412 -54.126480 -285.872711
80.795708 -46.441242 -65.013481
-108.087791 -69.612724 -172.877090
25.381329 -68.578163 -168.842102
-2.481745 -77.463058 -218.379089
40.093884 -52.050087 -41.353901
95.926674 -70.104958 -201.944061
-54.851425 -71.026543 -132.590088
-25.456942 -72.627960 -287.704773
69.213257 -52.971889 -97.562592
74.212074 -56.488392 -87.109848
63.990456 -69.193611 -237.037354
79.184410 -76.545334 -231.967712
12.696351 -71.080246 -212.113297
-148.402817 -80.361511 -194.200241
-49.811996 -70.467514 -47.732769
94.048584 -46.702419 -110.728584
-36.172489 -70.802704 -176.624557
-95.797470 -62.294540 -66.746986
-154.297165 -67.935066 -201.542603
13.488146 -64.482056 -243.181351
-60.782505 -77.328995 -162.037827
-13.321216 -78.168480 -173.379517
-3.944200 -78.592422 -291.085663
-148.552872 -80.147980 -241.624954
3.309570 -69.511574 -235.568558
-134.941299 -76.715492 -198.728806
28.208893 -52.667904 -248.371414
-88.776253 -22.609564 -93.456505
-133.310318 -73.192413 -202.400421
-154.713333 -69.931839 -262.027557
47.091381 -71.523270 -97.605049
71.606140 -50.385166 -56.567772
-81.762512 -66.303642 -113.102119
29.188263 -50.740490 -256.134460
-166.863281 -69.510635 -216.079041
17.827452 -78.175560 -190.388702
-16.486420 -82.060867 -175.082138
113.073708 -73.025772 -172.589844
52.440491 -77.249298 -101.526978
-44.596485 -70.749352 -153.318893
-135.205856 -74.759193 -227.628906
6.389117 -56.172112 -296.410767
-147.025192 -83.349686 -204.283844
-90.737595 -70.413658 -291.299774
-122.161324 -71.978722 -198.559937
-91.081757 -64.623032 -142.645035
-59.483204 -76.801262 -53.455864
-64.349968 -61.275623 -129.424408
95.239723 -47.082600 -103.950912
-68.354652 -70.870781 -289.977448
76.453018 -76.347466 -86.801155
-96.304771 -64.833771 -66.821548
81.086395 -52.508850 -93.258698
20.531536 -77.013351 -239.820251
-14.814768 -56.991558 -257.352997
-37.271877 -72.635628 -160.587891
-21.207663 -72.712097 -225.548630
-149.068680 -87.672775 -279.224030
-29.547604 -56.798985 -64.325768
77.985580 -44.909130 -100.927025
-98.873383 -60.643108 -102.921432
-11.309514 -70.811981 -248.743698
-146.334473 -64.407333 -283.261993
47.348003 -73.889366 -112.398109
-59.995613 -79.057281 -62.027229
20.115238 -78.449181 -174.770508
-0.595093 -54.875851 -237.965744
101.909569 -43.377880 -80.975517
88.799210 -46.471256 -89.561295
-11.081326 -78.600418 -270.627258
-6.738904 -54.914211 -279.359039
-39.961636 -50.722263 -78.615730
65.750984 -50.101173 -70.668343
-16.683598 -56.517639 -273.945282
49.378967 -57.758877 -106.829704
20.660715 -78.532616 -175.596817
1.491064 -68.713661 -241.978271
-134.210556 -63.818668 -201.436844
-19.182158 -76.531197 -72.940224
75.878990 -49.624393 -56.615120
82.038376 -54.500286 -77.452728
-51.058563 -76.534515 -191.086700
-142.046326 -74.191093 -262.076874
-25.363401 -77.173424 -215.664673
-66.552719 -63.051964 -94.673996
-56.837387 -77.372955 -175.884964
6.904103 -68.300926 -230.832367
-51.606964 -73.953918 -138.882263
-90.356781 -68.868492 -291.374481
-11.463399 -70.603844 -219.897339
42.864361 -68.821098 -249.016647
7.703032 -62.916553 -294.439941
-80.864105 -17.222492 -75.292389
-18.780556 -58.054749 -259.524994
38.320564 -52.057491 -41.426334
-41.954208 -73.129303 -148.061661
-146.637711 -73.875023 -259.510742
45.172989 -76.879021 -112.802406
-38.288807 -62.567699 -79.534622
-146.367355 -76.150673 -186.381470
110.847137 -73.092484 -161.604095
-72.401215 -24.692585 -99.604713
79.408974 -48.682793 -108.811081
45.988735 -66.770432 -37.282307
91.108063 -70.468933 -218.804214
-151.843460 -62.572010 -286.106537
-95.791786 -71.652130 -86.173027
65.524269 -56.332684 -67.494858
21.479538 -64.426636 -279.292511
18.497763 -52.036568 -275.908142
-54.744629 -65.286514 -122.050255
100.509735 -73.736717 -192.884186
66.287560 -58.368736 -101.621742
13.898193 -82.423531 -268.948883
-77.601768 -59.469482 -114.103241
-73.550880 -72.924232 -101.755684
-98.001678 -65.150955 -101.192574
-54.131680 -61.173027 -132.152328
-45.153542 -74.163803 -145.874207
-72.749619 -68.713844 -46.877613
-124.919472 -65.179703 -263.870209
-125.496040 -64.892960 -259.631317
-134.055634 -73.644981 -285.726440
-71.156670 -34.379417 -103.892838
59.009148 -71.376923 -88.682602
30.353682 -75.486824 -163.552612
-152.345108 -81.387665 -262.276642
65.758560 -54.305382 -84.092438
-48.175396 -78.059502 -146.449982
-19.677528 -55.140865 -250.370789
-27.466101 -76.801208 -222.370422
-62.222282 -55.692810 -66.273750
26.871552 -51.839714 -264.731018
101.096901 -43.036961 -94.335999
-60.538441 -68.704338 -139.694611
-16.009794 -69.031174 -226.842850
114.033585 -75.815178 -129.811874
-20.528526 -71.688980 -72.642540
-54.808945 -77.927185 -288.477448
25.385542 -73.169098 -145.571091
45.965443 -52.377811 -37.092781
43.562641 -81.854874 -113.971138
13.281670 -71.384735 -239.184296
9.673966 -52.084328 -278.048462
-62.672329 -65.385559 -89.402519
51.487022 -64.649399 -98.798950
-42.426197 -78.946770 -244.416016
-12.823481 -70.157547 -244.853180
45.583633 -74.663109 -115.622482
103.575699 -73.298325 -97.090843
109.525970 -76.747169 -189.535110
-20.555817 -71.275284 -187.257111
52.798252 -59.584858 -109.291801
-48.686569 -67.359322 -46.751072
-124.645653 -75.330238 -227.120239
113.710861 -78.007332 -168.522064
-44.805882 -84.396263 -82.921402
113.463860 -72.633461 -140.883499
18.543734 -63.154762 -26.701038
106.112747 -71.709076 -105.536331
-148.647736 -72.652679 -215.354736
-93.485069 -34.740471 -101.387367
-15.676733 -71.738876 -212.142715
45.225948 -56.409103 -117.412468
47.615650 -63.964329 -98.658508
-155.343201 -64.387611 -259.143524
-146.263779 -78.652992 -270.399750
88.321899 -53.637562 -95.144806
-142.763412 -84.320396 -259.345551
-146.894745 -80.153740 -278.049652
2.462927 -61.289703 -243.328949
-11.698458 -75.756828 -205.322327
-144.758087 -85.248039 -290.657013
-9.559790 -57.420074 -62.977993
-164.106186 -73.052864 -230.718597
-166.180130 -64.980103 -226.982834
105.399048 -55.686977 -74.637032
108.927460 -72.810799 -139.309402
15.716140 -67.876755 -185.143478
104.155731 -46.030758 -93.605469
-62.407013 -66.103714 -128.486237
-143.725723 -65.229126 -284.745728
99.785835 -43.623348 -80.277275
12.795002 -59.832756 -241.931747
108.825958 -71.668449 -111.600487
-73.194199 -27.493378 -54.362022
-110.679932 -70.429993 -199.042419
-28.469130 -77.144638 -217.921677
-58.326149 -34.324898 -65.661652
73.964165 -54.553486 -78.493752
-101.978584 -65.495422 -168.883469
-21.261740 -79.588257 -201.000885
-64.115234 -80.171394 -160.791901
-98.227409 -59.466480 -120.659096
-13.506349 -53.232525 -260.847260
26.637571 -60.894703 -134.126038
31.161489 -61.584759 -129.484833
-43.842300 -80.376060 -242.510132
-70.121399 -80.476189 -212.858780
-11.070484 -62.240696 -65.206207
-75.856613 -86.925072 -99.766190
-150.141495 -71.028069 -213.016632
21.452343 -73.825737 -166.395828
1.144185 -76.656204 -224.476303
-151.777145 -83.211227 -228.058807
-150.391006 -84.193741 -260.046570
-150.762802 -78.735054 -247.481827
-11.560093 -65.303909 -250.026703
-144.312454 -65.309906 -284.104675
12.215631 -82.219521 -231.480225
-71.000626 -41.747601 -99.655563
-140.607315 -73.435677 -229.193924
18.531406 -63.145145 -145.982285
-79.085197 -80.004730 -105.780411
-142.515259 -82.754135 -257.095734
111.725456 -73.021812 -152.244827
-154.867355 -77.407242 -231.324982
-148.012161 -65.427879 -200.369003
22.453926 -73.595451 -187.255737
-40.080856 -78.928398 -193.200714
-77.218880 -83.531624 -88.455498
65.922363 -58.555595 -92.572380
-27.541231 -74.139679 -238.513046
26.232948 -66.265076 -265.515350
36.841698 -61.585442 -128.167267
10.065228 -55.809551 -248.454681
-73.220741 -56.400593 -42.749332
29.009836 -56.240089 -34.007538
68.048981 -58.157078 -63.880714
-15.625473 -69.976334 -212.694290
-49.601875 -72.242744 -85.140984
30.660259 -70.543365 -153.835480
25.207802 -70.479256 -170.951462
-46.644894 -43.363720 -50.793026
-12.773579 -68.496483 -210.284561
49.277985 -76.945808 -99.916138
-65.921272 -68.709351 -98.666962
-42.116962 -77.759911 -62.880329
-46.472965 -73.286629 -139.635315
-65.708893 -65.016739 -96.993874
-151.225220 -81.775040 -209.793839
-50.360706 -65.584213 -133.927826
47.311443 -64.178558 -18.224344
-21.419548 -75.134735 -181.727982
-104.305656 -72.299393 -220.160736
-114.312485 -66.407928 -192.652023
27.584322 -53.543354 -250.314865
-89.186325 -27.046619 -58.757973
20.261328 -58.439087 -33.166340
-55.760788 -68.613182 -145.033569
32.363976 -71.781967 -147.696732
40.108814 -69.450645 -252.846954
14.091387 -51.207989 -290.137634
51.878395 -52.246246 -108.472145
30.994091 -66.593636 -261.939392
52.844090 -61.460621 -92.801765
-25.666571 -57.783882 -47.242504
-49.063915 -73.177979 -136.694931
-95.089859 -71.638435 -90.621979
-161.291077 -69.194275 -245.330505
-41.851879 -71.238556 -168.063507
-26.673113 -70.505173 -188.452499
-66.631706 -60.429085 -108.139778
24.128824 -54.403423 -260.451508
59.797672 -70.107025 -91.939156
81.883347 -71.351013 -103.760056
-13.813672 -53.318913 -272.833405
21.207607 -75.027779 -162.055344
-34.524242 -83.126373 -194.246841
-124.624573 -63.156403 -205.219635
14.289449 -84.378487 -258.604675
-118.789177 -64.538940 -233.169983
72.327209 -51.810932 -106.369446
79.834465 -58.645309 -93.932281
-95.335701 -72.703316 -108.962952
1.981498 -51.321770 -274.199646
-151.237411 -74.089310 -296.782745
-83.649864 -71.728165 -107.017586
-45.987362 -77.009926 -195.136353
-90.521515 -32.013817 -57.991146
-19.940331 -79.078224 -223.123581
-148.387436 -67.211624 -311.788513
-68.451622 -59.911655 -107.936890
-97.662674 -68.729179 -222.004196
20.475586 -69.065117 -176.860107
-33.591129 -76.889229 -288.241699
44.355244 -71.363800 -38.240303
85.357536 -77.231026 -221.855194
-154.190567 -83.705444 -287.055450
-132.521606 -64.412613 -200.318146
-144.642258 -83.540817 -217.684296
-69.859070 -72.549759 -246.010727
-58.946533 -56.660393 -84.021767
-93.424194 -73.077110 -104.669037
58.172764 -64.934662 -243.265106
-99.394409 -33.744606 -75.441818
-36.349583 -81.802155 -194.916962
-82.514908 -75.517220 -285.307831
103.360397 -68.092087 -90.517990
-133.735840 -77.710693 -290.767090
101.795151 -73.412109 -193.138107
111.209389 -68.433792 -165.948715
-60.775906 -77.285721 -171.543854
-60.575974 -68.256248 -122.846260
-97.365021 -68.523148 -158.620010
55.383606 -72.043968 -101.204315
68.587700 -74.178543 -237.538467
15.050610 -78.274277 -288.205353
61.749504 -63.316048 -93.469284
4.491010 -51.692806 -290.662537
69.276360 -66.379341 -69.384079
-146.403946 -76.524017 -246.773300
108.547714 -70.943642 -126.849380
-147.026505 -83.913956 -270.779938
-142.681702 -71.490433 -232.771545
-101.679176 -72.927864 -224.148224
-51.809090 -79.413666 -244.626572
60.929790 -48.372654 -79.638672
3.244997 -50.246738 -255.083542
-65.606895 -69.648972 -48.435364
44.498055 -69.334740 -39.447006
-99.228195 -63.259968 -76.318207
-40.983452 -47.201164 -51.711697
-152.474701 -78.355568 -232.378067
64.724831 -47.493179 -67.415413
49.066624 -77.698372 -107.342697
58.939884 -66.381027 -245.892014
86.907768 -44.585869 -58.629230
11.422831 -74.591103 -198.914261
46.920006 -67.982292 -96.564957
23.520950 -68.519058 -154.197311
-146.513565 -85.827225 -260.198517
-4.241464 -55.657616 -285.570648
-14.206752 -75.987404 -285.095123
47.984463 -69.712563 -108.622620
91.848503 -77.142555 -93.209137
-144.426056 -69.518005 -273.758179
-147.813065 -67.205788 -175.677750
-144.022736 -83.229805 -231.542908
-62.243629 -44.173153 -51.916523
22.888168 -72.032097 -190.180984
-84.982643 -77.976898 -216.091156
2.429811 -77.063965 -159.464859
-17.475512 -81.829613 -176.883972
4.502937 -79.146301 -245.860840
-14.809435 -53.232121 -260.625488
-43.384380 -71.567810 -161.902252
-147.924835 -81.687744 -197.188019
-3.782783 -67.395630 -234.791580
68.046013 -69.086723 -76.889702
-154.712509 -68.193710 -231.941727
-150.699158 -77.938744 -277.810699
-148.135666 -73.240623 -175.300293
-98.830315 -50.181728 -61.370029
-59.672543 -44.768375 -50.270145
103.626762 -63.319164 -79.163170
-37.848465 -82.218414 -161.145447
-60.567425 -73.373146 -168.088593
50.804935 -74.683365 -97.466446
-125.316704 -76.655235 -288.244476
92.588158 -53.916790 -80.740929
94.652924 -44.505928 -103.983810
-59.681908 -82.204292 -202.611389
-85.640182 -63.600193 -124.021286
-26.957630 -74.247757 -241.198151
-122.439903 -61.501339 -197.090439
-148.264038 -66.701195 -197.800003
43.468254 -51.295269 -24.370735
15.040294 -79.456657 -229.135391
74.378365 -54.202126 -83.623482
83.080048 -65.479309 -62.557899
-100.653488 -46.872196 -97.161224
-39.244312 -49.546944 -74.640495
21.878157 -76.852455 -266.904602
36.457096 -70.757744 -115.944267
-74.149902 -67.822334 -108.916183
46.137535 -61.502777 -34.636032
106.004280 -74.550415 -192.402298
-5.177871 -71.706825 -215.276154
-15.435456 -57.169388 -255.517227
-35.896000 -71.511223 -290.252502
-144.410919 -74.157959 -182.118713
21.928644 -58.415310 -256.574005
-81.665794 -76.047638 -66.814690
22.756325 -53.240204 -31.932219
-149.658020 -72.288544 -187.343262
2.299560 -59.174324 -244.174500
18.362909 -74.707985 -209.124390
-52.998478 -79.077782 -179.732788
65.741074 -47.389404 -104.860283
-14.566628 -58.180328 -265.532867
-78.697372 -18.859755 -75.934380
-141.434372 -67.855827 -204.435486
-43.035358 -81.927223 -84.036682
-154.615555 -74.851746 -310.606567
-99.075111 -68.532532 -152.336395
-153.459824 -64.395981 -256.664856
-147.746521 -74.762741 -186.469696
-66.948914 -73.777405 -154.152710
-141.247437 -67.043564 -202.905014
-77.904312 -56.077091 -112.639008
-92.409348 -26.154352 -69.580986
-38.112083 -76.712883 -170.964447
71.410736 -73.113838 -92.046982
92.250786 -76.642380 -210.938614
-35.018581 -78.413818 -171.477036
-71.625237 -69.830421 -100.497734
36.606770 -70.209969 -35.888451
68.491959 -51.954132 -74.888000
2.057475 -53.662338 -292.853607
20.005484 -71.385132 -28.482306
-12.590076 -52.174805 -245.734756
-80.304321 -72.044685 -210.703476
-74.649460 -62.217716 -106.256805
-11.395233 -41.620159 -56.638691
-132.303513 -74.835938 -223.865173
18.921785 -56.471107 -25.857784
23.539917 -55.381660 -276.600281
-40.285587 -76.559853 -290.790497
10.609354 -59.519051 -288.853119
-58.656380 -81.284103 -170.278458
115.034164 -70.564148 -166.477753
-61.859486 -51.937874 -64.750824
-14.374089 -56.170399 -277.687042
-59.677444 -45.796764 -48.037907
-64.213745 -71.178261 -245.004745
81.709953 -57.387054 -91.475502
31.752098 -65.601303 -12.890288
-54.377037 -47.379059 -82.267044
-98.622292 -63.051109 -98.416107
-159.800247 -69.081795 -252.440018
99.649017 -41.668453 -68.791077
28.061287 -78.050453 -150.843201
31.723291 -77.958832 -143.095016
-62.633755 -69.619591 -135.172226
-146.361649 -65.215416 -281.667542
-43.564552 -74.035393 -52.453445
-62.522072 -71.707397 -49.706764
-37.894165 -71.095200 -155.114227
-27.101954 -73.660538 -291.302521
107.805206 -77.202660 -190.351486
74.189590 -49.978745 -108.572647
-17.668530 -40.562088 -57.544426
0.820131 -73.054398 -226.270218
13.721263 -79.927353 -240.376770
-44.594860 -74.248787 -163.009537
96.118011 -47.147423 -62.414856
-79.764969 -26.846159 -56.830975
-82.260567 -25.718380 -100.653725
43.461494 -68.328011 -249.167145