# This PCD file was generated using the MATLAB® pcwrite function
# from Computer Vision Toolbox®.
# .PCD v.7 - Point Cloud Data file format
VERSION .7
FIELDS x y z
SIZE 4 4 4
TYPE F F F
COUNT 1 1 1
WIDTH 1426
HEIGHT 1
VIEWPOINT 0 0 0 1 0 0 0
POINTS 1426
DATA ascii
92.225433 -76.036041 -216.117477
1.879430 -64.141174 -280.504639
-58.619148 -43.811047 -89.572166
42.570847 -52.006367 -14.931087
15.572714 -71.177345 -157.279007
-28.053329 -73.934090 -169.349487
25.792048 -62.085800 -14.429203
91.672729 -74.625572 -99.590042
-17.126308 -54.584064 -248.295105
-136.466919 -68.332329 -287.318848
62.526577 -49.346748 -80.579376
-97.837303 -64.626091 -115.280731
-23.319262 -77.065193 -72.739952
-143.924408 -71.131729 -193.412918
2.429811 -77.063965 -159.464859
-78.897453 -63.613186 -107.877739
-145.920746 -82.367371 -229.986938
-53.902924 -74.132858 -149.927963
-23.618200 -74.937012 -187.317291
90.955856 -49.953571 -69.250710
-23.574554 -76.561249 -178.919724
-15.668574 -57.908806 -260.663696
-123.467712 -65.268089 -196.454285
-149.526245 -74.754967 -215.366913
101.917732 -66.733528 -84.206726
21.506182 -76.203163 -190.912643
106.112747 -71.709076 -105.536331
83.410820 -43.071682 -66.753998
-144.876541 -60.858475 -183.947586
73.964165 -54.553486 -78.493752
6.520963 -55.395859 -241.353165
-151.738373 -62.965427 -259.306122
-84.826584 -68.228043 -117.352058
-75.121468 -73.791183 -252.685165
53.934422 -62.739555 -95.219650
24.361481 -79.077652 -161.309357
-17.668530 -40.562088 -57.544426
9.041886 -79.171028 -290.319580
42.085377 -70.441559 -101.865311
-151.363495 -81.388947 -255.340729
113.941818 -68.554726 -143.650360
-71.767738 -67.994003 -152.641830
-146.742294 -61.460899 -224.977905
-147.597229 -80.482162 -275.921295
-62.960297 -59.920773 -88.490074
-34.720016 -77.234665 -204.885696
-147.113571 -60.776890 -197.544327
-117.142700 -71.186264 -224.946564
-65.699509 -21.301540 -75.555733
-13.332372 -76.627678 -255.049835
7.922459 -70.991440 -161.461090
-75.093262 -65.793076 -126.919724
-146.791840 -76.172440 -182.981384
-12.465381 -58.816238 -270.185364
75.374748 -72.893959 -99.488091
-10.861429 -76.590202 -224.734085
97.717918 -42.798798 -75.772430
-133.192749 -66.659744 -290.060211
1.443628 -64.340164 -239.753342
-57.668518 -70.821281 -137.924744
-26.806168 -68.985245 -183.779678
28.136953 -51.675838 -268.665192
-148.470428 -82.515808 -187.722778
-154.753204 -73.873131 -294.000092
109.970085 -76.796333 -163.384079
-108.312828 -61.352936 -182.306580
85.649818 -75.116081 -79.718880
83.715767 -76.354591 -216.077713
98.623451 -75.133682 -197.085938
6.182950 -60.828743 -245.003891
-61.863697 -53.273781 -112.694519
-19.794668 -84.348648 -181.258270
-162.681091 -67.910736 -266.853546
-47.889595 -72.107094 -157.209244
-102.362862 -69.330971 -162.704285
-38.972797 -76.113541 -170.543839
32.009655 -52.584721 -37.038097
49.451992 -71.066750 -109.158775
-15.193091 -55.625710 -245.783051
-32.020149 -80.683113 -76.902008
66.381180 -65.509415 -93.313751
-61.387665 -58.541435 -86.214996
-78.920433 -21.176640 -93.103096
104.375557 -43.027374 -85.159508
9.475250 -79.928185 -214.547607
94.308128 -44.227142 -86.947685
100.385063 -46.359165 -61.569046
-88.376678 -77.621658 -112.628815
-79.764969 -26.846159 -56.830975
104.813736 -64.510254 -84.082657
-164.621277 -70.277237 -200.866165
-134.210556 -63.818668 -201.436844
-147.840820 -64.229340 -279.199188
98.598892 -74.604752 -200.530853
-94.012650 -75.791153 -213.843430
-150.766388 -61.085056 -205.908737
-115.333977 -70.059258 -287.216553
-80.583939 -77.212891 -215.157364
-59.123280 -58.462975 -123.009171
-71.078331 -53.893730 -115.580635
-57.316006 -75.971153 -137.114410
-86.080399 -71.168709 -57.921825
-36.988533 -75.553398 -59.477753
-36.365822 -53.002480 -49.435493
-3.347615 -76.704666 -232.798996
-12.773579 -68.496483 -210.284561
93.405121 -55.325947 -94.629028
-68.989998 -72.927849 -153.698273
-153.233429 -83.487099 -259.092651
-43.180656 -79.543098 -195.936646
71.819397 -49.884602 -67.256332
111.956642 -73.987198 -152.099274
76.442574 -71.436211 -236.137054
-14.410806 -73.230942 -254.766266
-76.623428 -62.309494 -116.280067
52.440491 -77.249298 -101.526978
72.913498 -70.276245 -100.535278
23.841410 -55.377087 -279.868408
-146.694077 -64.231842 -245.101196
40.499084 -71.170387 -104.101799
11.600408 -82.220345 -243.032532
97.406517 -76.988022 -201.029541
0.310882 -69.962486 -237.310959
7.107156 -83.317467 -273.192413
3.144746 -85.679688 -262.824249
-45.468033 -69.134827 -150.968307
35.982853 -60.919235 -35.543430
-142.856964 -62.438084 -205.075912
30.270657 -52.366177 -254.566040
-146.107422 -85.043266 -257.607330
49.850773 -76.750648 -108.393028
42.346165 -70.321892 -121.509201
-141.578247 -78.060219 -258.832458
17.187065 -77.757675 -185.790939
-28.434668 -75.689377 -195.593796
34.482483 -73.092018 -37.244411
-142.431641 -78.672104 -262.642853
-60.023643 -46.296665 -53.099117
-0.001000 -55.972633 -292.770355
82.901855 -71.491692 -221.825577
-148.430847 -86.252502 -302.682281
12.593181 -69.279167 -233.039734
26.523203 -71.352798 -154.033325
112.646744 -72.081902 -176.452972
21.207607 -75.027779 -162.055344
68.630623 -45.793098 -70.582291
21.299633 -53.856853 -285.470490
35.417709 -69.751404 -141.570084
16.275581 -55.963074 -288.816528
-140.591461 -77.083107 -259.911865
93.207634 -68.644676 -211.935135
-147.893326 -68.748329 -298.683594
-67.428589 -53.034367 -93.395752
23.520950 -68.519058 -154.197311
-11.966512 -52.831482 -250.808868
29.641182 -67.477722 -262.043457
95.651680 -64.024422 -105.824509
86.094551 -74.147743 -213.036423
78.029778 -51.557270 -73.087914
-97.688751 -51.208897 -58.661755
-72.804024 -70.275276 -50.870018
-19.207167 -74.438629 -205.993469
-151.986740 -79.332619 -196.841263
-150.123154 -80.679764 -188.297104
40.743317 -73.715683 -104.810081
-73.130119 -64.163864 -110.617371
-63.719429 -71.941284 -288.447052
-35.725986 -70.924812 -52.015369
-133.035217 -64.430206 -262.275482
8.453380 -77.877296 -222.740494
-73.254906 -30.548393 -104.469810
102.001228 -76.832230 -192.475006
77.351501 -45.025047 -59.392227
-96.517212 -73.650970 -255.128174
20.556053 -70.794106 -32.659294
-91.043381 -70.824532 -66.849182
-35.565491 -57.650246 -73.128716
-78.956749 -66.895149 -130.714737
-69.051109 -75.761757 -288.613434
-36.044441 -68.973885 -174.482239
-75.910416 -66.064880 -126.954391
-122.226067 -64.948280 -228.749161
45.280483 -76.435051 -119.408455
49.203011 -54.994469 -107.765999
-161.674133 -67.517159 -242.094650
3.015917 -75.782677 -230.940308
-144.792740 -78.790405 -223.565536
-45.987362 -77.009926 -195.136353
75.556557 -46.559460 -102.713638
-133.983383 -68.629608 -223.855804
75.032616 -46.942951 -94.388641
7.954164 -76.272881 -226.458160
-166.451599 -71.997993 -235.363632
-65.833633 -64.456749 -96.779518
-15.962121 -79.301262 -203.639969
69.253128 -60.719067 -62.134766
26.133066 -75.930450 -137.954620
46.077091 -60.358055 -37.069088
-152.829803 -70.641518 -279.217316
-21.838430 -68.797546 -72.806862
-100.719749 -45.941425 -98.874184
63.876675 -58.868511 -73.252213
-59.772591 -77.912971 -178.540482
27.867395 -51.703438 -262.228546
-57.153412 -61.715302 -136.798309
28.680729 -54.376740 -13.958145
-135.106766 -81.459770 -197.025955
65.159698 -52.379444 -81.357185
-95.422432 -70.500458 -290.895050
-76.352684 -77.407486 -288.888733
-160.738785 -75.168831 -249.468857
-74.303299 -62.481831 -107.530403
69.541115 -46.994843 -108.525230
-124.529594 -69.569542 -292.016357
-70.493042 -25.851234 -99.760864
50.697739 -67.002518 -249.883560
-133.094696 -64.420563 -258.461304
22.292816 -58.749176 -33.908607
-32.612835 -66.865196 -78.078979
7.898182 -72.176872 -221.726242
60.415237 -56.088661 -84.758881
102.883163 -42.093376 -84.952095
-72.303551 -71.528191 -149.963486
88.918579 -47.533222 -113.335915
106.864296 -44.325832 -83.555710
-72.558250 -54.704025 -103.315536
-2.252284 -76.255089 -164.379227
49.127522 -71.586555 -26.106083
-33.994755 -80.184151 -206.443619
-78.951828 -62.043869 -45.324871
88.324821 -54.846592 -57.757774
-149.094635 -63.476601 -228.956299
35.929714 -70.302818 -253.480087
-25.386518 -72.744537 -57.786224
79.733917 -62.653782 -108.582367
-145.473557 -69.055687 -244.086075
38.387348 -64.434280 -252.360977
71.806496 -55.911179 -91.995331
-163.738510 -69.120949 -247.696060
-150.600983 -60.732071 -203.135468
-87.047279 -68.150154 -111.246620
10.065228 -55.809551 -248.454681
74.575142 -74.221451 -89.510124
-13.572292 -72.636612 -221.891388
-91.537621 -60.719173 -123.301689
-123.010864 -63.997150 -200.561615
-149.812195 -61.395863 -176.180084
-147.465790 -75.481621 -286.478027
-84.869377 -74.028923 -218.023209
-41.020451 -71.904198 -79.270851
-54.531162 -83.558578 -199.731262
-56.387089 -57.006889 -119.680977
-36.172489 -70.802704 -176.624557
42.602516 -66.825706 -38.822548
-146.282867 -83.054832 -292.529297
36.946728 -80.031708 -125.237366
39.236713 -75.357353 -130.557785
17.336615 -77.945038 -232.865051
-161.572571 -71.681664 -203.760651
113.790710 -74.977829 -147.867065
108.825958 -71.668449 -111.600487
-60.568264 -79.239357 -205.865265
2.355729 -66.976288 -292.481781
-12.408613 -67.279137 -214.304459
74.054207 -53.001308 -99.659149
-58.281952 -35.402164 -55.990864
109.525970 -76.747169 -189.535110
-94.834183 -64.898705 -153.617249
-48.304874 -81.812302 -72.720757
22.905884 -72.335976 -196.631699
-24.809980 -74.420486 -60.849644
-18.378454 -76.102097 -177.802383
84.201050 -71.969872 -69.481560
63.716675 -53.157326 -70.642952
-150.767761 -59.338268 -200.376984
64.711464 -73.681725 -238.881607
-94.087959 -40.992050 -57.012012
-102.771202 -68.869377 -172.110535
-42.228817 -77.045708 -191.551117
11.708603 -78.441711 -215.331223
68.062881 -46.763573 -102.751732
-142.167770 -67.802475 -287.524414
96.098396 -76.323013 -208.249054
91.609482 -73.730507 -73.209122
91.040741 -71.176582 -68.697617
-30.277609 -79.470802 -73.452629
-60.442509 -66.357330 -131.657364
-108.088593 -69.888016 -261.685913
-154.031403 -61.729031 -226.410278
-29.006227 -74.022980 -78.450813
-40.802799 -80.792694 -198.158829
-53.974136 -84.161850 -80.737564
-10.277656 -68.162567 -279.897369
50.788525 -68.920921 -247.936371
-137.781097 -80.146255 -288.370392
-42.116962 -77.759911 -62.880329
-154.163086 -68.040573 -225.160828
-65.381409 -78.181129 -246.776901
21.026279 -55.328331 -18.660723
105.808990 -43.448208 -89.226173
1.605252 -76.076477 -244.894165
23.870890 -72.240295 -262.418060
88.025467 -46.180016 -92.842682
74.247887 -65.906471 -104.885254
80.582146 -48.816708 -109.763374
-62.795731 -75.817978 -167.765945
-37.610458 -40.277466 -57.344501
106.011543 -72.280998 -120.156044
12.602980 -67.218903 -152.072968
-62.228161 -53.113926 -114.411728
2.381531 -52.197010 -235.680893
87.373848 -52.418530 -95.767578
-124.098190 -72.783272 -233.699524
94.769371 -45.084023 -105.790459
-78.383400 -65.545029 -137.865051
48.904255 -59.965736 -113.772316
-148.792633 -60.522655 -225.721664
-67.841026 -59.574177 -98.042435
-15.669564 -55.595650 -263.360962
20.875767 -57.320805 -248.326202
-41.614899 -77.427094 -203.531982
2.806512 -79.630692 -247.477066
92.643417 -47.960320 -58.753452
-43.308571 -66.009644 -48.046055
-81.786003 -76.658798 -107.570763
-152.308899 -76.898361 -294.546783
-94.730049 -73.861191 -255.344330
-47.172394 -77.009979 -159.323746
102.112793 -51.856426 -93.386734
-58.097122 -25.195517 -74.112778
99.602867 -44.257851 -66.041130
69.424530 -47.234215 -64.143303
35.467133 -67.651604 -258.742737
-56.151196 -71.370018 -48.394085
-38.825069 -81.118027 -198.767807
3.540272 -58.178104 -250.895218
-70.941216 -70.382729 -251.521774
94.589195 -41.891800 -59.754585
-153.638626 -63.479774 -234.510986
100.707001 -43.882473 -73.795334
20.733316 -79.255783 -255.705276
-126.359718 -66.395409 -233.952942
102.934624 -46.803352 -92.001747
80.382584 -44.812164 -71.832291
-78.230415 -69.560410 -112.136131
114.308777 -68.505630 -130.007813
-10.542203 -75.500412 -202.570114
67.441872 -51.388180 -69.274803
-39.038620 -78.403831 -65.798782
-69.319458 -71.789299 -141.761597
80.673462 -44.141502 -55.487583
-142.267746 -66.917862 -261.114319
70.190102 -54.921104 -96.742577
29.244894 -51.907967 -256.799835
3.888151 -55.945385 -243.302948
88.108398 -45.135841 -58.679306
-57.269276 -78.177544 -172.355453
-28.293413 -70.586823 -77.671249
-77.218880 -83.531624 -88.455498
-63.307796 -58.668892 -105.533119
46.870144 -54.321766 -18.445621
43.451660 -51.025318 -36.801853
-155.423462 -72.108154 -312.795715
-77.998154 -67.121567 -120.544380
-85.485619 -69.494606 -252.639114
-44.709820 -66.854576 -142.668732
30.158485 -79.555069 -140.816940
-66.222580 -59.861492 -123.887642
2.148340 -52.432323 -294.058228
-144.724625 -70.637520 -241.304306
91.557701 -47.799683 -68.827065
-12.285574 -52.732296 -250.905899
-86.454765 -72.267082 -65.067596
95.669632 -43.758251 -91.685867
32.851475 -62.587425 -14.210639
35.290127 -78.409691 -122.326591
-149.025162 -77.667061 -256.834839
71.469086 -51.606052 -110.171143
-21.835144 -75.818535 -198.427948
74.336105 -47.486382 -62.178631
-10.548093 -71.911781 -278.257721
-99.650856 -69.031799 -287.877808
65.808052 -64.586319 -89.863029
-55.195011 -65.923149 -140.849854
-91.356552 -74.981239 -220.270370
-37.079803 -80.458618 -81.125534
63.209766 -67.142601 -94.050240
-142.406891 -70.109993 -193.921463
-81.299690 -75.744286 -254.079239
-8.409442 -70.069923 -283.838287
114.264488 -70.965309 -168.265045
47.014004 -67.506691 -99.996056
-59.161499 -73.265671 -175.950790
-84.373337 -74.074043 -255.006805
67.204575 -56.431423 -96.791084
20.047482 -53.720192 -277.544373
18.469328 -70.998558 -168.736481
-80.582489 -69.327400 -127.494850
39.564907 -61.166679 -35.646427
-69.348083 -74.235222 -153.458130
13.522431 -61.688484 -289.798920
-75.826622 -65.688728 -118.319473
-123.529625 -70.860138 -203.043930
104.747589 -43.298927 -82.808022
-19.661621 -68.862694 -206.537491
-10.854632 -57.099808 -272.560028
42.864361 -68.821098 -249.016647
5.630232 -85.408249 -271.083679
-18.925570 -76.285454 -189.861618
31.796570 -77.793594 -155.655045
-60.567425 -73.373146 -168.088593
-75.959076 -69.515045 -130.463867
-125.030922 -64.305801 -261.356262
80.172478 -48.994480 -109.330620
-148.151413 -67.006073 -266.071899
-87.535637 -49.118999 -118.670921
-26.360685 -45.879326 -52.118629
94.778557 -69.790413 -206.753342
-23.667032 -53.214687 -61.085110
-146.460739 -61.551395 -182.166199
-62.655853 -58.391758 -129.134918
-26.028423 -69.543419 -188.571320
49.233089 -60.718170 -110.228691
22.872557 -71.425186 -250.279785
-106.271507 -69.456474 -261.103485
-13.506349 -53.232525 -260.847260
24.041918 -53.239620 -259.655914
61.063297 -66.828751 -242.198792
-100.101471 -61.059620 -86.289551
-143.706680 -77.840607 -211.379410
-100.485680 -73.210670 -255.323090
-56.722225 -70.788246 -127.062042
-125.390648 -71.036415 -234.686890
34.174805 -71.206024 -155.535034
-79.294762 -74.850853 -215.906326
9.571444 -71.120804 -226.552567
14.549962 -78.087242 -293.549164
16.615395 -52.620300 -276.088440
45.281898 -67.362785 -15.904819
-156.471176 -74.674347 -291.785767
22.384966 -74.967560 -256.015930
-163.741089 -70.623322 -252.884842
93.887909 -44.129238 -58.221863
-58.995346 -44.017830 -85.338951
-154.138443 -63.162144 -257.624237
-157.085022 -69.700554 -262.469543
-155.294327 -74.497093 -258.248474
-73.091141 -85.476265 -97.830460
-142.416306 -62.477104 -202.409424
85.217598 -62.304222 -62.665375
109.163254 -69.587578 -125.104919
-60.770901 -25.684851 -85.176033
-62.073025 -77.056801 -174.888901
-75.308784 -70.068672 -127.570480
-78.260406 -79.555893 -68.108055
-27.739599 -71.321007 -289.245056
59.121132 -64.512245 -85.014992
-9.653162 -55.179989 -238.679962
67.287735 -45.133591 -88.059174
-76.502937 -51.260368 -105.007942
-88.571754 -74.157768 -287.212708
-80.535469 -86.589905 -99.454880
-28.881451 -77.638107 -188.449036
30.742523 -70.590729 -150.717896
17.255302 -51.368839 -244.432068
-67.886467 -79.826523 -212.801254
87.464905 -47.646568 -110.605453
-151.163254 -64.575951 -291.499786
116.346237 -74.565666 -158.086197
-110.444839 -66.262932 -176.278793
-47.734592 -60.981800 -82.164764
-48.227768 -62.664425 -82.316971
-33.420544 -71.634514 -185.302460
10.034960 -53.873783 -239.983429
17.019161 -54.115711 -238.306564
25.677910 -50.980923 -25.539797
-145.541229 -78.410782 -205.150467
-112.589355 -70.977798 -258.712433
-145.435440 -85.598923 -287.004150
-9.158048 -78.745949 -176.467346
-145.534027 -68.099991 -280.993713
-33.830921 -81.463089 -172.303955
-34.975361 -75.146210 -239.088287
-149.368561 -85.637718 -265.280121
-152.281433 -79.563751 -200.045273
-132.701874 -76.997070 -289.248077
16.591467 -49.970356 -243.005096
-86.956985 -29.890556 -56.595276
-99.281120 -44.524403 -104.408325
111.209389 -68.433792 -165.948715
-116.598671 -62.969532 -201.073242
117.492393 -71.821121 -136.080948
-37.505783 -75.983101 -157.397491
-140.003754 -69.205688 -224.955307
-60.674667 -31.569323 -90.865768
82.712738 -45.977345 -112.231071
-59.826992 -61.453918 -132.189499
-41.596268 -55.362736 -47.349785
-149.554199 -62.452454 -232.979553
-77.673813 -18.489929 -82.317940
103.557152 -45.201817 -83.054771
-90.521515 -32.013817 -57.991146
-18.637640 -55.431683 -267.728485
12.486025 -72.752007 -158.686371
-2.723016 -76.360680 -280.820465
0.562507 -62.132454 -290.492157
-77.576820 -18.099361 -84.675781
-73.906982 -52.524250 -107.657631
-37.075569 -61.931976 -45.827309
-14.290218 -69.415314 -230.984085
-136.164795 -70.889915 -285.448395
8.253260 -75.075340 -222.367096
-145.986938 -69.757645 -197.140182
75.763947 -75.505867 -94.181046
98.021309 -55.629562 -98.620544
6.389117 -56.172112 -296.410767
25.870113 -78.050034 -146.017120
98.272820 -54.750919 -102.652794
28.019707 -53.111126 -255.167740
-149.001434 -61.044506 -237.363312
105.760422 -42.651485 -76.090721
-144.329498 -65.812920 -192.926529
81.979919 -45.112038 -110.569244
-4.864105 -75.459602 -230.731155
102.835182 -65.454147 -75.226952
105.687599 -58.641365 -84.141090
25.381847 -77.350159 -146.282303
114.484283 -74.661270 -153.625031
18.123421 -71.402763 -203.432709
15.532910 -50.961456 -265.193970
10.424979 -56.674530 -292.784027
63.430435 -56.043030 -87.709076
6.524430 -55.844135 -293.584625
-36.253952 -67.302620 -77.625809
-142.921143 -74.537231 -311.532471
102.089363 -66.803329 -97.474792
-138.507019 -72.706154 -231.355057
0.644787 -55.401146 -240.935730
49.489876 -70.991104 -22.704790
10.157948 -78.128380 -235.419128
14.613116 -77.127258 -203.240463
-155.233124 -73.070259 -311.487701
11.790087 -80.457260 -249.274658
-165.072815 -70.515892 -204.012085
104.010635 -44.381386 -78.921944
-153.641663 -66.620575 -199.913132
78.632813 -56.400272 -89.920593
-32.153389 -86.019577 -191.002869
61.583698 -47.621487 -91.976219
5.101016 -74.330017 -224.900635
-145.198822 -82.836327 -201.382462
10.616820 -75.654190 -237.791092
-151.227112 -63.016090 -212.229279
-4.276183 -73.180153 -286.910980
-152.068466 -74.834373 -293.834534
-162.561661 -66.785782 -236.377640
-27.395866 -65.120819 -49.315094
12.233122 -69.971123 -234.835495
10.235044 -82.664574 -267.737610
-17.010183 -75.923355 -190.296616
95.132088 -60.347244 -109.432289
-28.924744 -79.299004 -185.762634
-45.079174 -38.136639 -58.573952
-89.975212 -22.028294 -85.001831
37.802711 -62.819466 -36.103207
102.950783 -51.268570 -77.675949
107.903412 -70.830879 -168.698669
88.235535 -42.204113 -77.120621
15.584419 -78.049896 -277.402039
69.661339 -47.727440 -101.500122
-63.324028 -74.801422 -53.027405
-152.415863 -78.730583 -229.569931
-25.148829 -64.603310 -69.277130
105.491066 -77.485619 -181.770782
-26.518330 -74.122757 -218.283554
-83.450203 -40.079041 -50.060005
12.696351 -71.080246 -212.113297
76.405136 -53.423901 -57.681999
-28.659218 -77.690819 -207.030304
-16.803822 -56.143826 -241.112885
-63.669804 -51.152664 -64.039467
60.835438 -59.071449 -93.389397
-75.307144 -67.783745 -112.810112
-13.013188 -72.656464 -228.456940
23.068707 -77.142914 -169.584076
-20.843988 -70.326591 -239.277740
-64.325233 -75.970482 -97.296844
106.114647 -71.493347 -98.574471
-154.807571 -74.015907 -256.003693
2.160163 -81.560638 -276.598785
-18.220354 -56.094170 -255.675461
18.165751 -72.718277 -225.559723
46.031681 -72.413261 -30.063929
26.470781 -70.118561 -153.194580
-9.402617 -50.877773 -246.174072
-47.706017 -63.792332 -44.845440
-146.805145 -74.804466 -217.433823
-82.672722 -34.396152 -108.703178
7.614635 -73.470802 -290.262512
36.598415 -67.309830 -255.891083
-141.247437 -67.043564 -202.905014
-54.055214 -78.564880 -173.074539
-11.070484 -62.240696 -65.206207
-85.186554 -72.641525 -249.308334
-147.431961 -62.836105 -232.698792
27.505116 -55.496502 -256.561310
-162.077194 -74.299889 -253.183975
-125.171944 -75.183136 -227.081848
27.743500 -65.551361 -15.679612
113.706123 -77.479988 -140.115524
47.563366 -59.619362 -34.393513
-154.635620 -80.675499 -260.032196
-24.841240 -77.760284 -180.321243
-153.867218 -72.137428 -198.375229
68.364365 -48.246845 -69.583115
-51.856182 -47.514729 -82.639771
26.701101 -55.245609 -269.099518
-42.984509 -68.129326 -158.203033
-153.405502 -68.421089 -307.491882
18.039757 -77.587280 -196.559570
-56.931290 -77.770485 -244.713455
74.959053 -75.279930 -82.155663
7.064049 -49.589611 -254.754639
12.857289 -83.475220 -254.327728
-60.592628 -43.927555 -50.435757
-166.701157 -69.407906 -247.323196
15.812542 -66.446152 -151.791351
47.345757 -70.221931 -17.015783
-93.726852 -68.296646 -146.262848
-19.591686 -67.538269 -200.351929
-30.239719 -80.448418 -238.772537
37.107281 -68.291908 -259.127655
-64.526421 -83.787605 -79.401718
64.088417 -66.350899 -241.152725
-96.346764 -37.381470 -101.735718
112.780945 -72.522568 -113.081978
-44.573967 -74.663094 -191.635834
-71.360336 -81.452354 -209.209335
-30.540972 -69.759590 -50.298210
102.132553 -58.754463 -99.893524
-83.683357 -66.590897 -119.701309
-76.582230 -85.451698 -93.823593
-167.517761 -68.742981 -262.943695
-74.359665 -70.297806 -139.821701
-149.458267 -62.579926 -186.890930
-72.888184 -18.927118 -67.677528
-48.926048 -38.181862 -69.093231
-82.807121 -72.614914 -215.166229
74.189590 -49.978745 -108.572647
100.658035 -74.902664 -189.894287
3.362809 -83.858757 -271.544647
-54.126236 -74.959908 -148.170914
115.543854 -72.319809 -124.806206
1.548216 -51.975018 -283.014496
52.134720 -65.764885 -246.325562
26.741989 -64.952988 -39.477695
-67.889427 -73.113663 -157.144272
-87.814674 -69.964516 -134.772675
-60.617901 -58.610352 -133.799286
-51.588017 -76.570236 -289.267487
47.176991 -69.468590 -35.323475
-74.581879 -87.134895 -95.225357
-144.006256 -69.266495 -223.214722
-59.462883 -56.239079 -114.058434
-85.620781 -68.649048 -287.371521
-67.087242 -78.170403 -156.999390
5.685075 -85.966324 -253.969986
-52.920490 -71.675369 -153.380920
18.324913 -49.865162 -244.898880
-32.757610 -80.151901 -77.336891
-73.882446 -22.915758 -94.150490
75.000084 -75.675720 -87.623009
-0.096855 -65.976959 -272.322357
33.715363 -68.840401 -128.219193
-66.662857 -60.275902 -43.506145
-3.859165 -80.645485 -272.760620
81.358482 -77.291878 -92.932404
-142.301208 -70.416023 -263.542816
-43.769684 -68.126083 -153.842010
-78.559441 -69.464272 -131.098053
87.741608 -45.244480 -57.120457
28.169851 -67.619827 -172.902832
87.323013 -72.273842 -216.992554
-150.049835 -78.032410 -301.084961
65.610710 -48.184036 -106.176559
-74.649460 -62.217716 -106.256805
103.381912 -46.330856 -75.526237
12.768782 -49.921722 -243.098007
79.909698 -56.149570 -57.624821
-62.170502 -54.191616 -105.072449
-17.174051 -77.188263 -209.019760
-74.574631 -78.870941 -102.238609
-144.758087 -85.248039 -290.657013
108.200546 -75.108292 -159.480743
-166.043442 -68.048958 -250.805237
90.033669 -44.551056 -96.961998
-143.860703 -63.633896 -256.166168
-102.340378 -73.337158 -222.427689
-12.471055 -75.187973 -201.309937
39.560627 -52.324677 -18.910122
-85.205742 -69.930733 -117.874146
-149.137619 -81.952530 -230.128906
106.406273 -53.053070 -84.521332
-149.002457 -83.132240 -225.001495
-53.043449 -77.486176 -244.958710
-33.526482 -74.919518 -286.127869
62.250057 -68.400307 -236.508331
72.816772 -56.653656 -100.986710
-14.854321 -78.465691 -199.301453
16.259907 -82.051468 -248.855164
80.663300 -46.608757 -57.834442
-154.209503 -62.286503 -232.368210
17.086487 -76.241570 -205.556458
6.119213 -74.542015 -216.082581
-82.339172 -82.821457 -87.782440
4.190639 -57.001335 -292.954193
21.861391 -66.558441 -178.150818
-73.405586 -55.947701 -112.667900
102.568245 -69.171776 -87.283531
-93.889778 -43.942982 -115.203957
86.488441 -65.342247 -63.082649
55.592072 -67.128693 -249.973801
109.990791 -74.371620 -173.173355
70.566650 -46.155548 -66.950592
92.734329 -75.420914 -213.141739
-149.249146 -60.808304 -195.733932
-142.490570 -67.295021 -192.966461
69.021896 -71.248062 -78.588799
21.856504 -61.584476 -138.475220
98.444954 -43.132210 -93.623444
-92.051567 -64.955925 -138.286865
-54.396984 -41.759941 -51.926037
-49.601875 -72.242744 -85.140984
-149.372498 -68.495537 -258.100586
99.168686 -48.597977 -67.050018
-142.573578 -81.297119 -230.352966
-46.192173 -74.863396 -193.499161
3.294486 -70.411827 -225.938980
63.326260 -64.049049 -91.991386
-75.856010 -66.392776 -48.517189
-134.424194 -74.806557 -231.282959
89.711205 -65.905823 -62.937908
13.544799 -67.070175 -243.044510
8.033739 -84.995445 -263.623871
-7.636391 -53.029629 -238.782059
72.135773 -61.356781 -61.159618
80.306778 -47.109348 -95.217590
-83.314720 -40.251953 -108.674896
103.371185 -77.081314 -182.435165
-39.244312 -49.546944 -74.640495
84.115875 -46.006798 -87.382683
54.391125 -66.139702 -246.565643
-6.637184 -68.039978 -237.509842
-36.321735 -76.372421 -161.798935
-166.489166 -68.081703 -223.157501
10.137199 -69.982986 -226.902252
10.209357 -78.958778 -207.111313
-151.573563 -83.559586 -262.154938
-64.817955 -48.989697 -59.387650
-152.383987 -80.974998 -300.039642
-112.270515 -65.521042 -198.272385
109.991623 -76.742592 -150.071548
-19.981791 -76.830780 -178.641159
-68.850662 -69.972626 -289.273987
-69.691101 -61.900322 -111.328819
-3.196772 -71.466942 -289.817047
-143.537125 -83.382751 -201.515823
-0.595093 -54.875851 -237.965744
-134.287338 -70.992409 -224.848969
13.798748 -68.253540 -198.884918
61.548603 -50.656548 -83.528519
-53.348907 -57.470829 -79.425896
30.860796 -68.121422 -135.779129
2.944335 -67.181374 -239.419083
66.449921 -50.087746 -101.387985
-53.866680 -78.507378 -180.873016
-83.287476 -46.921261 -110.010513
-36.775578 -76.364685 -244.681259
-153.553299 -65.503510 -283.486023
90.986794 -47.154591 -111.360817
-83.607903 -64.047050 -106.612953
30.584404 -51.102554 -263.452087
20.855700 -57.070713 -241.620300
-126.964417 -70.314728 -293.982391
18.362909 -74.707985 -209.124390
-60.954426 -26.176954 -59.340824
-41.726635 -78.657341 -63.358421
-99.264168 -68.629311 -290.071198
-26.107534 -67.953827 -74.588310
-83.748138 -68.533508 -53.609581
-56.880375 -78.488029 -168.527451
-148.967728 -79.830414 -205.513962
-15.915648 -54.324837 -240.550949
100.398598 -54.859001 -102.744209
-132.303513 -74.835938 -223.865173
33.487232 -57.352024 -38.301891
-98.375534 -68.616180 -218.890396
-32.803421 -71.959068 -163.269547
-152.429001 -79.673775 -295.046295
-64.315559 -72.437752 -162.563721
19.628042 -76.345291 -188.682220
83.835594 -52.890266 -59.010258
-73.088043 -61.819153 -101.712158
-41.321232 -77.548599 -85.307892
-48.688019 -41.771339 -73.539818
-2.472854 -76.530602 -216.731522
20.741377 -77.104446 -242.395248
-68.868111 -73.845245 -162.329437
-29.277645 -78.261581 -217.683105
-8.066072 -80.122772 -272.488831
-37.775127 -53.688782 -47.997459
-11.616351 -54.700424 -269.673157
10.251716 -70.517242 -223.039597
-132.405075 -69.745529 -196.512772
-47.890476 -39.720524 -56.900063
-9.088126 -55.827534 -284.497284
19.104031 -73.668617 -241.030197
42.231712 -62.032558 -39.453453
-6.805479 -68.252708 -223.583939
-104.888390 -67.697403 -177.545074
13.530203 -78.276749 -209.127808
-73.560257 -48.049957 -103.740807
-144.522598 -60.117050 -195.264282
71.598907 -48.455414 -65.349670
-143.368759 -70.725838 -294.903320
-93.930878 -64.697403 -123.327126
15.598196 -49.904541 -240.921600
-21.559006 -78.099762 -185.177200
-79.671974 -55.764843 -116.476440
-81.401596 -27.578331 -104.211533
0.755983 -54.689312 -240.687576
68.046013 -69.086723 -76.889702
39.444153 -52.032974 -36.478676
-67.163834 -59.789009 -123.112862
-79.930397 -74.418282 -211.803253
59.217083 -67.150787 -95.530899
64.300003 -46.405422 -104.270973
-16.347370 -56.727215 -270.622528
-61.582661 -78.088287 -206.982071
16.000587 -52.299786 -262.009399
30.375076 -57.153904 -131.525772
-154.712509 -68.193710 -231.941727
7.532139 -77.144119 -238.315933
16.333017 -71.483192 -246.878189
-23.248123 -79.575172 -191.537888
-167.743729 -71.673172 -238.903290
22.727907 -50.323437 -254.158752
-13.589680 -52.029205 -247.211105
76.952515 -73.308319 -230.442795
-117.059753 -67.403015 -258.630585
27.643906 -54.617565 -262.645813
19.036119 -74.980011 -221.753723
-148.910187 -69.785194 -290.120422
-17.668224 -76.459282 -200.949615
-75.545761 -52.476986 -107.255669
-67.385956 -83.573601 -209.856445
23.735096 -54.181244 -256.426208
-77.249466 -76.687996 -288.114960
115.992607 -74.711052 -131.186768
109.570938 -72.902832 -130.727921
-135.343674 -74.019554 -290.377594
27.136456 -71.494179 -136.136063
-55.198067 -70.726555 -127.900558
-3.391354 -65.790627 -288.137604
8.507470 -79.978889 -239.689560
-37.894165 -71.095200 -155.114227
24.022524 -70.849236 -269.196594
15.112136 -59.815304 -287.570404
-15.985093 -69.808342 -195.901825
-151.777145 -83.211227 -228.058807
99.107254 -42.426723 -101.980713
-53.250893 -70.980873 -290.110626
-55.845703 -76.334335 -175.774323
-96.291115 -49.323742 -113.293045
-100.973434 -37.943687 -75.834259
-2.652171 -67.029999 -229.859695
-104.545044 -73.049721 -290.927582
-65.532799 -23.838240 -85.245491
-4.120420 -79.024506 -171.459045
-33.696812 -80.273003 -241.584198
-148.615356 -78.452873 -241.651245
-36.083958 -43.307671 -63.147060
19.424778 -77.167175 -255.693451
-42.096970 -79.660362 -164.267197
81.549583 -63.712826 -58.957878
-0.622474 -59.157925 -247.055649
16.901791 -52.216190 -253.593491
-63.395164 -27.260368 -59.458900
-151.913132 -83.819000 -300.019318
-36.361118 -78.247437 -177.298798
-49.091808 -75.948029 -190.710815
-68.132278 -34.677124 -101.957413
52.844090 -61.460621 -92.801765
53.269741 -61.052940 -92.372963
-143.094818 -73.305756 -285.574921
63.960762 -49.671665 -78.010796
2.049266 -70.832893 -223.926544
-144.973511 -75.359642 -275.386292
-44.805882 -84.396263 -82.921402
103.173935 -43.624420 -81.496811
-63.700420 -21.658463 -69.431137
5.624152 -69.890694 -226.273132
-116.968735 -73.826942 -292.728363
-13.047378 -67.961464 -200.547592
25.503233 -65.125687 -261.806915
44.685154 -68.376259 -250.073166
17.799170 -77.642761 -232.868668
-105.638947 -72.687355 -256.649200
16.129766 -83.574066 -247.554871
-15.130036 -83.155930 -177.074844
-97.975410 -43.468948 -63.440968
-21.676392 -57.018288 -49.973389
-67.957657 -74.920776 -290.549103
-110.277138 -69.358032 -189.808289
-8.737485 -72.791840 -205.769485
-14.814768 -56.991558 -257.352997
8.986274 -68.335854 -198.490173
6.773116 -57.425079 -241.780136
-87.492714 -75.566582 -252.383362
-20.667648 -45.704552 -61.435814
-10.936966 -80.203705 -257.547852
43.447208 -71.184937 -114.026772
89.423584 -43.779633 -63.516930
-142.996262 -82.656143 -256.934540
-11.081326 -78.600418 -270.627258
-4.533492 -66.217621 -265.514069
31.531839 -60.725895 -135.624863
-142.147964 -64.628372 -229.963394
-142.560654 -80.144508 -225.773392
-152.409378 -63.107178 -178.610260
24.645128 -69.349503 -27.565361
21.479765 -71.902245 -197.487122
-71.910042 -68.462006 -148.597336
-114.495834 -68.094345 -204.210068
106.004280 -74.550415 -192.402298
-136.644806 -80.631821 -288.599182
64.221893 -61.892448 -83.727234
30.966436 -56.528362 -41.159996
-20.071402 -77.986267 -198.881287
-27.949623 -69.630753 -184.464813
100.388901 -43.108025 -96.327492
23.042507 -52.657223 -277.536987
13.300522 -71.843880 -147.584000
-8.302023 -66.640938 -261.992676
-65.459846 -61.116798 -121.110481
-146.825943 -75.713936 -282.691498
-77.156509 -66.559387 -101.437439
27.852112 -72.710999 -33.225883
-150.273560 -60.489227 -205.736069
-49.872765 -37.169910 -56.935684
19.369410 -52.268997 -24.368490
-72.382080 -86.280571 -92.753143
-28.647818 -80.056374 -177.971329
43.435947 -71.697998 -20.671106
-63.296162 -21.018642 -77.099030
-14.787246 -51.082043 -256.161835
-11.674280 -65.443871 -58.199024
-80.743088 -18.902119 -85.432251
18.981247 -69.821854 -195.856903
-22.363316 -72.229073 -182.904922
-66.053993 -56.486755 -69.551430
-87.523613 -71.738777 -219.037613
22.665808 -73.168571 -148.528702
24.106245 -73.568771 -154.080078
-15.648071 -74.403221 -197.555557
-135.248123 -69.216965 -263.089508
-16.045549 -40.444256 -58.486092
17.348022 -61.543633 -151.855942
-44.705299 -57.944923 -45.659218
-14.624679 -71.739021 -249.328415
-58.248997 -44.204700 -49.632896
31.570385 -70.249001 -141.955429
-92.508759 -74.045219 -290.904419
77.245888 -57.748688 -101.909660
-76.114822 -49.876553 -105.336784
15.803589 -76.119232 -191.683075
-58.027206 -80.225761 -173.223557
6.478602 -73.076271 -212.559280
-68.600822 -57.637245 -105.663139
63.570438 -66.489601 -237.827393
113.170044 -68.501282 -138.137192
66.597687 -45.628525 -62.985447
-146.257721 -84.218674 -227.732162
-75.724976 -66.643875 -141.152405
34.505630 -66.707405 -17.176029
-85.204941 -69.270721 -108.097984
-62.791439 -70.885826 -248.130707
48.001358 -68.583298 -106.774559
-4.022063 -79.140259 -222.077606
-97.769020 -37.854534 -67.562149
-158.984406 -67.111336 -229.133301
-67.732269 -69.541626 -141.349548
34.996162 -75.483162 -119.551445
-78.712807 -31.524260 -106.655434
-57.479893 -64.369957 -137.095627
-107.834824 -65.613861 -222.568985
2.299560 -59.174324 -244.174500
42.708599 -74.915344 -128.776352
-51.828350 -74.510902 -88.541565
-76.036926 -84.335175 -94.036522
48.332558 -66.442245 -247.827118
102.404327 -44.185101 -78.912651
-63.474281 -54.583416 -105.654335
-92.409348 -26.154352 -69.580986
-53.009655 -66.966309 -142.353333
86.321838 -70.598228 -221.056870
87.806427 -54.728302 -82.538612
8.204528 -54.510494 -242.374817
-151.211716 -68.651474 -262.721985
-19.569777 -70.299561 -207.993210
39.489403 -57.285812 -35.468071
-67.677269 -20.982162 -88.108963
-35.261177 -86.331917 -192.891739
-13.325894 -67.256195 -204.720352
-61.892754 -59.637096 -107.573799
-113.829964 -68.241234 -256.887024
-148.647736 -72.652679 -215.354736
95.885658 -60.105171 -63.106560
-140.316849 -76.401848 -198.296066
21.193001 -65.180687 -277.505615
-58.719116 -78.071152 -249.370300
-99.236420 -41.634468 -104.415016
106.124290 -72.918571 -181.915024
2.062893 -78.078377 -291.365448
65.819893 -65.374420 -85.422218
-38.989460 -73.725258 -78.842827
-42.166981 -80.240089 -162.052673
-56.783722 -70.911606 -141.474365
-10.214582 -67.551003 -233.375595
-113.279999 -70.682762 -231.761841
52.578117 -69.072899 -87.800079
-4.621067 -53.770035 -240.289322
104.217468 -46.691078 -95.775291
-67.354897 -76.980568 -209.264328
-53.046944 -37.284889 -62.709690
-56.078327 -60.285267 -80.912430
-73.052437 -17.998470 -72.903397
105.614326 -68.180084 -103.068092
59.402794 -70.557159 -98.228775
10.755689 -50.288807 -294.560547
85.241272 -43.887016 -58.900368
-12.211555 -57.859123 -51.662899
16.640081 -73.906670 -234.672073
-12.057266 -69.724503 -218.217926
18.127138 -49.751339 -242.697754
41.946003 -66.928986 -258.090912
-0.051153 -63.896751 -258.326447
-11.118823 -50.608776 -246.624802
6.574359 -71.510445 -232.404114
22.788759 -53.208603 -285.426056
-52.977444 -75.606224 -177.513412
-151.118835 -67.289177 -188.339951
42.889526 -54.508648 -116.712364
10.050865 -73.861015 -160.566193
-51.553642 -71.705795 -287.714722
47.059380 -62.631500 -18.257484
-83.465691 -50.822861 -115.821457
-122.614571 -70.791138 -197.990646
91.646317 -43.881535 -94.151344
-156.134720 -73.147491 -304.847778
-146.192932 -79.687355 -196.151611
-5.652649 -49.391979 -252.684464
96.515457 -70.513107 -101.075851
13.201284 -56.790039 -236.306076
-125.283356 -74.508667 -196.519440
54.994938 -69.006912 -245.358185
93.217522 -71.844528 -201.773682
-122.795891 -63.926086 -199.574127
-143.688553 -62.458672 -234.722626
99.873123 -75.795952 -205.127121
18.531406 -63.145145 -145.982285
-1.597845 -65.739548 -268.067200
-143.347076 -78.116112 -204.475052
104.797905 -48.003269 -83.705521
-84.897957 -21.246916 -93.487045
-97.079521 -69.383530 -288.708344
44.265778 -67.273041 -96.902351
-50.657700 -65.697227 -141.563995
72.494186 -70.864098 -227.551926
12.902368 -73.624580 -283.818359
-159.477570 -71.818680 -273.885071
28.787176 -51.938507 -38.057472
3.061887 -81.336540 -248.896957
-52.951832 -74.305984 -179.676315
-28.013123 -82.598434 -183.844055
-77.690140 -18.733309 -90.040375
-42.440857 -73.938225 -172.696381
-64.031479 -48.141972 -59.445232
6.150706 -69.728157 -155.954010
-59.456070 -32.772224 -86.663322
3.227815 -83.622635 -255.803833
-95.696953 -31.807705 -95.043999
-152.081223 -77.950394 -300.002319
-36.052631 -73.846176 -241.415085
-60.869976 -83.044563 -202.566803
-62.172661 -65.104103 -121.219185
16.141520 -51.008911 -276.778961
-147.229874 -84.296829 -275.365845
-7.950560 -72.410690 -234.012024
-136.812073 -84.156708 -256.359863
-163.662704 -74.858185 -264.468842
26.651400 -49.247597 -245.177780
-51.809090 -79.413666 -244.626572
20.400028 -63.836258 -242.896423
106.702164 -73.635483 -167.591705
-23.747049 -57.973080 -63.207111
9.228451 -72.897240 -242.648727
17.827452 -78.175560 -190.388702
102.965569 -44.637886 -83.544189
-160.375565 -69.088982 -290.409241
-68.300476 -69.619850 -100.350357
100.136299 -74.278656 -98.254318
49.997288 -69.099808 -243.069626
18.497763 -52.036568 -275.908142
75.436134 -47.288643 -61.299435
-63.253677 -32.513683 -95.156807
-151.814545 -66.338028 -194.876877
-43.253952 -80.334663 -64.510933
-132.489151 -74.492134 -225.514053
43.811867 -72.242134 -123.047234
-66.350174 -72.252167 -146.750381
25.037680 -51.427277 -256.323822
-70.540359 -87.950539 -90.558807
-141.761093 -69.515114 -222.625748
25.921219 -71.423424 -27.906034
22.939011 -51.904045 -270.700500
-131.212524 -73.026901 -199.868134
61.073265 -48.800331 -89.660454
-0.593415 -73.811974 -162.945831
51.119343 -63.768959 -249.167313
-46.751438 -71.387360 -138.502747
-6.518546 -66.291840 -259.500336
110.470169 -70.544991 -121.406143
-61.794827 -34.367695 -54.639713
-142.800751 -71.178780 -284.554077
-143.777267 -71.261940 -249.608643
59.493130 -47.530426 -85.933701
-21.644920 -76.224266 -198.114731
-14.957799 -71.788521 -64.690331
-97.365021 -68.523148 -158.620010
47.016399 -73.103943 -119.403908
-45.557285 -67.136589 -46.627197
-141.106491 -67.146996 -202.604111
12.285482 -55.594170 -290.513214
-84.934708 -79.545753 -215.256088
88.728020 -76.708908 -80.174393
-26.912458 -72.622292 -290.009460
79.191833 -76.941818 -226.951981
31.752098 -65.601303 -12.890288
31.664301 -62.974129 -133.437378
-23.460180 -38.437473 -61.385262
-115.631805 -66.309349 -261.906586
26.488724 -74.515228 -136.537491
105.399048 -55.686977 -74.637032
-57.138351 -59.186268 -136.269135
99.206604 -51.452091 -81.862541
-81.698593 -20.821381 -93.819740
-148.694809 -81.479347 -198.675156
11.609045 -57.536709 -279.066162
-31.108269 -73.095757 -160.411163
-43.297127 -77.669472 -84.635742
-63.789516 -67.792717 -92.158150
43.110115 -50.750301 -27.235109
18.620159 -78.728516 -182.232315
-103.396774 -74.425186 -287.764954
-135.143341 -66.607903 -289.797852
-55.213528 -37.037296 -57.445324
-153.581512 -64.010384 -253.428131
113.574387 -77.052124 -156.224564
14.826936 -70.086693 -159.787857
-62.655693 -62.286732 -109.455292
-110.884865 -64.738007 -197.358231
-76.651772 -85.790894 -90.300842
93.916435 -55.486092 -99.829529
-13.321216 -78.168480 -173.379517
105.540138 -74.737854 -108.442551
-134.430420 -69.940834 -234.814560
11.232599 -56.268906 -245.422211
-11.463050 -71.057755 -218.647629
-109.722183 -68.807625 -184.314072
85.529648 -44.560349 -106.056686
4.657011 -50.340618 -237.573883
-56.944347 -73.067505 -289.945038
-146.985794 -84.042542 -225.743622
7.648717 -78.495720 -222.114868
79.892517 -47.394035 -92.960495
-58.716846 -65.986244 -122.728851
-57.514076 -35.733353 -63.302666
-72.316307 -85.638466 -94.303238
102.549828 -67.756226 -91.718941
-48.268688 -68.262665 -149.020584
97.465096 -71.659203 -195.576416
109.090057 -75.604935 -176.747269
-161.425690 -66.608253 -238.766037
-56.316151 -72.491936 -246.309601
94.074493 -57.920979 -109.763733
63.211102 -50.211971 -85.919014
91.333015 -73.569321 -211.168640
26.201275 -57.254013 -30.969624
78.773438 -69.583939 -229.088257
-114.708084 -69.628746 -255.740723
-8.119141 -53.412449 -236.685013
65.745583 -63.594364 -91.798126
-8.066913 -66.863640 -268.536835
22.932348 -65.159645 -17.864006
-21.241886 -71.842163 -203.559097
24.673565 -66.215668 -257.654938
15.016275 -60.500420 -242.186539
-59.521786 -61.816620 -118.494499
81.772057 -48.866749 -57.870289
-5.963801 -52.997952 -289.328796
-11.048497 -72.775635 -202.916916
-68.389458 -61.964062 -93.180382
66.878845 -57.260735 -94.616394
19.588535 -79.945007 -264.863007
-150.552994 -78.521820 -252.724457
-50.183086 -76.316528 -149.801529
28.810982 -76.630142 -124.992340
79.216637 -70.612404 -67.542419
-93.699997 -68.928505 -147.423965
-125.587708 -69.328667 -285.288879
83.381683 -43.855843 -53.670956
-46.617451 -74.314842 -157.824203
17.850119 -68.385490 -210.371979
-8.488848 -65.349960 -243.749268
-150.689682 -74.944458 -240.408646
35.399746 -71.066803 -122.979652
101.079147 -72.300713 -97.817413
73.097137 -73.357887 -236.065933
-108.393768 -65.651909 -185.800064
-94.658569 -69.808105 -257.391846
-44.051373 -67.626205 -154.818527
-68.904915 -77.162804 -249.426666
-147.052521 -74.186234 -267.174896
50.222137 -71.698105 -105.078079
77.916367 -75.602272 -227.655014
88.084831 -72.166252 -211.103226
68.609543 -47.402016 -101.381897
-111.991844 -66.754036 -204.214386
111.137154 -68.336967 -168.889999
116.294899 -72.208000 -125.100349
-48.990116 -56.510181 -78.165947
-50.974617 -77.191444 -143.054184
27.110264 -76.209999 -159.059464
73.976540 -52.853004 -76.532661
-67.964348 -75.279572 -147.909958
82.890793 -51.363865 -71.588974
-8.706476 -73.606392 -291.278839
20.268799 -76.627594 -263.226410
65.922363 -58.555595 -92.572380
-7.655120 -74.387108 -292.310883
-151.473999 -62.430283 -290.598236
-25.607862 -63.461929 -52.068260
12.010839 -80.940147 -251.217438
-153.180344 -68.394516 -234.793869
-60.038860 -49.665497 -57.726704
-149.457031 -66.252617 -174.565506
-74.319206 -66.674400 -139.542175
-13.386007 -79.635757 -171.958557
-70.389870 -55.585621 -97.620270
-20.966784 -69.028503 -197.158310
-81.066483 -60.380329 -113.321419
105.969345 -44.211136 -82.921410
27.808153 -74.528214 -179.926529
-95.701530 -28.145214 -70.408089
25.123615 -72.710335 -139.888657
106.251945 -44.569767 -77.461395
-116.754295 -66.586502 -290.027405
-109.436279 -65.644424 -197.445847
-70.647049 -73.193634 -285.269073
-147.561478 -81.347961 -228.511185
15.939447 -69.616776 -178.566879
97.090729 -72.724373 -209.994171
37.585316 -52.970200 -12.799831
18.253384 -68.256386 -190.289200
77.695602 -73.198288 -224.158768
-142.289871 -81.612213 -226.709106
35.884293 -76.818878 -124.355659
23.122053 -51.622406 -29.919746
18.781675 -66.096436 -243.715027
113.051125 -76.138756 -132.155533
-144.737991 -68.578201 -264.757202
-155.813507 -64.462196 -257.464661
-14.771292 -73.231567 -293.005066
-73.882942 -66.121002 -126.561653
72.730705 -70.640724 -97.188614
29.188263 -50.740490 -256.134460
-71.104904 -75.245361 -145.028824
-37.271877 -72.635628 -160.587891
-4.338172 -50.303146 -251.266907
30.601212 -60.028000 -133.745026
104.709694 -45.216808 -98.506157
-93.125671 -60.051025 -123.508377
-68.826416 -19.267763 -75.310547
103.716606 -43.134266 -83.789749
110.499336 -70.211975 -143.575211
-68.026619 -64.342033 -44.946686
-62.243629 -44.173153 -51.916523
1.138693 -77.850197 -228.477661
-78.136604 -66.110382 -107.019562
82.584129 -46.384075 -100.754837
24.307850 -71.771034 -153.672974
83.853043 -75.339767 -216.428879
-60.417187 -87.549744 -92.911057
113.157318 -68.455063 -146.359894
-44.594860 -74.248787 -163.009537
-12.015683 -66.442268 -64.938530
100.896629 -52.290249 -81.011391
43.859810 -57.071640 -17.330275
-134.277725 -73.008324 -200.627045
-121.291763 -69.829651 -194.548691
-75.632828 -61.933987 -102.841919
-125.526680 -74.855927 -254.597977
-7.396729 -54.360874 -279.758728
-93.991898 -68.448029 -121.433304
-76.146194 -61.627636 -124.968620
13.888004 -52.377460 -238.170563
-74.465485 -73.632927 -146.233368
95.918144 -44.726276 -107.246582
-31.590057 -77.365379 -183.556000
-147.735474 -68.713783 -288.233459
23.547098 -65.307518 -135.883820
-55.471069 -69.039253 -48.567513
-13.315555 -57.067490 -273.768555
-44.747192 -75.264542 -192.216721
22.816196 -54.368763 -254.019089
15.276263 -54.436672 -259.198669
-87.719795 -19.948353 -87.619270
78.697189 -74.839310 -95.432976
-147.069946 -80.307648 -211.199051
17.609009 -65.662407 -195.561447
-80.938774 -85.003960 -104.252472
-69.016136 -75.004990 -251.920029
20.716629 -78.137077 -187.352127
-63.708565 -83.937225 -98.310890
-126.500961 -66.444000 -254.253540
-153.262833 -71.888794 -207.573120
-147.431992 -63.248970 -265.422913
-134.365356 -70.667534 -225.286774
10.038290 -81.480537 -278.388275
-0.315711 -72.115120 -165.010544
-74.699699 -81.568573 -213.352432
-88.261681 -43.617157 -113.909943
-145.823853 -65.332214 -218.786285
38.621326 -77.405251 -109.765755
6.925262 -64.830376 -239.852829
-60.478413 -57.263863 -126.279480
21.743214 -54.813789 -247.298233
-51.606964 -73.953918 -138.882263
-152.690750 -67.778343 -214.049805
83.458801 -67.658119 -62.260300
-25.171131 -78.108635 -181.380325
0.572219 -68.993454 -238.201385
65.599937 -64.093582 -82.516441
105.122955 -73.281136 -198.850281
81.814201 -72.567421 -230.494629
-149.404144 -82.322975 -260.516022
27.150478 -74.425400 -138.784210
2.087899 -78.860733 -281.216522
-146.934540 -77.393616 -265.658173
49.615200 -70.171593 -20.231754
32.386120 -52.422752 -41.228680
-99.228195 -63.259968 -76.318207
-94.232147 -73.483765 -291.992859
88.321899 -53.637562 -95.144806
20.046408 -64.341972 -141.027466
-36.280380 -42.945267 -56.789017
-73.991241 -78.654953 -213.870667
-95.824730 -65.689339 -156.996384
-47.397221 -49.389500 -80.323868
-73.229774 -71.512901 -100.461502
-66.504868 -60.072166 -111.216942
-91.844360 -77.213676 -216.034454
-8.226674 -56.344002 -279.561310
75.922997 -62.142948 -110.057983
-33.817146 -74.444267 -178.993042
-46.383995 -80.044151 -154.848419
56.743275 -68.089859 -85.367981
94.236710 -52.114834 -80.699921
-72.670525 -68.869240 -136.477676
31.223734 -75.768425 -151.900467
23.538845 -74.068375 -260.910461
0.023735 -72.488914 -234.265121
15.678309 -50.253712 -272.276581
18.049833 -80.442970 -231.611389
-42.673244 -52.199562 -80.191727
39.417885 -72.060539 -112.108833
102.255913 -42.814049 -60.900547
-13.197467 -65.087875 -68.548088
-60.538441 -68.704338 -139.694611
-41.542728 -81.438881 -200.393890
-92.118011 -75.225090 -287.043701
94.234634 -47.837051 -60.623703
-55.551762 -64.321617 -141.041611
-67.679794 -61.073872 -115.615768
-156.553146 -70.494339 -193.459061
-36.617836 -69.458817 -162.789322
67.615982 -48.497581 -101.218834
-160.345062 -69.339249 -212.743134
-122.161324 -71.978722 -198.559937
-94.170326 -60.213123 -123.671242
-86.223495 -70.300560 -287.834869
-98.550644 -71.788445 -254.883850
-146.537903 -83.066475 -254.039368
-71.632599 -78.929306 -66.793236
-5.381115 -51.149281 -258.493103
104.364876 -78.291458 -196.517319
9.322346 -58.967575 -290.960327
-40.080856 -78.928398 -193.200714
-16.683598 -56.517639 -273.945282
41.143211 -70.881554 -113.366722
66.036636 -60.525112 -76.359428
-66.966507 -58.909252 -121.127823
79.396858 -73.721306 -99.376266
61.642380 -70.393921 -241.731552
-29.018400 -61.716362 -69.529228
12.506371 -55.790062 -272.940186
35.339664 -69.345543 -36.006138
13.476376 -80.550797 -249.971741
47.796043 -69.929062 -35.152241
72.329117 -56.160576 -100.115753
-46.175766 -81.853371 -244.969757
24.128824 -54.403423 -260.451508
-152.774765 -60.768204 -198.262863
82.937645 -44.215069 -89.630608
65.315399 -48.442474 -89.545067
