# This PCD file was generated using the MATLAB® pcwrite function
# from Computer Vision Toolbox®.
# .PCD v.7 - Point Cloud Data file format
VERSION .7
FIELDS x y z
SIZE 8 8 8
TYPE F F F
COUNT 1 1 1
WIDTH 782
HEIGHT 1
VIEWPOINT 0 0 0 1 0 0 0
POINTS 782
DATA ascii
-23.203091740701055 -115.488598035753952 -149.649928843769601
57.046522935040528 -37.956983378829612 -149.484153252305418
60.023802697251199 -34.594005963368026 -149.798357444873687
58.573352438874707 -34.103269886746013 -152.161030987024532
56.008239237795614 -37.768469488298493 -151.018140925605650
55.546204393043674 -37.426616424548257 -152.309238244511306
57.664171988139110 -36.298715757513804 -151.268336140622864
57.484322546599678 -34.231773637059092 -150.613850160507980
56.332627537069108 -36.966420625606929 -152.466109581865396
57.721820000301037 -37.355926224455416 -150.702441935334548
57.278073569894026 -36.068859484469186 -151.775455360652757
56.918574479824450 -36.894249545860156 -152.465843936662168
58.423176634260052 -37.096940542352428 -152.230994788471321
57.210150486614673 -36.758083841299957 -153.152190206465406
56.732510670245297 -36.413675922167968 -153.826143040382277
-23.692746940414345 -118.044547254480236 -154.419599232995239
-54.458865069944956 -148.587601851259905 -174.942939492580848
-60.195989017235441 -153.311404318906654 -173.893685466703090
-55.993326451012024 -148.673022047836838 -173.647314983016543
63.780750162712138 -31.668248128411634 -175.564853093515211
62.324056977574365 -30.368671086167591 -176.066151264793092
63.888948497488386 -28.171624178969456 -175.717024686815961
61.123018264836467 -32.101084654185840 -176.218811167892568
63.540900531512563 -32.673348922836674 -177.518523867257670
62.881027095110838 -32.296152783860762 -177.456980629513168
62.347362179886225 -30.895275558476815 -176.733222334080693
63.566417350836929 -32.456993596936563 -177.620566619206045
62.882711460121826 -31.420204469157504 -177.735919638019141
65.068335291091515 -30.406144111374434 -177.551576220350370
-51.569931829393582 -145.636814107018580 -179.547714150380273
62.721584189858120 -29.670663108176178 -177.924827703398023
-52.638406177488868 -143.850275095374883 -179.467118752616983
62.952178497906203 -32.274241956504319 -181.868371958524961
61.567869689530262 -32.111799511983662 -179.382051092010386
62.953696192931510 -31.948732619598992 -178.945103858982748
61.183915927639141 -32.869316423502482 -179.095543802691935
61.536611118378943 -32.279964922022799 -179.668312778419335
62.774447902177052 -32.124675976876269 -179.676716309043627
62.739134531596854 -30.966924305492206 -181.476122320710118
63.087536833169843 -33.260032001716887 -181.270573024948334
61.078788476139501 -32.712015802710276 -182.205453439508830
61.352864234681995 -33.532163523411434 -182.162842324972928
60.916598146740810 -32.072743631263094 -183.254786168196858
62.259346018412543 -31.862612385854263 -182.614189596684980
63.019084198085864 -32.351437660769427 -182.603921910183288
62.541662765497961 -30.935238504995571 -183.501042876428073
63.229909963568097 -31.373284666726100 -183.591856796275351
61.267900392496863 -33.382245013187067 -183.724445251778548
60.972823123296152 -30.502380271286803 -183.127463556388221
61.646774429907694 -31.668466034852614 -184.022549315158443
61.977079324184402 -32.008192108572231 -183.333371104681049
61.127097024814546 -33.406544856936101 -184.275489894001964
61.997183837354832 -32.487398643851378 -183.599325758023724
63.137442532933207 -31.319330835912886 -184.786241228636612
59.641339063173241 -35.037747001968974 -185.054520003592557
61.403119861548802 -32.553067859763964 -185.257130837840293
62.194230087890425 -31.980284972196692 -185.473124301538434
61.091422167773814 -32.123581735663457 -186.299504254939592
62.140374344684666 -31.612424968137496 -184.608185347095258
60.662217247571121 -31.762279617507509 -185.753168097350738
-27.820329485701631 -120.805879404307746 -185.790957984306800
59.583248742875419 -29.647130548260041 -187.271418260924406
59.809033800957010 -34.442666346154191 -187.297552481755588
62.443417064011072 -33.578215131692978 -187.006302086919902
59.884458570112493 -34.691926008677406 -187.999312484231979
60.551973173409209 -31.329000102647591 -186.185765917197216
62.949789509678091 -32.049763578585662 -187.102153457329308
60.966602514559312 -32.665717332916110 -189.177109933066930
60.864072730542155 -33.404277940988550 -187.592191562996220
61.647088324691687 -33.612231132643338 -188.993547361309368
59.041873944446394 -34.728272972420932 -188.142290241159543
63.002997834088106 -32.781968484489298 -189.572373667096372
61.587214471526096 -34.094931065982308 -188.953554773755059
61.402517878892645 -34.695056654286617 -190.315885238520991
61.334555746854960 -31.237471004263384 -188.497414040428254
60.085510519289123 -33.776751316473394 -189.802172512248688
60.362482978756262 -34.346958507367773 -190.676354516900432
59.181704510470212 -34.581253781354881 -190.147171369932863
59.345163491519060 -34.265981811229032 -191.294791133260333
59.901665464081354 -36.454553940508717 -192.682135531837844
60.139643325229343 -32.532597438642426 -191.506340363362966
61.418018156802127 -33.086123212441812 -190.806151901646587
-32.168023514704338 -125.650360135562423 -191.437828229297054
60.891918924245971 -33.007770051560371 -192.679357137631399
61.094177519342566 -34.686535709968311 -191.474729612339701
59.583495008263533 -33.938008160138160 -191.270243499309828
60.937573266384092 -33.436476370448631 -192.349869164681195
-60.554872491754374 -155.447907553577551 -193.247618842019961
-60.593824753283606 -154.936293294093645 -192.750050898198424
-58.307081196113913 -152.953956672824688 -194.267740522477681
59.357201703803369 -34.143801380003943 -194.854970424707290
-60.662826837052933 -155.789915260231481 -193.004651749149360
-62.005619421149383 -155.007512374785620 -192.592100287253999
-59.995349124329749 -156.252982181939387 -193.283960288576594
-52.683880855447150 -147.682378128462062 -191.936070673031338
59.508810684260048 -35.246428689526198 -194.430511437758412
60.820173250340311 -33.295617299359634 -192.113917687882264
-62.212553146586664 -156.874902048534153 -193.624724662090443
-62.924711809025638 -155.486694172161435 -195.144787181335715
-61.170104508068029 -155.615632323619195 -193.196932445401700
59.357155895153248 -32.456200088598301 -192.653641489536000
-63.737863117073744 -157.913433618340889 -193.884900017207713
-63.963205077714875 -157.841878238206391 -194.099478422954661
-61.250923796737517 -155.993938737098176 -194.890484423591829
-52.309330193955702 -145.855617218693027 -194.482075453920174
61.038166708632779 -33.882706282161891 -193.841701062017307
-63.881624179818559 -157.548139084777631 -194.329062248866677
-63.350544140432760 -155.069376360867551 -195.214154508845525
-60.866298254935906 -156.333161734088094 -193.724150976133814
59.771003897231488 -36.405031128698425 -191.958713658152618
60.990061000177541 -33.537001660037433 -195.040249707514988
-63.635489157969161 -156.650647879940180 -195.171510938124840
-64.522579921952712 -156.773866707570534 -193.860221451543282
-62.903625353001878 -156.112067601599733 -193.847613669071706
-61.021496439584702 -153.762298254417800 -195.263447081287495
-63.972384213244908 -158.946048929596174 -194.747759242413025
-64.488510024764977 -158.955050633928863 -194.343174261589979
-65.155577592887340 -156.545353115971835 -195.138360550565324
58.450882869464124 -35.814770827712643 -195.467216016167328
60.259258438209258 -35.248609335171388 -195.523675089753340
-63.628560484226753 -158.044583262238916 -195.613355928468536
-65.262960502991973 -157.645775315005295 -195.406826659191637
-63.087077654320510 -156.472633999957765 -196.535626484451484
-62.241045750110615 -157.200807842526785 -195.866691183961109
60.912353658060752 -35.283307487535694 -195.797652176373504
-64.765616626845585 -159.271515688144262 -194.779955035417998
-65.566624783835508 -156.590743568931828 -197.083182398704025
-61.127480996976495 -154.456791147270650 -195.297357967714390
-65.956365009377279 -160.556712809789559 -194.539238248804821
-65.855080686081664 -158.930856687846301 -195.740827468944616
-65.671659324152927 -159.001835634276119 -196.393950851890565
-62.891156241763156 -158.107777986938743 -195.993862961387777
-62.711285021920887 -156.262514004755843 -195.642710547413799
-60.965113669962790 -155.186961082797438 -197.532840579448759
-66.337212086094780 -159.812337684528501 -196.399365840935616
-65.406664168953043 -157.940879593265493 -196.984242316125545
-64.050489784120273 -156.999453780371198 -196.016371904788912
-62.871669501931784 -157.675220821161844 -196.663707051941003
-64.699079632195335 -158.716095053791349 -196.365034506002416
-64.820340101230755 -159.618296847774417 -197.416529970628204
-61.836749721166498 -156.534462658877715 -197.005868740544173
-61.752665870870395 -154.944816911237353 -198.100430224719872
-61.392696670165272 -154.792502184474074 -197.256221846839281
-56.120814148507911 -149.908118926231850 -197.392449949706503
-54.998526754442260 -149.857423520535690 -196.581681121348083
59.149773940866680 -34.448005300240496 -196.710204635347282
-66.907191629865011 -159.910374864767988 -197.693933890784223
-62.780459891480589 -159.303025362340918 -197.161746291560149
-64.162151363671754 -158.860572482647314 -197.331682621453183
-63.143750840999886 -157.405721667535374 -196.408951316083204
-55.683631685992147 -150.564203094708375 -198.134345680504254
-66.030579238970901 -161.979695233209043 -198.415236486310363
-65.482464954106931 -159.267499394587560 -197.270503834601470
-65.984784232594137 -158.003385608934934 -198.214493474531139
-64.344882171520524 -156.687552054462827 -197.585204060525683
-62.587731869274386 -157.002629775662825 -198.553434182148123
-62.350191902747248 -156.606861693455699 -197.936350493041942
-56.427820565761863 -151.272887850213152 -197.331058586064358
-56.415339356381729 -150.199352587080512 -197.230936446501573
-55.548337514426208 -150.344100037830913 -198.089532067530115
32.439360560629503 -62.009520442144677 -198.889418156431532
-65.933278134181492 -160.325657536329516 -198.258512519330509
-66.087727961980420 -159.216435413229362 -198.346421716376170
-63.564621588543645 -155.974546017043792 -197.731210339448864
-57.641735778869652 -152.586220758975770 -198.800215758486274
-56.002117722160996 -150.632704374420257 -199.712826669754008
-56.040265911571815 -150.341217731792227 -198.292719638963206
34.595611623900929 -58.791387306820965 -198.665666607510218
-67.987477505711610 -164.176474686395352 -197.284414023195012
-65.844936634018637 -160.081038315066024 -198.818740871094150
-64.951515890878767 -159.615976043338833 -198.463769025345499
-65.172349518801767 -157.266062800338375 -197.744882262055683
-55.706867835614133 -151.142554124362618 -199.020935647575584
-68.013694538954780 -160.859758357617579 -197.462951186278815
-67.701658799512415 -160.669516565343770 -197.745779456116793
-66.135013576980327 -158.966484917991068 -200.128930706596378
-64.225759460140779 -158.594452686358977 -199.743234383423015
-56.120432081357627 -150.489067050457976 -199.437731687095066
-67.709886186817073 -162.965977409730641 -199.071344391735806
-67.688737418860470 -159.748298418581925 -198.641100930506184
-67.039840863773293 -160.212354213379996 -198.619950553072727
-66.186485077861235 -158.743050979886362 -199.553760551489546
-58.393646840429184 -152.687495746880757 -200.089806261978396
-57.755150403614010 -149.961307787036873 -199.510893160822491
33.497381846429796 -59.778790703815481 -199.615250799543389
-68.485261159964693 -161.280473922998766 -198.385909695999374
-66.605268217695809 -162.245369391747232 -201.239136823344325
-64.835199251245371 -160.795925213557979 -199.743216537109788
-67.363955638019618 -157.684068189939126 -200.360386067016236
-56.276969235437370 -151.027699351086568 -199.887656868913155
-55.019767626919013 -149.735343396531192 -199.925753210998096
36.034181474242125 -59.460737242389136 -198.937863893477981
-69.349784325156108 -163.229819731431064 -200.288060118838246
-65.228938005795470 -159.325066560963165 -201.298164891503461
35.543734545313377 -58.324095405870445 -199.475909096222097
-68.501990694063579 -162.589333709132660 -200.961566298624092
-67.954042724209955 -160.825525904019855 -200.836959947793730
-66.894216273337719 -161.679891414027026 -202.096796695030321
-65.892063487462607 -159.753922262727485 -201.429373492205116
33.711394425808088 -58.536621859107932 -201.279762542108131
-69.300730944952576 -161.138384903859503 -201.789340980138803
-67.902859164864850 -161.399937277359896 -200.853428911492358
-66.170286508838061 -159.950250574814532 -201.361019490688818
-66.759529712768398 -161.130440173575522 -199.315657181058242
34.699318971497149 -57.465600821147738 -200.629678152516192
34.334191586060633 -57.079546962199707 -202.112321779386207
-69.104168596730560 -161.737113895248172 -200.339738871517312
-67.179794977063594 -161.471783314914006 -202.055013849431873
-65.694676131680680 -159.755046218349690 -202.338926150813592
-51.057773684819374 -146.719081148962687 -201.585478737431345
33.686636660905776 -60.446357962047060 -203.404259944678500
35.304946061396322 -57.961149568424254 -200.739550946288460
-65.319097139699977 -159.261297828465700 -202.603474548206123
35.927518691853912 -58.001349425767671 -201.879689161506462
37.200985067901684 -58.909238822681907 -201.497518260934214
37.264211180246754 -57.146385438832574 -201.090936855474041
-68.639845891666397 -161.859936010340817 -202.576964940102755
-66.868176600579616 -162.175998547998972 -201.642512521159091
-66.814974805264498 -161.523243201774960 -203.091443232297650
-67.689238283305443 -160.954599867882109 -202.572420888685258
-66.528772258142268 -159.705778855686845 -203.380678050350866
36.231463140436666 -57.406969438786383 -202.702762989760117
36.166511812728444 -57.722638130580222 -203.454734487829711
37.097513567918277 -57.595176722463350 -202.759464243277904
-68.268661269285914 -162.618067070156883 -203.021344354841887
-36.511711011687936 -130.389667579851306 -203.258331281906436
-36.603610472696715 -129.665174424004221 -203.922115565658174
-35.713739194595952 -128.911588616262918 -203.829303306351591
35.835593964149687 -59.635717128361087 -202.461816730975244
35.714437438091501 -58.734974372512426 -202.541251470365665
36.308846771068808 -57.266420986645834 -202.538273835737357
-66.908660584381224 -162.397601898732205 -203.648064266729222
36.305809602060052 -58.411398749272685 -203.301168923741926
-67.439506335056578 -162.215857582371314 -203.737134740444731
-68.144189955209697 -159.847383329149579 -204.811792900471602
-65.820689058342083 -159.368590321084525 -203.136016135752357
36.314878650600093 -58.507729481887424 -204.792744310715079
34.865070439648377 -57.354829590577410 -204.316939108245549
38.826151718343013 -57.688443073247790 -204.385257410332969
-68.024220427360959 -160.611288048042923 -203.734988414088804
-67.882739487798915 -161.017170027940182 -202.842694423740909
-67.615642689160509 -160.552563420905528 -204.671256607448839
-65.871049807566123 -159.586148272422690 -204.940057531401834
36.246642850311098 -59.202495854362944 -204.885916403698985
36.844819753979792 -57.428300841474787 -205.682090723786075
38.772337537929616 -57.432314370594938 -205.533352949891395
-67.583349557146775 -159.952845496264274 -204.696665853768707
-57.993348982774982 -152.397577087441704 -205.194539401911555
37.252361605733356 -57.738005174648357 -206.103734086752638
-67.213841770901226 -161.203470800278183 -205.224907443155985
-68.325077015287263 -160.753959193638167 -205.433034155571107
-65.803011746765890 -161.452102925301375 -205.947939029658443
-54.953262839428938 -148.108152557389786 -205.519360339566106
-67.580644544993788 -162.426300464457199 -206.354927699947211
-68.184450691274677 -160.358347330158438 -205.939568997560656
36.298106478502106 -57.186025465212644 -206.521691243445218
37.648029045122364 -56.084806427779974 -206.019272999249694
38.543872451574309 -57.259898548237942 -206.102474913569608
-69.302606944947186 -162.020155113008855 -207.179162487157214
-67.208306188490212 -160.167136516967673 -206.731065664895254
-65.912750328162218 -160.967099018660747 -207.156071918930053
-65.115125084364607 -159.784396359890849 -207.063060334836706
36.847071959373778 -57.663284472424941 -205.808276666367590
36.737404309635359 -56.561838831035999 -205.783877431811334
-67.581553487748977 -161.317554983893359 -206.734347747948476
35.384675960200752 -58.115681206545759 -206.949898408662733
37.305061080667720 -56.135389915388252 -206.975287452868002
-66.559404185481128 -161.343459637116183 -205.587301873619310
37.836746402396066 -55.901787550151418 -207.818763947517198
39.086413515354970 -57.265193025846052 -207.246581103584219
-58.769864588903097 -152.092470834638732 -208.194713946826141
38.523324456781040 -56.460491615976707 -207.995934865661752
-54.384645131600642 -147.614375626950078 -208.319104086529620
38.595655764128288 -56.138813423354613 -208.032763561032880
-66.774408244793406 -161.354020943315476 -209.501028593826987
39.557416450058248 -55.102653250405538 -210.599270012366986
39.605465582929902 -54.092615296820853 -210.362181179712110
-54.667306111286422 -147.317731925138787 -213.573837349261140
-58.356324309457833 -151.838522537549153 -213.503343611862363
-57.142726200031213 -152.434391692514481 -213.728531969397125
-58.124852102359235 -151.975331105857407 -214.718716360656430
41.434977016802499 -52.902025903876492 -217.739943875580423
-59.229321135249698 -152.896295663706013 -217.101329694100116
-57.729512899676784 -153.225133718808223 -218.217633857068051
-59.250465782562344 -153.159672024013702 -219.598369962646899
44.434069800418769 -50.162069911348993 -220.422537267003179
44.722131980745075 -50.312244525338770 -222.956642052054207
44.294521546770284 -49.881953405507318 -219.897046283016380
43.673040543106602 -49.735808410360264 -222.337510401618715
44.666339152274610 -49.671294002143455 -220.424777476167009
-28.568398926636341 -121.630629421216696 -223.377796272940714
-27.082445362191145 -120.384511573087423 -222.847903838991726
-26.101773027259757 -118.954020029898672 -222.196357339593447
-24.191233026030147 -120.244109952335549 -221.540002665995672
44.747440267514655 -50.691684987185887 -223.429111039483644
-27.939111859804655 -121.629555435374542 -222.855023323302106
-29.055092284676274 -119.586176708696343 -223.710393109245928
-25.570769281334837 -120.275139698235435 -223.704660606047781
-24.855958488957313 -119.867432835680162 -222.325475905950213
44.617806265143670 -50.784178914587216 -222.427764483298802
-28.530952829632184 -122.956299918130114 -222.650231433445526
-26.815355234345706 -120.965099272929208 -223.904598806652871
-27.545529340128972 -120.602474904775747 -223.121144181849218
-26.428316933347158 -120.320645283592796 -224.004858186483744
44.617412556021833 -50.387735979117501 -223.088852166969559
44.206653247714478 -47.055942690408209 -224.291677868659434
-46.363668262892240 -139.645954807281299 -224.100516815789916
-44.044223006458786 -138.013219784520771 -223.799429838849704
-30.117566566682441 -121.843821359333177 -224.901868082250843
-29.188726546721458 -121.136049927626615 -223.973516212039669
-27.274080623014900 -120.891384001688138 -224.561299012506339
-27.619730809277122 -118.465366254563961 -223.284223700993863
-26.019113529388470 -120.418809602980190 -222.832502273707775
-24.678102234415899 -120.262419059029838 -224.597818486076818
43.989362129299948 -49.215851478036463 -224.725637917629854
-44.902536291662862 -140.436686160315446 -225.940321828596723
-28.776370194987368 -124.091901992785097 -224.973542504446812
-28.702720717558979 -123.104087938386570 -224.365841322398126
-28.970904215367543 -121.796311003056772 -225.504555414705322
-27.423836896650442 -120.122109454063434 -224.790515936821777
-25.790636434999580 -119.999455172717219 -222.544820104531368
44.282575545252470 -47.892847493920208 -224.512953674501091
45.712019787275146 -48.206874580326406 -224.969351157464700
-31.268355938922078 -125.064758566933975 -224.337059601590823
-27.933576002939979 -123.897084859567329 -224.427993345495679
-28.799493675230352 -123.199006834587209 -225.704968644767973
-29.771021528596876 -122.644477791868326 -225.338719556715660
-27.953125848299607 -120.961514004580522 -226.164314716952816
44.695868266878534 -48.943480745243193 -224.558906911892905
47.759926104170368 -48.223319793473067 -223.857144311269650
-30.077686718108438 -126.589803150643988 -225.624966438942778
-25.847731161835792 -118.738092713339356 -225.230529876968717
-53.345313944192092 -145.908264535712732 -225.940214498314589
-49.163878176575928 -143.988824071759979 -225.126699666915499
-48.656061011280087 -143.279711718984800 -225.128544744043154
-31.338392599779574 -125.030201533544883 -223.608751841636234
-25.738884154808495 -120.888147706051299 -226.001750193025998
46.530447258444298 -47.426444061573157 -225.592264022208525
-52.099076496286024 -144.198002282714810 -224.809796044414099
-50.863374069365392 -145.108514686528764 -225.923213508666862
-49.710075008772968 -143.281672271771555 -226.628198752945593
-49.187193972920191 -145.342168988499651 -226.977384033897152
-49.282244340243494 -143.082241397718974 -224.374560386804859
-47.899640515893701 -141.502907306915063 -226.521182148974191
-39.015702067866179 -133.124660365110060 -226.546933526658705
-37.472222232956099 -131.820091005534181 -226.252990092477404
-33.732100575192895 -129.212140597668679 -226.796057413119115
-35.295724133469015 -126.231135245290389 -226.978135923604611
-31.517706040794039 -125.654001586232880 -226.216529228616565
-28.773957455123472 -122.254532292473044 -225.204003103891978
46.168841968269490 -48.194976460089990 -226.688254258136624
48.306679932954999 -46.934000087671649 -225.791777877624412
46.910987917846150 -45.906623598922536 -225.184595758533732
-34.170210401846916 -127.460844950100267 -226.617855933973118
-26.088597763015368 -122.494368563854735 -224.729192860585101
-28.058356506630290 -121.025913133152528 -226.726104036812330
47.654525593374998 -45.718325320657627 -226.876321978981224
-28.807590668784162 -121.243029097544806 -227.242106527611725
45.090328739216801 -47.615398518403737 -228.915448043610922
48.064088865216547 -45.773898359744109 -226.871020795704794
-28.591663637466070 -122.907681324292426 -228.313087095866365
49.082149496326835 -44.250376886566279 -228.274088566473068
46.307160687506361 -47.858359652206403 -230.205180586365685
47.742909795729318 -47.017751927767897 -228.022479190815744
48.013076897353329 -47.645097671908729 -225.560610966873526
48.852180515928247 -45.382255481611942 -227.256555835332790
50.541718005152191 -45.017308583944292 -228.105458593289967
-29.016790958877813 -122.122109291417559 -226.989435922691456
47.655188402019590 -45.106427521783900 -227.484299992974854
-30.474523641008023 -123.522594352358624 -228.184364389098903
46.915377227319269 -46.525148930335384 -229.365736069826823
48.915682607289490 -44.010123847819195 -230.518178915113140
51.804195772000597 -43.801379235244234 -226.555325654424252
49.805754132688101 -44.143774856007077 -227.833553776443097
-29.797497452074463 -123.836693169561897 -228.153171697498294
49.648826263096900 -44.551600179454610 -228.377999770491499
-29.971491384281798 -124.412336032125850 -229.340156558386980
47.476174962852554 -45.438991721313442 -227.988027484641407
46.726647435518792 -46.031972732248136 -228.845070791209793
47.831361692443082 -45.534309098480776 -229.120307398102739
51.819750625937026 -44.890248380032482 -229.274220238276172
50.751343674653512 -42.599231062275045 -228.092304593632548
-31.865310563798992 -122.851033964267742 -228.143585714039489
47.959798138532264 -47.596370604778940 -229.022159774797672
50.570982864236164 -42.518379219361371 -232.573427946403854
-61.535690132823859 -156.078174847271470 -231.522483460747480
48.513488951973422 -45.636456869525333 -230.410228364626818
50.747812742111634 -43.059211910565857 -230.351321979491587
-33.499660231384475 -126.684795872337403 -231.528692209144339
-62.875181235161364 -154.716089231805853 -230.724817462825996
-51.845841189697929 -144.912844271171650 -231.618088340017579
-33.691681644553157 -125.609842271061510 -230.100715310393610
49.030432780802705 -46.664623927991656 -230.689738511759828
52.196412790478348 -43.851217148810541 -229.862392066082776
-51.223061097430097 -145.082906584104364 -231.844699299758787
-49.712172405978926 -143.030441430212164 -230.430672361160646
48.228983658190366 -44.365549679243941 -232.467709616477123
-46.096058042478958 -141.240437542739869 -231.445751494411354
47.758666438236325 -44.489783636040862 -231.080607839069728
46.951923381042072 -45.734934652703529 -232.270201683244750
49.465227861923594 -46.510651454407046 -233.644859116450021
-45.719827365073371 -140.130103914670229 -234.009244271843983
-45.306626784472179 -140.986415910236332 -233.054810309428404
-44.863776078483156 -138.916374155396198 -233.373757115875719
-41.481734179709946 -136.760203689576599 -234.194203895117425
44.164012030278357 -50.830206427533561 -235.111053359157808
44.041487848741170 -49.402990526313722 -234.570041184289437
44.214901011097936 -47.703315509933937 -233.734550976682442
47.254958077188427 -47.492146230474482 -233.716385268671900
44.240598198902013 -51.594251669373996 -233.383990556388028
44.774232283829093 -48.985503088042520 -234.285559247801359
45.661216275800136 -49.249216129952927 -232.779947911084150
46.095459115644708 -49.663436368638855 -236.398436678051297
-58.969159627268212 -151.788372275543963 -235.872870443555428
44.314182541348174 -50.712640380141885 -235.854639096793875
44.832808919470978 -48.985278066932779 -235.787931383173316
46.021655953799204 -47.862535846946365 -236.015529153196013
43.119954258178346 -49.554615731611563 -235.013754119693857
45.077999516344924 -48.440088340149181 -235.475014593752491
44.231904659020657 -48.101902908666602 -236.931589288377978
-57.521092362244914 -152.672810123889008 -236.646672441096086
43.802360191968340 -51.541140503622962 -235.961743409308184
39.397661783273698 -53.748207993108856 -237.404477674607477
95.156803223282367 1.255511598247184 -235.972858763943492
41.885272752745976 -52.314932152445252 -237.553443536943092
47.186794529649369 -47.181465095019654 -235.996636496474963
93.792713700297199 0.530679427241804 -238.002407290621022
95.030504195925147 0.367454463430996 -238.133079689764173
41.621263608939920 -53.106217682361255 -236.400447805423738
92.456046467745537 -0.019778485576136 -236.970572697960705
-58.468613534976051 -151.101146441775796 -237.766978199453916
48.246202951924431 -45.212164115305519 -238.317649983899912
92.573428942932864 0.189533664695570 -238.014661186058419
95.090811178417027 0.148797766854884 -237.686311739858468
90.960377209303587 -1.163322764611202 -238.566981839130477
93.551351672194798 -1.457245871989494 -238.215317670008659
93.724767504574174 -0.570894617510961 -236.800873648910937
93.103727983626243 0.548979728475234 -237.923580562686396
41.340455675437489 -54.505249331609072 -240.186369396914699
91.032279484640895 -3.634177729388859 -237.714988010257912
90.381473735313406 -2.013676513598712 -239.354604069500368
95.126714813840508 1.008829738644525 -239.318105616496837
91.559034432398079 -4.400030654352114 -239.773416130241372
92.331417654743674 -0.831465515250016 -238.225209283680158
92.727120735501856 -0.631048238922336 -239.103185624961611
93.349924695623656 1.359295713523602 -239.362896277547094
40.513266131965850 -53.497414498762446 -238.964696519279187
90.402328940971998 -2.633367889513235 -238.238768319237266
90.866773447828947 -3.058820844341523 -239.758557274147449
92.730168423817688 -1.774936848206385 -239.446091663220500
93.527305372192274 -1.607964191824869 -240.399341119399509
93.268047235298241 -0.228621759297645 -238.404991222875339
-57.640822555295543 -151.745088339728937 -241.087957329166102
41.653372346399230 -52.310977946228633 -239.567720985163220
88.672307509706883 -3.630027033312361 -240.115510841666548
90.405308232328665 -4.016007700032627 -240.404568530601864
92.823856607375731 -0.098612232704780 -240.976616397411107
92.674377797296742 -0.767541839869453 -240.349049116703071
41.233271955250551 -53.215844030018509 -241.061407945245833
88.348730508739607 -5.465110761269321 -241.829891955992849
89.077397613774110 -3.128492187677459 -239.607974079599217
89.652500942513655 -2.778472661213920 -239.182720963584018
90.529166306923756 -1.531064677035382 -240.610091023632606
93.137200719158599 -2.864037465757162 -239.996596435997475
86.881967663931789 -6.759532607749031 -240.610377169657681
91.979268141642379 -1.928773581643411 -240.260913355860964
92.947247309901243 -1.251147694542543 -241.072438799125251
92.362735150513956 -0.812535632501041 -240.545690761525464
88.280444289540213 -6.279344515689325 -239.223562497736680
88.276261207226113 -5.719016930257835 -241.158602832541135
93.852119310674226 -1.015329428152072 -241.712335035282365
-59.127382087012144 -152.990446776223138 -241.299135122723385
40.661076146822602 -51.150996750557098 -241.480973663268003
57.386661589442326 -36.805724070445002 -241.781992938758805
60.308474761448160 -33.493192634505178 -241.282206841626646
91.472784391319436 -2.849414272817709 -241.801991613591838
92.904974706799479 -1.987698119364298 -240.633877669191492
-58.246354046682434 -152.111213298424587 -242.774893500816205
57.119853709875166 -36.611590162752492 -242.053537757090993
58.314397859656914 -33.647184129940634 -242.814445864275200
93.411862709906416 -1.645879963449933 -242.478709284773487
90.514699850488398 -0.996922255129023 -242.867035759397339
87.271509072174553 -7.935795159502812 -242.035792163458837
91.550670144756396 -3.757446903723821 -242.577241488583326
60.644009697460270 -33.143661365379529 -242.239762456901474
86.921666621141114 -7.611301989018012 -242.490750442652768
91.510861800373959 -2.222176879322758 -240.940345941335721
83.873170262311191 -10.245216042002943 -243.258829118250020
89.833434482646425 -2.101422927305895 -241.856510260781590
90.606009973349913 -3.243047174262633 -244.378858609118367
91.945909568219079 -2.722971339118636 -243.383114900781550
61.716643106364458 -32.514090494292795 -243.524698569063389
90.061332627867102 -3.920402972962574 -243.310664565165240
89.912245605086198 -4.115751617570360 -242.834022798762760
89.691520525425744 -3.749751142960164 -245.625266003915328
89.639722901291975 -4.404966544069867 -245.670695460293445
90.017624517347329 -4.122526025140539 -245.516892353228457
89.541218983170680 -5.509935367594065 -246.129023391198928
87.047629462829860 -6.566984805543107 -247.565406466567140
39.803866146722704 -54.142504641170760 -247.313356626606719
88.030509964140123 -6.800249160780337 -247.562924882735672
40.519079725013199 -54.170752860721848 -246.667539331654865
62.414267364132343 -31.443717919355194 -246.279155784539626
39.813046736656148 -53.324726905427042 -249.273255976557323
38.818454547605945 -53.683924756399833 -251.706062645813034
84.602755519561910 -10.217264780603887 -250.051828423057941
40.454645813332121 -53.952958682165622 -250.080043103803206
74.425877788724122 -18.462747063519966 -249.734673942292062
83.762336092342807 -10.685001450432038 -250.342795430751806
39.525728009361607 -53.335530985509635 -252.617923370533333
-54.491431739118447 -149.872856278716057 -250.869971076358894
40.182900780993180 -52.877305983379031 -250.526078143534249
83.165016814069716 -9.476173692752425 -251.216465033223045
41.084439239298355 -51.486966399284356 -251.437887697515549
42.582301778807839 -52.113194562612307 -250.715502218223406
41.189382347980036 -52.667846265485686 -252.106421203633658
42.373222167724165 -52.664298072618273 -252.641547015024798
76.421430337386710 -17.521200622543649 -254.269643078806070
77.137071837057960 -17.038393725059269 -252.527804671734799
42.507659320858131 -52.685635758598892 -252.279420815898902
76.193208589708590 -17.389275703165833 -253.899036334051800
77.375088714468774 -17.987503665058313 -252.150377545636218
41.860741941536901 -51.926431494500306 -252.664119892884713
43.169520918487507 -50.724290760549984 -253.482029550795829
76.118792573821239 -20.396173458380680 -254.307245590579072
76.618944113169874 -19.116799617305713 -254.695416298639913
76.935040089292528 -18.185282672087350 -253.834112898066849
76.318027891842192 -17.693742978358532 -253.213152874325004
76.399038895169653 -18.728755490650759 -253.734328147508336
76.123808315092006 -18.370944263959426 -252.435267159275554
-61.128930860767170 -155.211092062205125 -253.650852818098002
-43.764685610203678 -138.708015746574688 -253.186116854900632
-40.586338803470852 -135.859501326480341 -254.764066520944993
75.397719978078015 -16.468537584017483 -253.075176031680883
80.021660327418616 -15.031276647753689 -254.442063621220342
-46.886659612100374 -139.957232603581559 -255.780624709566382
-45.808388363454334 -139.297139325819330 -256.377120414890612
-44.483454454578869 -138.490283215586260 -256.263572021208745
-40.674419537780580 -134.953507000016430 -255.775301617648154
41.666123761240677 -50.403841737562843 -254.454197791884894
-46.449762708592488 -140.816954431240049 -257.109769659067467
42.756631045697411 -48.922570095475685 -255.751878528948509
78.417219720938974 -16.043852886797968 -253.701126410922399
-61.839797587760032 -155.478132734601019 -255.067464008449178
-52.845752751768636 -145.234622366065054 -255.919814263750993
-49.463754048691577 -144.573648736162028 -255.318449263654259
-47.121804962206618 -141.934681638562893 -257.867628802928664
-48.126439257103442 -142.962011446197948 -256.145310960177255
-47.430409411400248 -141.782550090832984 -256.733945149216311
42.467618885062592 -49.803757062033675 -256.834044600564141
43.873315565443868 -49.085467793624083 -257.294649968399824
72.166153845642739 -21.237214339658784 -255.657623153619170
-51.991041451559127 -148.627248954098519 -256.966135101392581
-51.594982918659653 -145.242451640893563 -257.188724994915276
-50.912139341460481 -144.479876718955524 -257.449936725050009
-50.933623831457062 -145.143707673935126 -257.203010008834895
-50.968744362154297 -142.988786673940467 -256.321793881788096
-47.054499152772969 -143.446779208578846 -257.783303249486494
-40.266734480179466 -134.985615756606279 -257.451128506631619
-29.019304836242345 -123.131804302008419 -258.049778476409244
-26.961781870734765 -120.374718367401101 -257.225251422626116
-25.432385435738361 -121.449044086315027 -257.556293406719476
-50.945306690944399 -144.545007657122000 -256.799308582032779
-47.836513085965287 -144.503421521985615 -257.979847311965045
-36.451673293769630 -131.487959557617188 -257.496727627765665
-36.115446698953697 -131.724274911843025 -257.241099350989259
-35.183162040043129 -129.656768632009857 -257.077634423438326
-34.270557733458894 -128.060456759547009 -256.270402744414298
-34.214353327868835 -127.387093690707871 -256.686106065392437
-28.549485352687768 -123.112306897855632 -256.259529753222978
-26.889268027394973 -122.541805338635911 -257.026668546904034
44.239957938128683 -50.443186094978344 -257.069901556234186
44.198137976796311 -49.456398917652464 -257.388392809965922
-51.451133474110911 -145.191735403186755 -258.998851109927614
-48.775489894047467 -144.058002212609637 -257.308763600962664
-39.862183772572493 -134.497505833369473 -256.100807356595169
-39.641079908760524 -133.320274696080190 -257.697360197517696
-38.357087614643071 -132.366120767723970 -257.163341057108255
-36.553704573623200 -130.074033121176967 -257.974646890777535
-35.430509784274911 -128.069578849027749 -257.176679737860070
-34.331306132604318 -127.784512746166001 -258.343366549821553
-30.873277399211624 -126.684645844912865 -258.696416151856795
-31.451080647794527 -125.275792399660745 -257.131529498918212
-31.369874791386771 -124.654460271644382 -257.050854006112900
-29.185705692781731 -123.826453236583561 -257.448999297327589
-29.825415296839761 -121.405979039763835 -258.290631597648144
-26.840897102547924 -121.462715451072398 -257.726083101242693
71.748886139699493 -21.003338855996645 -257.184823215608446
-52.836142018554760 -146.144469309229066 -258.454450516235113
-49.472004449925819 -143.815715562346895 -258.474061826607340
-47.858568218321793 -141.089812397740957 -258.053197461982904
-39.051302378052895 -133.586378659742394 -257.589406247225270
-38.970024750759784 -132.792930266733009 -257.171629714192761
-36.782993471078889 -129.898394215022307 -257.906975651270386
-34.519879337808952 -129.756847152392993 -259.266868885261431
-32.114026161913621 -127.530800708580159 -256.549045947229729
-31.335325303171672 -124.042205433715466 -260.786508515583023
-29.472304028289425 -123.314972175858699 -257.954865414515382
-27.801150791595941 -121.295975587910831 -257.143079454686529
-27.476888715794011 -121.556082256663771 -259.076464004170361
-26.989002521253710 -121.359339713535874 -257.983867700614894
45.561418805858963 -49.470674997726590 -257.214692830341676
-49.318424626295538 -143.097368745491110 -258.445661505553119
-40.340459323347339 -134.386681580298045 -258.199088618570840
-38.965806674010210 -132.847776514713559 -258.031216207036948
-36.370531588007317 -132.858560611303034 -259.340740256117215
-34.141423670813197 -125.907204469733443 -258.075376104648512
-31.215871342424030 -125.486678339568513 -259.031772118126469
-29.466123322552882 -124.276467593694932 -257.098937095083670
-29.112856855685742 -122.653969560363663 -257.777121556295924
-27.231094872630166 -121.288582358931890 -257.710028288497540
43.100910142652417 -51.117695106467117 -257.887374585226610
-52.022008099985207 -146.048304395451737 -259.114844088533118
-51.793876695010098 -146.460589543800353 -258.861272207671846
-50.232966611483363 -145.325265184453514 -257.707346434880606
-50.159796011768314 -143.795477073137931 -259.558025031194461
-37.106857281796238 -131.729986267894333 -258.561961267460163
-37.074029150302245 -129.481045312001584 -258.100610943944446
-32.871016034537611 -126.435316797247268 -259.274878500908414
-33.106870797488661 -127.193346749634657 -259.113610431070924
-31.129359127443088 -127.640512122626575 -258.635829039516523
43.535491967439803 -48.175130868004473 -259.342374210741241
65.969537102911644 -26.579126807838293 -259.425030190477003
71.949339817770294 -23.374719319402391 -258.818719530386659
-48.056667692488560 -143.983331451920378 -258.679224118863601
-39.643457928283730 -133.644816024127095 -259.796980162368925
-39.099230655286561 -132.740980008307531 -257.937741839411729
-37.130021077971755 -131.996314549532826 -260.322435512384970
-35.487810836547339 -128.703454955734145 -259.249821334734634
-31.957004815791066 -125.593717792949207 -259.830195885676915
-32.267805161118794 -125.037992546158719 -258.919995401484414
-30.275761016687490 -124.842522224673445 -259.266789105574901
-58.092482482960911 -151.747411135386983 -259.589719163365658
-56.278776973524181 -152.984975164481909 -260.128292371434270
-51.968200268600164 -147.254414739598360 -260.333009423336193
-49.726920699501505 -145.306387675448804 -260.213341736574478
-48.156682409357799 -142.014972233167555 -260.389389264266242
-47.843267705051566 -143.488038214610100 -259.483979466007838
-48.431866524607749 -141.424683324119002 -259.967816734391931
-39.706092285533003 -133.123636318301692 -259.456292306641501
-38.992133919695966 -132.281211938711124 -260.557419746580308
-36.524748957394962 -131.779238357647330 -259.243942188486187
-34.822718534805837 -130.894194450880036 -261.041184862585851
-33.061397146504227 -128.069449638130891 -259.269212283604418
-33.382801063869501 -129.230253123351986 -259.128776069619960
-32.121246876518001 -127.118867975550216 -257.355595658061134
43.888914377161207 -51.233232328001819 -258.468916855313921
44.175564229045648 -48.553175191116715 -260.720731874219268
-38.496501391218445 -133.708440450960666 -259.964642876506048
-37.665070267696464 -132.200504609117303 -260.699205699803315
-33.883433312811398 -127.055102738128937 -259.776749901039466
-34.342123445498096 -126.522459924314887 -258.610375029952820
66.447957107779800 -28.376158284829295 -259.911633220085037
-39.359409954844601 -132.580567849453956 -260.203601213266495
-38.611638208910620 -132.369606575914105 -260.178195724588022
-39.133695754228967 -130.343399590167593 -260.416456407220096
-36.403945726840313 -130.087256342037023 -259.802067462625246
-34.509421765458491 -128.780729778030775 -259.655180620906492
-33.984342326187175 -127.718252908014193 -262.314669330716526
-33.363329979269665 -128.602664507123450 -260.840537464640761
45.060883742390708 -48.990460913759215 -259.922351851226438
46.202861438809556 -49.924106958965993 -259.263749699995344
-41.284371777589854 -136.088443414462091 -260.221675775802339
-38.965478438213431 -133.178077346862892 -261.517393654027842
-38.525807428804363 -131.426801415937319 -260.537238009079601
-37.166674455921338 -131.407296690639384 -261.504294839847546
-36.792281551137442 -129.239827914663181 -261.118940041385486
-35.288218633428421 -128.401843534634736 -261.013703716681675
-33.535112964894189 -126.879123617960687 -260.716015955725823
45.158801706456032 -49.475579641560181 -261.500512356198442
-41.217964152998547 -134.591718428150102 -262.834809947884992
-40.193579526573089 -132.895940033490007 -262.042909042809015
-33.948327981194716 -128.208210147766636 -261.549054435259336
-33.331938398981428 -127.691562148249233 -260.567017657218912
-46.903198558877719 -141.156287069402481 -263.426214024293756
44.300369709767914 -49.981778996400543 -262.913811660864212
-52.509430468929828 -147.618121790006683 -261.823595095497012
-43.599476234246865 -139.457614294089325 -262.974823201818822
-45.018497707916602 -138.129009092229239 -262.195055489023105
-41.398026741152393 -134.290564352697999 -262.471711226343871
44.186475956521825 -49.857803239817500 -262.674403561272811
-42.713684988391684 -134.837977257245029 -263.363953255799231
67.783366271387877 -25.642664141925362 -263.839655168859281
45.356961928567081 -49.902960528720364 -261.654141853911653
45.502047307574180 -48.736554864651758 -263.177548368716145
65.381194220598843 -26.198450797673086 -264.253414769329027
46.058399600879156 -50.424667340604159 -264.272421038484026
45.744127815882763 -47.855317090644334 -265.168715180077925
44.839917535726492 -47.621654356505751 -264.741180767241190
47.069011226570545 -47.912309931153523 -267.542874154191168
45.437675729379556 -49.142098948177299 -266.506120530743772
44.509845555784622 -48.570242639864048 -268.873478598922304
45.437149449614900 -48.606302111004780 -268.647614676407557
44.459526979956848 -49.454617169793259 -270.262619522370926
66.121294690398102 -27.980203182903089 -270.267153948834391
44.922774137861595 -48.496111586780202 -273.017759771274314
44.499130363621639 -50.063552083411388 -273.585514697072256
42.897771092533944 -48.110333680390738 -273.308966497142023
45.440955780705345 -49.981738184673560 -274.949752427623878
44.266375133724821 -48.459113305636961 -276.549304136368789
45.176472169406587 -48.618847061852534 -274.933399390053694
42.978140122731162 -49.809820681584974 -276.896894597101550
45.069099856704277 -48.522757775023628 -279.761187340807624
44.016783882404859 -50.536328810176684 -279.403296987961994
44.592693202069192 -49.197741318116911 -279.906811251082104
44.051332286151222 -50.526219056959896 -278.748213409283039
45.485087818627484 -49.314273148659005 -279.304422162479000
62.006493122371239 -31.846519547061938 -281.127196996010014
45.312870289123794 -49.654243643282648 -280.537212105763217
44.062644669657942 -48.676774179143443 -281.217573517637447
-58.909747175517140 -151.996570542334069 -282.998513434755523
42.992589045467049 -50.178575523173755 -279.386762445101567
45.161952306060186 -48.633799914760836 -282.481400324555636
-54.205356136039327 -148.101104003276134 -282.515468287735189
44.246241781317572 -51.454310298386304 -283.275180809181506
43.027283139716531 -49.869430744756706 -283.370317272131899
43.585196120961555 -49.404824662860513 -283.286510947911836
-42.811756715574461 -136.651357839143401 -284.845386094074627
-41.427441155380329 -134.937512132878794 -284.779399286078444
60.170166286074782 -33.799494510932284 -285.076443544234564
-53.510659763325435 -145.916036686892198 -284.954027317044165
-45.271295424998286 -137.678109356547793 -285.674110769616561
-43.375690385113579 -136.277067183062542 -284.499701439588478
43.810241737016050 -50.520208985852655 -285.637208685144685
-47.615820667776745 -139.121596859083212 -286.284914835511415
-46.207716273714361 -140.313249366374322 -286.262819977656193
-46.158404110914091 -138.917732776035677 -284.625885723426222
-43.611769416286720 -138.135222856320013 -286.169391673694975
-41.923851141250189 -136.975820378123473 -285.743347969575041
-42.493130385371110 -134.357546405379026 -285.143736002570620
-47.203909001639509 -141.085517814289233 -286.478622432017517
-47.291357215682531 -137.492348763422456 -284.272654335585344
58.940522857895296 -34.727284559770787 -286.209508352208388
-52.315084035503901 -147.552800110383089 -285.994604187807056
-47.491377467485108 -139.094338849324458 -286.282784072717959
-46.822269444940567 -141.383799173113573 -287.782474250498694
-34.847600323674484 -128.959459036573975 -287.817425645268372
-35.469561548087157 -128.777024638494197 -289.534322624850745
-38.243424676972623 -131.327481143498716 -289.828108088148554
-47.000183603618630 -142.043375311026551 -290.130886911490222
-46.072883095886965 -138.557294633990949 -291.160887639145983
-41.542524544749213 -135.751945870708965 -289.553206200712168
-47.887939449441042 -141.678320231000583 -290.078355307019706
-47.353586863440476 -138.659721003105005 -289.363459461566265
-46.937038164080128 -138.412190527590184 -292.065802172268377
-54.132351809003090 -147.894519013385263 -290.728166244677141
-46.351806090355332 -139.552790498948127 -290.781922025348706
-44.253217335669973 -137.792336596927669 -291.067431370175029
-42.487314110058655 -138.391750346235000 -291.640050851601472
-54.178701168744340 -146.814621148086815 -292.347577713115982
-41.530737250259023 -137.399312392971893 -291.638213442829851
-41.617741895583336 -135.700017211115153 -290.756917747969965
-41.439821921182492 -135.717967109804135 -292.908081471008302
-58.683839057186560 -151.711633933260345 -301.379981660082478
-57.327224092574703 -151.894503615651473 -299.405395300522912
-55.810512425120372 -151.741268514870853 -299.796434128941087
-58.615332437711210 -153.274475705193595 -299.669644689598272
-58.758783954492273 -151.852197889617401 -300.537879395760513
-59.499639325627562 -151.273369697935408 -301.731412682594623
-59.141660820880006 -151.653158002415154 -300.475637696923172
-57.154354513293605 -150.965777458755923 -299.922419690848528
-56.987029260564881 -150.460757448464420 -300.736240316699025
-59.749880407997026 -152.666439580123580 -301.444480831678788
-58.952449036845962 -152.417612254259154 -300.681634621521027
-57.953637140213090 -150.615392047131678 -298.810306375959840
-58.581660714374877 -151.928243920183718 -301.117836182076132
-56.656311378800154 -151.200049253707050 -302.862928660465514
-56.916804879293274 -149.556416075509276 -302.008687446246995
-57.810326611231027 -152.808642914991395 -303.628456087306290
-57.875349650524484 -151.793294043133471 -301.763431436598864
-57.786238007596317 -151.096108989427876 -302.774907521283467
-59.919693295552683 -152.710589758427687 -303.581850613721201
-60.029726130198036 -151.942035878187738 -302.153985467794087
-58.252946792964160 -150.426049924349314 -302.405127081759758
-60.236584423148344 -153.783477957756020 -302.979515629032392
-59.052784498349034 -152.754586624168013 -302.117837498361155
-58.399049312875306 -151.678763904529632 -302.245611970798223
-57.372125375740438 -149.423618515727298 -302.802582929389359
-59.050300686302258 -151.435306715756639 -303.196459057611605
-58.307552038983054 -153.383812863416381 -304.667196388598029
-56.435216337628447 -151.154826567361908 -304.046162536608733
-57.820728640256405 -151.546107718084500 -303.404531495073911
