# This PCD file was generated using the MATLAB® pcwrite function
# from Computer Vision Toolbox®.
# .PCD v.7 - Point Cloud Data file format
VERSION .7
FIELDS x y z
SIZE 8 8 8
TYPE F F F
COUNT 1 1 1
WIDTH 795
HEIGHT 1
VIEWPOINT 0 0 0 1 0 0 0
POINTS 795
DATA ascii
48.492271461598563 -24.286011562269582 -262.699427019152097
55.955963218488264 -17.682658610538606 -262.234169492416754
57.055072695180094 -16.529719391209042 -262.129273597938493
30.674597015472091 -42.230944791247502 -263.322674862959559
34.245749892910787 -37.977976116177011 -262.690829882819628
35.679032816680802 -36.881871950380194 -262.108629635642103
36.313749137348623 -35.569322383637555 -263.132393708067070
37.878518458307688 -33.884292558661677 -262.612707793216941
39.237826750637616 -32.877369798380833 -262.711313343747008
40.259232868434914 -31.760318794733230 -262.808569794117432
43.450622055832540 -28.958179310725878 -262.092404660358852
47.247540154219664 -25.541424614394337 -262.369967840904678
49.587237533685212 -23.069196105139184 -262.486743216329614
55.954350900255271 -17.345346017995613 -262.861803679312686
58.411294971759297 -14.519087436176333 -262.441804888961656
29.756123313051607 -44.177979422975220 -264.428771719169561
29.584326468282178 -44.124867818989955 -262.885829626860243
30.042350141416239 -42.839417566652827 -263.148880574032148
32.769182679209877 -41.141044831267180 -263.430082042833078
33.110055309348205 -40.142855180788686 -262.532465915469231
33.465338580279266 -39.342359747086313 -263.341621615571796
33.755628567133066 -38.767852768982927 -263.233774621413488
34.967077322781584 -38.334735814899041 -263.365104687890096
36.244327920692527 -35.423943915144541 -262.839393481330490
37.311868489699840 -34.757084557266694 -262.921845417713541
38.371719453517649 -33.674478971212572 -263.231193214340408
40.047997615025373 -32.506855518443139 -262.908483232560513
40.652653570783784 -32.004504251255717 -263.612575186206527
42.042133718477800 -30.466035563460295 -263.472888776353273
42.180533093891917 -30.223755967697333 -262.954769369439475
44.851949508161319 -28.051317987267492 -263.211497430248301
45.821585694636163 -26.570919647568207 -263.105720114603798
47.208187150639048 -25.387007505672614 -262.722659918377815
48.656850377030274 -23.840104017421432 -262.666587125708872
49.366862374985502 -23.317139538597875 -263.328808075564837
57.789267899936362 -16.375385559536443 -263.466123040845957
58.482934049131721 -15.515481495506783 -262.718919025591958
30.230875210064990 -43.095166485705406 -263.883474505177389
30.689989942731632 -42.367753119410530 -263.474147807011832
33.256883338047288 -39.853454834808723 -263.742298910419606
35.774469327143123 -37.118322337865173 -263.615947894633109
36.852806406401790 -36.280025309851332 -263.437723131253733
38.084826578688855 -33.901900370335987 -263.894621638902549
39.385859361403810 -33.173602261448700 -263.710167203776621
43.333315518259212 -29.111805967749454 -263.609369518497886
45.778589164433363 -27.052605982820999 -263.614438322349429
55.980610077202634 -17.504770558723195 -264.043482077878195
54.467185787947230 -18.183789703870115 -263.344033605974630
57.397691395184296 -16.510368416656373 -262.734555490273692
58.039491269294700 -15.396553660112573 -263.368090785520053
30.195835251278293 -42.787211191959706 -263.864791451113604
30.321058320565964 -42.086803103086908 -263.952242063808512
34.282487919013370 -39.160599036136425 -263.827613270971540
35.769652806917406 -36.443235749885957 -264.072542273728970
37.146562766064449 -35.549349382601029 -264.648464779058600
37.804087003746666 -34.461926262047825 -263.766696677222740
38.991069182800686 -33.180205155845449 -263.595447572660703
40.043833523263970 -31.664823421805544 -263.622299753406310
40.980280046999113 -31.847196567278559 -263.561541078263133
42.658146833731102 -29.835967178180024 -263.762453830084894
43.272527947942713 -29.103804187511912 -264.991155955288889
47.339959015501321 -25.407475573631309 -263.557202871043785
48.552224193342383 -23.640305216528308 -263.894010962848938
49.379092332021827 -23.804827629607100 -263.396079632391491
56.081073570235347 -17.921018632655915 -263.846131085304421
57.150584392805754 -16.294817808115067 -264.072418644914649
56.932981002706917 -16.089726423789184 -264.199746596865111
58.449667301533772 -15.265351275661477 -264.433751837014654
29.699801213713968 -43.759850828739147 -264.005847480037630
32.600382638318891 -40.757817738028642 -264.091027159610576
33.312083325290125 -39.297580022980242 -264.270619168300982
35.262588569709138 -37.831491712387830 -264.485740611183758
36.101645093057449 -36.512314373197015 -264.133381962633337
37.140455058286499 -35.161177209686393 -264.122226258628245
39.098886698492628 -33.507206461520177 -264.459694153069222
39.578305083600867 -33.084019470406261 -264.048893373737712
40.276052223099505 -31.561069134713769 -264.089637414957906
42.559842259621007 -30.190866719826843 -264.395145921285859
44.740171906341509 -28.273731594030647 -264.682272488004003
45.403615321955883 -27.027440111541470 -264.401598508983682
30.554629685984501 -42.487050124678895 -264.657044713110622
31.550217733141146 -41.191596946116292 -264.844913510744504
33.677390344047005 -40.229558610642378 -264.996284582744124
33.823979863812305 -39.023432692728534 -264.762260960970480
34.848836536818602 -38.339970447716411 -265.030929327987224
37.951034530165622 -33.875668819809128 -264.549382447619564
39.355564437554513 -32.639375748094935 -264.875069920366286
42.564162226904202 -30.012568795948713 -265.175348311303196
45.217286877355470 -26.862780877158279 -265.371214500898475
47.761944455982281 -25.269996722603228 -264.730905366949401
49.651416295912917 -23.473931375429586 -264.424459285517457
56.016792651447965 -17.477746465964177 -264.348835765619867
58.787260638034297 -15.186651282101987 -264.625590566062385
30.172511510095426 -43.221654301424003 -264.717442746800486
34.452783987693842 -38.917827027992054 -265.474379093781920
35.830344971398759 -36.395670406769980 -264.958932250564658
36.976148714699569 -35.091957200683844 -264.891835862526079
37.862730767294181 -34.755002051306505 -264.803487915932351
39.076554664531429 -32.463689623877798 -264.912022140463137
41.028482995430238 -32.032515045674906 -265.039472294742495
41.275457692849592 -30.867951755638234 -264.997518106620873
46.524270906998247 -26.943093874503855 -264.714918729605188
48.732459371661093 -24.127821468156423 -264.792891164470348
50.209601012089713 -23.425294788796833 -264.891566340711734
55.697005178921152 -17.516083642924638 -265.385625691377868
56.830159975554423 -16.069334300730453 -265.314144142770488
58.278086214691136 -15.199738656415764 -265.604328143382588
29.981381849057691 -43.302162866814022 -265.910433027929798
30.990629244615889 -42.348593834702122 -265.740361002969394
34.084280155418334 -38.856360923880857 -266.138695380602428
34.461527721614821 -37.922410179949331 -265.135076060746712
35.409771715691569 -37.193836800169059 -265.652415939649643
37.612824190011537 -35.563959452838830 -265.447496503950163
40.528727985891621 -32.167188234395994 -265.596860329307503
43.773817158144176 -29.294070834361513 -265.229331773633874
46.064391903840438 -26.336326888259691 -265.810863453849265
48.566767500317361 -23.701313193155883 -265.901758321651300
57.255682880576387 -16.366720703759679 -265.292291109999439
57.205876559715954 -14.886181515573487 -265.482723664925288
34.178196747875191 -38.623011831490622 -266.195433233601875
34.605154529699753 -38.137441731618601 -266.357620547381259
36.236394763516202 -36.050727925242334 -264.966186384020432
38.694912693244341 -33.831634184839913 -265.301161219654830
40.017869109014754 -32.086729121553702 -265.811972116775109
40.667231935321219 -31.692118666535698 -265.937881637363148
41.210336013084259 -31.418899478286498 -265.879096832407527
41.462797975783936 -30.455593752908570 -266.105478748988560
43.765312935625730 -28.860054298228128 -265.375209760330051
44.864940998983613 -27.531682317519049 -265.993094896323953
46.296943003216491 -26.030683704858419 -265.804066595660913
50.534329447246478 -23.015776116331097 -265.941360515780161
49.533105723672449 -23.149212623868934 -266.626493671339460
56.147419854087680 -17.624353132401797 -265.354279652161665
58.164634953702361 -15.152558266406665 -266.344342971329070
31.820568841069601 -40.853966907018084 -266.023052308271986
35.534050911171271 -37.316604398418242 -266.344175223969955
37.125154273845830 -35.480663292349206 -266.441683891820787
37.667701205889934 -35.198863523058158 -266.210348099096791
38.445531697518774 -33.781334391790573 -266.064045981014374
45.934933891829701 -26.847470398317917 -266.642796497044912
47.051859898580531 -24.704598330400160 -265.814534618665164
48.883213992424935 -24.307694797325929 -266.053602949945741
55.866007623811569 -17.675289288835007 -266.728774291217746
57.826389683884692 -16.411246951747522 -266.260897845791760
57.604944222639752 -15.374266567006728 -266.228380508941996
30.058611792619832 -43.749541075399449 -266.504437816683549
30.952757288026199 -42.184545591717836 -266.746014696302439
36.764300355803513 -36.178675462124659 -267.006550322615738
37.839805372886538 -34.865894809093355 -266.857654640709598
42.071540608871395 -30.575311462433760 -266.794001228627792
41.629827794948405 -30.985530942786454 -266.498578408170033
43.521502276103924 -29.253623549447259 -266.682799130694889
45.228098840774294 -27.670918882509003 -266.858329801971934
45.827252175800737 -26.521144378511522 -266.928928204527722
49.857350217588312 -23.810095470231392 -266.106208925548572
49.639377451057094 -23.138384718905382 -266.450292802695117
55.308867312065885 -18.120972581150713 -266.689182656498986
57.847913238698453 -15.307662498313018 -266.826473345646491
31.019358490723132 -41.702850955183344 -267.095785692852758
31.747834468248694 -40.740871624872852 -267.518808621333619
34.768763165443808 -38.253636710449982 -266.687021188005758
39.249252642032218 -33.388740893893576 -267.482858838702896
40.094582089312858 -33.160660608195471 -266.518528623767509
42.950553379796709 -29.650314502526104 -267.289372711829515
47.258894492379198 -25.443215755466131 -267.400381905053905
47.858579232735003 -25.122178813453765 -267.118872311189364
48.773995397931849 -24.331811202119798 -266.881546301724825
49.932129157715927 -23.830395456822135 -267.225073254343329
49.166965645505663 -23.477846599729254 -267.751197446661649
56.939531673211100 -15.996158659789149 -266.829810677579985
58.140163313106676 -15.970568910672533 -267.001077331194324
57.535946036902509 -15.012757418946769 -267.284609958434032
30.680203344139670 -42.746273293637849 -267.427479615973766
31.997757787741019 -39.172582164970478 -267.581631503874235
34.736359716188169 -38.250101632012722 -266.833503810702894
35.853860974586645 -36.919950079561914 -267.693181360957681
37.094510006549690 -36.224400416687722 -267.319824093355237
41.319640553682383 -30.995076886207389 -267.274624077913359
43.587132782523135 -29.241473009227157 -267.317422929335407
46.454896558488144 -26.695470304725866 -267.330674042230157
50.443205363700336 -23.243976051016219 -267.408893092003950
55.532475023816339 -17.959616344973028 -268.024860190612969
57.205841615433371 -16.255545059996770 -267.888131899884741
57.592510861357553 -15.469409597902356 -268.038987153660742
31.343070326264233 -41.353655750359565 -267.500598217499316
34.599710489448796 -38.113694567988190 -268.506854682238554
35.117955799577047 -36.602867097935544 -268.029488474489483
37.627090143187921 -35.065844248169029 -267.434433624220048
39.644177942345138 -33.650849256971085 -267.571704614056046
40.107379397863070 -32.484889397856065 -268.876479585769857
40.158169592903292 -32.486474036445230 -267.352733023263283
42.609098929315586 -30.139662128328457 -267.304128506238897
45.014003186692975 -27.687964294942454 -267.734107368728587
45.153073697723244 -26.886822605242827 -267.813286839550869
47.661587755888540 -24.453399669827913 -267.522381218398266
49.262446341071765 -24.076202578183395 -268.080106807295806
57.299010225849152 -16.267855733144032 -268.013775307578328
57.121574071457999 -15.818521053838666 -267.485923759597028
58.369823442939982 -15.180794672897811 -267.649049099861145
58.027548589677828 -15.393262877493733 -267.847866320626281
32.103303138616639 -40.517956309902779 -267.763283822690084
32.552508724092121 -40.067476895215371 -267.976261568867642
36.294996926954461 -36.558933009250993 -268.435867351262175
38.429026462330484 -34.303495875275246 -268.684101828994528
40.034221801142074 -33.229752869196879 -268.585003926569755
41.693234221498592 -30.962947310600278 -268.514958804369201
43.244801667536407 -28.867044068519135 -268.466277544847401
44.547821954304453 -27.301268342703164 -268.204231343076628
45.887242377325464 -26.550650041598974 -268.129200215651053
46.824143018843372 -25.513034924101358 -267.898940311717411
49.550665631375082 -23.220371064861791 -268.360252190487415
55.681513921566172 -18.043203590341058 -268.683709397563916
54.924521485077186 -17.795316942776253 -267.743702784069626
57.255327351169953 -16.688843582466042 -268.740107522512858
57.314366426623103 -16.004751440977131 -268.713488738608589
57.698607942818356 -15.529437707707515 -268.960966431790155
31.193059657469469 -41.398679463490559 -268.316085001067165
31.724091837450654 -41.450676386741492 -268.332985044365387
32.779218731271385 -40.588023893470030 -268.876737918227718
32.853610818327653 -39.447395708405175 -268.896227358911574
35.351038465619446 -37.844976930463439 -268.550276351136517
37.574360834925926 -34.495215393192765 -268.806664090431923
40.728170036510654 -32.439189043155388 -269.213928998894232
41.974689527963783 -30.187531034794503 -268.476797549179423
44.494318672390577 -28.185923565301305 -268.337284397148096
46.509793334919706 -26.518735280993386 -269.159345627306493
48.193560278073726 -24.775721814466454 -268.719163095014551
48.819044499389882 -24.037875631423283 -267.670857128565331
49.651875188589898 -23.439280931693382 -268.984269078245688
57.327678078648134 -15.872251859059119 -269.148005740327960
57.807467983384456 -15.569558846279403 -268.219819467075808
31.508277109673536 -41.679474290201725 -269.589997182946775
32.240428989739812 -40.160346769754646 -268.939092241075116
35.037239133597900 -37.995587800634496 -268.698189259047695
36.110084612265247 -36.292712142335070 -268.840580265064773
41.276216413563276 -31.341139913797356 -269.454126605870329
43.339172349961693 -28.950721584154806 -269.165481216401417
43.909325946837527 -28.181471579298403 -268.845971237899107
45.271169699533679 -27.366714943534813 -269.394723122278549
55.467328183285602 -17.822159605247357 -269.374939155011418
54.983952505404858 -17.996942148540636 -268.371303137525558
57.673017829750911 -15.603620258087648 -269.138197053129545
56.915412639053415 -16.335865017691258 -269.567422705090451
31.749641125085418 -41.732834154961409 -269.378400574268028
31.786844346628012 -41.072824805336154 -269.672565188554017
32.974873338502448 -39.962816488513603 -269.778865916916345
33.382520614487667 -39.060980576693836 -269.185120093137130
34.840034363814574 -38.221259901769379 -269.899233159930134
35.861651139875626 -37.741967522248039 -269.541559613334812
36.948184738466495 -36.687461844867045 -269.716078028475465
38.024093141425446 -34.959298838583770 -269.666949826467999
39.244297871882083 -33.773463340628545 -269.847913022397790
40.217499649446061 -32.897582102135239 -269.622389807581840
42.303630779677604 -30.111836900325642 -269.652308180755540
44.204309418282811 -28.417324360734437 -270.015728436186805
45.133375419828710 -27.419351510411964 -269.709333426552064
47.030815836694316 -25.549002383486179 -269.338197721754625
48.806607297838632 -24.565539390487793 -269.745956603026059
49.523693194407251 -23.334852976402590 -269.165055410096784
54.993848938141575 -18.154638157725476 -269.945930003081912
57.210796851703407 -16.403409925946438 -269.705001162097631
31.720033669251276 -40.927500104490498 -269.903869667386800
32.425299033829390 -40.453498857815219 -269.996127237239364
33.491520729380717 -39.346016010699039 -270.442418271232498
35.986692028879354 -37.573829534122908 -269.972294214935744
36.601222744461168 -36.109017265730429 -269.849401986103032
38.019554455170741 -35.338958726630018 -269.949105154015854
38.476363824838451 -34.158394969772154 -270.383154558364197
42.155126727738505 -30.342971212703532 -270.551485560785864
48.780096231386764 -23.661013018280940 -269.966800538254347
54.551084646899852 -18.417041407871178 -269.739286275574273
56.500669830600458 -15.118791924763336 -270.420347474752703
36.126078188932418 -36.875899741806045 -270.196440795055366
39.599893951133559 -32.749739965895628 -270.099551066466631
40.508815849272871 -31.356973884590367 -269.777996540150241
43.251045936267097 -29.712851708725513 -269.752533674125061
44.846496706903977 -27.807646798977459 -269.989467270304715
45.923460175897382 -26.902670034812505 -270.025929893501541
47.060811778354704 -25.195816273097112 -270.218129784893392
46.810270392563403 -26.091088752959163 -270.019777940527149
48.494736078968870 -24.852884330706960 -269.980744296985620
55.320248623856749 -18.118481487329053 -270.135069671479982
56.426225777063458 -16.694471578425009 -270.360846850833241
57.065274412418290 -15.568216918893537 -270.704410141544599
56.987034747226687 -15.687624260895777 -270.253190596008324
32.210459342194909 -41.080046616135007 -270.370542731472938
32.937129547643011 -40.195973222381461 -270.669556851150617
32.730414183531131 -39.834767752612358 -271.114864625136534
36.203025711387056 -37.291803278769464 -270.894903319434775
37.032360458938193 -35.989523439066787 -270.677419161171485
37.502382957874225 -35.431422234924199 -270.353434793175836
38.514809052999674 -34.059061247643200 -270.415842331882573
40.502757466517849 -31.904477944765482 -270.657261793811983
41.506216867874954 -30.126154213074290 -270.708148627707260
43.172162920567551 -29.874079872045069 -270.802470685821731
45.229441979232590 -27.340575731505485 -270.741571420701177
49.966732482240495 -23.122514064120285 -270.858360602035134
49.118997431603830 -23.996981596662337 -270.401553648674110
55.173744884770294 -18.276256245062356 -271.030458688044519
56.522054968797811 -16.875147242106053 -270.652517607371806
57.323394818555414 -15.896852892482855 -270.533349418579519
56.700814590959872 -15.707830947202776 -270.617440011728320
32.364577066659407 -41.092971887809504 -270.837594937250458
32.909619552527808 -40.308289598130493 -271.058963257984487
36.498102024579673 -37.326310751317052 -271.288026678719802
36.683168158456212 -36.371382969540505 -271.625890950509699
40.260155111216676 -32.820030118746473 -271.307176584054048
44.387145182188320 -28.181081701383601 -271.234898484574160
45.771811352860396 -27.003364737340391 -271.876589712115504
47.044473930150183 -25.457316402991005 -271.398563366544693
48.032388777097125 -25.257085244114972 -271.100013574862317
49.860813794349944 -23.772503894734026 -271.196543891877184
53.603046724669809 -18.333428309384903 -270.935510268046187
56.808371060189671 -15.805204212183735 -271.320084582875950
33.358148402283597 -39.209391273632647 -271.675076258533068
36.836092709637981 -36.247063065058320 -272.142403956115004
38.373772286192079 -34.889528621363141 -270.936958722827569
38.421352921574048 -33.921784234659164 -271.172026211799562
41.043231133478706 -31.850270737795533 -271.324790233865599
42.671681955741690 -29.438670447071889 -270.793195232390929
47.462308591166767 -25.699742978614196 -271.520879922159679
48.679363721652457 -23.833842241135642 -271.653175281705614
56.745213960331085 -16.531223512571323 -271.136049770720035
56.801109744739527 -15.258368919966458 -271.481310196630034
34.010390844755811 -38.561180843382083 -272.261112045051334
34.400612842143161 -37.736404946329962 -271.985941616275852
36.718999012227364 -37.119007412307951 -271.759998100470966
37.316454202934189 -35.743016635833406 -271.513882918882643
38.423777784678919 -34.382695663500392 -271.720511989179954
40.240629557793163 -32.650265905519127 -271.859145568417489
43.876640062364132 -28.759590009066272 -271.575323792574011
44.971955961328675 -27.673250018895299 -272.886085086497189
48.312650746008522 -24.874947462400531 -271.905461215363573
50.180053628953978 -23.958133696761212 -272.168973576964447
48.827126621002925 -24.061743998388053 -272.455992908079111
54.884519673533319 -18.177352104414506 -272.123418928911804
53.751783633124845 -19.028174529161472 -272.091458965931167
56.066398845988822 -17.193999060122646 -271.225139446577430
56.115623761134721 -16.680375727131249 -272.085569985005520
56.296499461011173 -16.304982714814237 -272.315502347250288
33.072519221713677 -40.419863006715779 -272.186905743717261
34.905880101116253 -37.641632494055607 -272.208728137403284
37.258658158652530 -35.982747436871520 -272.392557870952203
37.444348886823761 -35.357370043159619 -272.288729360201728
38.746199030635310 -34.579855530240891 -272.122825913117083
41.624767746221181 -31.227106799586899 -271.996553776428243
42.315994168061962 -30.029513041670505 -271.945342576990299
43.341776008593222 -29.562478041823091 -273.091533061631992
45.963727077602201 -27.122808343064829 -272.312972937619065
46.731126544610589 -25.738732552869369 -272.178680020121362
49.696500619896327 -24.237980832656760 -271.987317178903709
54.226273143567042 -18.666073911086386 -271.937427250543692
56.031857635901751 -16.376802105077900 -272.145901229698211
57.254258957934347 -15.824630842701541 -272.728525591043706
33.838264963689625 -38.951994279665811 -272.682964355234333
34.760231270951685 -38.160389022615021 -273.283703006577980
39.989803291623851 -32.800410754271972 -272.018702608521437
44.597910526376985 -27.886280891285598 -272.306331507640095
48.268181042835330 -24.638725156268691 -273.702123090918349
53.164144423192141 -18.907478801641595 -273.114795964012274
54.815863006929852 -18.476427734357681 -272.641918217519503
54.584257234100043 -18.524033114060948 -272.222269857480455
55.749492580879490 -16.940693185792814 -272.204126874506358
56.294589970388841 -16.395192371523610 -272.231142190882565
56.889977878656332 -15.775042650663909 -272.814803819932536
56.917859621293324 -16.024520673364549 -272.237461426134303
32.836059483150109 -40.239180340698120 -273.376048013257559
33.188461346375853 -39.731923061737156 -272.962289055294150
37.817686416119834 -35.647890564033389 -273.229266279762044
38.296982891126063 -34.230113174380321 -273.599898151948651
39.469240361549240 -33.346013007348951 -273.427435269979412
41.090702006990128 -31.684799789985384 -273.152860094579466
41.347517995423779 -31.143213817490086 -273.248142466519369
43.379470452548325 -29.452279550004143 -272.691159479292310
46.172957756080542 -26.619161239115979 -273.608131320770894
47.795437071976885 -24.614290149174572 -273.410813088209579
49.853605622666365 -24.031204042384520 -273.065320859402050
52.324615059119914 -21.388329204938564 -273.548704186871078
53.438356920777451 -19.822505975026402 -273.371607545321638
51.996960836174360 -20.857387621725955 -273.142075975447881
54.619493863513455 -19.283498446897458 -272.503567408725644
57.538000162672894 -16.327048559315060 -272.984619920916657
56.337851886321872 -16.252881825064730 -273.504444337260281
34.796312007333121 -38.082010826092777 -273.767635954082436
34.388173241662379 -37.779759812571761 -273.110006798216943
40.354426682695241 -32.437085164616562 -273.755442882151726
44.699635842752222 -27.510600876198133 -273.970777271715406
44.578219815814634 -28.390749115690394 -273.174923665700646
45.709722358166260 -26.567125451473331 -273.660706637955002
48.965475683922598 -23.934008076648766 -273.402877900124736
54.628857806460992 -18.396696078287977 -273.380303291203006
56.437576308531419 -17.362749992673546 -273.699192696889725
57.249656356530203 -16.213965165094962 -273.182935815009557
55.927661429549083 -16.654384001209475 -273.607340709550897
33.527654019808580 -39.734330365657186 -273.699170535193559
34.999181644012623 -37.141871697904321 -274.054692218108187
38.712136383999216 -34.028207395480159 -273.561232511159517
39.582396947575653 -33.517338678870487 -274.073670604184997
41.690732200844550 -31.215891835724165 -273.504770050652724
42.895848391336706 -29.847379802922692 -273.586001608300421
44.000354919864797 -28.806003089163660 -274.434640945137630
52.076276252602888 -21.689631098465895 -274.102940125786972
54.506787095929027 -18.924377446578845 -273.921104910491181
57.238912953304421 -16.621662665469056 -274.021942068652152
55.906925593654101 -16.621746861261883 -274.031901501419782
33.029379935817836 -40.742209477168473 -274.243490224438176
33.602668913933520 -39.571181463596083 -274.252098560195122
34.056283867593024 -38.656102295632280 -274.680109597005696
34.677980905599647 -37.824641832275795 -274.413692673285198
39.044046929757869 -33.870088029063986 -274.159698811909095
40.205934328642108 -32.709575407152222 -274.170296119386023
40.848099049287555 -31.908269026290647 -274.534429244435273
42.146122591490837 -30.445788015879884 -275.004628489504455
43.296832649845058 -29.398649840502021 -274.272346086172774
46.082081157560566 -26.994745753176485 -273.821263939911944
46.991423256616514 -25.661265269965963 -274.136298938788968
48.227433605501140 -24.718468269297048 -274.300573459751661
51.346257745390339 -21.228778517401413 -274.240980735085543
52.318884158819422 -21.104364439712391 -273.815264491316952
51.444222056941200 -21.725523882347094 -274.249243884475959
53.957007799871278 -18.912900326319527 -273.946462884832499
53.106885566498789 -19.062802844164121 -273.938282270366699
55.787877157868330 -15.870050633560691 -274.586618644172916
33.823718615852762 -38.627766381034789 -274.840915282846993
39.612607546556340 -33.846146657793028 -274.426321326505672
42.730673048404668 -29.805819368193497 -274.929185412293521
45.498249523169811 -27.661582749726520 -275.316508214142573
46.649930206046193 -26.488727147116016 -274.518871864055711
54.106705520660839 -19.364905631716383 -274.965765174675994
53.848765932253954 -18.831936975114736 -274.285537488087300
55.995304300502511 -17.720695509878826 -274.790088882778946
57.519611074874661 -16.499332511558798 -274.650540334097343
33.424049994666902 -39.820533997755540 -275.068792351237335
34.905021852283276 -37.628587390699991 -274.715242421268272
36.136228687255077 -36.252354774268888 -275.431645924697591
39.880793843254104 -33.367630773388960 -275.350173673683287
40.539633015382655 -32.911240490253029 -274.625303163804517
43.061314249939365 -30.263462898461736 -275.918294856817397
43.872908545013651 -28.643160484659710 -274.816609233779161
47.990193242554824 -25.839695248382931 -275.661255903748270
49.813857545966329 -24.101999000745046 -274.370275538542614
49.018294103541209 -23.773243109969151 -274.413307999650442
50.924820782375015 -22.854394385249012 -275.810809343444873
55.223413561295310 -17.330216221899203 -275.242031225754658
34.234478737591218 -39.011838278267774 -275.007214319095056
34.599885041264749 -38.656431295707527 -275.537354406101485
40.441621650198655 -33.169190780497686 -276.020559004789334
40.671848016743596 -32.688485708302160 -275.713496508205537
41.219483915711592 -32.199242212849690 -275.448036403174626
42.977750205649812 -30.246641952520708 -275.857371084764168
43.597429904284930 -29.148419548725848 -275.774557397944875
44.552242168845972 -28.111807191575618 -275.361507700582479
46.120381168187770 -25.553704182153147 -276.044529961560670
48.146169382417618 -24.581047226053492 -275.151726082274422
49.265519489506595 -24.089009866304799 -275.604918268030360
51.425395976421875 -22.634973696960333 -275.701171161515447
53.712723313351049 -19.192819661757600 -275.158209199946270
53.657910090169239 -19.031537940195570 -274.595550378816370
55.407501353448055 -17.592341243718906 -275.106650287894865
40.964223439398260 -32.793641901465683 -276.245178894709682
45.914092061289963 -27.567313838773565 -275.546232197718496
48.690093412957602 -24.540536028924130 -275.884259845324834
49.503669769416881 -23.769578062193172 -275.907740285186662
50.228098524593051 -23.230598893394056 -276.131878363876581
53.961760730135872 -19.660083689546884 -275.716254291376572
55.771840676717886 -17.905700310796497 -275.092659109287752
55.597654025487330 -16.589290886004797 -276.123376639977550
56.795923460173690 -17.014377764897525 -276.047779497846136
34.475984043455846 -39.319344184048333 -276.327505986941674
36.819009882076330 -36.279256694627300 -276.306224270371729
41.912606137426692 -30.477760774746351 -276.689492868117156
44.245567647474466 -28.713595677407291 -276.528873420132697
46.379592158953635 -26.527663006291107 -276.478084145742571
47.682687843268006 -25.003496319536154 -276.354389981164502
48.808388594976812 -23.404301764614335 -276.491270530070040
50.581867469578420 -22.876867394209103 -276.202175350854759
51.449550308124621 -21.998032919669605 -276.369248543146739
55.435942327400639 -18.143145628515494 -276.964756771939278
56.007752462250821 -17.046095388997230 -276.289058207740027
56.462796293337639 -17.072347043279308 -276.575664409541844
56.054446237642054 -16.753658196692367 -276.511725854035490
35.803693529546528 -36.366754024940526 -275.780531606200952
40.887673500890067 -32.187164849533815 -276.315028205604335
42.101181630631224 -31.299082952034396 -277.163682355403125
42.706387644676219 -29.657258999742140 -276.223207495284441
44.982257707655194 -27.253516823889438 -276.112339179472485
47.009972978552256 -26.192293220170694 -276.819259742491624
47.364288722392693 -25.593828456512789 -277.144606190754416
49.484423715280442 -23.574651007414388 -276.388838520376964
50.302692699781424 -22.974050237503413 -277.484859163916155
51.972777521209274 -21.678778326938520 -276.589144023343749
51.086910394905026 -22.221854802879040 -276.951067480931613
52.973436953804921 -19.849329600669947 -276.762892307322034
52.519023313370880 -20.124151040766485 -276.933038983123367
55.018842965191723 -18.406176558807594 -276.840664154764909
34.768339735737172 -38.071687909427332 -276.640696832884373
36.240395860313136 -36.936808388087783 -277.064605842927165
42.512736379385025 -30.973910401670924 -277.402667464457295
43.191928374546627 -29.331748681830739 -277.184119111055281
44.955704194951451 -28.112875406620169 -276.805071782892185
46.937865619449539 -27.075597591124495 -276.824125355461945
48.854803229640055 -24.111062310410961 -277.431370773790320
49.676126511385689 -23.831395584727513 -276.635974260571857
50.822195662159821 -22.740812961046462 -277.175680252548830
53.178209612046821 -20.406631554122889 -277.633439148661523
56.229275685374233 -16.954798140752281 -277.419945932089263
36.572026250621434 -35.728420723622115 -277.069881450916853
37.087013816211453 -35.542196507292289 -277.453790693615531
42.529889095038705 -31.241968316348384 -277.966245884431885
46.653835191027156 -26.091280206215906 -276.690106184146828
48.057076699544723 -24.916204407507507 -277.464680158963461
52.928764580852288 -19.960641323837603 -277.056432797178957
54.607361320973219 -18.506057691877118 -278.203181562366240
34.488694232299189 -38.738616279544267 -277.909640450972176
35.413882462993385 -37.430881984790801 -277.589520021893748
36.487675621653182 -35.422040115618891 -277.638874086235887
42.848374605038529 -30.634392825618910 -277.438869898937355
43.736053905122006 -29.240350554476350 -277.839015370595178
44.753668770399926 -28.580491435358940 -277.569562266372373
45.485913164984289 -27.330872885605363 -278.213459629649435
46.079549683387967 -26.836694341704767 -277.266021752669474
48.032033873109455 -24.966380886212288 -278.295959237449949
50.082084575609784 -23.816803097662270 -278.371841632488383
49.518980447993506 -23.983383667333605 -278.109471434184002
50.499454280585717 -21.889699943923993 -278.136621920407833
50.359868964506667 -22.639271018398023 -277.854763405068979
52.660976498661228 -19.786945407410297 -277.787089691376025
55.199301681402638 -17.958482850439516 -277.866121393497679
55.886771657587204 -17.035463363239632 -277.840344008263287
34.484667361225512 -38.449814951526569 -278.440081786832934
36.853283192790023 -36.598246658785442 -278.348916444535689
42.881661179027326 -29.749423469356014 -278.344228882898506
44.119325076777983 -29.651815292283271 -278.199419621545928
44.687963617253914 -28.918028226266092 -278.500108354718975
46.486472620204744 -26.109438709510567 -278.559485704814904
47.578376825582907 -25.036276998140249 -277.897259643585244
49.622413355400418 -23.411514308784977 -279.083498191473950
50.719652998453007 -22.910876751439524 -278.713341098595834
51.959136950985808 -20.444191356286407 -278.571077383230943
52.659357753184359 -19.960345501924120 -278.109864032056066
55.105067016555516 -19.015290241205072 -278.144642009117376
55.092369281043759 -17.676864175815862 -278.634900422712349
55.860351866533293 -17.731112268984667 -278.929412944841033
35.148921567639540 -37.493364725190169 -278.455824332288216
37.441298299651528 -35.409061222281650 -278.072015619303158
43.089836506612798 -30.787096413425719 -278.672684463832354
43.762941441490611 -29.703141565189615 -279.204785759071797
45.922898938848732 -28.221291379277169 -278.983512107621266
45.211899076640655 -27.727686525293244 -278.371598514832101
46.900374520816634 -26.974296060765102 -278.781008183585755
48.965344459395894 -24.423102545534928 -279.017168155339505
49.923678127067340 -23.503586753771401 -278.354532695151192
52.688836299540206 -20.367442377096353 -279.272265610673344
54.698751670494602 -18.544300236181780 -278.695953766690081
54.447324215836495 -17.694193155643674 -278.838266534572142
56.177763456453860 -17.556773333332075 -278.730285096548528
55.345245600610816 -17.255991490567073 -278.767960078002034
43.580930843128208 -29.502484109103250 -278.977624121716985
44.577139691877981 -28.895169426740043 -279.283214469186760
46.476259894729637 -26.514244230760799 -278.989509156923646
47.312972752431548 -26.424069106499481 -278.595094166296121
47.715924754242991 -25.329502586372172 -278.787276979390413
48.124292290964753 -24.913800725865514 -279.255562806879652
55.138732312163434 -18.624299564603689 -279.096986089856784
56.328852400982356 -17.694895210139922 -279.218294904157062
36.493906674791731 -36.901293027769348 -280.106085227586618
37.063933831077307 -35.644447114001700 -279.938825051741787
37.988037083864540 -34.559716756857462 -279.300138895548059
43.361657838038376 -29.381717803235968 -279.712474079093965
44.890479422081086 -28.896721264397389 -279.592159618978883
45.405100405229319 -27.360628417274047 -280.052242965696621
47.308986192270510 -26.139928694634261 -279.228259949771598
47.507510676426925 -25.486855619809624 -279.998439430080680
49.073836826157368 -24.355195137492505 -279.646194014721004
52.126384165888041 -20.528839470194939 -279.126559705019531
54.746568894625767 -19.033849403738689 -279.630786357746899
35.435720179738333 -38.262600634705876 -279.424003765601640
38.789683736604935 -33.559467888215877 -279.703340087693675
45.471289407914959 -27.793684969436818 -280.451268609964359
45.917999823578491 -27.347768802333135 -279.744674401252496
46.904364791691954 -25.999652469751005 -279.646125339177331
51.927940538518669 -21.051683694342312 -280.098354646421740
54.072908812843849 -19.192139227046386 -280.014175911063091
55.742825757105273 -17.466454509894913 -279.475061224022397
37.270885677654910 -36.130400481472023 -280.734534642231495
37.626586360965689 -34.989118014235636 -280.208544320291423
45.220069369509993 -27.726775784292808 -279.750338993959758
47.167447115987251 -26.547027761061010 -280.380726562980612
47.562109643352002 -25.683741051161395 -279.715533880183159
47.531424726140486 -25.625555555859947 -281.176239989584701
51.289276094547439 -21.495237130398422 -280.770382446733038
54.268551957533063 -18.589029901652712 -279.539264231962648
55.710603221008924 -17.863640003773451 -280.057260996463810
35.841359441214941 -37.335101297143119 -280.467060810452608
37.423408427873532 -34.979896772214097 -280.937058998704629
38.439128627225209 -33.547363606910572 -280.808428389960170
39.454369840613253 -33.080393428569401 -280.920874670965190
44.541484755373084 -29.619673440534310 -280.920662100110462
45.559014836693258 -27.408102387400259 -280.716265667415598
45.725795633095082 -26.914403314060781 -281.330697643063502
47.041212797968178 -25.401113773233799 -280.727733648711535
48.201355162834105 -25.633473054828883 -280.540857823388478
49.225433114537523 -24.657723398994236 -280.910604179058510
52.163498571755113 -21.260888065480852 -281.193601760555168
35.639771936106115 -37.174978240509269 -281.050467190075494
37.215743045135582 -35.744108759498175 -280.938517260255878
38.262646412866765 -34.667092674149714 -281.372722246937599
39.531344685836736 -33.309400237775563 -280.703967158051512
50.361563961249452 -21.765951468533409 -281.329859019200910
52.181329269324202 -21.662197109007963 -281.272952659810187
52.033015691144492 -21.140526203840150 -280.387232403189159
35.973434556134244 -37.311888446817910 -281.207735889423589
35.938234730586700 -37.522616828201009 -281.945888761322578
39.518490413004955 -33.609494300435649 -281.212138988018637
40.341880010858112 -32.234288834764321 -282.469597247057493
52.130608760656486 -21.486305594360182 -281.095961827641531
53.772379146908648 -19.089250205410430 -281.610708328431940
55.292921648985093 -18.528622512560084 -281.548401536524636
37.082579855501670 -36.363840146427556 -281.633569319049059
37.856283713210750 -34.007065751169534 -281.709618221792084
38.749650994860197 -34.269633890061876 -282.229009466144021
51.622917246794891 -21.498942091451607 -282.226405123094594
50.873620556043420 -21.932059851713948 -281.936878749402297
53.679086024011632 -19.892901271266197 -282.094057985220275
53.325940621183207 -18.897250607605013 -282.499800975549533
55.157874636687737 -18.387367222388040 -281.597989242840640
36.774514047485177 -36.436866232747455 -281.987291542784817
37.659775352776116 -35.110996096765810 -282.493999454787627
39.890203357108270 -32.504081324889654 -282.036531545845946
50.261374718549909 -22.046348178964255 -281.646128099476641
51.960613205927046 -21.999751281531243 -282.221460226892020
53.519556646464856 -19.881014932617614 -282.146785487362081
53.136368363632819 -20.492461711320480 -282.776350892528342
55.194739392837597 -18.266654152938816 -282.311558950664335
36.923001314490151 -36.519848011417871 -282.848161261740415
39.280360057824694 -33.364733871800176 -282.388523684401605
39.789323423285481 -33.308892368792741 -282.931473609168620
49.963664437819510 -22.404200191758168 -282.942780345561118
51.180302046689214 -21.990042897547692 -282.790422315438548
36.591049002836080 -36.653368718800927 -283.091203054908306
37.886425156404414 -34.550360959378089 -282.649636037552909
40.068405197288719 -32.902135822704736 -283.830993154974806
40.295294148502592 -31.420797566459143 -283.266631006117962
50.383975033400866 -22.305657559756792 -282.867076482655591
53.147822077761106 -20.627487582690474 -283.375431675890979
53.100406630882851 -19.386593724760033 -282.947524596740209
54.265746043140119 -18.879569832797777 -283.184765352081229
38.186509737604659 -35.200021498325391 -283.769594746519260
39.313783638406726 -33.630544529749592 -283.437407289468126
41.519870062121036 -31.299853130771631 -283.877208795418881
49.701443369160799 -23.044119547158076 -283.313012599440810
51.024590720520109 -22.471820513270746 -283.032855475617907
50.704257079244911 -22.868518352110410 -283.870756310742593
52.628836756163082 -19.604412659394871 -283.879589247904732
54.732135130766672 -19.173912672892190 -283.533808944320924
36.823155366006056 -36.454393999285998 -284.374335304125736
40.697475090432278 -31.173803817682362 -284.363963214965793
51.210188014543071 -22.516440718079835 -284.082141381951089
50.096529751739979 -22.516096148509043 -284.470301830165056
52.734506286045445 -20.942516062023120 -283.728826968845112
37.231611784395213 -35.387357523850561 -283.983697696653053
38.054360266874994 -34.804115988443471 -284.639421546039330
39.956275977300677 -32.749317510044911 -283.654320771490177
49.059411100269656 -23.535184456999861 -284.253082848253939
49.988994958379315 -22.495577299299388 -283.801887216898081
52.402454132192034 -21.045047702687114 -284.043570337237043
53.023030936358822 -19.530350252046805 -284.543301681547803
37.201163403030385 -35.840992779418507 -284.319247708125658
38.310589265083244 -34.253005885068220 -284.911427658717344
40.107972221523305 -31.937995553245813 -284.337484109069578
41.368115820147324 -31.466443833857042 -285.430139555640551
41.811632831634306 -30.297866506836542 -284.743032766042631
50.454901242219833 -23.481099493701361 -284.378854844777777
49.850003597650435 -23.222121389271450 -285.318248803839424
37.890309368345882 -36.285829961339275 -285.621292297229047
40.058748976204029 -32.686818512515075 -285.151734665881634
40.941372108111253 -31.895714073848929 -285.132412590378237
41.527914266419423 -31.013046231876409 -284.869776038421662
43.596312680025100 -28.375038386659391 -285.105430372124488
48.505071468329305 -24.123761984025226 -285.352589629804527
50.522473059117452 -23.680272838202047 -285.579671867607942
49.416786711345232 -23.337973148018321 -284.885153930678769
51.561452779889024 -21.410598391819232 -285.100808988904646
53.872708593266090 -19.673651845098224 -285.378055567336844
53.364381369857817 -20.176497971828596 -285.667613536883948
37.662767674390508 -36.079731861481534 -285.090485841331827
48.589038587929657 -24.471663827241379 -285.659663822390598
50.087917836104573 -23.491722461978394 -285.769688365180969
52.005933303007595 -21.760528476282815 -285.764289466740877
37.676404047963750 -35.482251932333831 -285.910317015786006
38.218913986385196 -34.663745818722369 -285.773423693297559
38.740243569352799 -34.082658237300201 -285.838596109238324
39.583022775520085 -33.230506425192047 -285.536397939273854
41.135199633565932 -31.110139063661158 -285.530433570435093
42.542543836638508 -29.424735250448656 -285.917462136890322
43.089611419544930 -29.433290687757367 -286.596990125130162
47.858254334805608 -24.735982989582276 -285.742073764017675
49.833755373768184 -23.934399906504137 -285.989081788626891
49.003711095573742 -23.774007091492681 -286.149650827806852
51.622757120560863 -22.213692334288631 -286.581746100779185
51.200464623752282 -21.030493454326074 -286.246547512842028
38.035127550112392 -34.906879970658906 -286.270651369279904
38.819919475855549 -33.934126072616621 -286.248008747799474
39.916611971382508 -32.971894984545258 -286.367206838797017
41.239450294315247 -32.135325331852371 -286.180647771487713
41.688785606797545 -30.131801447663058 -286.561371838046227
42.428491956849932 -29.255677447723368 -286.426052008576335
48.145857976478361 -24.475694766953072 -286.661812780510786
49.451458085848344 -23.951187831355565 -286.532330278013660
48.755463494637688 -23.863401090583988 -286.478681587041308
52.753085981098494 -20.355590164169111 -286.501380287739266
37.497965745084642 -35.901840201256931 -286.107640200338153
38.377153975766753 -33.725135757280270 -286.571412255539656
40.632527393032326 -32.015636370024808 -286.711270159745254
41.743220840787842 -31.430625451406009 -286.762473775313879
42.809237328942480 -29.114495151792458 -286.930253811052921
44.772668419191419 -27.958737801052358 -286.822806758840613
45.436316262866391 -27.277600652752149 -286.868860160031829
45.978154064314722 -26.030646253536702 -286.725780679936406
46.772332795150788 -25.647300834137866 -286.484218447890271
47.091396913257704 -25.242846073954762 -287.007894173104887
47.954286359825950 -24.657861645939754 -286.856281684635462
49.042311219731168 -24.294487119879069 -286.440551350456133
51.058960512588868 -22.223270283257264 -287.058692773343523
52.239332120211003 -21.561040339299883 -287.248287833824577
37.995953149498803 -35.716402623010957 -287.231453739570838
39.442535355953531 -33.720319812270482 -287.255153822686225
42.812463482069198 -30.166848972028220 -287.240151588865615
43.479340172859814 -28.976041451137487 -287.245231211646455
43.602301554047344 -28.667872348006146 -287.316672039821640
45.431277748929858 -27.656830259873132 -287.307972343032930
45.913602904005437 -26.051446827144147 -286.939155944257379
46.422327578512771 -25.762543371583082 -287.312870086869964
47.815067253645509 -24.735028130607553 -286.858633696017478
50.891814609273567 -22.417396564258951 -287.330275668376714
50.730105514630061 -21.556282601125552 -287.175114446486702
51.553920171164265 -19.747278038643248 -287.743793480830334
38.501443010738619 -35.525451341608729 -287.053976036556207
40.762247721265823 -32.071652857995545 -287.148948469571110
41.685263265918572 -30.758093955639868 -287.724715702905826
45.124507528157338 -27.352960643137866 -287.515831400361435
47.234725574153181 -25.245520175031629 -287.309540683246894
48.378539769020506 -24.940796034295381 -287.463376609779232
50.446334934948908 -22.479067393717060 -287.743992337644045
52.454423551259950 -20.772127816486307 -287.799203497948156
38.631762978975942 -33.858279706728979 -287.392631960785309
39.109822621983028 -33.737491348597786 -287.455823926040694
40.175615334503867 -32.299450572210887 -287.930254069675811
43.135674862723391 -29.882812651658540 -288.095796373190808
43.452609984260832 -28.906905062263576 -287.590961206688405
43.788264580914188 -28.732862442614465 -287.536747830190677
44.739378169985663 -27.667846820821357 -287.818263718061360
45.407672003372163 -27.453456010657664 -287.997150592311073
46.259225008236527 -26.266357390919726 -288.006394427711086
46.525006277672922 -25.698205662168707 -288.097987189654475
48.443795466724509 -25.456243148297578 -287.639609620054273
47.245619072058005 -25.306712549553080 -287.977488324064268
50.241487005289692 -23.092012832094689 -288.281337910618902
52.224977888702391 -21.077813625325145 -288.048458339672038
38.338020331243605 -34.011951359573267 -288.394189992946167
41.769618054248632 -31.100565930920602 -288.136332763219286
44.744734187461212 -27.960990780928881 -288.374747855285705
45.371976275395134 -27.389651889573070 -288.619546709495751
48.173941402230916 -25.664637178313708 -288.294589665150170
51.628990657624215 -21.487498335689825 -288.258505471988769
39.804423678081854 -33.333735728118207 -288.295456755542432
40.400674549691431 -32.081216673087951 -288.521457622396554
41.768875973577018 -31.774017412551274 -288.622344714699693
42.542645772331788 -30.592321108956899 -288.986961976919986
43.293010867508926 -29.543928795120550 -288.296278463824422
44.288800632281664 -28.790269696355086 -288.971205208028778
45.661913602927221 -27.303578230582623 -288.835796259955259
45.942475200029172 -26.768007002724350 -289.043229043730150
47.696295140479663 -25.654688788112725 -288.738325954008587
46.988352888345673 -26.102182476316145 -288.418830334756137
49.681643616762777 -23.763652789561661 -288.442574517551691
40.382035551326190 -32.922632712823273 -289.173374836194284
42.103451217651163 -30.615731017083334 -289.064204046085081
43.693184589642442 -29.485859800523993 -288.885407273160638
44.418119009090120 -27.701923823184934 -289.993175872162453
45.372118785356662 -27.208078486766208 -289.113922746220339
45.990462284144030 -26.759084943604439 -288.930258224460033
47.005055007303056 -25.648277360135925 -289.493358939877908
49.605671318747127 -24.091416135837722 -289.206606385976045
51.466494666604447 -21.826426833972324 -288.727015756053106
39.242044676152751 -34.220695895591561 -289.347760812785964
39.954360250128737 -32.620104709204668 -289.243566740568383
41.388434498750868 -30.977692017615833 -289.394286627886288
43.851656627699640 -29.231048247293639 -289.524570344380550
44.824575260755481 -27.827005833361454 -289.280572291950421
47.524373880316922 -26.480401406164365 -289.541301008905805
46.533969501270420 -26.557085125363411 -289.442622753794069
49.216817600395231 -24.471917686454280 -289.694569493678046
51.596920461130878 -22.093883214766134 -289.567624885024088
39.965742172401406 -33.508020760253359 -289.740916630533775
