# This PCD file was generated using the MATLAB® pcwrite function
# from Computer Vision Toolbox®.
# .PCD v.7 - Point Cloud Data file format
VERSION .7
FIELDS x y z
SIZE 8 8 8
TYPE F F F
COUNT 1 1 1
WIDTH 795
HEIGHT 1
VIEWPOINT 0 0 0 1 0 0 0
POINTS 795
DATA ascii
28.183847448204247 -48.892786557570830 -238.571106067973602
32.244261261129481 -45.136916989855415 -238.173743994997380
33.245400582643470 -44.030859116434854 -237.870313344805794
33.698939607086331 -43.079940590351598 -238.365582488788846
35.511781758223528 -41.934350497902166 -238.664175491191088
36.587303430711678 -40.027615092940280 -237.955618661365889
37.712202119041685 -39.989453904939303 -237.599578346245778
40.436261342345794 -37.268605296054758 -238.838994624388192
43.637695907297392 -33.684265677770995 -238.491175817264946
43.686517818173790 -34.363927699344806 -239.679121006627497
43.397625367874269 -32.441707144356229 -238.918240243368103
45.681347953565982 -30.732299965546265 -237.535893733497915
46.266456596326627 -30.546649143521979 -238.165026397195106
46.190868055858459 -29.487253228429456 -238.477651041112068
49.086943966769837 -28.386253263921461 -238.859977093725917
50.326975175959156 -27.588454169704676 -238.528360032994499
52.468856466775506 -25.384814442348912 -237.788615887010877
52.923981576948393 -24.022402355734023 -238.967867293640381
28.389585050461676 -48.842788683580594 -239.028179713313222
32.932769171801240 -44.807916990938089 -239.241957132133166
33.162356452928201 -43.145781355368960 -239.153859998692354
34.333069819258291 -42.594834978199906 -238.765134960949013
34.811728095805911 -41.400625279798952 -238.126702694400961
36.285893173230960 -40.154871852749160 -238.357540250726942
38.249280403219259 -39.589746574144087 -238.816873863717404
36.741606833064502 -39.991864828141203 -239.781386906410546
44.536569088603578 -31.890519323135891 -239.053970419082873
46.358454183099376 -30.803459704000691 -238.511153789788807
45.692414186296659 -30.622837013034868 -238.413366037779781
46.531950041483633 -29.025291308736648 -238.608260705223273
48.362513825859750 -29.790617667911199 -238.243268785881696
49.361391615413403 -26.833159090654938 -239.153147934558433
50.272195873999436 -26.285748912174409 -238.796006901084837
51.262263417194113 -26.309428928533013 -238.858903530190275
52.737846522222377 -23.089802952598799 -239.006610373081656
53.668549559444443 -24.487814138253999 -238.798252352692373
53.105266691911488 -23.780337766498501 -238.894527797954424
29.045369690117365 -48.510250453219527 -238.730943700632764
35.145992013734670 -41.333759056413861 -239.204702174379264
36.015746945827473 -40.191742681407746 -238.773723465493731
36.797836666145265 -39.699776909857569 -238.769546766010791
37.433829115488841 -40.236391381147591 -239.775392061810720
39.633002275349178 -38.154329925693673 -239.289033537387581
43.889034074372958 -35.618982939076950 -239.392746559054359
42.446658197752932 -34.660163824790025 -239.463736505098268
43.321322934467240 -33.430986785294103 -238.872213913335258
45.381786305315480 -32.412277094311079 -239.954542527146373
45.421492043013018 -30.864665886924296 -239.177723414529737
46.133977088355842 -31.541311371944737 -238.923649761703160
45.798692741539739 -28.368538928891581 -239.253356499708019
48.482261183266196 -27.795297164660266 -239.780124285870954
49.366317902846077 -27.342590813240552 -239.514179298502171
50.578583664739966 -26.162757384694387 -239.250452409780934
51.432497163106305 -25.177113049220907 -238.505130709787750
52.372860231402989 -25.544212095582182 -238.547076221117322
53.552980919378570 -23.151221233484886 -239.452345239748610
28.191300527333141 -48.693931304306894 -239.355258373961959
34.319817144059250 -42.476834705100643 -239.163510771337769
34.650352928464876 -42.611324607130349 -238.865795881740922
36.341027704609665 -40.935212966153415 -240.464202933026229
36.837308439155379 -40.013595993805957 -239.910057329172872
38.262569436323105 -40.191862442946196 -239.640374159173547
39.622906413426527 -37.345594841670980 -239.166906386239901
42.728172104927410 -34.068339897884194 -239.985877960533941
42.795724958514981 -32.979466326781477 -239.368407860906586
44.695035300100514 -32.682985139906052 -240.921751012298586
44.459390068578259 -31.318850219111539 -239.712308258433325
46.490953541496495 -31.183369488509598 -239.582016229336404
46.449375579969846 -29.350947489361264 -239.057224142474752
51.650644154543258 -25.722291414749478 -240.447074879816540
52.232257649508533 -25.384264933294187 -239.711680866275003
52.832424456436421 -24.237465949496180 -239.040214263573233
53.483349523296759 -23.920431498991668 -240.027569306439887
54.198580537774603 -22.234496960963387 -238.781536567660197
27.700382278796493 -49.585023637393832 -239.119847824588845
35.461675387248135 -42.739457535059387 -241.137585748684813
35.613032342994465 -41.772524811899387 -239.471941334227353
35.966534382303820 -40.057001414414252 -239.437678248191759
37.452370334481138 -39.286326543701279 -240.009301543900818
38.390342973988119 -38.665416332172938 -240.318997072644862
38.637371251215043 -38.041029024142176 -240.521160112193826
39.913111727233293 -37.865366165835873 -239.042224738292845
40.273734938189676 -36.467911553057419 -240.050056653753472
42.042741259162973 -34.063261936023395 -239.924468902862401
42.969915710018796 -32.997599840870564 -239.846817134694106
43.355437661256047 -32.690632629760273 -239.730178319239172
45.304118470733904 -32.465593941977019 -240.164469854133102
45.882153821676603 -30.852432397471581 -240.271381486702296
51.560732025131145 -25.459195170023190 -240.511689149433693
52.907124434483158 -24.032799779914818 -240.959985863145334
53.746448025391054 -22.705662768510393 -240.047932231729135
54.137900853310164 -21.431452907527721 -240.055636282099954
28.210654540573064 -50.385830660377223 -239.603929853547925
30.293194122343294 -48.250487112408216 -239.503407213642930
28.771692338211523 -49.432432811133992 -240.835571490139216
32.035264655043946 -46.249989429857500 -241.379094984417236
33.201705551756987 -44.067456613699342 -240.030000752793370
33.614138781929206 -43.728773356663822 -240.558893720803837
34.723847262237832 -42.976076690500868 -240.245156975653487
35.226039160028449 -41.609355197442845 -240.653590351475515
36.121484545660330 -40.162759055742114 -240.739543868106836
37.744394085634333 -39.559553168312654 -239.743430759383813
38.758894694998233 -39.101303323824830 -240.479317381204567
39.327289877951394 -37.486719676583178 -241.013412904199441
40.620215669690694 -36.248737457545133 -240.102953311148468
40.028790051970127 -37.352455183215106 -239.515024359116779
41.448248224050808 -36.269712259262967 -240.455436130076151
42.549653983494487 -34.038347046027219 -240.382455881280407
42.662953102616619 -33.922720923247113 -240.815837760333409
43.426300118537313 -32.339207125190740 -240.298045190295994
43.759776660633442 -32.574999137858889 -240.368632701808764
44.316291675727193 -33.008449590524208 -239.649074796497530
45.587072556472108 -31.844998859869818 -239.855535947392582
51.930158911921048 -25.743789513715711 -239.739777207759687
53.738692816337668 -23.621413066948946 -238.699775483126416
53.260090723409547 -24.685752513240494 -239.987809613618026
54.665306180575215 -23.449400863118047 -239.960803545753123
27.306748447796029 -49.344423474684319 -241.522399380547171
29.812210655120357 -47.169932089416669 -239.906475987249138
30.313452085699613 -46.459025611116971 -240.512407699802765
30.604181580469049 -46.448386811164738 -240.642807155915506
32.203416668513363 -45.299542525872127 -240.282644893521137
32.647671294345990 -45.099367813620852 -241.229933089350595
34.515436622809702 -42.683019648070754 -240.963941154448406
35.411545716807368 -40.544780260017554 -240.966570926526032
37.428682925186038 -39.987474309291770 -240.690894558159783
36.940359415928810 -38.783222085424455 -240.914653830951949
40.856057968064285 -36.057707505411699 -240.693850827652255
40.265440415386138 -36.763833579709200 -239.896956263091852
42.409451694886954 -34.901411508968764 -241.454662368596445
43.028984634057352 -34.660314615828469 -240.682892206827518
43.601046291661525 -33.018655926490283 -241.569240259678992
45.329749633764983 -31.918680585578038 -241.387601685221284
52.262185690818029 -25.233770824827641 -240.642038352750262
53.164392810416018 -25.495074119338966 -240.915077652258816
52.991992673030076 -25.098917618595081 -240.728385865201346
52.390622429387584 -25.032284982938759 -241.358189337071622
52.955910911428930 -24.327836425262173 -240.665767152945591
54.228292306012179 -23.495705066468073 -241.504667792551572
53.100061096443085 -24.350583893696854 -240.540337968359609
54.473276704877811 -22.755976676211354 -240.639927837566091
54.142848358748687 -21.832357875569251 -240.053947060054753
28.442936029231166 -48.947527804558071 -240.534889696441496
28.364702252051931 -48.300886715954888 -241.029114305826766
29.913805359144579 -46.827558420795256 -241.453268869831533
31.451544539469182 -45.938553089625820 -241.709811967712994
31.455812840014861 -44.899583006030973 -241.281177059075532
32.734222605479118 -44.892653752923430 -240.706254532291752
34.028914644531895 -42.762352120752453 -241.463705364119818
35.960629640769994 -41.041102451029673 -240.729924803262719
41.756132579439239 -36.378503329031858 -240.452693090046211
42.663992488501819 -34.965092166712431 -240.533545402816685
42.354519152338057 -36.036493157667429 -241.775065696120578
42.549727523327775 -34.550399144922288 -242.212610344659794
43.065728812976573 -34.628574799908193 -241.298775182829957
43.933431875851142 -33.190225939328506 -241.892997958972387
52.495098400713729 -24.708020176973186 -240.962581650835659
54.574822314955114 -23.213432266617776 -241.940645128223451
53.398194259650616 -21.756516167987577 -241.172066522325679
27.535006828639165 -50.630606673578463 -241.933393743659877
28.304861519406824 -47.683293470311227 -241.615823751423534
41.747863264275622 -35.018097652337005 -241.804997711047235
42.218826090534535 -34.427087989150060 -241.446585265696115
50.070599393274335 -27.086640396140748 -241.814026351839090
49.879607874871539 -25.887047321091483 -242.564243029182563
51.054898825364219 -25.753196393177603 -241.139562002528265
54.597614910242569 -23.549403254401483 -241.170536027630817
55.297010849477054 -22.267254599801621 -242.576528687618975
27.552055962279130 -50.759774746196939 -242.463958972485017
26.861649629012703 -47.944384368179307 -241.823381881866794
28.546531426623865 -48.370005912408821 -241.337971305806377
55.680745679341534 -22.370029660475186 -241.828970654658519
54.713802940582937 -21.802520584476351 -241.490380237741874
26.978572625922563 -50.355430061933426 -242.446438858574993
50.836677919331635 -27.924235677299848 -241.184071890032641
55.105183202738580 -21.898365297927047 -242.284853476811946
56.117646387132766 -20.408246092658025 -242.984977046525415
28.255512679731094 -48.988244575586066 -242.400985528782002
29.131381633831914 -48.533381099708301 -243.271525316531495
50.097567362372800 -27.495322840562938 -242.347531101536759
55.352298073971660 -22.548375525150952 -242.359870212544195
26.939813980975035 -49.190331745505240 -243.155749568614283
28.335926147390882 -48.686565535539451 -243.235387425819368
29.059719881288171 -49.019705282013035 -242.943223341495326
49.719914863351072 -27.452768450262361 -242.155456885254210
54.687957784012909 -21.851895474899202 -242.842866130743516
55.504584326254289 -21.148978253529236 -244.400334309039522
27.877390610588893 -50.326344810908758 -242.976234973715577
27.918239589400368 -47.542216916252372 -244.702228261459254
49.800477903811284 -29.668631802626081 -243.610142307951776
54.857727716188201 -23.189511172780541 -244.255638484760681
56.432582551032901 -21.541434598363988 -243.369737823187165
27.272145107499021 -50.765933517996920 -244.268087332282022
27.426037104652451 -49.124288719426822 -243.954019350002227
28.360743143401162 -47.511112257977182 -243.089862575351390
55.439138018955113 -22.778326393963834 -244.178276306272721
56.261902614856794 -21.017563516082841 -244.351674377690244
55.927139355583236 -21.203251818760247 -244.548508525405310
27.112367393983408 -50.994065689493517 -244.367441837950224
28.347760437198964 -49.522141310494867 -244.766079052894156
28.853262681774339 -48.790616183807067 -243.879064842227137
55.585827000932753 -22.237431270220142 -243.913570222867179
55.631419654421634 -21.153703695867385 -244.677913909858091
27.525661633198354 -50.758052087614971 -244.628642158655339
28.789847402499674 -48.839627958796655 -245.116827260442108
29.808889667129311 -47.768725458847740 -244.664016209580438
49.062834039917263 -28.724560899200817 -244.867859418985034
55.227513182935255 -21.071313997329266 -243.379353731815684
55.841894586133392 -20.537892286618842 -244.661212132411293
27.449315076924922 -51.410496199585594 -245.445313665754441
55.255767918318384 -21.964217324413088 -245.640146211442982
56.750562995193107 -20.030290443110665 -245.192854114948005
26.907356349986348 -50.946441355327032 -245.393228109294483
27.913829441307914 -49.095487652319463 -245.765348629798126
29.537609117622395 -47.443909222329928 -245.543734933210033
48.034189437842947 -30.979116973540108 -247.033691744681164
48.428309257542132 -28.558640016732728 -245.737389598691010
54.570483170635036 -21.321354306295643 -245.239413132645495
55.975190384303872 -20.395774685769517 -245.852318038501949
56.115046261162171 -19.224518662651274 -244.971221158674325
27.715434412013856 -49.990670285664443 -246.882876912835371
27.410019142219397 -49.256786776991532 -245.363875092547573
28.372020874479219 -46.902146761590998 -246.280387425279855
47.949598453615387 -28.867363266552090 -245.687445199813681
56.576023449794086 -21.155889991726550 -246.643775546522193
56.621586832551827 -20.385123298017426 -247.153776577134721
57.629628899648644 -19.120032403679762 -245.686006417348125
28.297671195321232 -51.097623100532005 -246.458170351916209
26.847690393766122 -49.533252852681940 -246.880291524536517
28.261310365965631 -49.569025319031709 -247.034000451424077
29.096576743680519 -47.741098491469252 -245.408990039407882
45.588779272405660 -31.600203239436240 -246.329865241213156
45.886488030465863 -31.078312153960823 -245.876317556466660
47.038951721871648 -29.793724929621614 -245.508806284724614
55.961500409184168 -21.144779051937256 -246.233711543475380
56.644698265576281 -20.969885492516738 -245.764093380730714
57.936229722935479 -19.438401122874723 -246.802434719755468
57.748381749070219 -19.779959494773689 -246.530978175112239
27.018703824308403 -49.395546201765839 -246.563101567965333
27.091597208302325 -49.515162690096474 -246.787065251292063
29.648041242629663 -47.649042461972009 -246.297013274660543
46.141456954581756 -31.589062901827980 -246.893989233434297
44.687566458054704 -31.203527343519625 -246.842356199388774
54.792644361977516 -21.981675450706035 -246.544324579454013
55.489848699088988 -22.220414664686512 -246.111037486169892
55.464487863629756 -20.525541010800957 -246.454905780779086
57.380208433150038 -19.066710202966075 -246.648298463354365
58.197743451030696 -18.841515952179016 -246.443076537366863
26.738980921880032 -50.208087997103846 -245.485634664988225
27.302672954625368 -49.221013014225569 -246.715693749714973
29.696706879634394 -46.968072408729029 -246.973996026074644
29.234257491876182 -45.560819403355595 -247.037551216485781
46.180829618728211 -31.177764644280984 -247.563305157782764
55.399034286085289 -22.473064610175772 -247.353409914435929
54.918812090189277 -22.065361685317910 -246.882245283576111
56.223521586597904 -22.044079108783627 -247.333835563241792
58.316569943405234 -18.268735432198309 -247.549234402961815
27.393579892805697 -51.525629656411283 -247.063877915276919
26.482693443541411 -49.614495709370608 -247.647138561153639
28.044840120625857 -48.423482660262223 -247.081448046490067
29.431545694254904 -48.850041634765155 -247.891312731165897
29.099460760210711 -48.490454562186180 -248.000715889823084
30.005545027314767 -46.611844783740118 -247.463294901916640
53.958961740234002 -22.256907376815164 -248.453686989506366
55.148621074062618 -21.963542352623691 -247.631395590677442
59.294562535200910 -17.793899403335736 -248.320379550986047
25.884699940280090 -50.401522655923998 -248.604154296521898
27.649652293478340 -48.430190333794940 -248.911654318331927
30.370979600692039 -47.039096012794907 -248.480524433699173
46.686061462694980 -30.976845021644014 -247.831548836639030
46.976815409079997 -29.020051815053392 -247.362549665838628
55.606208461512992 -20.476264932684348 -248.278111322937946
56.234969737922547 -22.038936829945385 -248.246008256930054
58.045744786545832 -17.961332787366327 -248.910918332955447
27.323689873016122 -51.659667841509254 -248.846635980609705
30.236696338854710 -48.362165749245698 -247.522212049121975
29.485552103965542 -46.051736540815028 -249.142770920934112
55.762316084828591 -22.207741855685729 -248.978628029731965
56.175377638973877 -22.403550651910219 -247.993879623773097
54.798811988188760 -21.476042782886712 -248.817401879522748
57.838291754891756 -20.596782682994561 -249.163919532963405
58.997975063095659 -18.445644065175486 -248.509486655874070
59.421063422893994 -16.754081369945034 -249.497557622840816
25.428238488703368 -50.935508859535872 -249.325529972881611
26.667722645928219 -49.736160767328649 -248.322979002821910
26.919003655880921 -48.797633462386642 -248.555990243498826
28.574431030982471 -47.796907685891902 -248.062211202989261
29.306557860148665 -48.402686161264079 -248.297539849697159
30.585345592045073 -47.103707018156015 -248.993588229099430
46.749842455924465 -31.337290822454335 -249.536059923011692
46.988026856381794 -30.280005024329007 -249.309520808909099
47.163341213007556 -30.017788763733996 -248.081273593792673
55.390305353130344 -22.456226403307152 -249.648282859894749
55.395211818417955 -21.449589889233369 -249.089874830533205
56.334841163809699 -20.333108910551612 -248.731806733873327
60.434255097558868 -18.461869620419979 -247.773266668314733
25.411670902016660 -50.878117513266716 -249.984647370764861
27.398534814762250 -49.268672415050112 -248.889432411959518
29.769730503108239 -47.202037114144218 -249.103690758950620
30.586601746310201 -48.291961746108193 -248.739253207238619
47.035664821264596 -30.062246278274504 -249.582258648360352
56.520206025236732 -21.482113076978262 -249.734077135277744
56.480042884700630 -22.016812459678835 -248.679897484885998
56.576215705060498 -20.989686572937945 -249.083110996697229
58.917213472516238 -19.761734656827699 -248.488517043207764
56.278172660781955 -20.123367907185823 -249.210104929464819
59.705652536404514 -18.483279319253878 -249.120041626431373
27.311332965149877 -48.598005562461076 -249.174015176279568
27.575099919910475 -48.242447165367423 -249.728968219428765
45.951198280019966 -30.566404353394976 -250.189490194672516
56.386089906414199 -21.298114870582619 -249.620056175555590
55.851090995601155 -19.574512614077545 -249.482743810073146
58.162806835709389 -19.573657697917241 -250.244181133441742
60.472187596685330 -17.371663444296857 -249.411470480226654
26.112268764112631 -50.633373369706405 -249.462556489398224
28.682242683097527 -49.724891055858180 -249.846430130540398
29.840162648390393 -47.272367575941864 -249.305485289059476
55.419253663371748 -21.213812891872390 -251.324251748318346
56.131260083642289 -19.968733446314690 -248.480249982042466
56.616213872347082 -19.799820862235933 -249.542621724275847
26.195582633188216 -50.348604426231581 -250.381099883534660
27.418386461673791 -49.612615117504170 -251.157986403437235
46.982005896463896 -29.171336069391877 -250.002225605465043
46.868786098066330 -27.999588463318311 -250.262978475656325
57.200284338246959 -20.419007045510998 -250.397930786346507
60.888436975348114 -17.919864982198611 -250.353211076056851
59.232201795174092 -17.004858511515359 -249.859234843045243
26.845933686954218 -50.805808792345786 -251.220415352486100
26.952714322041103 -49.414554306625604 -251.124449511420750
27.949234325395203 -48.347759639313352 -250.257653058263912
28.479133007517706 -48.531214025108568 -250.719715998306810
30.033838225293298 -46.514477785612662 -249.983751462365490
46.762156754242682 -30.170734122494004 -250.622606423996899
46.962240310439441 -29.315859576195869 -250.869326925158049
56.824252500549498 -20.607491660795073 -250.367635381351391
57.609552066155359 -19.750687523993122 -250.618853139707483
57.454458203349020 -19.558220530902389 -251.257214511456766
60.144483461104521 -17.327966959420792 -251.933855875822587
59.738690771376788 -16.107809682394450 -250.929405200041799
27.312928801716531 -48.270808004322873 -251.494705502580473
46.961727480260265 -28.272972657448317 -250.135523300933500
56.780451168633640 -20.639748247701814 -251.705138831126817
60.272800567694738 -16.395857303801915 -251.591461214497002
26.392284323325960 -50.934095610825686 -251.378740638947392
26.603692746466784 -50.220001888305738 -251.519412621554892
27.586268749988090 -50.042550584716878 -251.476130617467106
28.310174060435987 -49.112412814023770 -251.654444844444214
48.629812410896328 -29.866813664515352 -250.784684787889574
57.185085201509956 -19.072411075946363 -251.230630068320863
59.929554407176767 -18.126035282471964 -251.200762176434978
27.659519175005503 -50.230264279211291 -251.808478346418468
27.011187200491289 -50.148381336587697 -252.294629080473754
27.870862316271666 -49.664896271446544 -251.796917560344241
28.435068546046999 -48.291829424181167 -252.196874347929878
29.411543043886567 -46.730397987719265 -252.031071487966358
47.674594508722883 -29.155865259987806 -252.365173247284019
57.650849459246388 -20.876580274778142 -251.949358382287727
56.612146794253626 -20.324716769078549 -250.794363410373393
58.821929627544357 -18.715200943254711 -252.617246139433433
26.772949875097307 -50.315308526746847 -253.014237653635632
27.849507454249387 -49.251392310298009 -251.982889144650045
28.790132823100528 -49.515638485530779 -251.073752459354893
27.544649699479979 -48.348300794132676 -251.629681136222075
29.984379010522087 -48.527667128315947 -254.026337084846404
48.271289893198578 -28.685788942251509 -252.060088158519733
49.401648574115185 -27.527593859207236 -252.793134368267715
57.059928205920365 -19.033052044168489 -251.798958280874729
59.042809832266258 -16.853585598409296 -251.861184281686803
26.907886584775039 -50.794381399068854 -252.465283418003935
27.450480204935332 -49.848611771373456 -253.045388499829045
28.481847876686547 -48.482456801303137 -253.182043226800516
30.209942955007126 -46.624559624112621 -253.910922175734669
48.566679367582601 -27.685327294088236 -253.448718811490920
57.742273504411060 -19.727886392147013 -252.550867152324059
57.829505633754756 -18.969873640479275 -252.594681458539185
29.245288032366460 -48.454612503410004 -253.143080918338171
29.608747560327643 -48.227044742540464 -253.875592212433475
30.140856571994224 -46.871741778477187 -252.692931938546991
48.461209034906055 -27.909078117493031 -252.861778990374773
57.893688804423014 -20.232196199875304 -253.226097374652994
57.203804841317705 -19.020103019181906 -253.579299909741223
60.157556410216941 -18.994186665304078 -252.657982914656884
30.077714595244490 -47.544824739102062 -254.601891706444832
30.771923441588914 -46.180716179863730 -254.214644568209394
48.991943192882403 -28.186926237715340 -252.712943507303692
56.825000849257613 -20.069059179132768 -253.958191620889266
29.259045860148010 -46.953204987661110 -254.248365239661609
49.380787684643067 -27.839151887371905 -254.285889255087227
58.161597726708891 -18.301046203754414 -253.171559760299630
59.767913017339772 -18.134171871620875 -252.773055181945267
49.051712536648374 -28.533186510145413 -254.201971012556129
49.376169373066226 -26.884436441468051 -253.881799213431407
57.368332791847017 -20.715161536953669 -254.592802388494789
60.128308214617888 -18.472194702349196 -254.980928054702190
59.499328509209107 -17.050135060511074 -253.999272556376411
30.577819805003351 -47.219649243562067 -255.266648506040895
49.711661034329751 -28.767302594550717 -255.215321026184540
56.893931194964289 -19.766651064399237 -253.586645030536147
57.039858486421508 -19.638305776912592 -253.958743910975471
29.817016264925222 -48.210409038447565 -254.181802947601682
49.368951304631040 -27.216027013742362 -255.058332343178165
57.040363293679405 -21.679498219242781 -255.513730566176378
57.641237539497233 -19.742178035561047 -255.637230546032356
59.310165160617458 -18.840776061950212 -254.129069255997138
56.376831114116278 -20.451275262569229 -256.033110084303075
57.092776688354881 -19.629101906257929 -255.269496167474529
29.874635094548605 -47.358742461318236 -256.207026461947123
55.564311177093352 -21.089754321718470 -256.221147859251289
56.580562121540595 -19.684233416576472 -256.080932516392068
56.947262851655360 -20.000292536603848 -255.737780139747372
58.367654854718388 -19.916748476722539 -256.463950126601617
58.209788352826656 -19.640675978298987 -255.436038940608000
58.812432829469479 -18.195196794706224 -255.903238307317054
30.333949706212028 -48.766229765074975 -256.833920341166731
49.635136781030205 -27.324236510852828 -255.677943329792868
56.984302335408934 -20.057204069573739 -257.113944753986004
29.255100548700430 -48.935415707592384 -256.622122337274050
55.655715190269120 -21.448444637684663 -256.226494228045567
56.481696987678781 -19.354385255891700 -257.461195026173982
58.639775131934911 -17.670779420687218 -255.963222167956815
28.072356132946755 -48.674504152743992 -257.595296445498946
30.396808506257539 -48.097293316603349 -256.660174937548788
49.638921601593516 -28.586508411139746 -256.454409594619278
55.709299204733128 -21.265037115814994 -257.026795823378109
58.276184858110412 -20.126855683555512 -257.767743710772663
58.869041966536727 -18.608342214947040 -256.551125384327463
58.956812261719854 -18.823137443821313 -257.168494581019957
30.429724391312487 -47.168041348136995 -258.446569680604284
56.923449471888560 -20.561837997224803 -257.499606100256244
57.907222370105792 -20.186698730914742 -256.861566253271064
56.990857264397796 -19.096049860913968 -257.160895091224234
58.875952753905118 -18.427840744866213 -258.740842225179392
28.297667203619493 -48.270714955353199 -258.167950569676066
50.019688906819894 -28.278812411807952 -258.132290265912445
49.842884065996245 -27.831623702607470 -257.994040066870355
56.999485968761093 -21.085432989139303 -257.859354019854720
58.813432274708511 -19.275725438462803 -257.736517523374687
56.378551307342605 -19.165376737988808 -258.027329288220699
28.836294370615022 -47.578090889293179 -258.586423398620298
48.955544669999298 -27.368361488413093 -258.384234905913445
56.371335193194895 -20.759607390323744 -258.446161336157161
57.195924933101168 -19.439139154919371 -259.715350600611146
56.211958395038366 -20.056321323865500 -258.634685640094631
59.130816095312888 -18.354069630296603 -257.453909451602158
28.961569413898797 -48.590301140864185 -257.592097132625042
60.548509588606223 -17.228473610355941 -258.809958298477852
29.083953057134515 -48.083198147840442 -260.463605470718619
28.742975468674420 -48.166202806492144 -259.151546525137348
29.914318189808952 -48.179103154966420 -258.826478406128558
49.726374280695296 -27.851616105527263 -257.960073632033698
49.486926324410710 -26.617867373077591 -259.045993634184583
29.225049882852701 -48.096511492561838 -259.573093294357648
49.287832327779945 -27.732562677253281 -259.154722218023096
49.240940052634748 -25.707152554884573 -259.636072457750856
59.523983411849180 -18.734694848553623 -259.296619325558652
29.304579588794113 -47.365623926179914 -260.044093617802616
49.149103523359855 -27.387640783057019 -259.961846118445919
58.513916411010975 -18.074034849722789 -260.031680024400885
30.207693279315460 -49.041951549707832 -260.695255538144750
27.973801315142023 -48.199313570226707 -260.413907081276420
59.780475832101459 -18.904960211705223 -260.530105683167903
28.065403859961567 -47.954825336016825 -260.617191958165336
29.354572522922147 -47.752548410810739 -260.877371587117295
28.113246073178232 -47.681831112260554 -260.240264547448703
29.000464879854725 -47.498779913222535 -260.522541238434144
49.713267296173008 -28.289909814699179 -261.279580855209360
28.802655826128973 -48.071343181414100 -262.235397912493283
29.615779795220320 -46.675384643855558 -261.499363326402033
50.194275073045652 -25.954114200935802 -261.786910034161053
28.946666158808142 -48.745716382718129 -262.108365411279635
29.709051417463240 -47.391096787306758 -262.505999094044455
50.120921660810737 -28.333952803868581 -262.486926545733752
59.349818398589562 -18.475407257401638 -262.700799931830431
28.255369349568774 -49.193527693434731 -263.923253318361731
29.096276201497794 -47.924121888646070 -261.977598701929196
59.531766179835081 -18.331639578891885 -262.577306982982009
50.139603372766963 -27.192692864818788 -262.389598344017486
28.852535569415178 -48.738045158004802 -263.212023744604608
29.159998928284836 -47.706614638189230 -264.434922025004880
29.483965113221039 -46.694683083224419 -264.286406416796638
58.163530723727796 -18.414388041516450 -264.136248872109093
30.781348314845300 -45.347401929449582 -264.037024782734022
50.839928775430820 -26.143663287656764 -263.372300624764364
28.648238335539062 -48.175719917850735 -264.875674090920143
30.296462429611616 -47.447043531639778 -264.302148014394845
50.019078428805365 -27.977216639487363 -264.168263696395798
59.403354187698731 -18.536919762878178 -264.309112655185857
29.216898907290023 -47.815620105350703 -265.397669182068512
29.920381619524402 -46.722170180200685 -265.162614608550484
50.298250492738667 -27.311627965169205 -264.580313979838365
59.962219911401654 -17.959101390690471 -265.161073086856675
30.094809785275377 -46.658342776229475 -265.712889146877046
30.650564773931496 -46.851870526442731 -265.196877940475474
30.034750370503591 -48.995376533201792 -265.148881253155480
29.103533588440193 -47.037754379833672 -264.527602381199017
29.504589419988910 -47.212732819628144 -265.720559753358941
29.942032052776991 -46.312972569876322 -265.479985503288049
29.314799422450388 -48.487906140436017 -265.663578552709851
29.984426190153901 -47.395741989977168 -265.666422805020488
29.257884865422689 -47.035569930297832 -265.454365399587800
31.097366105399932 -46.977629731922526 -266.671743633275696
29.811652528217536 -47.949228197773486 -265.618420775615505
30.999244466126658 -46.736746962557632 -266.064715680089932
49.853907438173856 -26.104813638759587 -266.024158900697728
29.421625641180380 -46.758918932094247 -265.980167088601831
31.276100215109913 -46.312080786459262 -266.392441619310716
30.529918635323853 -45.232134993298928 -266.719318912609367
56.960512119902759 -18.971999435605870 -267.355169593718927
59.617943264766694 -19.076580496285420 -265.834999109283046
29.228605961682689 -47.619530363920084 -266.143730205862710
57.467494176785287 -19.675234512039992 -266.589529343110200
29.034201210810352 -47.259196405658884 -267.513849329939944
30.845963944206659 -47.377089499499291 -267.981420903870060
30.097056060276792 -45.613438995018114 -267.036879473644547
50.845658116262662 -26.719636472061360 -267.557774296109415
57.608876775220686 -19.867944739991522 -267.976735991717760
58.208248503602753 -20.824243648599555 -266.803663152394961
59.414644326577438 -18.938883724564381 -267.245246818096007
56.212348533612399 -19.373813552894234 -267.811324482768725
30.259015449471928 -47.967825768069545 -266.653475231666960
31.187216973133825 -47.111788741616365 -268.901790498959826
30.621735269706530 -46.788418893224808 -266.954186015899666
50.079171384158798 -25.985216759485414 -268.272984491928696
57.809037245426204 -19.678462008657785 -268.066728489390528
55.826564933284516 -19.824538774681766 -267.728166286178180
29.365264246859262 -47.968696860712072 -269.142454487681448
30.064326146265206 -46.007149170997025 -268.907422783098127
29.033896797178969 -46.583899069334770 -268.444624493164383
30.713725966411246 -47.252137990713202 -268.128191706622260
31.365887350783776 -46.920008597676272 -268.513393988236942
32.109867374190685 -44.587770987678887 -267.940487955603317
49.133972452008400 -26.553601679642977 -268.051449369397972
56.790580210758804 -21.082300164964522 -269.345912648561637
57.273680906417276 -20.643845018260230 -268.880381710006930
57.246783990572396 -20.506146563888255 -268.628797219606895
58.607370326962560 -19.094384468476765 -266.960684480536543
59.698184298911102 -17.846758825285189 -267.762926983430702
29.053016102446318 -47.594607916859729 -268.328207871680149
49.964824343438536 -24.724798164970320 -268.678807714709535
56.888736113024621 -19.762406414714114 -269.438011576306167
29.671757976530007 -47.390661412301064 -268.586821771447660
31.180892753483754 -45.726647194908914 -269.473517911991678
31.177467643148400 -45.852116244949485 -268.499604730402268
56.562909301708274 -21.578531796785949 -269.223718760057409
56.931403989319499 -19.325127614721982 -269.383768197669497
58.697908156188618 -19.090258244583648 -269.272471929197820
29.374329608874596 -47.513539556974010 -268.366786199400508
31.957804523333341 -46.215254110478746 -270.416780840184060
58.389839692965779 -17.870240730777855 -269.863273740314696
29.786173387413434 -47.381556550456224 -269.505316995037674
30.993252680813868 -45.010770836038986 -270.633381854247943
55.922684320543972 -22.306268131826492 -270.057970742121029
56.378551065756639 -20.107697559161142 -269.623330326605810
59.086749382025573 -17.305546638151664 -270.514986032217280
29.420803893373868 -46.773792794302231 -271.020700627910003
31.816872577364840 -46.433087832190985 -269.906229221469403
31.374814001039784 -45.826587731805674 -270.618663073225093
32.574697931718958 -45.076883612136101 -270.005782537491200
49.221232339753762 -25.567933962273127 -269.825627102439171
56.641524868870427 -22.052788091977799 -270.481581150784166
57.401133171581115 -19.563277665209181 -270.349125215873471
58.117047375423297 -18.406541045943055 -270.118235451249461
31.742657343045316 -45.679809775663685 -271.799360403800165
30.726606491774675 -46.363341225000944 -271.409144587733579
30.912811432412642 -44.769708207386671 -270.408025559729140
30.338951758208399 -45.223584457110221 -270.841174078228789
31.763633515923065 -45.230491750447847 -270.477386122160851
49.981707252207812 -27.744148082167865 -271.011970675313648
56.019369642297576 -22.306746603447689 -270.207684646243763
31.230853648546763 -47.370699471819123 -271.040892160989699
31.145381614255459 -45.355522771289067 -272.722872137521392
31.214162705024453 -45.421932026891504 -271.042673350413338
50.807497119677699 -27.972284492202505 -271.223352951689094
54.844294475051285 -21.953933154627993 -270.532292599504444
56.071496526324374 -20.839379382248779 -270.882624598053155
32.411940004966667 -44.960486413344839 -272.263117705067714
31.623674300961742 -45.630139868560839 -272.387784451341190
55.859401110817267 -21.536428005271194 -271.324436684106672
58.529664299896559 -19.072420422299128 -272.131591782362364
30.629501637265417 -47.389955475728996 -272.072193439576552
32.325793934663878 -45.418127699657461 -272.285787646969823
49.096107484576926 -29.914050647267299 -271.282643745614564
50.054363158845277 -26.442252922403942 -272.158739933200536
54.288555405804438 -23.454725412573577 -271.410721185970772
56.849913148683669 -20.247891302240163 -272.026985666899520
55.896227787802573 -19.936489834222989 -272.335955984375516
30.721960774897941 -46.494631298414184 -272.027909765387392
31.886183374742608 -45.301780345325845 -271.448539969273497
31.880472597750892 -45.266410844439292 -271.918640637616136
55.732656884806353 -22.572057334390127 -273.243617337092132
32.154270285349796 -44.783752045008221 -272.498632492247566
32.429349255891090 -44.558682207459036 -273.358535497669777
48.987972863642781 -29.093301460094221 -272.651134041148282
55.927449125077558 -22.711479525904945 -272.777307388727934
58.695764520972084 -18.613049342833698 -272.758662939909186
31.353247568798071 -45.780444252914485 -273.045835860092211
55.032576040373414 -22.000949565632538 -272.458838892741824
58.275810196505240 -19.517002220914527 -273.508708762368542
57.632274680512801 -18.680250240397179 -272.522361648192089
32.240927502488773 -45.178746582513710 -272.836847790123954
32.874305908943953 -44.059361416914072 -274.036234658605679
54.769345086324094 -22.964920693601528 -273.450527445169655
56.252941861214850 -21.111220290927651 -273.264701486749857
56.028610199053979 -20.700049971170287 -272.651234095276038
32.351607113490886 -45.091528869650972 -273.979094109165203
32.993628789390129 -44.500455553249175 -273.574743558016166
58.113114348792756 -19.065543758497409 -273.949503271002243
32.225307617311110 -44.470107039637327 -274.735991966810502
32.371873584959360 -44.279154594779925 -274.207563097100035
54.099801909791594 -23.505083465354055 -275.138429273837346
56.960649498839601 -20.541016252657109 -274.095108256457024
31.529260689505776 -45.792251814529379 -274.132877117370526
33.367868222540103 -44.565374839246637 -275.615297248216280
33.616622374367196 -42.733081961805723 -275.374253677957824
53.847511239021244 -23.890173388595720 -274.284590233754329
53.446173518429497 -22.418270722383049 -274.556903705537934
56.862602157102195 -22.163606786594599 -275.099088583097966
54.847137712609005 -20.419625015284407 -274.456518807781151
58.037305209369265 -19.511799912034352 -273.573836037035676
54.201024940377557 -24.039590016610454 -276.000333027042757
52.846670778608953 -22.947547386159471 -274.376442977246484
55.034349475191895 -21.594908680319577 -276.161649804496278
33.102066673492573 -45.068672788363010 -276.170316669820977
33.338168511085009 -43.912391017041564 -275.465119941256887
32.923038928745619 -43.573612932177383 -275.393664265810628
33.919729503509394 -43.300851433895730 -275.682067224458137
53.082883306179937 -23.001788962744673 -275.547209895117874
56.511322748828199 -21.001122677677127 -275.600459708746541
56.809129317677098 -20.139311863035037 -275.331515290039590
32.481063555270239 -43.933605244468893 -276.748229888833180
33.011656658934534 -43.177587700918238 -276.650730823101810
33.483135301749840 -42.135999975907559 -275.916389941559089
49.235532734720245 -28.327468086209063 -275.661234559022489
48.930688425304751 -27.727267860842531 -276.698683347814779
54.261196566750833 -23.133369456270849 -275.891670055604777
56.257824336956773 -21.085093689757834 -275.538921023140858
57.483557075514483 -18.803872587119230 -275.770743372299023
31.821664259559409 -43.701689400687705 -275.970738100293602
34.266648173239638 -43.476258814932436 -276.139564081426670
33.461530766737035 -42.922642137532456 -277.261505464894128
53.460004449238681 -23.073783018949122 -276.580176631723816
55.404711062206566 -22.148455454968623 -276.782220897530067
57.504008191411501 -18.875266168975120 -276.518935429018086
32.161192389822816 -44.808542961131593 -277.269224534534203
34.470136133237467 -42.816396160089667 -276.838349626838578
33.824813551021904 -41.527529670701000 -276.584676420525966
54.295089620555316 -24.131851690741453 -276.209399185845655
32.557041806017892 -45.103534524712160 -276.860389325573749
34.457192371154797 -43.227390904878305 -277.651394706199255
33.797781441527043 -42.094592416153013 -277.414361806129591
49.200160158463703 -26.793966463513858 -276.864332797513498
52.902443422201891 -24.523493284102507 -276.965093564254005
54.050134785676676 -21.752866348722424 -276.228895562539662
34.779723537565708 -43.357026598592348 -277.494568225946011
34.038352838433354 -41.813295280163153 -277.952194793844285
49.955081995830930 -26.996851508224179 -278.148799517168925
54.891101440720689 -21.799698310971628 -278.535843396863811
54.667576203623810 -22.228860602669620 -277.113428877753790
33.780754757114600 -44.641111792310475 -277.224790027095878
34.545010496341078 -42.413663231661864 -278.564636744904817
49.342029482940639 -27.541342475533934 -278.768863075757338
53.145182296544327 -24.684688650439714 -277.622110068624238
51.628161385548616 -24.275054629599328 -277.745134028180246
57.425185833990660 -20.385170151617789 -278.440399806845221
34.082574369727197 -43.869381016638904 -278.984805865190879
34.483050477259475 -43.583863292217686 -278.975924665276636
35.088322307263439 -41.347057574350217 -277.785445453710622
49.297652704078942 -27.476289649836588 -278.596394163787181
48.055314303003072 -26.639347444347191 -278.252199975117549
52.837705692523862 -24.434223605450430 -278.210200446948988
54.605162618588608 -21.505229020806148 -278.594953245117495
55.809866238397881 -20.334578213858325 -277.233508563746568
33.854174184685341 -43.215725635328063 -278.839497872190691
34.645954098222880 -41.987328863077408 -279.477894860575873
35.191063700369519 -42.326008043549606 -278.961764185233108
49.574558975700398 -27.525764287559397 -277.846283693153339
50.312932797505624 -26.730218311997589 -278.581710804700833
55.875342590227810 -22.225891427961120 -280.029847983249795
54.845991341000406 -21.705315845374006 -278.741941887484529
56.281667476152727 -21.046264919747809 -277.773517417747087
34.321746057418196 -43.302506773473425 -279.336295648458474
35.357959202452783 -42.971963244799191 -279.034027353041836
35.239719915215773 -42.598793633652051 -279.630372699500867
50.017912260528121 -27.938232006511129 -278.984060055299494
52.274695403679921 -24.619019647365647 -279.743464905434166
51.675197252375213 -24.851954125393565 -279.600491973970918
54.598815197587371 -22.301661597230648 -279.182091630925413
57.297820767981925 -20.805744749833032 -278.866144947840269
35.786525818112189 -42.208837754922392 -279.916591473283859
36.052131786465530 -42.850972988124703 -280.815397373013013
34.888677773165760 -41.872244785191462 -280.130758611701765
48.662738404205761 -28.408169347438726 -279.870100042527156
48.850514194246777 -26.869426514720651 -279.285815392229722
49.947303257471383 -27.208202299178524 -279.940304476351457
50.468781254194283 -25.994843661325145 -280.627408247452706
54.315727433444131 -22.890846286112975 -279.416651324553698
35.230460370252231 -42.753021766848818 -281.120180524337229
50.729666542282956 -27.074593561460297 -280.189110328110530
50.432703330548335 -26.220919287045849 -280.735647968745866
52.268909304967146 -25.624153534788903 -280.704191854822625
50.727162723044231 -26.436064503359262 -281.103456393876229
36.176732477540511 -41.010105345952148 -281.501464477423212
35.617130236889388 -40.352038207767613 -280.520479685479302
49.284095024299248 -27.964697606714079 -279.968480483330097
48.397979559752287 -28.389639029064320 -280.045591258728905
52.545502138707974 -26.635121651849992 -279.790388664665670
56.217885298032392 -22.443452520056173 -280.134790552298000
35.336303091384195 -42.124774470245640 -281.073584746258632
35.434937017042664 -40.206628677765870 -280.262785589222574
49.511407088807140 -27.091317715969414 -280.305052229547812
49.254338775685852 -26.748986808814575 -281.430882851010324
53.794851102544200 -23.294295297710796 -280.765405712975848
35.819004187492638 -41.888564476937653 -281.669727297932468
49.109738387567909 -27.798736070806275 -281.427435237160239
48.576832441481010 -27.363549999496602 -280.823722317189436
49.954567982947339 -27.412525456142117 -281.869835467940050
50.486900335358762 -26.716788632740435 -281.215458321989274
53.758169886532713 -23.649306174708208 -281.512360349362041
31.608390386442114 -45.527783454591969 -282.667767253761781
32.031765589239917 -44.570502096102629 -281.729316782255694
36.635408571294512 -40.711218380531314 -282.312367724840215
49.311432250051908 -28.122219222570880 -282.758644037719478
48.817647533943031 -27.130707535246856 -281.466447285631489
49.927889095827204 -27.296935766673428 -282.641224988410670
52.991621035213626 -22.771622774260162 -282.767282676354966
56.040665648775679 -22.122275583630735 -281.360923079925499
32.965093521585800 -44.757716206232622 -281.710695770044310
33.497510511356197 -44.670834973140735 -282.337443709689580
36.117731911937710 -41.020169269906795 -282.513369092810763
35.332593827040867 -41.609666845199307 -282.626437702124349
35.568336719850606 -40.193538958145233 -282.851278520659946
35.318071262921173 -40.091574498775259 -282.038835345291602
49.493495013181544 -27.137508443700547 -282.887569089208455
56.123525080934130 -21.039114257650215 -282.144745306126026
32.336984922859195 -44.690549046076192 -281.846743687332207
33.401350354333410 -44.330232431383017 -282.661218325026141
33.307944259950844 -43.594243280913652 -283.382116073599605
35.283549685201031 -41.147915460284494 -283.246211145926338
36.553580552148851 -40.343373552508737 -283.023246181642094
49.342213784758258 -27.565219952599342 -283.100590493077675
49.333607504618776 -27.184764990542050 -283.193696270410271
55.744694438474077 -21.188483058931258 -283.143362432531092
32.290588433213216 -44.374806023819566 -282.705188176241734
36.927263131785303 -42.335574392500959 -283.022308548801561
53.772076053875814 -22.894422776791092 -282.907388223056671
32.381142528467265 -44.390690762979084 -282.956892230234530
34.427815659322881 -44.394484240307960 -283.716874924628485
36.233474546563443 -40.844501956613300 -283.869122598391584
36.707643714236895 -39.092665389381274 -282.551138963670553
52.422810106249415 -24.441253177479506 -284.503926413453030
55.314328417152119 -22.201312685360062 -283.547957104335524
33.374733541873660 -44.375092247471407 -284.336048683080890
32.153697549764644 -44.729022399885203 -283.928225143408156
33.139735046184605 -43.429985979152086 -284.333965313116380
34.801635619525278 -43.827631171268351 -284.004462425640497
37.258390590001568 -41.610185727406282 -283.578202001742284
37.554000722894799 -40.790104582812667 -283.217316246653581
53.104083936629088 -23.331607385629592 -283.549877787460332
53.264001345096901 -24.543386241662283 -283.486588929228162
54.800088566325918 -22.907066944236124 -284.902767499191157
31.830630892730497 -44.308747883420757 -283.872116044592872
34.221513935071954 -42.973723294765172 -284.295538216962711
34.440007711767066 -43.446039693718994 -284.013888698715334
36.923320445569175 -41.237990819844775 -283.563324578733557
33.601653706885443 -43.450664495704693 -283.827071374069874
33.827308438503067 -43.715656453715880 -283.839643367642338
37.173619925956302 -40.670084595999725 -284.784869482934255
36.703995546531800 -40.062283822558200 -285.072537258544457
52.388370613929176 -24.049594435967723 -283.824621115674347
55.386050449177624 -23.294187674028915 -283.671824277888902
33.790352701133891 -44.814654510278899 -284.620567676717371
33.038876708528910 -43.646894276102699 -285.085561249549528
33.810920950156671 -42.988580971165028 -285.643039925181426
35.990782566002984 -41.935233918249871 -286.205025854851215
34.207174432385408 -42.384539530717817 -285.000679673140496
37.383171685166083 -38.728921764138164 -284.850224996156271
37.579859383143692 -38.561261409295483 -284.441423589145018
52.115628105843932 -25.835099679733737 -285.132195284395493
51.482706114998535 -23.910615760638354 -284.862483887000280
34.113226944902927 -42.958895859923174 -285.771270133889345
33.489150770397998 -43.004093544701611 -285.698618351466735
34.392344430693932 -42.704897422378316 -285.619825778012682
35.493773945600438 -41.386637907000541 -285.096317964777995
35.466166725196068 -41.522128963921041 -284.846389652075231
37.484197426074182 -39.991867001925371 -284.466511629798163
38.598437299737334 -39.478444848922180 -286.260440533136943
51.661250742804839 -26.056878616773162 -286.376741641932142
54.432368181516566 -23.565479143655569 -285.771591330077001
54.892515839196321 -21.741548476721086 -285.588647847172638
34.273989155467660 -43.205588553872303 -286.055166035242053
34.124710057582817 -41.490521508070678 -285.947044695595196
34.844065536199956 -41.997843720611129 -285.653834181009756
37.956783207021630 -39.746307536065935 -286.045770493276848
37.848177572985442 -38.516122212032357 -286.497533693535047
51.978634989147267 -26.255807522378944 -286.437202640872499
