80.531150817871 -71.882057189941 -225.264999389648 1.352006316185
-160.771209716797 -70.294944763184 -230.161361694336 3.541039943695
-143.466445922852 -69.817153930664 -232.966796875000 1.858442544937
-124.588203430176 -70.679031372070 -232.804809570313 1.467625975609
79.247909545898 -75.633575439453 -226.334518432617 1.447723507881
-115.134834289551 -72.256080627441 -230.969223022461 1.424730062485
-145.906692504883 -71.984649658203 -231.427932739258 2.275736093521
-149.978744506836 -70.685707092285 -233.607543945313 3.201222181320
-148.504577636719 -72.745880126953 -233.511306762695 2.358356237411
-155.332473754883 -72.473243713379 -231.351501464844 0.809370815754
-164.584243774414 -72.313186645508 -231.376281738281 1.099186420441
-133.140487670898 -72.299049377441 -237.352890014648 2.924244403839
-132.741210937500 -73.289237976074 -235.147964477539 1.095008850098
-152.671325683594 -75.578277587891 -235.128860473633 1.900696277618
-144.771987915039 -68.582931518555 -238.974365234375 2.535399913788
-151.048019409180 -72.444458007813 -237.534317016602 1.980654835701
75.463973999023 -76.139755249023 -232.126052856445 1.539996385574
67.984191894531 -69.341468811035 -235.747314453125 0.993122220039
-156.416152954102 -70.517028808594 -237.656433105469 1.719356656075
72.349815368652 -69.804214477539 -232.991699218750 1.835827827454
-19.151338577271 -71.865554809570 -237.386932373047 2.124495029449
12.030960083008 -74.748275756836 -237.482299804688 1.707578539848
7.539214134216 -74.286148071289 -236.463348388672 3.064204216003
-153.829483032227 -72.031082153320 -244.916198730469 2.865976095200
15.266096115112 -72.989685058594 -241.459426879883 2.397162437439
61.607570648193 -72.798057556152 -237.828140258789 1.897178530693
14.074709892273 -71.139907836914 -238.315216064453 1.201729059219
6.037991046906 -73.914726257324 -242.036590576172 1.556074261665
-5.821908950806 -71.307304382324 -240.948822021484 1.712278723717
-20.437036514282 -71.795722961426 -243.607040405273 1.927115440369
-1.033288002014 -73.305435180664 -242.517868041992 0.975255191326
4.526884078979 -76.053688049316 -245.487609863281 1.497259616852
58.099792480469 -74.916557312012 -241.473526000977 0.690576970577
-54.752231597900 -76.181488037109 -245.923919677734 2.332933664322
20.350582122803 -72.513755798340 -247.663131713867 1.302149295807
-58.880954742432 -73.783332824707 -243.019531250000 2.382670402527
-9.129237174988 -73.442680358887 -248.544631958008 0.476191550493
-65.297470092773 -69.433547973633 -251.569763183594 3.049057245255
-85.249786376953 -70.989326477051 -254.655334472656 1.332076430321
-81.848175048828 -73.516487121582 -253.615798950195 1.290003657341
-9.037400245667 -72.603462219238 -255.450347900391 3.069095611572
-123.039230346680 -72.005836486816 -261.002868652344 2.033085823059
-13.335260391235 -74.085800170898 -253.696914672852 1.741003274918
-116.190063476563 -72.288810729980 -257.586303710938 1.633359074593
-115.659332275391 -70.961372375488 -260.511138916016 2.795558691025
-102.749801635742 -72.206062316895 -258.270324707031 1.003224968910
-143.020843505859 -71.059394836426 -264.024017333984 1.078589916229
-144.114547729492 -71.442520141602 -269.439819335938 3.963514328003
-167.796188354492 -71.816078186035 -266.077026367188 2.592352390289
20.381692886353 -76.794509887695 -280.625488281250 3.636972427368
-56.950164794922 -70.796478271484 -286.609161376953 0.348931014538
-66.164955139160 -71.583572387695 -285.028381347656 1.434072494507
-41.098552703857 -74.499305725098 -284.927246093750 2.062690496445
-26.974126815796 -73.852233886719 -287.364898681641 1.477975606918
-95.233947753906 -74.164314270020 -290.891326904297 1.137371540070
-29.754356384277 -70.991462707520 -286.634094238281 1.703510880470
-3.038647890091 -73.156791687012 -286.797241210938 0.766985237598
-166.282974243164 -71.707130432129 -291.774322509766 2.416739702225
-14.823550224304 -75.084831237793 -286.642150878906 1.894299864769
7.430593967438 -74.378868103027 -288.446563720703 1.316142320633
15.131622314453 -77.609214782715 -284.031555175781 3.700399160385
-55.908191680908 -74.938110351563 -288.840942382813 2.363229036331
-32.121795654297 -73.275794982910 -292.427490234375 0.552241861820
15.335665702820 -71.395294189453 -293.483642578125 2.396230697632
-69.791305541992 -71.144889831543 -294.294616699219 2.480490922928
-39.161506652832 -70.298675537109 -290.171691894531 1.865589380264
-16.764701843262 -71.007652282715 -290.762176513672 1.252744674683
16.124206542969 -75.473022460938 -291.427886962891 0.683848977089
-10.457208633423 -74.663780212402 -294.923217773438 3.678406238556
5.069369792938 -72.000686645508 -294.329528808594 2.084660530090
15.325722694397 -75.206260681152 -291.008331298828 1.409201622009
-133.767807006836 -70.958427429199 -296.428039550781 2.047634363174
-143.814437866211 -74.142417907715 -301.348083496094 2.101400136948
-149.707458496094 -72.135993957520 -315.472045898438 2.675487756729
41.549842834473 -73.443099975586 -13.818749427795 1.169191002846
28.629203796387 -73.767295837402 -12.064175605774 2.060406446457
37.814567565918 -74.104080200195 -15.561022758484 3.077265739441
20.568513870239 -70.697601318359 -19.050689697266 1.083925366402
43.564815521240 -71.994689941406 -22.457723617554 1.439507246017
24.170658111572 -72.043640136719 -24.265039443970 1.168537020683
22.399602890015 -74.081466674805 -27.812486648560 2.199534416199
23.538463592529 -74.604408264160 -38.583019256592 3.697694301605
38.202438354492 -75.970840454102 -30.943561553955 5.576526165009
24.990058898926 -77.242477416992 -36.616981506348 6.003856658936
41.812740325928 -72.666015625000 -37.768062591553 2.895358324051
30.606876373291 -74.358955383301 -39.641662597656 2.224553585052
37.483081817627 -75.245140075684 -36.083656311035 3.234216213226
29.710161209106 -72.976402282715 -40.181999206543 1.709146499634
42.364299774170 -73.898307800293 -41.270271301270 2.043240308762
32.465213775635 -73.358154296875 -39.194053649902 1.665935158730
-42.130588531494 -71.443748474121 -49.251831054688 2.926595687866
-31.213256835938 -68.361602783203 -51.529735565186 1.124509572983
-90.504333496094 -71.172065734863 -56.271427154541 4.721760749817
-90.098045349121 -73.485664367676 -67.037544250488 2.830329895020
76.867843627930 -76.480979919434 -66.310394287109 5.843151569366
83.348594665527 -73.839302062988 -72.051551818848 1.579510331154
-20.600555419922 -71.244491577148 -74.284339904785 1.702429175377
-89.220474243164 -72.695968627930 -73.186248779297 1.601590752602
-26.109426498413 -72.432289123535 -77.522293090820 2.050336599350
-50.538051605225 -73.892494201660 -85.986885070801 2.076932668686
65.100120544434 -70.154205322266 -85.948684692383 1.813433766365
51.938476562500 -72.702438354492 -93.083320617676 1.328778862953
98.717674255371 -72.303352355957 -90.744331359863 2.132758617401
68.691268920898 -75.299827575684 -96.239257812500 2.522953748703
-69.037330627441 -74.032211303711 -92.258049011230 3.972705841064
-62.918212890625 -70.827667236328 -99.027786254883 3.692671775818
44.079200744629 -74.035736083984 -97.325653076172 0.984411239624
76.712783813477 -72.424842834473 -99.404312133789 1.420361995697
53.771507263184 -80.575347900391 -104.815017700195 2.534399747849
100.533638000488 -73.647445678711 -95.874877929688 2.425843000412
-95.868301391602 -73.918098449707 -108.748123168945 1.343693256378
39.243160247803 -73.731788635254 -110.616294860840 1.748289108276
106.408592224121 -74.827949523926 -107.888511657715 1.034064173698
47.892810821533 -73.408325195313 -111.091606140137 1.495047330856
100.859405517578 -74.885856628418 -108.947853088379 3.200336456299
-86.024940490723 -72.404670715332 -116.678627014160 2.867179870605
35.202735900879 -76.566642761230 -111.850585937500 3.136279582977
106.077713012695 -72.837394714355 -115.936233520508 1.402232289314
104.169250488281 -71.361991882324 -114.948692321777 1.594176292419
104.949005126953 -74.284339904785 -114.256759643555 1.390916109085
109.949974060059 -72.987907409668 -113.657211303711 1.533636927605
39.282363891602 -75.134925842285 -110.095947265625 2.387545108795
31.515205383301 -70.990814208984 -117.300285339355 2.605627298355
40.345878601074 -73.073532104492 -114.031127929688 2.362740755081
106.273162841797 -75.186859130859 -120.901199340820 2.273277997971
39.631191253662 -71.804489135742 -123.133262634277 0.773307681084
108.663887023926 -73.032920837402 -131.244171142578 1.051750659943
110.529121398926 -72.633186340332 -130.111175537109 1.170981764793
33.063892364502 -71.199081420898 -120.583984375000 2.264124631882
-78.483528137207 -72.254714965820 -126.618598937988 2.229824066162
113.485717773438 -71.438186645508 -133.264450073242 1.648683786392
-54.856456756592 -72.660667419434 -138.393478393555 0.826906144619
35.074153900146 -74.069381713867 -134.674880981445 2.549890041351
-73.755607604980 -72.752754211426 -136.549240112305 2.642103433609
26.439134597778 -75.360092163086 -131.704193115234 2.903903007507
-80.012176513672 -72.855804443359 -143.992004394531 2.981488943100
-45.764518737793 -75.524406433105 -142.733627319336 1.213166475296
-74.447273254395 -73.098541259766 -139.297470092773 0.509795725346
109.752342224121 -72.991981506348 -136.111557006836 2.500215530396
116.786148071289 -72.076385498047 -140.578994750977 1.467954158783
117.696907043457 -76.869445800781 -145.374465942383 4.475641250610
-77.744125366211 -71.433258056641 -144.789810180664 1.538838624954
7.658409118652 -69.249572753906 -151.006225585938 2.310761451721
-52.418350219727 -73.153785705566 -150.225234985352 0.457619398832
-51.149028778076 -73.436462402344 -156.122009277344 1.695505619049
106.635932922363 -74.036766052246 -160.763748168945 2.289603233337
-41.845237731934 -74.394508361816 -149.978820800781 2.138033866882
13.692179679871 -70.979835510254 -157.828521728516 1.420266032219
22.004413604736 -74.709175109863 -157.652847290039 1.740041375160
114.482429504395 -73.101737976074 -163.639999389648 1.451353073120
29.561349868774 -72.605209350586 -165.697494506836 2.827293395996
-1.162413954735 -74.215805053711 -163.789047241211 1.094464659691
31.546207427979 -73.956947326660 -160.744430541992 1.070558667183
-68.094337463379 -70.779617309570 -158.677658081055 1.742111444473
-66.088615417480 -72.050559997559 -160.099945068359 2.485111236572
-69.113555908203 -71.016143798828 -166.644760131836 2.879002809525
114.468299865723 -70.445755004883 -160.433074951172 2.208306312561
-44.844329833984 -72.710624694824 -163.730392456055 1.467041373253
17.503120422363 -73.210861206055 -165.596542358398 1.450661420822
-64.153846740723 -71.343605041504 -170.572006225586 2.157019376755
-63.251499176025 -70.636390686035 -172.316421508789 3.532799720764
-41.611286163330 -73.423255920410 -160.958602905273 2.734413385391
-33.791252136230 -74.697441101074 -169.235885620117 3.478641033173
114.787025451660 -75.778221130371 -170.293197631836 1.835755467415
-37.117137908936 -68.025398254395 -180.413970947266 3.791709661484
13.554851531982 -73.971969604492 -173.255844116211 4.135872840881
110.634582519531 -76.256828308105 -183.343124389648 1.635349154472
-147.775985717773 -73.310546875000 -177.813247680664 2.515316963196
-146.079666137695 -71.414108276367 -175.290390014648 1.323983907700
-148.746231079102 -69.842491149902 -181.689666748047 2.786163806915
-142.518066406250 -72.953483581543 -184.453170776367 2.564227819443
-31.895891189575 -71.244491577148 -186.069915771484 1.750905871391
-23.149286270142 -72.704643249512 -186.202606201172 0.400598317385
23.302927017212 -69.458251953125 -191.064987182617 2.626677751541
-141.461822509766 -70.778694152832 -188.388839721680 1.684794545174
-147.292388916016 -71.827857971191 -190.283432006836 2.363390684128
-21.319189071655 -70.106048583984 -186.911788940430 1.438435077667
11.034453392029 -73.207466125488 -182.668762207031 3.412295341492
-149.302520751953 -71.410270690918 -196.002258300781 1.772823929787
-31.596305847168 -73.197494506836 -188.531753540039 2.028435707092
100.111946105957 -73.616439819336 -187.508270263672 2.765079259872
106.282218933105 -72.658538818359 -188.908523559570 2.226294040680
24.244003295898 -68.670188903809 -193.411010742188 1.665864348412
-13.510525703430 -72.871559143066 -188.870193481445 4.457697391510
-27.709764480591 -74.401992797852 -193.888687133789 1.342391848564
-155.238967895508 -72.383445739746 -200.950363159180 2.434248685837
-132.545669555664 -72.467529296875 -198.439208984375 1.073059439659
-125.097320556641 -69.025985717773 -196.540786743164 2.182877540588
-124.589279174805 -70.003829956055 -199.123092651367 2.408684730530
-22.376300811768 -68.492927551270 -196.618164062500 1.601667284966
12.699705123901 -74.789459228516 -192.562591552734 1.684502720833
92.751037597656 -76.934020996094 -200.465011596680 3.907836675644
-149.959732055664 -67.818862915039 -197.185455322266 1.955452680588
-144.940856933594 -69.004508972168 -200.445068359375 3.266628503799
-150.770324707031 -70.756652832031 -201.918334960938 2.762902975082
-154.821105957031 -69.088485717773 -199.271697998047 2.045315742493
-24.648296356201 -71.996994018555 -200.133895874023 2.578966617584
-10.636949539185 -71.170501708984 -195.758453369141 3.231558561325
-146.198776245117 -67.558799743652 -203.858489990234 3.223364353180
-18.322660446167 -71.748809814453 -201.631362915039 2.266382932663
-161.280715942383 -70.493255615234 -202.531723022461 1.734288215637
-134.233032226563 -71.228034973145 -201.012161254883 1.822015404701
15.898402214050 -74.547317504883 -207.153503417969 2.613922357559
-161.108886718750 -68.019126892090 -205.978317260742 2.203754186630
-145.940765380859 -72.673561096191 -208.224060058594 1.873648405075
8.400401115417 -70.875762939453 -203.028732299805 2.673798561096
-153.951278686523 -68.733573913574 -204.467437744141 1.660556554794
-24.439977645874 -71.863250732422 -202.369674682617 1.800409436226
97.486091613770 -74.139144897461 -198.624237060547 0.580294311047
-158.219268798828 -72.025718688965 -214.349349975586 1.774560093880
-164.317321777344 -74.059013366699 -209.612350463867 1.373902559280
-76.649681091309 -69.914527893066 -209.379562377930 2.243030786514
89.499015808105 -72.723205566406 -208.439956665039 1.855814933777
-3.516349077225 -71.340637207031 -218.761596679688 1.942405343056
-154.273117065430 -69.991912841797 -214.722030639648 2.802795648575
-87.355957031250 -71.821243286133 -214.658248901367 0.951014876366
-9.106579780579 -75.038665771484 -211.731323242188 1.693112969398
15.885670661926 -72.469512939453 -220.088180541992 1.994383573532
-144.615554809570 -71.839241027832 -221.818405151367 1.022087693214
-3.307252883911 -76.307800292969 -221.281326293945 1.277927994728
-19.099931716919 -73.336074829102 -218.772598266602 1.151258826256
-14.297030448914 -69.337051391602 -220.933792114258 1.769804835320
90.545967102051 -73.359397888184 -218.556304931641 1.348795294762
-20.460557937622 -71.105598449707 -217.371917724609 2.168315410614
-31.459136962891 -71.699798583984 -217.799667358398 2.170505523682
-107.200355529785 -67.311614990234 -226.172561645508 0.125827744603
-15.789404869080 -70.788230895996 -223.745574951172 1.786867976189
92.732566833496 -71.417739868164 -218.430725097656 1.918004751205
77.801010131836 -74.014442443848 -220.083602905273 3.130138635635
7.486833095551 -73.780693054199 -219.635650634766 2.247904777527
-10.813418388367 -70.315124511719 -225.889907836914 1.873515605927
78.949798583984 -73.799797058105 -221.645858764648 1.553771853447
-122.053726196289 -74.457923889160 -226.764068603516 2.042809247971
-19.687967300415 -70.466026306152 -223.784286499023 2.815989494324
-96.807617187500 -70.926170349121 -224.961532592773 2.393535614014
-102.171302795410 -71.589790344238 -225.565902709961 2.010582685471
-131.208862304688 -73.137924194336 -230.367019653320 1.600110650063
81.654563903809 -73.347534179688 -223.249252319336 2.383090496063
-122.828468322754 -71.863945007324 -228.890167236328 1.434270262718
5.117091178894 -71.942359924316 -229.137557983398 1.986059546471
81.586906433105 -71.890319824219 -224.058197021484 2.621562242508
-15.332618713379 -73.349029541016 -231.121017456055 0.630220592022
-13.179924964905 -73.089836120605 -227.985275268555 0.661876261234
-1.507992982864 -77.352310180664 -230.370162963867 2.282194375992
10.645051956177 -74.400184631348 -227.752410888672 2.806871652603
89.243484497070 -74.536788940430 -226.049301147461 4.050598144531
10.383648872375 -71.131240844727 -231.750640869141 1.824532747269
5.947997093201 -72.251983642578 -229.830154418945 1.675333261490
-8.608571052551 -72.944732666016 -231.781326293945 1.588779807091
-6.356739997864 -73.255607604980 -230.645828247070 1.421633839607
19.179050445557 -71.463798522949 -233.009536743164 2.134291887283
-12.010204315186 -69.967277526855 -233.799072265625 1.183167576790
71.520141601563 -73.649772644043 -239.540313720703 2.169739723206
-8.632580757141 -70.913360595703 -239.367736816406 1.815394520760
19.459608078003 -73.653404235840 -236.025222778320 0.730586290359
-162.368896484375 -69.590377807617 -242.402420043945 2.208088874817
-5.092185020447 -70.342002868652 -237.595443725586 1.779948830605
-7.606632232666 -73.151344299316 -240.749755859375 0.999420166016
-167.090148925781 -71.342620849609 -252.795898437500 0.900281786919
-10.301716804504 -70.792053222656 -244.984588623047 2.097912311554
16.126939773560 -70.063522338867 -245.825714111328 1.779223084450
-147.073913574219 -72.851669311523 -253.637405395508 1.626408457756
-72.707565307617 -71.094146728516 -251.553237915039 1.271710038185
-61.101230621338 -72.653968811035 -248.064270019531 1.121844291687
52.887298583984 -70.798110961914 -246.788528442383 1.852923750877
-74.145195007324 -71.285598754883 -247.974868774414 1.271827816963
17.428949356079 -73.218643188477 -249.841964721680 2.288984298706
-72.526489257813 -72.055801391602 -252.447891235352 0.645065486431
-14.827299118042 -70.672897338867 -246.556381225586 2.679882287979
-144.951751708984 -73.626976013184 -254.540527343750 1.864239573479
47.186553955078 -69.650405883789 -250.027770996094 1.870493769646
-79.471130371094 -73.722801208496 -256.927307128906 2.407387733459
-102.156585693359 -68.553215026855 -256.414581298828 1.407161951065
-98.789710998535 -72.975265502930 -255.962936401367 1.621765851974
-119.322776794434 -69.359130859375 -254.564941406250 3.480199098587
-105.233215332031 -68.977722167969 -258.561309814453 2.787455558777
-105.245658874512 -71.044418334961 -259.549438476563 1.779779076576
22.196149826050 -70.161170959473 -258.816894531250 2.514055967331
-128.709075927734 -68.806259155273 -266.710937500000 2.456419706345
-13.156585693359 -73.021697998047 -276.179718017578 2.711009740829
-146.928573608398 -68.468681335449 -285.109008789063 1.779436826706
-168.001266479492 -72.239822387695 -287.530914306641 1.528903841972
-124.266487121582 -72.007530212402 -285.724792480469 1.071845054626
-113.460594177246 -68.169197082520 -288.352203369141 1.194476723671
-74.875915527344 -67.433341979980 -285.664978027344 2.475419044495
-56.853088378906 -72.259643554688 -287.699371337891 1.688785910606
-41.247982025146 -70.740058898926 -286.935455322266 0.312456429005
-14.711039543152 -74.947784423828 -290.448394775391 2.605961322784
-13.132265090942 -69.682945251465 -292.352478027344 2.533241510391
-37.770954132080 -73.601181030273 -291.034637451172 1.894420862198
-33.770027160645 -71.615463256836 -289.586700439453 2.230228424072
-18.366920471191 -68.998764038086 -289.424957275391 3.195110321045
-71.181770324707 -70.474189758301 -294.148040771484 3.284616947174
-54.938461303711 -70.931327819824 -292.068664550781 1.470331072807
-17.018722534180 -68.578277587891 -292.152679443359 3.283787012100
-13.170742034912 -73.509376525879 -290.351715087891 1.017217159271
-3.113852024078 -71.265464782715 -292.924255371094 3.114837408066
3.085860013962 -68.905052185059 -292.686096191406 1.586409211159
-91.570610046387 -71.353729248047 -294.282562255859 3.236459970474
-139.192626953125 -72.450431823730 -296.751647949219 4.792596817017
-115.746772766113 -71.981964111328 -294.179901123047 2.070305109024
-152.973266601563 -69.568809509277 -296.786834716797 1.376946330070
-151.371200561523 -71.381965637207 -301.369384765625 2.039490461349
-146.115539550781 -69.200408935547 -301.838684082031 1.510965943336
43.027240753174 -70.676269531250 -21.109567642212 1.184575319290
18.429264068604 -75.319519042969 -23.599025726318 4.104803562164
48.098236083984 -70.189056396484 -24.883310317993 2.123112201691
45.729427337646 -73.655807495117 -34.932674407959 0.488619357347
86.521965026855 -72.804367065430 -69.646835327148 1.817703366280
94.502609252930 -74.643409729004 -73.310035705566 2.745850563049
100.195549011230 -72.645462036133 -77.456954956055 1.779373526573
97.317558288574 -73.524879455566 -82.840065002441 1.960152268410
55.757656097412 -73.583534240723 -89.179183959961 2.469143152237
44.598297119141 -77.580116271973 -91.080299377441 5.897961139679
62.398170471191 -71.621650695801 -90.486656188965 2.548131942749
-66.101928710938 -69.177360534668 -94.160774230957 2.733171701431
69.863342285156 -72.215270996094 -87.466255187988 0.713376104832
100.030220031738 -66.911430358887 -98.253517150879 1.593023061752
73.687675476074 -73.468032836914 -100.731468200684 1.766259908676
93.476333618164 -71.862136840820 -101.988731384277 1.312472939491
-85.392501831055 -72.275260925293 -104.694580078125 2.955072879791
44.279571533203 -71.516166687012 -98.045555114746 1.803218841553
-87.336181640625 -72.684844970703 -103.532897949219 5.162094593048
50.382389068604 -73.855644226074 -110.230812072754 1.608110070229
36.901683807373 -77.419067382813 -103.644256591797 3.891215085983
101.324211120605 -72.039604187012 -102.642608642578 2.358193874359
36.378578186035 -72.157775878906 -105.978523254395 3.742396831512
41.872669219971 -73.414382934570 -118.532546997070 2.479135990143
41.984725952148 -72.189857482910 -113.026695251465 1.592301487923
109.326698303223 -71.703224182129 -111.685325622559 0.509065330029
-82.046417236328 -75.193641662598 -122.770355224609 4.403660774231
111.521102905273 -76.037902832031 -123.303977966309 2.679244995117
39.367095947266 -68.933532714844 -124.756874084473 2.955367326736
39.825103759766 -71.631416320801 -120.243240356445 1.222549080849
34.273635864258 -72.685516357422 -120.953079223633 2.096330881119
-56.431900024414 -75.527854919434 -130.559783935547 3.062496185303
29.479001998901 -71.371017456055 -123.585952758789 1.195830225945
-77.995040893555 -69.651809692383 -139.011932373047 1.548967361450
-56.026069641113 -74.674064636230 -133.603897094727 2.231662034988
-80.133705139160 -69.268531799316 -136.099548339844 2.084158897400
34.913139343262 -70.442176818848 -130.821640014648 1.453995704651
-60.289573669434 -72.510581970215 -134.647628784180 3.159049034119
34.486022949219 -71.527015686035 -133.466812133789 2.592131853104
-72.587982177734 -69.543777465820 -140.779998779297 1.020797133446
-59.850173950195 -69.113174438477 -141.785873413086 0.887424051762
25.077903747559 -72.833259582520 -142.836944580078 1.636182665825
110.274688720703 -75.347045898438 -142.501144409180 1.290451884270
114.643791198730 -69.073707580566 -136.464767456055 1.371209979057
30.097742080688 -72.181663513184 -141.664062500000 2.091379642487
-48.843498229980 -72.807632446289 -141.159530639648 2.221498966217
106.270561218262 -70.706130981445 -151.648529052734 4.606453895569
-76.189086914063 -71.119575500488 -144.283309936523 1.650070309639
-59.263267517090 -71.444046020508 -143.357833862305 1.857231140137
31.030923843384 -68.341712951660 -147.587829589844 1.067690372467
-78.170478820801 -72.495521545410 -147.407745361328 2.833759784698
-71.223106384277 -71.194747924805 -151.429336547852 1.403084397316
114.292045593262 -76.320251464844 -148.951568603516 1.797103881836
-65.204612731934 -70.664916992188 -156.225906372070 2.247848749161
-39.908706665039 -68.930267333984 -153.098602294922 2.068735837936
25.083786010742 -70.572242736816 -146.205459594727 1.987553715706
-73.834457397461 -71.667205810547 -147.246185302734 1.065404057503
11.790662765503 -71.505714416504 -150.134002685547 2.433779001236
31.299556732178 -71.498825073242 -157.117355346680 1.102729797363
30.398117065430 -69.876365661621 -150.415054321289 0.848906934261
14.613698959351 -76.115509033203 -154.509704589844 4.131261348724
-50.510246276855 -72.825157165527 -154.236846923828 2.063950061798
24.160522460938 -73.297088623047 -153.424392700195 0.711815237999
-46.816249847412 -70.590324401855 -151.122772216797 1.989980459213
4.127873897552 -72.046333312988 -154.514739990234 3.025896787643
19.835491180420 -71.211990356445 -150.267807006836 3.202221155167
-69.475318908691 -70.586570739746 -158.579895019531 2.448517084122
-47.245155334473 -68.667991638184 -155.056976318359 2.911517381668
-68.800621032715 -70.746170043945 -154.928482055664 1.146042227745
17.558137893677 -70.778961181641 -158.806762695313 2.270567655563
23.577985763550 -71.189559936523 -150.367126464844 1.285783529282
1.977223038673 -71.769500732422 -165.008422851563 1.840365529060
20.699674606323 -71.769744873047 -153.882812500000 0.981065452099
30.213918685913 -71.660667419434 -167.383972167969 2.796506166458
-47.905193328857 -72.628913879395 -164.194305419922 1.209080815315
-37.428726196289 -77.391143798828 -164.116699218750 2.763196706772
-41.460186004639 -72.154876708984 -161.741455078125 2.018174171448
27.208612442017 -72.264755249023 -158.937469482422 2.682119846344
-44.839599609375 -69.734397888184 -167.721588134766 3.362420797348
-40.349990844727 -69.958587646484 -167.273666381836 1.795365452766
20.781719207764 -70.589210510254 -166.067733764648 1.853995442390
-40.386798858643 -71.852867126465 -176.097213745117 2.675964355469
27.384708404541 -68.522003173828 -170.335876464844 2.499609231949
111.104415893555 -69.542098999023 -164.359008789063 1.488059520721
-34.083282470703 -71.302955627441 -172.844848632813 0.673619806767
102.226913452148 -70.179321289063 -172.785644531250 4.035210132599
-35.096549987793 -70.971771240234 -178.249954223633 1.956564188004
-37.930347442627 -74.140441894531 -182.286804199219 2.813534021378
20.607355117798 -74.490402221680 -177.334671020508 2.453900337219
105.328994750977 -72.744979858398 -181.526580810547 0.901951909065
-31.971523284912 -69.823600769043 -183.701904296875 1.830876469612
-35.712074279785 -70.802299499512 -178.340850830078 1.776976346970
-23.685962677002 -74.732269287109 -187.567367553711 0.330226212740
-149.487884521484 -71.027908325195 -190.813751220703 2.252996444702
12.452760696411 -71.412368774414 -183.749618530273 2.008262872696
104.568580627441 -70.970718383789 -190.632064819336 1.458881378174
-159.369720458984 -69.975990295410 -195.053787231445 1.420004248619
-23.401229858398 -68.431632995605 -190.237060546875 0.749485135078
-116.021972656250 -72.252120971680 -198.943145751953 2.904294252396
-131.200698852539 -71.925338745117 -197.317611694336 1.686681509018
-108.241897583008 -71.199111938477 -201.320678710938 3.424327611923
-113.997695922852 -69.863624572754 -201.797714233398 1.140731215477
-12.714989662170 -72.183219909668 -196.989151000977 1.808498501778
19.730604171753 -70.478500366211 -196.430419921875 1.149627208710
-16.117439270020 -67.765502929688 -202.525894165039 2.726627349854
-127.022949218750 -70.547256469727 -207.257476806641 2.303979873657
-21.142435073853 -67.720954895020 -203.698623657227 2.858378648758
-129.673812866211 -69.409080505371 -204.645874023438 1.812495112419
-15.757680892944 -71.458023071289 -200.915222167969 1.668187975883
-146.393020629883 -69.253013610840 -204.692443847656 2.976857900620
91.563163757324 -68.405029296875 -206.103668212891 3.560914993286
-164.826126098633 -65.601020812988 -203.521118164063 2.710837602615
-2.934526920319 -72.935005187988 -218.399978637695 0.882062733173
11.220148086548 -72.593276977539 -210.298309326172 2.220771551132
10.142602920532 -73.492248535156 -217.442840576172 2.745949745178
82.487144470215 -71.877182006836 -216.442932128906 1.996951818466
8.311005592346 -72.385971069336 -213.501388549805 2.172966957092
12.448197364807 -70.553146362305 -215.152465820313 1.874669432640
-16.024555206299 -74.404739379883 -216.580581665039 2.070083141327
-90.649009704590 -71.059524536133 -215.827804565430 1.060829758644
-98.155975341797 -70.725219726563 -218.033096313477 0.677992403507
-0.117351002991 -70.278465270996 -219.650451660156 0.995013475418
-166.581024169922 -71.917556762695 -224.067184448242 0.873359262943
15.032380104065 -69.416801452637 -219.992187500000 1.481912136078
-144.732696533203 -69.608848571777 -223.137985229492 0.806728184223
12.895200729370 -71.673896789551 -225.351287841797 2.071168184280
-134.721130371094 -71.639411926270 -226.662796020508 1.721789598465
-115.973686218262 -71.379409790039 -228.810668945313 1.234209895134
16.668960571289 -70.653175354004 -221.245910644531 1.399634599686
78.302978515625 -71.864974975586 -221.143478393555 3.352401971817
6.669342994690 -71.309814453125 -223.932113647461 2.310823678970
-109.878845214844 -69.750938415527 -232.466644287109 1.233894228935
72.326774597168 -72.667816162109 -227.644027709961 1.813810944557
83.992630004883 -72.902313232422 -229.217437744141 2.547336101532
-125.168411254883 -70.103012084961 -236.793258666992 2.314610242844
-117.042945861816 -70.412963867188 -232.081604003906 0.377681523561
-10.045139312744 -68.059013366699 -228.427368164063 1.795718431473
71.990982055664 -72.450111389160 -231.241226196289 1.707000613213
64.672973632813 -72.279457092285 -233.118865966797 3.195399999619
73.280342102051 -71.276557922363 -229.327316284180 1.610208749771
-135.210906982422 -66.988029479980 -235.885406494141 1.891688227654
70.184600830078 -72.820724487305 -232.229354858398 0.966060221195
66.233848571777 -69.546478271484 -235.227249145508 1.192455053329
-166.132873535156 -68.653038024902 -232.630966186523 1.610200166702
1.491788983345 -77.497741699219 -241.504455566406 1.020427107811
19.439117431641 -72.565612792969 -239.858428955078 1.643758654594
-5.911845207214 -68.611358642578 -241.278228759766 3.052915096283
15.875564575195 -66.481994628906 -239.673339843750 2.967902421951
66.294738769531 -72.630828857422 -238.061279296875 1.266393303871
9.050032615662 -69.464660644531 -243.849166870117 1.347417235374
-10.801207542419 -65.237190246582 -241.432998657227 2.580063819885
-0.454874008894 -68.099220275879 -238.013549804688 1.374720454216
65.056877136230 -72.290634155273 -242.378280639648 0.549909651279
3.165385007858 -71.718704223633 -243.099700927734 1.531065344810
-6.882699012756 -71.867988586426 -243.770202636719 0.672965228558
14.375509262085 -73.632392883301 -243.332382202148 2.049198389053
-167.398391723633 -71.557357788086 -243.257141113281 2.181457281113
56.176120758057 -71.882766723633 -247.286804199219 0.808714628220
50.171512603760 -66.033241271973 -250.906692504883 1.504397034645
58.304515838623 -72.318016052246 -242.822998046875 1.851521372795
-11.997844696045 -69.376113891602 -248.583953857422 1.577452659607
57.326305389404 -71.397064208984 -245.705917358398 1.387184023857
-73.720878601074 -70.102844238281 -251.115432739258 1.698059201241
50.935203552246 -71.910240173340 -248.738723754883 1.422627091408
-88.558731079102 -70.256294250488 -253.880294799805 1.429907083511
-122.997703552246 -71.241081237793 -258.378631591797 2.295872449875
-132.213531494141 -70.072525024414 -254.724868774414 2.413305997849
46.294452667236 -72.998901367188 -251.996902465820 2.253304004669
-132.394271850586 -72.593513488770 -254.984710693359 1.414574027061
-108.982711791992 -68.512886047363 -256.654937744141 1.102668642998
-115.838485717773 -67.980018615723 -259.080444335938 1.423657774925
-83.553642272949 -70.860748291016 -256.016265869141 1.716711759567
-110.749061584473 -68.532218933105 -260.721282958984 1.221834063530
-123.835922241211 -73.298179626465 -264.146057128906 1.668668508530
-146.183776855469 -67.420227050781 -269.513183593750 3.985668420792
-15.005860328674 -69.558135986328 -266.321807861328 1.645168066025
-171.070968627930 -71.691772460938 -266.617156982422 3.562654495239
-14.229220390320 -70.271224975586 -274.477233886719 1.286760568619
-158.680755615234 -66.609542846680 -269.294128417969 4.271625518799
-152.352127075195 -70.015251159668 -275.400756835938 2.600454807281
-169.552062988281 -69.572906494141 -279.652496337891 4.004857063293
-13.843077659607 -70.834823608398 -280.036315917969 3.373797416687
-129.791091918945 -72.172782897949 -284.929321289063 3.107639551163
-157.599456787109 -69.373092651367 -288.235015869141 2.071161985397
-143.564270019531 -68.840187072754 -282.842681884766 1.559731721878
-134.515808105469 -72.624610900879 -282.317687988281 2.506750583649
-7.743230819702 -65.135620117188 -285.076507568359 3.182946205139
-125.485038757324 -73.311119079590 -285.157196044922 1.483478069305
-140.598388671875 -67.759941101074 -287.451751708984 1.571638584137
-115.331512451172 -72.792671203613 -287.363861083984 1.032858967781
-78.545661926270 -68.330848693848 -289.319274902344 2.608115911484
-60.285614013672 -70.975326538086 -288.179992675781 2.072754144669
-6.583111763000 -71.678771972656 -288.469177246094 1.335269093513
-53.506542205811 -69.218154907227 -286.762878417969 2.167057991028
-56.763771057129 -68.060752868652 -289.697784423828 2.839448451996
-69.948867797852 -68.507904052734 -291.515167236328 2.893847703934
-87.578506469727 -69.151748657227 -295.141387939453 3.405814647675
-94.594673156738 -67.821754455566 -290.403167724609 2.555871009827
-159.880584716797 -68.666160583496 -293.488037109375 2.574596166611
-160.632583618164 -70.440956115723 -295.751556396484 2.618592977524
-124.180320739746 -72.532623291016 -295.598693847656 1.347497463226
-144.187911987305 -69.823143005371 -296.867126464844 2.311363935471
-152.536270141602 -71.757705688477 -305.699981689453 2.872072696686
-149.891098022461 -71.796173095703 -314.086425781250 1.936111330986
46.057209014893 -71.084342956543 -14.745703697205 2.679085254669
14.988380432129 -73.855331420898 -30.185123443604 5.809255123138
40.259552001953 -69.020477294922 -34.810642242432 1.668283104897
-16.949003219604 -74.833503723145 -67.066268920898 2.531717538834
80.356346130371 -70.583656311035 -64.921318054199 2.731567382813
87.249984741211 -68.493682861328 -65.688644409180 0.718603014946
76.434921264648 -75.362228393555 -65.327285766602 5.623325347900
71.307762145996 -73.463813781738 -69.118835449219 3.430875301361
89.816467285156 -74.652824401855 -74.668296813965 1.860186815262
-97.523025512695 -68.108352661133 -71.647361755371 3.218864917755
66.446701049805 -72.775894165039 -75.330177307129 4.312759876251
-37.909030914307 -72.535484313965 -78.243568420410 1.715225577354
97.637588500977 -72.152343750000 -85.516456604004 1.034368038177
60.240524291992 -69.387382507324 -90.361297607422 1.789871335030
105.865951538086 -76.553436279297 -93.241798400879 5.536799907684
100.338165283203 -75.529769897461 -98.049278259277 1.283774614334
71.137077331543 -71.743881225586 -100.525093078613 2.304285049438
-81.353553771973 -69.849082946777 -102.767288208008 2.601604938507
53.196224212646 -71.668647766113 -104.276382446289 1.829241991043
105.981277465820 -69.440238952637 -105.583549499512 1.677819490433
45.964157104492 -72.256706237793 -112.507965087891 2.143053293228
78.752990722656 -70.753021240234 -105.220733642578 1.693475961685
40.489192962646 -71.228431701660 -107.600067138672 1.562855243683
103.071006774902 -71.604232788086 -102.824508666992 1.452274203300
46.410003662109 -71.050666809082 -107.884613037109 2.194105386734
106.089561462402 -76.596839904785 -109.497695922852 2.207040071487
109.001785278320 -74.738166809082 -110.882583618164 1.096537351608
-80.531707763672 -68.894927978516 -115.393310546875 2.338342428207
-84.028388977051 -69.025665283203 -120.619560241699 2.065195798874
42.842567443848 -74.375595092773 -120.193122863770 2.519212245941
112.736328125000 -73.334892272949 -120.810180664063 1.892330884933
112.644142150879 -71.457267761230 -123.087234497070 1.183825254440
-88.276031494141 -69.751708984375 -128.271514892578 0.736217796803
104.939613342285 -73.467361450195 -125.353523254395 4.650284290314
-60.366542816162 -74.882003784180 -132.870544433594 3.700562238693
-87.210006713867 -70.939041137695 -128.584533691406 2.346911907196
-73.583213806152 -70.864585876465 -128.313552856445 2.040399312973
-60.220302581787 -67.052101135254 -127.790420532227 1.909131288528
30.624950408936 -70.889770507813 -130.399002075195 1.389521956444
41.421588897705 -69.698661804199 -134.827331542969 3.374648809433
-74.093070983887 -70.260696411133 -137.773498535156 2.065812826157
27.747076034546 -69.305603027344 -131.184631347656 2.517673969269
110.797431945801 -71.506263732910 -142.418945312500 1.481401085854
-41.019569396973 -70.710006713867 -149.145111083984 1.564833164215
29.547176361084 -71.844757080078 -149.080749511719 2.328023672104
113.062347412109 -69.880805969238 -147.173248291016 1.644174098969
34.664661407471 -71.652503967285 -142.927978515625 1.815302729607
109.481643676758 -70.311920166016 -140.318832397461 1.983094334602
-53.165225982666 -70.815231323242 -150.361892700195 1.238448143005
-72.076004028320 -67.965202331543 -152.101638793945 0.622626900673
-55.918300628662 -71.006271362305 -153.546997070313 3.076059341431
-42.786186218262 -73.853225708008 -165.853317260742 1.939920783043
3.929512977600 -72.081924438477 -156.319259643555 1.630460262299
109.050888061523 -71.580062866211 -153.016799926758 2.705835580826
108.245437622070 -71.191947937012 -159.130187988281 2.530320405960
9.297290802002 -70.215492248535 -157.836578369141 1.900510907173
2.589869022369 -70.788955688477 -161.762924194336 1.305625200272
18.462886810303 -70.148765563965 -155.558883666992 3.245814085007
24.896120071411 -69.606689453125 -155.904281616211 1.837918758392
108.064704895020 -70.828453063965 -165.129486083984 1.692608714104
108.900489807129 -74.264877319336 -167.233444213867 1.451063394547
23.355079650879 -68.146301269531 -174.635375976563 2.288480281830
24.288160324097 -72.842628479004 -164.087371826172 3.218765497208
111.531364440918 -69.396408081055 -161.448379516602 2.244672298431
-29.671583175659 -69.286064147949 -177.915481567383 0.769790470600
109.559165954590 -71.444900512695 -167.248229980469 2.285239219666
16.877382278442 -71.231109619141 -167.921493530273 1.803489804268
20.976383209229 -70.645065307617 -168.005111694336 2.635371685028
107.937004089355 -71.352203369141 -172.356582641602 1.420545816422
26.122606277466 -69.917663574219 -170.605834960938 1.127701520920
111.796646118164 -70.422889709473 -183.166168212891 1.717689871788
-38.834453582764 -69.705467224121 -178.522781372070 3.448657274246
24.501508712769 -70.347442626953 -171.349166870117 0.821214914322
106.995605468750 -70.916992187500 -183.363571166992 1.669493794441
22.556354522705 -71.634956359863 -178.833663940430 0.589545011520
-152.322540283203 -68.198654174805 -188.315307617188 1.508860945702
-28.645929336548 -67.355735778809 -190.038558959961 0.877845108509
24.119195938110 -68.563880920410 -185.134414672852 2.029088973999
-114.185638427734 -71.166206359863 -193.378097534180 2.548267364502
-111.267593383789 -67.407859802246 -192.779998779297 3.052700757980
23.327884674072 -71.089294433594 -188.789611816406 0.818484127522
11.199872970581 -68.665313720703 -185.379989624023 4.301302433014
-27.312715530396 -67.720291137695 -190.916275024414 1.291447758675
-30.101060867310 -73.997070312500 -189.971801757813 0.735188603401
-28.470367431641 -70.600952148438 -187.911804199219 1.879268169403
14.289587020874 -68.593811035156 -180.306320190430 2.404384613037
-151.237609863281 -69.458038330078 -196.914566040039 2.446107864380
-145.757431030273 -69.194488525391 -194.634307861328 2.578609466553
-144.760513305664 -72.348129272461 -200.123321533203 1.963407158852
-23.335132598877 -69.309623718262 -192.059844970703 1.858822822571
13.311308860779 -68.229881286621 -199.902313232422 1.128383517265
98.456794738770 -70.074020385742 -192.933959960938 2.047282934189
-114.075500488281 -68.545227050781 -199.844390869141 3.080966472626
20.892919540405 -73.629661560059 -198.663009643555 1.535421133041
-15.696511268616 -69.191925048828 -196.160934448242 0.728276789188
-18.069490432739 -69.559913635254 -199.358200073242 2.049911975861
100.622856140137 -69.702659606934 -199.108489990234 2.393232107162
7.574197769165 -72.170829772949 -199.701797485352 2.450977087021
-22.333429336548 -68.486038208008 -197.155334472656 1.470373511314
-121.673629760742 -72.456565856934 -204.684722900391 2.775755167007
-134.491958618164 -69.615890502930 -204.990341186523 1.774729371071
-114.356597900391 -65.231391906738 -206.425704956055 3.121188402176
-142.497024536133 -72.162300109863 -205.171585083008 1.834933638573
17.151088714600 -70.010093688965 -198.080154418945 0.863263905048
93.481613159180 -72.002380371094 -201.518524169922 0.399708598852
-166.232269287109 -64.888519287109 -203.417373657227 2.408137798309
99.678039550781 -70.457817077637 -201.787246704102 1.186960935593
-21.942453384399 -73.652458190918 -206.771057128906 2.950339078903
94.365150451660 -68.694671630859 -210.199478149414 2.086827278137
87.822372436523 -72.060905456543 -211.261245727539 0.323964297771
11.838348388672 -71.934539794922 -206.384597778320 2.121268749237
19.538658142090 -69.697265625000 -212.330154418945 1.891032338142
12.579347610474 -67.476005554199 -208.235778808594 1.217900872231
-11.010354995728 -70.347938537598 -223.023269653320 2.155849456787
-94.610130310059 -71.463050842285 -219.974914550781 1.758833646774
-10.679973602295 -72.112579345703 -212.914596557617 1.696113109589
88.859642028809 -70.858718872070 -216.052597045898 2.290702819824
-93.740104675293 -71.678840637207 -219.046142578125 2.209952831268
-101.283454895020 -67.275939941406 -222.623336791992 1.573292136192
-94.619163513184 -70.179725646973 -220.868942260742 1.000988721848
88.077301025391 -72.172172546387 -221.738418579102 2.166291713715
-135.413833618164 -69.686714172363 -226.894577026367 2.155537843704
-132.571823120117 -73.115173339844 -228.452255249023 1.079404234886
-116.777732849121 -69.278015136719 -226.390884399414 1.926231980324
-113.236740112305 -66.828430175781 -224.712310791016 2.012857675552
-133.441024780273 -67.868324279785 -228.916015625000 3.494245290756
-111.836601257324 -75.928535461426 -229.075469970703 3.582112550735
-112.301979064941 -69.254966735840 -229.590545654297 2.388224363327
-7.005987167358 -73.223609924316 -225.266204833984 1.565259695053
-16.090375900269 -72.227935791016 -223.870544433594 1.366391539574
-1.035140991211 -68.128677368164 -230.995910644531 0.342727631330
-10.248603820801 -67.247779846191 -227.625854492188 0.788580596447
15.344593048096 -70.883728027344 -233.944152832031 1.067561030388
-18.930063247681 -68.322067260742 -229.843933105469 2.942869901657
-166.981155395508 -67.551246643066 -224.290573120117 1.344354629517
-4.149851799011 -70.015373229980 -234.064636230469 1.242303252220
80.763008117676 -67.801445007324 -231.034255981445 3.304933786392
10.918414115906 -71.879692077637 -234.132064819336 2.235755443573
-5.921442031860 -69.314613342285 -235.390045166016 1.509099960327
-156.869598388672 -66.895622253418 -238.423873901367 2.650155782700
-142.349136352539 -67.810073852539 -232.205673217773 1.122351288795
62.580810546875 -69.191276550293 -235.907730102539 1.046782135963
-5.696394920349 -70.953773498535 -234.738830566406 0.523387312889
9.234759330750 -72.157127380371 -231.220916748047 2.656018018723
69.352943420410 -72.669464111328 -230.253097534180 0.685167610645
76.926429748535 -70.941146850586 -234.205200195313 2.052136898041
71.066146850586 -71.579917907715 -241.327606201172 2.316232204437
-1.606402993202 -72.812599182129 -236.292190551758 0.579450786114
58.054618835449 -68.777069091797 -238.010787963867 2.811584949493
-19.012304306030 -72.437316894531 -240.472640991211 1.970867514610
-15.240159034729 -67.673286437988 -241.069503784180 2.632581472397
8.241789817810 -69.994934082031 -239.848220825195 1.580976247787
64.769851684570 -73.583564758301 -237.921890258789 0.966488897800
65.474617004395 -68.988365173340 -240.650634765625 1.650074958801
49.691204071045 -70.525863647461 -246.262741088867 2.477089166641
61.164501190186 -73.463890075684 -242.790100097656 1.558422446251
-15.444461822510 -74.262580871582 -250.381378173828 2.854667901993
-83.444541931152 -66.889739990234 -255.437149047852 2.879045486450
-76.710502624512 -67.506370544434 -254.143478393555 3.437286376953
44.339973449707 -73.019203186035 -247.980148315430 2.705745458603
-149.022354125977 -70.176773071289 -252.508148193359 2.811238050461
36.173728942871 -70.168098449707 -256.480255126953 2.165718078613
-91.935806274414 -72.839569091797 -253.269104003906 1.751034736633
-156.087478637695 -65.343986511230 -256.566772460938 1.287950873375
-140.165283203125 -63.067142486572 -255.034378051758 2.246567964554
45.310878753662 -70.079467773438 -253.686859130859 1.806180238724
-124.794769287109 -65.379272460938 -259.471008300781 0.868320345879
-116.728958129883 -69.469589233398 -256.905120849609 1.509117960930
-92.182022094727 -65.462928771973 -258.401000976563 2.753872156143
-13.572631835938 -66.756988525391 -251.041732788086 2.681797504425
32.049766540527 -69.830421447754 -257.487609863281 1.409729003906
25.152097702026 -67.555580139160 -259.790130615234 1.647061944008
-158.749526977539 -64.592872619629 -262.194091796875 3.270016193390
-114.547744750977 -71.770317077637 -264.222229003906 1.465863466263
-13.712508201599 -69.483596801758 -262.619201660156 1.041147828102
-132.556594848633 -68.811431884766 -267.064819335938 3.612824201584
-13.854354858398 -68.510299682617 -270.972290039063 1.768791437149
-164.600646972656 -67.995285034180 -274.469604492188 2.589146614075
-6.973779201508 -70.636039733887 -280.098114013672 2.637093305588
-160.482437133789 -68.968101501465 -289.720306396484 0.707576334476
-163.555877685547 -70.512519836426 -279.844238281250 1.940889477730
-142.239913940430 -68.999313354492 -286.972869873047 1.319783210754
-169.824020385742 -70.540122985840 -286.666809082031 2.086386203766
14.410330772400 -71.943641662598 -288.427429199219 0.889280438423
-102.800651550293 -70.022521972656 -287.984283447266 2.965048313141
-86.807716369629 -65.103935241699 -287.272583007813 3.739843368530
-167.414474487305 -65.894210815430 -286.537811279297 4.072901248932
-91.706115722656 -72.910934448242 -285.365966796875 2.887865543365
-153.339874267578 -69.140342712402 -290.338806152344 2.978410482407
-75.067657470703 -70.051170349121 -294.826263427734 4.799487590790
-70.262878417969 -68.543434143066 -289.876281738281 2.097546815872
-82.152183532715 -70.123687744141 -292.585510253906 2.125905036926
-3.326822996140 -67.086067199707 -289.518493652344 1.894515156746
-87.664512634277 -69.062675476074 -289.950073242188 1.898785591125
-98.632194519043 -70.399543762207 -292.343231201172 1.701629161835
-116.281433105469 -69.221221923828 -294.220764160156 2.276948690414
-116.186035156250 -66.264709472656 -294.338714599609 3.456407785416
-133.796142578125 -68.178344726563 -293.901580810547 2.529880523682
-142.370391845703 -68.913520812988 -302.577056884766 2.404663801193
-143.713851928711 -70.057037353516 -313.542022705078 2.643324136734
22.085895538330 -69.415267944336 -15.444423675537 4.044811248779
30.531047821045 -70.663902282715 -16.633073806763 1.590502381325
27.566143035889 -73.266296386719 -18.527517318726 1.880993723869
42.411537170410 -69.438468933105 -20.689306259155 1.084389805794
23.247646331787 -71.068367004395 -31.946636199951 1.269616007805
-76.415351867676 -68.580101013184 -48.186634063721 2.281779527664
88.359603881836 -67.067901611328 -65.181045532227 1.423136234283
-18.948469161987 -68.703704833984 -68.171997070313 3.759168863297
101.353279113770 -70.189567565918 -72.459365844727 1.661292076111
93.809432983398 -74.931121826172 -75.268585205078 0.993303418159
67.272766113281 -72.373336791992 -78.368911743164 2.091423034668
