-14.373615264893 -77.558372497559 -266.388366699219 3.255448579788
-148.693725585938 -79.798309326172 -272.345489501953 0.915444850922
-148.958663940430 -80.420646667480 -281.027160644531 1.778383731842
-150.517822265625 -79.573844909668 -281.998321533203 0.712686121464
-5.066877841949 -72.491195678711 -285.216705322266 1.992593169212
-147.519500732422 -76.684478759766 -283.083557128906 1.255661725998
-29.396020889282 -77.532814025879 -286.539001464844 2.142837762833
-30.052192687988 -75.095298767090 -286.328613281250 1.914842605591
-16.686706542969 -74.693603515625 -291.834014892578 2.026068210602
-13.953236579895 -74.297348022461 -291.114227294922 1.826803326607
11.642301559448 -77.475929260254 -291.828094482422 2.332979440689
-126.570396423340 -80.670845031738 -288.653808593750 3.738457441330
-60.983924865723 -77.753417968750 -287.466308593750 3.112520694733
-42.012645721436 -75.213333129883 -289.669891357422 1.766248822212
-34.018737792969 -77.518486022949 -288.398315429688 0.776751101017
-10.540066719055 -74.831863403320 -292.545074462891 2.221841096878
3.825290918350 -76.346824645996 -288.691009521484 1.178717255592
-143.939346313477 -81.581336975098 -294.617156982422 1.687276005745
8.449308395386 -75.990745544434 -294.268188476563 2.026894569397
-154.313964843750 -78.830368041992 -300.517761230469 1.962017059326
-153.580200195313 -83.429878234863 -299.858520507813 1.719415307045
-154.728546142578 -77.974449157715 -310.289276123047 3.140815019608
-145.965301513672 -79.580284118652 -308.858428955078 2.846254587173
-49.259963989258 -77.430206298828 -52.305240631104 2.913541078568
-53.789356231689 -80.297843933105 -56.029167175293 3.385215997696
-64.769859313965 -76.919921875000 -54.889732360840 2.130191087723
-40.384532928467 -76.324020385742 -60.798751831055 1.383783459663
-35.220191955566 -77.349426269531 -59.244323730469 2.426847696304
-19.441072463989 -76.053085327148 -69.306533813477 1.411776185036
-80.988517761230 -76.951354980469 -68.212951660156 1.797371625900
84.803840637207 -74.309638977051 -79.615333557129 1.173349618912
-89.233779907227 -77.785713195801 -76.506927490234 3.625631570816
82.525283813477 -72.985237121582 -80.338760375977 3.832422971725
87.823638916016 -71.011299133301 -85.213264465332 5.990137577057
96.618980407715 -71.426155090332 -89.575050354004 2.618081569672
-59.245143890381 -81.332839965820 -95.413284301758 1.647755384445
83.468528747559 -74.293563842773 -96.846786499023 1.637401938438
78.588577270508 -76.743927001953 -92.913139343262 0.861298918724
87.566947937012 -74.098678588867 -91.594955444336 3.474491596222
-59.925743103027 -79.502906799316 -97.070297241211 2.760052442551
51.250404357910 -73.422454833984 -98.523086547852 1.704355001450
46.493236541748 -74.667533874512 -107.391578674316 2.168025255203
41.221031188965 -75.746917724609 -104.927467346191 2.089953422546
37.744071960449 -75.426261901855 -105.234466552734 2.939211845398
-90.895576477051 -76.289970397949 -106.541534423828 0.674193680286
36.407611846924 -74.160095214844 -118.043533325195 2.452853918076
-84.053771972656 -79.269676208496 -107.991012573242 2.946558952332
41.994209289551 -76.388984680176 -126.219711303711 1.153499364853
34.032783508301 -76.053085327148 -122.141342163086 2.602323770523
34.311267852783 -70.003349304199 -122.331077575684 1.654196977615
44.308135986328 -73.815818786621 -119.266738891602 2.016089916229
41.138858795166 -76.943977355957 -128.403991699219 2.189081430435
-51.893207550049 -72.910804748535 -135.043273925781 0.410828799009
37.478588104248 -77.764678955078 -135.511581420898 0.677113413811
36.288311004639 -74.564270019531 -143.900802612305 2.878082990646
-53.817653656006 -75.252243041992 -141.723159790039 2.571389436722
-45.789207458496 -77.371971130371 -140.203903198242 1.546686410904
35.230449676514 -74.522308349609 -143.696670532227 2.765485048294
111.123107910156 -69.532669067383 -142.835617065430 1.182178616524
113.177520751953 -70.173965454102 -146.024490356445 1.751436471939
26.958911895752 -76.266448974609 -143.295639038086 0.768741667271
-40.583957672119 -78.919509887695 -149.092819213867 1.203759670258
115.093208312988 -76.735702514648 -155.005966186523 1.972795367241
-38.513698577881 -75.583106994629 -152.874313354492 2.071512937546
-67.746398925781 -77.575157165527 -160.038345336914 2.253681421280
110.885658264160 -75.446807861328 -159.878860473633 2.371275186539
22.870889663696 -75.647155761719 -165.330184936523 2.542722225189
0.764360010624 -76.793220520020 -163.179351806641 2.064178705215
112.079238891602 -72.699836730957 -155.996566772461 1.020118355751
-64.044670104980 -77.250839233398 -164.870819091797 0.551875770092
-37.786979675293 -77.186286926270 -163.167816162109 2.164059638977
112.299659729004 -72.735404968262 -166.274383544922 2.654664516449
28.552221298218 -71.745086669922 -159.139465332031 2.298769474030
-62.536190032959 -73.047645568848 -164.899749755859 2.178997755051
112.148780822754 -72.899650573730 -167.925918579102 1.407895207405
-64.974273681641 -79.243095397949 -168.209655761719 1.643065810204
-50.063983917236 -79.232139587402 -180.234252929688 0.623946130276
106.272636413574 -71.750686645508 -173.013854980469 1.398138523102
-59.693317413330 -75.988227844238 -170.580322265625 0.967719912529
111.872268676758 -71.821723937988 -177.925537109375 1.684028148651
-60.617401123047 -77.089096069336 -174.839324951172 1.456825613976
-14.996900558472 -74.398658752441 -177.549911499023 3.284134864807
-11.064914703369 -79.678611755371 -181.124313354492 3.089891195297
107.936973571777 -73.879486083984 -170.498245239258 1.383690834045
21.252286911011 -75.825569152832 -172.274322509766 2.099776268005
29.703771591187 -71.973289489746 -170.562576293945 1.812277555466
-57.100608825684 -76.511169433594 -176.749816894531 1.248972058296
18.214635848999 -73.888160705566 -182.477966308594 2.464607715607
-57.584537506104 -77.434867858887 -175.257812500000 0.977438449860
-51.909904479980 -75.926345825195 -190.412414550781 1.108476877213
12.445235252380 -73.613220214844 -184.426544189453 1.350660085678
-57.105823516846 -74.366134643555 -179.810714721680 1.714749693871
106.688636779785 -70.952743530273 -188.471282958984 1.126620650291
24.760929107666 -76.563804626465 -182.017364501953 1.470427751541
-33.831672668457 -74.812705993652 -188.293624877930 2.447162151337
-42.738693237305 -78.110603332520 -190.731262207031 1.437406778336
11.097287178040 -76.257835388184 -193.196609497070 1.981346368790
-19.053035736084 -77.169250488281 -189.553878784180 0.944482743740
-48.841751098633 -78.099510192871 -194.359680175781 1.769549965858
102.681434631348 -75.249443054199 -185.110473632813 2.507119178772
12.310500144958 -77.328590393066 -191.016342163086 1.738260626793
-133.624526977539 -83.106430053711 -197.755004882813 2.173774957657
-45.869686126709 -78.712989807129 -194.247100830078 0.817799985409
95.466461181641 -72.304626464844 -200.276428222656 1.521739482880
-148.754653930664 -85.301780700684 -200.684646606445 2.939315080643
18.142810821533 -75.264862060547 -198.164154052734 2.788859605789
-42.998882293701 -74.589439392090 -205.291610717773 3.614413261414
-31.252237319946 -78.541954040527 -205.670715332031 1.474747538567
-37.369113922119 -77.131340026855 -202.961807250977 1.773088574409
-44.697677612305 -80.560256958008 -197.216857910156 1.609247326851
99.928794860840 -72.677108764648 -204.799377441406 1.297414422035
-20.621763229370 -78.525833129883 -201.396224975586 0.770440757275
-150.405593872070 -80.076995849609 -201.294357299805 1.399963617325
15.793104171753 -76.528587341309 -203.897644042969 1.477384448051
-76.861671447754 -81.502693176270 -206.341125488281 2.598477840424
-146.840301513672 -78.502906799316 -210.774856567383 1.546665072441
94.637298583984 -73.729660034180 -213.357452392578 1.582369685173
-33.131195068359 -75.394477844238 -207.035858154297 1.752486586571
-29.215343475342 -76.610221862793 -212.448059082031 1.998983979225
8.619875907898 -76.032493591309 -210.918045043945 1.004588007927
-71.657424926758 -80.466293334961 -209.194381713867 1.029952287674
-28.259874343872 -81.313735961914 -207.675765991211 2.729424715042
-7.109313011169 -76.481864929199 -216.128021240234 1.793604850769
-72.433341979980 -79.113761901855 -213.645874023438 1.639539003372
-14.686646461487 -76.222808837891 -217.510299682617 1.955868840218
7.419772148132 -69.899353027344 -212.735412597656 2.194315671921
14.095222473145 -77.137924194336 -220.908721923828 2.170092105865
-150.282623291016 -81.090965270996 -215.614028930664 2.468383550644
-8.702168464661 -75.620529174805 -214.659744262695 1.985831379890
-99.292282104492 -75.098922729492 -219.413543701172 2.195122003555
-22.253942489624 -75.578750610352 -219.776260375977 1.209516048431
89.735466003418 -76.544227600098 -213.274398803711 0.574894487858
7.342435836792 -74.183448791504 -226.054290771484 2.214282512665
18.758636474609 -74.308403015137 -217.030639648438 3.126432418823
80.385597229004 -73.867370605469 -218.220947265625 3.440144777298
0.727456986904 -77.738441467285 -228.847457885742 0.564228594303
85.323936462402 -73.294532775879 -218.359161376953 1.661329269409
-19.794893264771 -73.557540893555 -223.465454101563 1.882230758667
15.351707458496 -73.374519348145 -219.556869506836 2.339447021484
-147.613723754883 -81.287246704102 -219.314163208008 2.895733594894
-23.575525283813 -77.462219238281 -225.421966552734 2.479868650436
1.213394045830 -74.461708068848 -229.549804687500 2.632023096085
-156.040847778320 -84.130371093750 -225.025085449219 4.399676322937
-137.357666015625 -80.975479125977 -226.827133178711 2.065667390823
4.617732048035 -75.166305541992 -224.866592407227 0.966488838196
-4.487266063690 -73.591796875000 -228.277191162109 1.839542746544
-137.188446044922 -77.122985839844 -228.801116943359 2.191956758499
-147.064086914063 -80.466667175293 -237.855606079102 2.751216888428
-148.472656250000 -80.091285705566 -234.542633056641 2.293203353882
-32.840560913086 -77.229301452637 -237.424865722656 1.724401235580
-144.487182617188 -81.487762451172 -241.375015258789 0.452171117067
16.933452606201 -75.634063720703 -242.031524658203 2.169344663620
4.607326984406 -75.116722106934 -244.254287719727 2.030000686646
-151.095046997070 -76.307243347168 -235.751296997070 1.280187249184
-149.905670166016 -79.828262329102 -242.570510864258 1.529127955437
-47.002578735352 -78.141891479492 -243.847961425781 1.037757158279
-32.120742797852 -77.189682006836 -245.631225585938 2.525951862335
3.985768079758 -76.116607666016 -244.453308105469 1.817323207855
-37.988246917725 -77.836288452148 -245.201919555664 1.976681709290
21.663784027100 -75.198356628418 -247.369277954102 0.846928119659
-6.220180988312 -77.871803283691 -251.328414916992 1.202041387558
-147.418914794922 -80.392951965332 -251.415542602539 1.483094811440
-9.507719993591 -79.579910278320 -252.376129150391 2.356942892075
-148.513366699219 -78.532814025879 -247.606643676758 2.261955022812
-67.020523071289 -78.755981445313 -249.335983276367 2.438702821732
-148.670684814453 -86.597877502441 -258.088226318359 2.311899662018
-127.612205505371 -78.845123291016 -257.385955810547 2.244087457657
-152.190551757813 -78.444366455078 -257.248229980469 3.005596399307
-12.561445236206 -73.593826293945 -266.684844970703 3.394332885742
-146.737213134766 -84.065773010254 -268.205535888672 0.937344789505
-150.531265258789 -80.238639831543 -266.440551757813 1.953846573830
-11.977493286133 -76.713859558105 -270.561218261719 1.458424329758
-146.307067871094 -80.120895385742 -269.188598632813 1.903549432755
-6.335743904114 -74.991516113281 -277.885528564453 0.729730248451
-47.061885833740 -76.231491088867 -284.861724853516 1.986930012703
-135.578552246094 -77.676628112793 -287.188537597656 1.553243279457
-135.597900390625 -78.471008300781 -284.702362060547 3.161335706711
-125.572052001953 -76.694175720215 -282.612579345703 2.283445119858
-53.574504852295 -76.086456298828 -286.111877441406 1.561750650406
-114.443199157715 -76.782402038574 -284.619873046875 3.813900232315
14.916378974915 -74.398635864258 -291.697418212891 1.589184641838
-59.356624603271 -75.563056945801 -288.282287597656 2.005951166153
-142.370803833008 -78.858291625977 -290.812042236328 0.730036079884
-63.942295074463 -75.985054016113 -289.853302001953 2.210038900375
-144.894699096680 -83.267547607422 -291.262786865234 0.828470408916
-118.072555541992 -76.911132812500 -289.551849365234 0.796241223812
-47.572135925293 -77.982688903809 -290.125549316406 2.503670454025
-35.331214904785 -76.353599548340 -291.106811523438 2.151654481888
-137.397979736328 -76.494071960449 -292.885711669922 2.475271701813
-13.962111473083 -72.354057312012 -285.798400878906 2.160919666290
2.119854927063 -74.913307189941 -289.093902587891 1.744090795517
5.412655830383 -74.011405944824 -291.274017333984 2.482762098312
14.042126655579 -75.479904174805 -295.102325439453 1.174883961678
-150.748672485352 -82.245803833008 -295.826507568359 2.765262126923
-147.352340698242 -77.880355834961 -294.372772216797 1.528656005859
-66.428634643555 -76.982940673828 -60.792697906494 1.186946988106
89.411964416504 -73.686508178711 -74.573226928711 2.260745525360
79.864738464355 -73.943099975586 -77.870079040527 1.979166746140
-26.072320938110 -78.198699951172 -76.579216003418 1.873625516891
85.152404785156 -71.736083984375 -76.517829895020 2.071069240570
-35.756496429443 -78.335830688477 -79.838188171387 1.747058629990
85.772415161133 -70.993194580078 -81.710021972656 4.580160617828
95.840660095215 -70.436653137207 -81.920196533203 4.271914958954
-63.994102478027 -71.603843688965 -94.287620544434 1.035561084747
74.831932067871 -73.570739746094 -94.893318176270 1.868959069252
81.145614624023 -71.746330261230 -98.371543884277 2.742572069168
95.731040954590 -74.444763183594 -95.902603149414 1.334052681923
56.208129882813 -74.900833129883 -98.282768249512 2.308728218079
-69.637588500977 -77.205215454102 -100.876777648926 2.302878141403
-73.603179931641 -73.663452148438 -100.760177612305 1.241053462029
50.828022003174 -75.488365173340 -105.046684265137 0.873774230480
-88.125617980957 -79.552566528320 -102.792251586914 1.822597384453
46.918350219727 -72.291481018066 -118.241561889648 0.837400913239
111.264862060547 -71.335357666016 -120.454216003418 0.684241056442
113.210487365723 -73.328048706055 -132.338867187500 1.670204401016
23.674606323242 -73.146575927734 -138.090621948242 2.350076913834
110.923477172852 -72.972511291504 -128.012939453125 1.886764407158
28.422552108765 -73.035751342773 -134.348556518555 2.091850519180
113.691818237305 -68.100807189941 -132.273330688477 2.382664918900
38.248802185059 -72.910041809082 -135.157119750977 1.714555740356
-53.722007751465 -77.138496398926 -141.493820190430 1.319768071175
36.159008026123 -75.884712219238 -144.407150268555 2.431141853333
109.633682250977 -70.322372436523 -137.430572509766 1.890767335892
-47.382488250732 -75.574745178223 -143.898239135742 1.037732005119
32.490669250488 -73.613784790039 -149.795639038086 1.072183609009
-56.003372192383 -73.121459960938 -140.045410156250 1.304001688957
-56.200370788574 -77.134315490723 -145.479873657227 2.200621366501
-51.187709808350 -78.783325195313 -149.545242309570 2.655312299728
-64.171394348145 -79.103622436523 -155.547836303711 1.402797579765
113.640022277832 -74.406982421875 -149.161956787109 0.877574980259
-49.605831146240 -80.737579345703 -155.033050537109 2.598437309265
22.925121307373 -77.670349121094 -156.147277832031 1.375079512596
108.932487487793 -72.460128784180 -161.386459350586 1.547376751900
-65.620849609375 -76.664550781250 -155.027984619141 1.130675196648
-44.800434112549 -77.406005859375 -156.446685791016 1.584232330322
8.978752136230 -72.754974365234 -154.956802368164 1.312708735466
-67.474815368652 -77.008117675781 -156.442596435547 1.345785140991
-62.477092742920 -78.557189941406 -159.334533691406 2.722697496414
-0.013571999967 -75.235549926758 -162.433609008789 1.373858094215
-42.690567016602 -74.213516235352 -167.310989379883 1.558353781700
29.963857650757 -72.403877258301 -166.598358154297 2.730971813202
-62.503334045410 -74.522361755371 -166.713973999023 0.556171178818
-56.257980346680 -78.022491455078 -166.974807739258 1.736317992210
17.218099594116 -76.582046508789 -160.801483154297 3.503896951675
-30.453580856323 -75.449752807617 -168.753234863281 1.174698829651
-29.043502807617 -77.986450195313 -166.787719726563 1.715876936913
16.042873382568 -75.513549804688 -174.972503662109 2.559912443161
-41.962829589844 -78.326286315918 -172.685089111328 2.166328191757
-10.946932792664 -76.146492004395 -172.705688476563 0.968752324581
-63.223999023438 -74.592971801758 -171.527816772461 2.339481592178
-6.401618957520 -73.117370605469 -172.992813110352 1.007569074631
-22.188901901245 -76.031311035156 -179.685394287109 1.669466614723
22.990674972534 -72.430961608887 -183.181762695313 2.389818668365
-38.697071075439 -76.962554931641 -172.014190673828 1.227398991585
19.912141799927 -71.715568542480 -177.159042358398 2.074956178665
-22.885841369629 -72.497406005859 -184.520629882813 1.605933904648
-32.042144775391 -77.718315124512 -179.382522583008 1.855748653412
-147.760177612305 -77.723083496094 -188.446502685547 1.241908788681
-19.433778762817 -78.464279174805 -184.830032348633 2.184030294418
-142.135070800781 -78.132438659668 -187.664077758789 1.897252917290
-152.061630249023 -79.215484619141 -185.870971679688 3.433354377747
-48.698181152344 -74.994964599609 -187.513656616211 1.659251928329
98.234222412109 -71.526283264160 -195.882354736328 0.838344931602
-144.707290649414 -80.033317565918 -190.314865112305 2.498511791229
-149.028961181641 -78.535980224609 -194.777084350586 1.986555576324
21.850719451904 -73.194007873535 -197.396316528320 1.017897129059
-137.339630126953 -78.673416137695 -195.671218872070 3.297865629196
15.594341278076 -71.878898620605 -199.055923461914 3.241842985153
-139.214355468750 -80.199501037598 -197.617324829102 2.707379817963
12.956336975098 -71.979583740234 -197.445907592773 1.254821062088
-134.062591552734 -76.355911254883 -196.863540649414 1.958775877953
5.972328186035 -72.732643127441 -204.465515136719 1.579856276512
-150.907516479492 -79.089988708496 -202.655670166016 1.665867805481
94.274223327637 -71.943984985352 -206.489196777344 2.227554082870
-16.103675842285 -77.226783752441 -205.850173950195 0.976228058338
-30.586759567261 -74.863830566406 -207.822479248047 1.670216441154
-11.388656616211 -72.365394592285 -205.551437377930 0.708029687405
-147.109252929688 -81.844757080078 -209.870956420898 1.343219161034
-35.576091766357 -75.854850769043 -204.219161987305 1.755283474922
-83.064849853516 -79.070899963379 -205.702011108398 5.872601032257
-26.950729370117 -76.742774963379 -208.933563232422 2.694597482681
16.013370513916 -74.536956787109 -212.228958129883 1.379238605499
-147.227676391602 -78.020545959473 -212.836532592773 0.609568715096
-90.164474487305 -78.490722656250 -216.320953369141 1.937168717384
-29.840534210205 -74.525276184082 -216.646331787109 1.395532608032
-26.903297424316 -74.914054870605 -219.542068481445 1.535646796227
-11.025865554810 -76.236968994141 -211.120361328125 1.747740507126
-27.615875244141 -74.876091003418 -209.826309204102 1.876295089722
-83.071144104004 -77.186965942383 -218.821563720703 3.425338983536
-88.505340576172 -80.779067993164 -218.123184204102 3.744300365448
-23.679433822632 -75.025505065918 -220.544113159180 1.317580342293
-2.224714994431 -79.668991088867 -223.634658813477 1.364190220833
-153.580413818359 -80.363410949707 -215.769744873047 4.441379547119
-2.659657955170 -76.234466552734 -220.356063842773 1.397755384445
86.017410278320 -74.907066345215 -226.893127441406 2.412482023239
-140.925033569336 -81.010299682617 -222.597824096680 3.675469636917
-6.630836963654 -75.710426330566 -222.423034667969 1.738719940186
-140.531341552734 -80.118598937988 -224.838577270508 2.169991970062
-147.183471679688 -86.414428710938 -224.641067504883 2.623080492020
-6.651110172272 -73.714973449707 -229.051712036133 1.777813076973
19.006916046143 -74.628509521484 -217.849822998047 2.460903882980
-140.197006225586 -77.585464477539 -228.104202270508 2.556444406509
-17.201114654541 -76.113304138184 -228.423583984375 1.951749920845
74.240669250488 -73.176826477051 -227.204437255859 1.744485855103
75.261535644531 -72.411003112793 -233.716949462891 2.863909721375
9.163888931274 -75.678489685059 -230.809020996094 1.704173326492
-31.423601150513 -76.903625488281 -236.562026977539 1.896642684937
-21.902727127075 -80.525184631348 -241.406570434570 1.385339498520
3.428114891052 -73.054512023926 -243.360870361328 1.690501928329
-47.831459045410 -73.038810729980 -242.519210815430 1.078895926476
-22.465019226074 -74.088012695313 -242.818145751953 1.983015656471
8.760745048523 -72.482284545898 -241.064910888672 1.697011828423
-63.836811065674 -76.799247741699 -244.951461791992 1.496013402939
-34.461086273193 -78.484527587891 -243.590011596680 1.594200730324
-40.953701019287 -74.311874389648 -244.990768432617 1.567708849907
-149.375640869141 -77.701828002930 -244.660659790039 1.231979012489
-46.231681823730 -78.137451171875 -247.499969482422 1.569182276726
-53.694664001465 -71.813560485840 -247.292541503906 1.685856938362
-66.760810852051 -76.570037841797 -249.078216552734 1.275167107582
-11.158981323242 -77.513801574707 -248.075942993164 3.184337139130
-80.430412292480 -77.593963623047 -253.376785278320 1.312381148338
-156.312774658203 -84.068984985352 -253.312088012695 2.332031488419
-141.700332641602 -78.525505065918 -253.555587768555 1.912913918495
-123.681488037109 -79.170639038086 -258.566894531250 2.529323339462
-157.215438842773 -76.085006713867 -259.212829589844 2.672474861145
19.321710586548 -78.309875488281 -265.509277343750 1.778346776962
-14.419378280640 -76.678009033203 -268.540527343750 2.129203319550
-153.791503906250 -81.371353149414 -271.598175048828 1.492768287659
-152.527130126953 -83.898506164551 -276.705383300781 2.128826618195
-145.918472290039 -81.770698547363 -283.850677490234 0.436870694160
-59.210678100586 -72.796020507813 -281.754241943359 4.240554332733
-39.579498291016 -72.392951965332 -285.590087890625 0.938040554523
-22.350381851196 -72.918380737305 -288.153594970703 2.524105072021
-11.559725761414 -72.394653320313 -282.070983886719 2.428796052933
-66.646484375000 -78.350296020508 -285.436737060547 2.572602987289
-81.018577575684 -79.014915466309 -285.780517578125 3.741094112396
-3.628606081009 -75.343917846680 -284.699249267578 2.444549560547
4.278267860413 -75.163452148438 -290.718566894531 2.218827962875
-139.039764404297 -77.461135864258 -286.505828857422 1.614944815636
-80.384552001953 -74.676567077637 -286.536621093750 1.336958765984
-148.105773925781 -78.136947631836 -286.605438232422 2.734332323074
-95.050590515137 -82.156196594238 -285.956390380859 7.604110717773
-79.436592102051 -76.202735900879 -286.516693115234 1.299931883812
-86.004386901855 -74.741622924805 -292.985870361328 2.589980363846
-62.656429290771 -75.739669799805 -290.791992187500 2.378474473953
-29.892175674438 -70.910720825195 -293.653411865234 3.407326698303
-7.443590164185 -74.093070983887 -291.246551513672 1.124278903008
-153.149642944336 -74.116722106934 -295.834075927734 2.134796142578
-151.000061035156 -77.323867797852 -298.994232177734 1.605516910553
-145.741271972656 -78.216438293457 -302.186828613281 1.036999106407
-157.612014770508 -78.655494689941 -304.329315185547 4.390539646149
-55.543094635010 -74.329841613770 -55.159267425537 0.931020438671
-45.689292907715 -75.215873718262 -52.648929595947 1.497674703598
-37.807617187500 -76.531257629395 -54.180992126465 2.743697404861
-75.241165161133 -78.658409118652 -60.283958435059 3.118035078049
-27.718030929565 -74.601272583008 -63.518985748291 1.566604733467
-31.825119018555 -75.311538696289 -79.290397644043 2.186542272568
76.095916748047 -75.079444885254 -82.614173889160 1.242129683495
76.424812316895 -73.286079406738 -81.270042419434 2.560517787933
74.620918273926 -71.388526916504 -84.572738647461 4.593431472778
99.478691101074 -69.441932678223 -91.083389282227 2.018418788910
71.452514648438 -74.340805053711 -90.126083374023 1.108364582062
51.313983917236 -74.832412719727 -91.112289428711 1.586376190186
51.170722961426 -77.291458129883 -101.118927001953 1.334388613701
-65.974510192871 -75.755348205566 -100.550720214844 2.088713645935
-72.420448303223 -71.518959045410 -101.395477294922 1.235862135887
45.879936218262 -74.347373962402 -103.748367309570 1.744856595993
-81.229614257813 -81.365089416504 -108.724929809570 3.097330331802
-92.402870178223 -75.681053161621 -110.450042724609 1.877027630806
51.882606506348 -72.838569641113 -107.870193481445 1.563088178635
108.187423706055 -70.415458679199 -114.494621276855 0.947895705700
33.521633148193 -75.321624755859 -123.611640930176 1.836122035980
44.714588165283 -74.287452697754 -119.235939025879 2.227594614029
41.763759613037 -72.956794738770 -124.621971130371 0.707464218140
30.597003936768 -74.891403198242 -123.865417480469 2.679873228073
109.746047973633 -71.262542724609 -121.302925109863 0.636847436428
40.001701354980 -75.164657592773 -130.685806274414 0.799204349518
33.266551971436 -70.586097717285 -132.027206420898 1.725049614906
-44.990154266357 -75.130317687988 -142.680862426758 0.500322282314
-70.512840270996 -78.328979492188 -143.744812011719 3.392333507538
-53.282550811768 -74.747001647949 -146.461013793945 1.918564915657
-72.465080261230 -79.157920837402 -145.395217895508 3.356035232544
-39.402351379395 -74.669517517090 -147.127410888672 3.123628854752
107.560020446777 -70.755012512207 -155.056777954102 1.742921590805
-71.354560852051 -77.936805725098 -155.184097290039 1.668760657310
24.261068344116 -76.644859313965 -147.995895385742 2.165638923645
30.926565170288 -75.461273193359 -151.460021972656 0.613712668419
112.992294311523 -73.201316833496 -162.255859375000 1.498954057693
9.734183311462 -75.847824096680 -159.443603515625 1.989142417908
32.734012603760 -71.727119445801 -155.781097412109 0.979939281940
-63.507915496826 -77.409721374512 -158.624084472656 2.600757122040
-41.501911163330 -76.952682495117 -171.168640136719 1.976741194725
20.619791030884 -73.011749267578 -163.521606445313 1.930177927017
-64.339088439941 -75.202819824219 -159.064727783203 1.480661034584
-69.006034851074 -76.582771301270 -164.791259765625 2.542486429214
111.672126770020 -72.416893005371 -167.209472656250 1.906537532806
-7.588661193848 -75.275344848633 -166.561126708984 1.671874046326
-63.803836822510 -75.417396545410 -173.263412475586 1.832749605179
-31.839525222778 -76.474090576172 -168.225112915039 0.819602251053
-54.690551757813 -74.769210815430 -172.145111083984 1.907215476036
29.550529479980 -73.052856445313 -172.903182983398 1.971931695938
110.858718872070 -69.293663024902 -173.906463623047 1.578845858574
102.468482971191 -70.437889099121 -184.499130249023 0.810168385506
105.762863159180 -71.062355041504 -190.320831298828 1.265230417252
106.955421447754 -69.356597900391 -178.011352539063 2.609425306320
-52.282730102539 -74.914962768555 -189.789810180664 0.760133326054
-49.333446502686 -73.100677490234 -182.430252075195 2.757907390594
26.695930480957 -73.781455993652 -183.641220092773 1.509741067886
-48.836433410645 -74.257926940918 -186.535934448242 1.800574660301
-20.403905868530 -75.355079650879 -184.064895629883 2.385212659836
-50.884216308594 -77.556442260742 -191.057937622070 1.037091493607
-151.188003540039 -78.153411865234 -191.475570678711 2.845244169235
101.249885559082 -72.480361938477 -193.862930297852 1.300321459770
-44.830940246582 -73.234474182129 -193.496719360352 2.122815608978
-14.479796409607 -76.036201477051 -198.276275634766 2.133290052414
-140.085983276367 -78.664268493652 -193.186676025391 1.934206247330
-43.365936279297 -73.377838134766 -197.269561767578 3.046891450882
101.894699096680 -70.517700195313 -198.043914794922 2.537121772766
106.875831604004 -69.613250732422 -186.672058105469 1.902956247330
-44.541759490967 -75.342758178711 -195.968643188477 1.649038434029
-23.125411987305 -79.890312194824 -197.778640747070 2.390549659729
-147.921493530273 -82.603019714355 -198.463714599609 1.380349159241
-25.137111663818 -75.366859436035 -196.617782592773 1.181182146072
-157.475357055664 -79.805847167969 -196.430816650391 4.993770599365
-152.728530883789 -84.217796325684 -202.607040405273 2.316870927811
-143.276657104492 -80.420974731445 -200.488052368164 2.086542129517
-38.558727264404 -75.838531494141 -199.452941894531 1.800480961800
100.991844177246 -71.716423034668 -202.636688232422 1.243457913399
-41.196044921875 -73.594299316406 -199.296310424805 1.904157996178
-143.326339721680 -81.836029052734 -203.590255737305 1.251808524132
-38.140686035156 -72.201606750488 -205.362533569336 1.506955027580
-20.885036468506 -78.638511657715 -209.721939086914 4.045700073242
96.818664550781 -72.871635437012 -206.133300781250 1.802228331566
90.988731384277 -72.258117675781 -214.127456665039 1.493944287300
-34.796524047852 -73.711051940918 -216.787887573242 4.068642616272
-87.690177917480 -77.728691101074 -210.142410278320 2.661877393723
-75.930198669434 -76.959465026855 -210.978668212891 1.699784398079
-18.969625473022 -74.799636840820 -213.558944702148 2.807826995850
-149.984039306641 -79.620712280273 -204.439590454102 1.493699431419
89.850639343262 -71.375404357910 -214.309082031250 0.925966262817
88.477966308594 -69.658020019531 -219.039459228516 2.200258255005
89.774284362793 -71.351654052734 -220.930236816406 1.869219899178
-102.622184753418 -77.144691467285 -219.251693725586 4.286216735840
-153.312667846680 -81.119224548340 -220.558990478516 4.114860534668
-20.449146270752 -73.504882812500 -222.424621582031 1.643523812294
79.364433288574 -69.378524780273 -226.767074584961 1.895678400993
-149.890777587891 -81.927253723145 -222.573287963867 2.087970256805
-28.368009567261 -76.013694763184 -218.703628540039 1.378661274910
-133.981094360352 -76.679931640625 -230.022201538086 2.301169395447
-12.255862236023 -76.661819458008 -229.878692626953 1.730950474739
16.987785339355 -72.887031555176 -226.192672729492 1.347852230072
19.160856246948 -74.286369323730 -232.895370483398 2.634891510010
-155.199020385742 -81.805122375488 -232.793594360352 2.802834272385
-126.458358764648 -74.796394348145 -231.555816650391 1.338320970535
-8.793429374695 -73.572868347168 -235.127166748047 1.817864060402
-0.542249977589 -73.309982299805 -237.210983276367 0.674916327000
68.613243103027 -71.624305725098 -233.555770874023 2.162267923355
69.943138122559 -69.255889892578 -238.616973876953 1.086665272713
-1.046630024910 -72.635978698730 -240.247085571289 0.647885203362
15.665555000305 -70.175956726074 -239.839263916016 0.928967714310
-30.979511260986 -69.273468017578 -240.280624389648 6.214991092682
-34.157829284668 -80.439292907715 -241.178161621094 0.636439502239
-47.487686157227 -74.806701660156 -238.253509521484 1.721960544586
-39.948925018311 -73.243026733398 -240.562332153320 2.945502281189
-18.076351165771 -75.655868530273 -242.567047119141 1.391031622887
-53.137908935547 -73.900054931641 -243.337005615234 1.543489217758
1.180811047554 -74.106445312500 -245.105422973633 1.904234290123
-68.820472717285 -76.600082397461 -243.522705078125 3.174337387085
20.000949859619 -74.008399963379 -247.297317504883 1.138005018234
-144.690750122070 -80.440826416016 -243.733673095703 2.564130306244
-73.329299926758 -78.299224853516 -250.992095947266 1.682419300079
14.624011039734 -74.902717590332 -249.314514160156 2.680423021317
-162.049850463867 -77.739456176758 -247.925506591797 3.272451400757
14.385576248169 -76.548583984375 -252.929107666016 3.398100614548
-80.816093444824 -72.560607910156 -249.991943359375 2.085792064667
-75.900978088379 -76.718055725098 -250.137969970703 2.339233160019
18.859024047852 -74.622222900391 -255.220336914063 2.649659872055
-89.956787109375 -75.863952636719 -251.383224487305 2.635795354843
-126.539642333984 -75.157325744629 -253.946395874023 1.241568207741
-134.291519165039 -80.054679870605 -258.289245605469 0.426332682371
-135.759262084961 -80.162605285645 -253.513717651367 3.432058811188
-147.909103393555 -78.866905212402 -259.538909912109 2.698030710220
-145.180923461914 -75.928100585938 -253.748306274414 2.353689193726
-135.735214233398 -76.322586059570 -260.486999511719 1.026313304901
-162.579238891602 -76.193031311035 -259.259674072266 2.735210180283
-127.957214355469 -76.726287841797 -265.000335693359 3.469849109650
-136.306045532227 -74.474983215332 -261.323120117188 1.804504990578
-164.684143066406 -76.243103027344 -265.853515625000 2.208768367767
-157.668624877930 -76.205032348633 -262.675567626953 2.402074098587
-150.273498535156 -76.705558776855 -264.131896972656 1.599593400955
-148.918716430664 -78.555831909180 -264.264038085938 1.041561603546
15.679497718811 -75.598648071289 -278.694091796875 1.767877459526
-167.028930664063 -78.539695739746 -265.532806396484 3.968673706055
-152.854797363281 -78.988815307617 -272.044860839844 1.618085622787
-6.570316791534 -80.641067504883 -273.007720947266 1.665881872177
-158.298706054688 -76.465446472168 -271.090423583984 3.396989107132
11.170463562012 -76.825210571289 -282.048767089844 1.734383463860
-153.357727050781 -77.802009582520 -280.426879882813 3.732437133789
-165.612213134766 -79.309722900391 -286.216247558594 4.362036228180
-155.881454467773 -79.977218627930 -278.838958740234 4.591199398041
-166.286285400391 -76.987129211426 -286.196441650391 2.980480194092
0.238530993462 -75.968093872070 -287.436187744141 1.607082605362
6.311097145081 -77.555282592773 -283.079132080078 1.540765523911
-103.247627258301 -75.135726928711 -289.871490478516 2.031575918198
-154.959442138672 -82.145088195801 -286.264373779297 1.910937547684
-149.471878051758 -76.254570007324 -284.529876708984 2.815140724182
-108.543502807617 -75.768150329590 -289.660736083984 1.179647803307
-153.345642089844 -80.063316345215 -290.448852539063 2.324646711349
-149.547409057617 -80.653564453125 -287.980804443359 1.701134562492
-73.295967102051 -77.913772583008 -291.835327148438 4.275776386261
-166.893539428711 -80.117065429688 -287.926696777344 6.168337821960
-124.403793334961 -74.568794250488 -290.251098632813 0.812631368637
-44.270324707031 -78.090454101563 -287.489105224609 1.902016639709
-154.546844482422 -77.868331909180 -287.051971435547 0.815914809704
-134.496826171875 -73.488128662109 -292.205474853516 2.083437681198
-19.947023391724 -72.175559997559 -293.615234375000 3.441728115082
-129.314071655273 -74.808555603027 -292.204254150391 1.836243391037
4.576599121094 -74.216239929199 -294.387451171875 1.676559567451
14.036011695862 -71.214103698730 -292.664398193359 0.921091258526
-134.859527587891 -74.954200744629 -290.505676269531 1.060361623764
-146.883743286133 -79.065277099609 -295.807525634766 1.365326762199
-157.533874511719 -79.957275390625 -312.402954101563 5.488488197327
-70.861343383789 -72.134407043457 -51.771839141846 1.522111535072
-21.174850463867 -69.950256347656 -63.715843200684 4.857643604279
-18.994661331177 -76.362052917480 -64.980834960938 2.294394016266
73.579421997070 -69.859954833984 -77.761924743652 4.542878627777
92.034698486328 -70.888648986816 -76.656570434570 3.674639701843
-35.966335296631 -74.562095642090 -78.729316711426 1.288846015930
76.264091491699 -71.076416015625 -80.265945434570 4.277631759644
90.557800292969 -74.399353027344 -83.145111083984 3.183381795883
68.901008605957 -71.749328613281 -84.202575683594 1.554451346397
73.554916381836 -70.919082641602 -89.516731262207 3.456376552582
-48.763275146484 -76.616226196289 -85.959487915039 1.252519607544
-90.791450500488 -78.561111450195 -87.665641784668 4.013561248779
59.621479034424 -73.895103454590 -94.471809387207 1.753769874573
50.938186645508 -73.695739746094 -99.557464599609 2.316358804703
94.460426330566 -68.643745422363 -100.141754150391 2.930904865265
-91.496147155762 -72.650642395020 -101.012924194336 4.155285835266
82.606002807617 -68.334930419922 -100.042243957520 1.523099064827
73.867080688477 -71.949768066406 -100.813064575195 0.803699374199
92.511291503906 -72.626472473145 -99.258369445801 1.252913355827
83.978202819824 -70.923767089844 -98.876464843750 2.672730684280
83.860450744629 -73.844879150391 -99.436065673828 2.148673772812
-84.492218017578 -77.905441284180 -101.784210205078 4.014764785767
43.148746490479 -71.154388427734 -107.293685913086 1.069386124611
106.130760192871 -71.405639648438 -111.883827209473 1.989171266556
108.739105224609 -70.947677612305 -111.921012878418 0.793594598770
48.785076141357 -74.516937255859 -119.354377746582 2.264337301254
111.753105163574 -72.475746154785 -122.276573181152 1.435639381409
117.107810974121 -72.692413330078 -136.188858032227 0.958487510681
-51.000980377197 -73.195434570313 -130.961837768555 2.342370748520
27.763339996338 -72.366355895996 -134.915252685547 1.372134208679
41.110401153564 -74.768821716309 -134.120117187500 1.935489416122
25.362813949585 -70.349044799805 -143.139846801758 2.175073146820
113.392967224121 -72.706939697266 -139.638916015625 1.008732318878
112.211517333984 -71.031967163086 -133.048309326172 2.187785863876
-73.296195983887 -75.637992858887 -147.774520874023 1.415435552597
-43.614631652832 -74.193588256836 -142.659698486328 0.929329812527
-71.002952575684 -73.834526062012 -150.870758056641 1.973729610443
19.923070907593 -71.620986938477 -150.051910400391 3.286154270172
112.698265075684 -68.275016784668 -150.717407226563 2.517524242401
-53.329296112061 -76.165748596191 -150.658966064453 2.235186100006
-71.016250610352 -74.289451599121 -150.578002929688 2.043722867966
-38.578903198242 -77.584617614746 -152.328536987305 1.762096881866
32.440330505371 -68.039733886719 -153.716339111328 2.706132411957
110.144111633301 -67.582977294922 -152.477050781250 3.485562801361
115.449890136719 -69.100105285645 -161.921249389648 3.096307516098
-68.099617004395 -72.533638000488 -154.662185668945 1.085811138153
-72.441238403320 -77.027305603027 -160.712463378906 2.757048845291
21.946170806885 -75.909843444824 -163.739883422852 2.039899110794
-60.050918579102 -73.116065979004 -166.527236938477 1.301174759865
-32.698745727539 -73.027976989746 -162.408142089844 1.376786231995
8.018914222717 -74.241500854492 -163.744949340820 2.296344518661
108.792755126953 -68.390548706055 -162.989700317383 2.150192499161
8.006077766418 -75.776527404785 -167.266403198242 3.569828033447
-32.717063903809 -74.608917236328 -165.599670410156 1.494821190834
-1.946967959404 -69.681884765625 -165.974563598633 3.083985567093
107.551902770996 -67.470115661621 -169.382293701172 3.406118392944
-41.355285644531 -72.142646789551 -165.438888549805 1.996398210526
29.141054153442 -69.885330200195 -172.716873168945 1.435924649239
113.069847106934 -72.764808654785 -173.795700073242 1.233777284622
-57.311748504639 -72.177261352539 -175.911987304688 1.911151766777
-28.110908508301 -76.412979125977 -174.635406494141 0.784018695354
102.955978393555 -70.348747253418 -175.399765014648 3.280961036682
29.113832473755 -70.714248657227 -170.217636108398 0.971092343330
107.620170593262 -71.816802978516 -176.498504638672 2.460010290146
-37.007488250732 -71.380172729492 -178.067306518555 1.764148116112
108.353126525879 -72.433753967285 -182.026367187500 1.474926114082
-61.950347900391 -72.785034179688 -177.284210205078 3.128369808197
-25.433744430542 -77.542274475098 -178.876663208008 1.576515674591
-146.563598632813 -73.032440185547 -182.464096069336 2.453591346741
-54.209003448486 -73.927818298340 -180.473373413086 1.535835862160
-147.147766113281 -77.759101867676 -185.151107788086 0.844723284245
-34.205974578857 -72.233230590820 -184.968460083008 1.042554140091
26.922321319580 -75.875663757324 -182.287429809570 1.477228164673
106.385238647461 -70.647895812988 -184.614349365234 2.519509077072
-34.084495544434 -74.346054077148 -183.831176757813 1.527920365334
10.869718551636 -73.409019470215 -191.168884277344 1.594985604286
17.037155151367 -72.196197509766 -203.991134643555 1.456485509872
-148.211807250977 -77.994789123535 -188.615280151367 1.084185123444
104.903198242188 -72.015922546387 -196.865036010742 1.802666187286
-21.540620803833 -71.516311645508 -193.247222900391 2.013106107712
101.223976135254 -71.041801452637 -189.530761718750 3.112906694412
12.697512626648 -70.518554687500 -189.845169067383 1.699313640594
-137.099731445313 -76.693229675293 -202.688186645508 1.559455990791
-138.967132568359 -76.779174804688 -198.851638793945 1.507570981979
100.084289550781 -72.567855834961 -202.607376098633 1.052942276001
-12.002354621887 -76.946075439453 -200.589477539063 1.956953048706
-16.551357269287 -74.408859252930 -203.087112426758 2.786715745926
10.339491844177 -74.623954772949 -207.745330810547 0.442689955235
-150.261596679688 -75.794364929199 -204.756332397461 1.545109987259
-146.422363281250 -78.532661437988 -206.967102050781 2.022724628448
99.683776855469 -66.182998657227 -205.869293212891 4.761417388916
-82.439056396484 -74.966072082520 -207.664047241211 3.658236980438
-36.223548889160 -74.671401977539 -201.585388183594 2.956949472427
18.564096450806 -74.946632385254 -213.805740356445 1.637595057487
-25.469007492065 -74.203300476074 -211.155838012695 0.680050551891
-76.815330505371 -73.660194396973 -207.408889770508 2.563606739044
90.687171936035 -70.423347473145 -210.865005493164 1.694277644157
-80.759544372559 -73.038291931152 -211.874389648438 1.601724386215
-147.644912719727 -77.569839477539 -217.507919311523 2.402865648270
-80.281372070313 -74.079032897949 -212.756820678711 1.071244239807
-13.649530410767 -68.966423034668 -210.013732910156 1.030283093452
-21.085548400879 -71.209541320801 -218.975006103516 1.633408427238
18.178697586060 -72.356498718262 -213.744842529297 1.979643940926
-5.813294887543 -74.467559814453 -219.743667602539 2.279014110565
-88.502632141113 -78.572044372559 -218.286483764648 1.971192002296
92.247238159180 -69.553794860840 -214.796264648438 2.898881673813
-98.708633422852 -74.886093139648 -214.991699218750 3.021616697311
-152.605484008789 -76.588630676270 -222.909011840820 2.506365537643
-25.609813690186 -72.688285827637 -223.689773559570 2.473950386047
17.435253143311 -72.927200317383 -216.480316162109 2.044112682343
-102.356307983398 -75.989883422852 -219.302093505859 3.301636695862
6.947018146515 -69.799835205078 -219.190368652344 3.136003255844
-25.986917495728 -73.766830444336 -215.635482788086 2.280834674835
82.372985839844 -68.960784912109 -225.276580810547 1.059352159500
-145.640136718750 -76.410461425781 -218.052337646484 2.078226804733
9.859116554260 -71.325172424316 -226.150588989258 0.534890830517
-9.821950912476 -76.062698364258 -225.895034790039 1.172583818436
16.929090499878 -66.787101745605 -222.922958374023 3.074298143387
83.218498229980 -71.305984497070 -223.376525878906 1.593798279762
-13.984272956848 -75.442329406738 -228.674713134766 1.614774465561
-130.904968261719 -77.739913940430 -225.583068847656 2.393689632416
-14.249341964722 -73.473808288574 -224.600433349609 1.777480840683
16.272451400757 -72.784507751465 -231.559936523438 2.046991109848
-127.049934387207 -78.506477355957 -226.305023193359 3.895497798920
-152.100814819336 -74.182418823242 -228.381072998047 2.635810375214
-142.830352783203 -75.953842163086 -227.814437866211 2.329212903976
-131.347885131836 -74.824737548828 -226.919158935547 1.569430589676
-13.625925064087 -71.293853759766 -225.361633300781 1.919311285019
71.349731445313 -70.446578979492 -229.150131225586 2.009567022324
-143.871704101563 -73.565979003906 -235.179946899414 0.566996097565
70.323562622070 -71.859199523926 -229.718490600586 1.462315678596
-20.828149795532 -76.534751892090 -229.718841552734 1.598311543465
-142.587142944336 -80.079872131348 -228.255737304688 2.197386264801
76.958877563477 -75.232612609863 -229.886428833008 2.003119945526
9.294202804565 -76.232749938965 -233.840545654297 0.671739518642
-141.969253540039 -80.888481140137 -234.205612182617 2.554352760315
-150.550857543945 -76.164497375488 -232.723953247070 1.973171472549
16.250465393066 -69.210052490234 -231.889556884766 1.137538790703
-3.192780017853 -75.153083801270 -237.929779052734 2.254321575165
-28.254682540894 -73.030624389648 -237.197418212891 1.862764596939
-2.317662954330 -68.994087219238 -237.844818115234 1.639698028564
-161.229461669922 -79.354057312012 -236.460525512695 5.586076259613
7.287835121155 -71.440093994141 -243.876831054688 1.413681268692
-165.218582153320 -77.958267211914 -237.461883544922 4.714392662048
-13.330442428589 -74.244285583496 -237.825897216797 1.384732604027
60.943740844727 -71.747856140137 -240.053497314453 0.872756004333
-13.681086540222 -72.230331420898 -238.251464843750 1.738849401474
-25.541921615601 -72.666282653809 -244.393844604492 2.879449367523
-25.629182815552 -72.936988830566 -241.794113159180 1.613852262497
-13.386029243469 -75.234237670898 -241.013870239258 2.058938026428
-146.760345458984 -77.247314453125 -229.889785766602 1.957443475723
7.442224979401 -71.810897827148 -242.665924072266 0.737792074680
63.573383331299 -70.396690368652 -244.554336547852 3.085996866226
13.989235877991 -70.211105346680 -245.528671264648 1.660209417343
-166.572250366211 -75.847244262695 -240.274749755859 1.852624773979
-51.108001708984 -73.110183715820 -240.579391479492 2.778677225113
3.468684911728 -79.151573181152 -248.444381713867 1.266383409500
16.354633331299 -72.242095947266 -244.665512084961 1.689087152481
-54.876930236816 -73.476150512695 -246.952194213867 1.478433966637
-3.621114015579 -68.936363220215 -248.512084960938 4.769680500031
20.388236999512 -76.744796752930 -248.413101196289 2.518623828888
-169.804611206055 -75.669281005859 -247.444107055664 4.437347412109
-68.130744934082 -77.656051635742 -247.792709350586 1.221585035324
-52.255790710449 -72.962776184082 -247.185607910156 2.798555374146
-81.813316345215 -73.950820922852 -250.838043212891 1.529534697533
-161.591201782227 -78.021919250488 -245.727783203125 4.649546146393
-151.556854248047 -71.163452148438 -248.405517578125 2.344461441040
-60.725193023682 -76.000289916992 -249.376419067383 0.644831657410
-69.438056945801 -74.343437194824 -249.586395263672 1.652693748474
-154.341964721680 -75.025924682617 -251.548614501953 2.739126443863
-152.666809082031 -77.549865722656 -251.169799804688 2.798190355301
-76.661857604980 -71.638465881348 -253.980194091797 2.859750986099
-94.223320007324 -72.763092041016 -254.656402587891 1.391344428062
-165.182144165039 -72.706809997559 -250.996765136719 1.727970957756
-157.556442260742 -77.097763061523 -258.567108154297 3.461528301239
-135.496139526367 -77.695175170898 -257.316345214844 0.440013408661
-83.822639465332 -74.821846008301 -250.886032104492 2.765660524368
-162.917526245117 -74.357810974121 -251.734634399414 1.676335811615
-142.616546630859 -74.750236511230 -255.873107910156 0.976368606091
-86.032157897949 -74.039123535156 -250.778518676758 2.197673559189
-97.532852172852 -73.022819519043 -259.765502929688 2.280360221863
-145.749420166016 -77.382034301758 -254.954711914063 3.351600885391
-94.231376647949 -74.765022277832 -255.565261840820 1.055649876595
-153.347366333008 -75.204879760742 -254.922790527344 1.100940227509
-103.059936523438 -74.846374511719 -254.963104248047 3.071142435074
-169.428482055664 -76.500656127930 -257.610076904297 5.415255069733
-162.222640991211 -78.312500000000 -262.244842529297 3.452697277069
-127.061820983887 -78.719482421875 -255.746658325195 3.185619592667
-152.424240112305 -76.813285827637 -258.362030029297 3.689475774765
-112.710006713867 -72.909202575684 -261.240997314453 1.162413239479
-15.197605133057 -71.669677734375 -262.107879638672 0.916035652161
-142.355804443359 -76.107498168945 -260.046813964844 1.322246432304
-126.627525329590 -75.302932739258 -259.297698974609 1.316474914551
-155.000503540039 -75.198829650879 -261.583923339844 1.145859360695
22.673524856567 -72.601493835449 -271.375366210938 2.863817930222
-149.518234252930 -78.709678649902 -277.625091552734 1.422452569008
