-127.534027099609 -68.607124328613 -224.677352905273 2.022432088852
-142.180648803711 -67.502517700195 -226.583740234375 1.623647570610
-3.235363006592 -69.814735412598 -222.216659545898 1.685013175011
-134.338333129883 -65.391998291016 -227.197677612305 1.179126501083
-123.854743957520 -70.870803833008 -225.552841186523 1.900661945343
-114.415451049805 -69.128379821777 -226.977844238281 0.611668109894
0.357169985771 -63.810756683350 -228.958312988281 3.900660037994
-107.234451293945 -65.728942871094 -232.803070068359 3.326441049576
-160.466827392578 -61.641258239746 -225.637634277344 3.813768148422
-146.686157226563 -65.885673522949 -229.359954833984 1.765107631683
-165.453475952148 -66.013038635254 -227.952667236328 1.592344164848
-7.978079795837 -67.795539855957 -227.651962280273 2.924492597580
-8.389248847961 -68.395095825195 -233.546447753906 2.009601116180
78.363418579102 -71.387840270996 -225.482452392578 0.861185908318
-0.151151001453 -70.224723815918 -230.393310546875 1.919145107269
-142.903945922852 -66.533325195313 -238.746276855469 3.289114236832
-14.240631103516 -66.682357788086 -230.208709716797 2.841252088547
74.037376403809 -69.494026184082 -228.080841064453 1.798938155174
74.692733764648 -69.563507080078 -233.125946044922 2.230207443237
-134.534515380859 -65.471298217773 -234.915924072266 0.882312357426
-157.427032470703 -69.033004760742 -231.173400878906 1.690796136856
-114.148376464844 -65.758827209473 -235.158203125000 2.801016569138
-124.611991882324 -62.861335754395 -237.971191406250 3.875224590302
-163.624481201172 -65.228363037109 -237.669570922852 2.285656690598
-160.032241821289 -66.869270324707 -238.477615356445 1.446725249290
-146.644638061523 -63.160636901855 -236.752365112305 0.652287840843
-12.693711280823 -67.196388244629 -236.358856201172 2.438284397125
-5.086219787598 -67.576278686523 -241.406799316406 2.886026382446
-160.586166381836 -64.988327026367 -243.448760986328 3.067943334579
5.541192054749 -69.187728881836 -239.010681152344 2.073920488358
2.902695894241 -69.037284851074 -237.500701904297 1.722020149231
-159.986557006836 -66.170120239258 -241.605957031250 1.555405497551
16.871406555176 -72.132034301758 -242.961364746094 2.073930501938
50.910655975342 -71.076004028320 -245.669952392578 2.018291234970
50.700405120850 -71.030204772949 -244.706680297852 1.085877895355
-15.825530052185 -69.076324462891 -248.016418457031 2.193484783173
48.397254943848 -67.623764038086 -249.477157592773 0.407960623503
-161.284667968750 -63.316421508789 -252.885726928711 5.970066070557
-158.984359741211 -66.610351562500 -250.240066528320 2.074510335922
-160.380935668945 -69.730628967285 -252.358779907227 0.874519586563
54.869010925293 -68.620056152344 -248.965606689453 1.939957976341
-92.042221069336 -66.000991821289 -254.754104614258 1.775215148926
-124.703079223633 -65.932121276855 -256.730743408203 1.347713947296
-105.749412536621 -70.854064941406 -255.820739746094 2.014820814133
26.716512680054 -72.057929992676 -258.045227050781 3.331082820892
41.434249877930 -66.767654418945 -251.556655883789 1.546036601067
-100.628898620605 -64.526634216309 -256.966186523438 2.293295145035
-93.508369445801 -63.176506042480 -253.575500488281 3.505608558655
45.521686553955 -72.349197387695 -254.881408691406 2.227658271790
42.376808166504 -67.102600097656 -257.086395263672 0.953510046005
-154.800933837891 -70.894462585449 -260.678558349609 1.659553050995
30.601060867310 -68.467025756836 -259.770660400391 1.696895718575
-142.729858398438 -69.255813598633 -266.875366210938 2.457969665527
-113.307922363281 -66.329254150391 -264.602813720703 3.150519371033
-136.862304687500 -65.455139160156 -264.993927001953 3.099531650543
31.403985977173 -68.154487609863 -263.272399902344 2.093127489090
-126.027534484863 -65.436119079590 -265.838195800781 1.153228759766
-11.159483909607 -66.822402954102 -259.107055664063 2.475654840469
21.733465194702 -71.327400207520 -271.671447753906 3.108568668365
-5.601603031158 -72.040199279785 -266.283142089844 4.745689392090
20.013027191162 -70.164245605469 -280.532592773438 2.344170570374
-152.994552612305 -67.977493286133 -285.094757080078 1.922777414322
-10.668874740601 -66.634757995605 -281.598541259766 2.319749832153
-152.863739013672 -69.575576782227 -285.169738769531 1.116719722748
-123.504188537598 -68.172920227051 -287.287963867188 0.595080375671
-160.224548339844 -71.751548767090 -289.015716552734 1.542774438858
-114.423820495605 -66.519912719727 -289.223297119141 1.650261282921
-104.113265991211 -66.994644165039 -291.580383300781 3.646948814392
-6.659118175507 -66.421279907227 -286.172119140625 2.093015432358
-107.995758056641 -67.947158813477 -291.283599853516 1.395870685577
-116.180351257324 -64.455497741699 -287.332855224609 3.482985496521
-119.887557983398 -63.616569519043 -293.781799316406 4.310234546661
-137.716812133789 -66.091880798340 -292.216491699219 2.011471271515
-125.858245849609 -64.185989379883 -293.746459960938 3.580140829086
-157.406280517578 -70.446884155273 -292.571960449219 1.705565690994
-146.465942382813 -64.412757873535 -295.268066406250 1.179501414299
-156.022781372070 -63.774883270264 -304.353240966797 5.185368537903
-153.596588134766 -64.388389587402 -313.599670410156 2.286487340927
-157.860702514648 -64.583511352539 -303.676208496094 5.687416076660
-141.218063354492 -67.089202880859 -313.030761718750 4.616912364960
-148.990051269531 -67.253372192383 -316.343200683594 4.117334842682
33.093132019043 -71.527145385742 -9.189632415771 4.118440628052
44.522544860840 -74.638435363770 -16.548669815063 2.899417161942
21.982475280762 -67.495773315430 -23.830781936646 3.536786079407
48.303123474121 -71.460708618164 -27.425792694092 1.073673009872
26.094839096069 -72.831504821777 -34.639312744141 2.258386850357
30.807138442993 -71.757476806641 -34.821434020996 1.196761846542
-59.555335998535 -65.404853820801 -48.627250671387 4.215171337128
78.165710449219 -67.092910766602 -60.846645355225 2.047392368317
79.462753295898 -71.616233825684 -66.540977478027 1.439143538475
-92.070877075195 -69.557807922363 -63.962074279785 2.508622169495
-14.317034721375 -67.108436584473 -62.166881561279 0.601642847061
-94.095100402832 -70.362304687500 -71.726509094238 1.199796676636
94.787300109863 -72.664031982422 -68.210449218750 2.427916765213
-15.335924148560 -66.570274353027 -68.682678222656 1.613299012184
66.090225219727 -72.821708679199 -78.623321533203 3.327499151230
-43.491645812988 -73.079505920410 -80.344161987305 2.773100614548
-28.784305572510 -72.724594116211 -76.692146301270 1.151973009109
54.811866760254 -66.900146484375 -86.107666015625 0.961606442928
-45.618297576904 -78.831573486328 -85.555519104004 2.311418533325
63.498184204102 -63.098865509033 -86.741127014160 1.180915474892
51.448043823242 -73.965682983398 -89.706680297852 1.805949568748
52.301425933838 -70.079750061035 -93.613357543945 1.587261676788
58.133277893066 -74.431175231934 -90.709983825684 2.351573944092
55.522132873535 -67.161796569824 -95.612854003906 2.800080060959
98.434532165527 -67.644515991211 -97.102149963379 1.023778676987
104.691772460938 -66.566787719727 -97.913452148438 1.011358141899
58.456695556641 -72.402404785156 -99.802642822266 2.603284835815
105.633827209473 -66.597084045410 -98.802482604980 1.617876291275
-78.227127075195 -67.934921264648 -100.618469238281 1.626901507378
-73.948043823242 -67.868759155273 -103.332794189453 2.128685474396
99.011802673340 -67.366790771484 -97.845161437988 0.849017202854
51.928256988525 -70.394706726074 -100.751754760742 2.677593708038
69.084587097168 -71.381340026855 -98.405014038086 1.374945282936
-73.710937500000 -68.360031127930 -108.677337646484 0.734067678452
-86.357589721680 -66.835815429688 -108.646598815918 2.749244451523
87.873352050781 -72.875213623047 -103.857269287109 2.592967033386
38.921562194824 -70.725288391113 -104.320724487305 1.653668045998
103.621032714844 -67.013275146484 -105.120315551758 0.619203269482
45.352676391602 -71.669784545898 -113.483390808105 2.039889335632
108.814712524414 -70.485435485840 -102.795593261719 2.263714075089
-79.888519287109 -67.620956420898 -112.426361083984 2.320464134216
103.330383300781 -66.197074890137 -107.845634460449 2.430828094482
-85.361221313477 -65.602027893066 -122.609054565430 1.974696159363
-59.613945007324 -70.346588134766 -129.667449951172 0.767214536667
-56.963958740234 -67.213485717773 -125.954772949219 1.301181077957
-73.513587951660 -69.259590148926 -131.236526489258 1.101454734802
-51.995494842529 -69.469764709473 -131.990966796875 1.538581848145
-85.056755065918 -69.322410583496 -134.335891723633 1.705282330513
-78.481613159180 -64.917228698730 -134.352539062500 1.449094295502
-81.621528625488 -67.908424377441 -132.332977294922 1.131397724152
-61.186828613281 -72.290084838867 -142.708099365234 3.255695104599
-72.550773620605 -67.594001770020 -141.934539794922 0.960356473923
-61.052867889404 -71.133720397949 -136.271682739258 2.449611663818
-59.533233642578 -68.254043579102 -142.979827880859 1.253497362137
15.844770431519 -65.438003540039 -144.073684692383 1.416420221329
-91.940193176270 -68.017517089844 -143.717147827148 1.773871183395
-48.615642547607 -71.626785278320 -147.716247558594 2.274105072021
-97.348945617676 -65.703224182129 -151.293914794922 3.034668207169
-101.763755798340 -65.210861206055 -150.848876953125 1.607962965965
18.257608413696 -70.518516540527 -154.046279907227 2.117559194565
13.210039138794 -69.862953186035 -158.467315673828 0.345249980688
-96.665367126465 -69.009674072266 -161.322219848633 2.235799074173
-104.364715576172 -67.488357543945 -155.873550415039 2.926229476929
-101.099884033203 -66.131767272949 -170.016448974609 1.568659782410
21.322179794312 -67.896049499512 -170.102050781250 1.640138983727
-111.216796875000 -66.855247497559 -174.513366699219 2.015809297562
21.905643463135 -68.714782714844 -166.678543090820 1.489639639854
-148.285888671875 -66.796195983887 -178.771713256836 3.156570672989
17.139265060425 -68.214851379395 -176.704406738281 1.310524821281
23.546073913574 -69.127548217773 -186.108917236328 1.367400288582
-152.900009155273 -65.258277893066 -188.907287597656 1.980331182480
20.707590103149 -69.227630615234 -176.646118164063 0.355004280806
18.508501052856 -63.076751708984 -180.649124145508 3.606883525848
-144.310821533203 -70.046882629395 -187.033157348633 1.628498792648
-152.413421630859 -64.233444213867 -191.546936035156 3.984524011612
19.331424713135 -68.404113769531 -188.602676391602 2.007076740265
17.884340286255 -69.966308593750 -190.120483398438 1.659487128258
-142.705642700195 -68.456153869629 -196.021377563477 1.658200383186
-109.525253295898 -67.304359436035 -199.547470092773 2.551536560059
23.385179519653 -68.828689575195 -198.735122680664 3.215077161789
-125.370468139648 -66.598190307617 -196.851928710938 2.355370283127
10.167749404907 -70.181709289551 -200.318481445313 1.670222163200
-130.669235229492 -61.997116088867 -196.456268310547 1.468413352966
-159.971450805664 -64.256835937500 -193.115524291992 4.231840610504
-161.998519897461 -65.740020751953 -199.248672485352 1.249671578407
-159.329483032227 -67.333663940430 -197.579071044922 2.463522911072
-20.637010574341 -67.748611450195 -205.371490478516 1.884707093239
-168.118682861328 -68.358894348145 -202.198287963867 1.561455368996
-27.013792037964 -64.823463439941 -193.523986816406 3.774357795715
-16.025592803955 -69.131652832031 -196.643356323242 1.004697561264
9.284792900085 -63.825222015381 -196.046279907227 5.138825416565
-158.260620117188 -66.293090820313 -206.375823974609 2.477592468262
-108.591194152832 -65.677871704102 -204.103897094727 3.080650329590
-17.962518692017 -64.927589416504 -202.393692016602 3.201404333115
-160.608062744141 -62.295570373535 -204.197952270508 4.277769088745
16.238714218140 -68.339530944824 -201.867584228516 1.104353308678
-169.252960205078 -64.198036193848 -207.659133911133 4.117128849030
-121.239601135254 -68.916175842285 -204.863052368164 2.194811820984
-115.818847656250 -64.154106140137 -209.260391235352 5.736562728882
-123.448348999023 -65.753189086914 -206.346878051758 1.215427875519
-15.293331146240 -66.971603393555 -204.343200683594 1.634450674057
-17.843725204468 -67.995971679688 -205.267181396484 1.837824821472
-164.707305908203 -65.450332641602 -213.358566284180 1.658926248550
-160.455261230469 -64.259605407715 -214.989974975586 4.030149936676
-165.158645629883 -66.403427124023 -222.184524536133 0.996784150600
-141.746200561523 -68.231781005859 -216.503997802734 2.547708511353
-145.050079345703 -66.324623107910 -226.281799316406 2.816902637482
-3.271065950394 -66.153945922852 -220.570037841797 2.449007749557
-9.940679550171 -71.053924560547 -217.656723022461 1.816458225250
-100.281524658203 -65.158805847168 -222.679473876953 2.389962196350
-6.968326091766 -66.199783325195 -232.814743041992 1.781211853027
-167.277511596680 -63.576423645020 -231.683319091797 5.026840209961
-106.945266723633 -64.487632751465 -234.239990234375 5.101098537445
1.169322967529 -67.729507446289 -227.208038330078 1.820288181305
2.632220983505 -66.657546997070 -230.415039062500 1.298099040985
-111.975326538086 -67.001922607422 -235.059356689453 3.601090669632
-1.695863008499 -68.330307006836 -229.389907836914 1.681079030037
-117.859481811523 -63.712745666504 -236.341064453125 3.406271934509
-7.880424022675 -64.799011230469 -233.799621582031 2.593386173248
-2.339776039124 -66.505020141602 -235.487670898438 1.458757638931
-1.691534042358 -67.157348632813 -238.269073486328 1.674901127815
71.556312561035 -65.589569091797 -236.087066650391 2.703700780869
-10.890731811523 -70.225357055664 -238.336822509766 1.989527821541
7.246611118317 -68.200035095215 -237.708374023438 2.008909702301
11.074074745178 -66.746871948242 -239.540893554688 1.513116002083
5.345746040344 -68.214828491211 -239.348587036133 2.108586072922
2.496925115585 -68.922988891602 -241.666473388672 1.073681950569
64.120758056641 -64.325241088867 -238.282424926758 2.279114007950
68.920883178711 -65.426345825195 -239.900924682617 3.665553569794
8.355905532837 -67.287834167480 -247.369903564453 2.636745452881
53.996150970459 -68.967018127441 -242.092697143555 2.861031532288
55.481567382813 -71.585128784180 -240.556793212891 1.772628068924
47.046466827393 -64.862617492676 -249.299148559570 0.980589509010
41.390338897705 -65.762550354004 -251.299102783203 1.944827198982
40.833080291748 -66.686180114746 -256.437469482422 2.007840394974
-131.724960327148 -62.253238677979 -260.062469482422 3.022780418396
-10.345140457153 -66.796691894531 -250.706527709961 1.696774363518
28.503694534302 -66.428749084473 -258.223724365234 1.913512110710
45.062732696533 -66.994461059570 -248.058044433594 2.360597848892
27.428997039795 -69.895027160645 -254.096588134766 2.519434452057
-102.798576354980 -67.734359741211 -260.626647949219 2.474565744400
31.333360671997 -68.400688171387 -256.406738281250 1.868386507034
-147.033264160156 -67.598320007324 -263.367309570313 2.693413019180
-116.314575195313 -67.448677062988 -258.880340576172 0.787244319916
-108.754371643066 -65.961570739746 -259.829193115234 2.208827018738
-3.467997074127 -69.144325256348 -259.632263183594 4.178507804871
-150.384338378906 -66.978088378906 -259.812805175781 1.808960199356
35.414897918701 -67.343498229980 -261.928680419922 2.217368602753
-109.685371398926 -64.887603759766 -258.588775634766 2.789233207703
26.239892959595 -70.712425231934 -259.439270019531 1.575315237045
-134.843826293945 -67.399032592773 -265.052185058594 0.995121896267
-116.367172241211 -65.067939758301 -266.056518554688 2.143230915070
-109.447700500488 -65.409172058105 -263.248565673828 2.476464509964
-114.936538696289 -70.018470764160 -263.521423339844 1.934782266617
-139.963150024414 -67.214538574219 -260.196228027344 1.649093508720
29.095350265503 -67.940559387207 -260.360473632813 1.718141913414
-117.254516601563 -64.691612243652 -265.042419433594 2.046329498291
-144.238525390625 -67.191040039063 -265.903106689453 1.867292046547
-4.866572856903 -65.133293151855 -271.337799072266 2.789925336838
-150.494140625000 -67.777282714844 -283.633148193359 2.427692651749
-8.005312919617 -67.523498535156 -286.895904541016 1.355744838715
-5.047817230225 -64.791305541992 -283.494934082031 1.710351586342
-133.972808837891 -65.325981140137 -289.980438232422 1.547184944153
-127.174781799316 -65.972091674805 -292.635894775391 1.345058321953
-135.265548706055 -65.450653076172 -296.264770507813 5.278138160706
-126.186203002930 -64.482482910156 -293.950714111328 3.209866285324
-154.440567016602 -65.831748962402 -297.005584716797 3.448607921600
-155.673614501953 -65.617782592773 -302.740936279297 3.193845510483
-147.402160644531 -68.430076599121 -303.449157714844 1.931034445763
-149.271194458008 -66.036560058594 -305.807891845703 2.866432666779
-144.629394531250 -65.324165344238 -301.513610839844 3.627385377884
-148.957366943359 -64.541168212891 -306.684997558594 3.642695903778
-145.591690063477 -63.153121948242 -317.231567382813 6.670517921448
17.159465789795 -72.558616638184 -27.803741455078 3.152353525162
47.156475067139 -72.689872741699 -35.828624725342 1.793067216873
23.262863159180 -75.098960876465 -38.017578125000 4.088482856750
30.363216400146 -70.721694946289 -42.709243774414 2.046411752701
-44.570549011230 -63.414169311523 -48.929965972900 3.018339633942
-78.536643981934 -66.060630798340 -52.000087738037 4.267619609833
78.503524780273 -68.656074523926 -61.082752227783 2.029051780701
72.678939819336 -70.025733947754 -61.973518371582 4.154328823090
69.720359802246 -71.003379821777 -65.974876403809 3.851836204529
-101.084869384766 -67.307365417480 -74.483673095703 4.666608810425
97.525283813477 -72.805366516113 -75.193801879883 1.428952574730
-32.186363220215 -69.139175415039 -83.546607971191 5.774142265320
61.341930389404 -67.749618530273 -76.315849304199 4.295428752899
-44.872924804688 -65.015449523926 -83.718986511230 1.388664960861
-55.641532897949 -65.657279968262 -83.825614929199 1.395332455635
49.178409576416 -69.922271728516 -90.435836791992 1.016807198524
100.704078674316 -68.932624816895 -89.785888671875 1.172077536583
62.507953643799 -66.903350830078 -93.548187255859 0.895454227924
55.182605743408 -67.490226745605 -92.789054870605 3.048172712326
47.183269500732 -66.349746704102 -101.401367187500 1.488849639893
55.121803283691 -65.477088928223 -100.254539489746 1.862764120102
101.573745727539 -67.475082397461 -97.183372497559 0.895566225052
68.322860717773 -68.232887268066 -106.032180786133 4.020705223083
48.698299407959 -68.417045593262 -105.719474792480 1.275370478630
75.115722656250 -73.351402282715 -106.665527343750 4.681813716888
94.210273742676 -65.837188720703 -107.277992248535 1.011743307114
-76.745071411133 -65.473220825195 -103.043205261230 1.981798171997
-88.241767883301 -67.704299926758 -111.821311950684 1.398520469666
-83.620422363281 -67.914314270020 -114.341331481934 0.705512821674
-61.498218536377 -66.386863708496 -119.927925109863 1.941056132317
-58.470657348633 -70.586853027344 -127.276695251465 1.691987037659
-95.933876037598 -66.493362426758 -123.450187683105 2.693068265915
-76.453132629395 -68.434417724609 -120.926986694336 2.063263177872
-77.944206237793 -70.292327880859 -133.848068237305 0.637620329857
-62.099426269531 -64.952201843262 -129.591140747070 0.722094595432
-89.769035339355 -63.517948150635 -132.001434326172 1.962334513664
-91.000259399414 -66.223091125488 -131.723785400391 1.530455231667
-49.368198394775 -70.716178894043 -136.489562988281 1.310486793518
-52.634101867676 -67.826560974121 -137.827957153320 1.218887090683
-78.428604125977 -68.488136291504 -139.985183715820 0.298932880163
-55.081409454346 -68.786224365234 -142.753555297852 2.115207672119
-75.494918823242 -69.724197387695 -145.301788330078 1.327461004257
20.019224166870 -65.796020507813 -139.040267944336 1.479570627213
-58.552097320557 -70.805313110352 -146.083419799805 1.981619715691
-56.050937652588 -64.321510314941 -146.778121948242 3.446588039398
8.207225799561 -70.638771057129 -155.598892211914 1.644560575485
15.743962287903 -66.195426940918 -151.418106079102 0.454838544130
-143.049346923828 -66.346244812012 -176.430755615234 1.899886846542
-111.016571044922 -65.469451904297 -179.998229980469 2.614373922348
-110.190994262695 -63.138992309570 -191.570968627930 2.341760873795
-153.087631225586 -67.379158020020 -193.858398437500 1.934424877167
-113.620986938477 -65.490440368652 -187.638214111328 1.366851449013
-152.500274658203 -62.092536926270 -198.590789794922 1.391667842865
-114.559059143066 -64.758117675781 -200.464904785156 1.594949245453
-150.684310913086 -63.376815795898 -202.712265014648 2.435486793518
-150.896133422852 -65.721343994141 -208.648132324219 1.640098810196
-153.278915405273 -69.160614013672 -210.376190185547 3.715140581131
-147.967864990234 -65.300086975098 -226.244277954102 3.153290748596
-150.449783325195 -68.156250000000 -227.677169799805 2.384009361267
-105.156127929688 -63.892028808594 -227.847656250000 3.071503400803
-102.051719665527 -65.790260314941 -224.239440917969 2.509594202042
-123.329170227051 -61.635375976563 -232.516815185547 3.707971572876
-108.177139282227 -65.304092407227 -227.991058349609 1.310399055481
-156.537368774414 -66.437423706055 -233.083938598633 2.443515777588
-3.044953107834 -66.488380432129 -226.607269287109 2.085931062698
-133.925155639648 -67.286041259766 -232.965148925781 0.335785031319
-153.425308227539 -66.573348999023 -237.576766967773 3.121809959412
-136.995819091797 -67.818107604980 -235.481048583984 3.079563617706
-11.246969223022 -65.967124938965 -236.740203857422 2.547203063965
8.922881126404 -67.121299743652 -243.489135742188 1.395427227020
62.951004028320 -63.541427612305 -240.484649658203 3.103733539581
18.360578536987 -69.818656921387 -248.940368652344 1.725278019905
56.075736999512 -66.848106384277 -243.507232666016 2.592685222626
41.366058349609 -68.678932189941 -249.682510375977 1.645750641823
59.023338317871 -64.977371215820 -251.382583618164 4.287941932678
-152.307052612305 -65.222244262695 -252.677093505859 1.912305355072
-149.282180786133 -68.715789794922 -256.783477783203 1.338447809219
43.017894744873 -65.857925415039 -256.788177490234 0.995873808861
29.608282089233 -66.575843811035 -255.879028320313 2.294870138168
47.915134429932 -64.929008483887 -252.637817382813 2.511333703995
-144.552932739258 -67.950584411621 -261.866790771484 1.521246910095
-136.169769287109 -63.824348449707 -257.501495361328 3.261826515198
-124.671363830566 -63.241714477539 -259.966094970703 1.787212371826
-133.801300048828 -65.588676452637 -258.225891113281 1.385351181030
-140.616317749023 -65.935142517090 -260.188140869141 2.119615793228
-123.427833557129 -64.696372985840 -261.509948730469 1.657123446465
-142.498794555664 -63.654014587402 -262.553009033203 0.623050987720
-126.046897888184 -67.037078857422 -261.583526611328 1.718002676964
-122.128662109375 -65.500885009766 -266.425994873047 3.797870397568
-127.290512084961 -65.851455688477 -266.913299560547 2.020464420319
-120.127960205078 -62.439807891846 -266.033996582031 4.581389904022
-4.963374137878 -66.888145446777 -266.607391357422 1.352684855461
28.243787765503 -64.403114318848 -262.276214599609 1.456856608391
-145.902145385742 -61.629951477051 -269.197570800781 4.056719303131
26.524841308594 -67.061607360840 -269.316040039063 2.771029472351
-4.474925994873 -62.271274566650 -274.941894531250 5.930178642273
17.480106353760 -71.764389038086 -283.917694091797 2.082934617996
-141.105682373047 -65.481216430664 -291.439910888672 2.909835338593
-124.967636108398 -66.259979248047 -289.365447998047 1.046043276787
-131.692459106445 -61.455669403076 -292.442993164063 5.658892631531
-157.940628051758 -60.902164459229 -294.378631591797 4.721445083618
-125.512763977051 -60.798942565918 -291.352478027344 4.679137706757
-117.582176208496 -63.159008026123 -291.187530517578 3.712006807327
-125.046485900879 -66.748283386230 -297.762969970703 5.219874858856
-150.355895996094 -67.372123718262 -296.009216308594 1.985491275787
25.658176422119 -72.811294555664 -12.648350715637 2.961265325546
28.921678543091 -73.402763366699 -17.576917648315 0.743642389774
35.478801727295 -70.063568115234 -19.951526641846 2.767581224442
45.666267395020 -64.365112304688 -23.475671768188 3.069983005524
24.939548492432 -74.303756713867 -28.156858444214 1.960565805435
18.045370101929 -72.473350524902 -34.779254913330 2.951359272003
-36.532997131348 -68.438728332520 -47.279788970947 2.763076066971
-84.499435424805 -68.807273864746 -54.642295837402 1.306099057198
-18.490665435791 -67.764213562012 -59.320350646973 0.752145230770
70.750747680664 -67.029907226563 -64.421157836914 1.779381155968
99.765937805176 -68.132431030273 -67.941452026367 2.420570373535
62.907451629639 -66.892311096191 -82.677505493164 2.003087997437
59.550682067871 -63.812797546387 -82.858734130859 1.583066463470
98.456542968750 -68.614280700684 -83.702659606934 1.365767717361
-65.801597595215 -64.571891784668 -91.821212768555 1.576974749565
-67.160781860352 -66.833045959473 -92.527770996094 3.524630308151
47.934589385986 -65.996528625488 -93.252540588379 0.732809782028
-68.896408081055 -68.223495483398 -97.304405212402 2.560686111450
-73.173873901367 -66.448570251465 -102.203651428223 1.506609439850
-98.321884155273 -65.368125915527 -101.509529113770 0.500155627728
-77.378028869629 -63.516056060791 -101.533332824707 2.294951677322
45.272647857666 -64.819374084473 -101.561347961426 1.996023416519
-69.124130249023 -68.623352050781 -104.768821716309 3.310856580734
47.889514923096 -65.775917053223 -102.952819824219 1.657667398453
94.594757080078 -67.858367919922 -104.046951293945 1.434951066971
89.275207519531 -67.785644531250 -110.640892028809 3.958262443542
-74.382484436035 -66.097023010254 -115.864891052246 1.341540575027
-86.047142028809 -67.210273742676 -114.013977050781 2.046870231628
-63.335762023926 -66.330116271973 -120.423934936523 1.867708563805
-97.630455017090 -62.821281433105 -120.817939758301 1.905501008034
-78.066131591797 -67.967208862305 -128.732025146484 1.580844998360
-94.775245666504 -60.057838439941 -126.960540771484 3.348063468933
-64.797302246094 -64.725227355957 -119.221130371094 1.222979903221
-61.626693725586 -60.967266082764 -121.664039611816 3.175741434097
-90.027496337891 -66.502105712891 -131.179779052734 1.663132429123
-64.663925170898 -69.358840942383 -128.748870849609 3.646154165268
-85.433532714844 -65.079254150391 -134.047012329102 1.581830859184
-80.836868286133 -66.790061950684 -135.389465332031 1.125973224640
-63.415416717529 -69.590972900391 -135.828292846680 1.020900726318
-62.124881744385 -62.633426666260 -135.856170654297 1.873113632202
-55.930133819580 -61.682968139648 -136.642929077148 1.233530521393
-97.599540710449 -63.497753143311 -134.038528442383 6.087179183960
-98.146385192871 -63.261508941650 -145.834197998047 2.633997201920
-89.781585693359 -66.220199584961 -136.580047607422 1.926201701164
19.479640960693 -68.995269775391 -148.781631469727 2.334197998047
-51.130264282227 -66.816879272461 -142.986343383789 1.827090501785
16.908721923828 -66.503822326660 -150.542816162109 1.638128519058
-99.072402954102 -66.128303527832 -166.265747070313 2.818936824799
-103.749641418457 -69.412040710449 -173.235076904297 1.586323618889
-103.254249572754 -62.379375457764 -173.085800170898 2.429678201675
-108.633773803711 -60.843986511230 -173.170608520508 2.864554405212
-108.218193054199 -65.947502136230 -181.438308715820 2.740839958191
-111.296012878418 -64.933998107910 -180.236389160156 2.684620857239
-142.728698730469 -63.402999877930 -189.342910766602 1.731199979782
-112.529586791992 -63.959281921387 -188.400177001953 2.395658969879
-134.135650634766 -62.072490692139 -201.849044799805 1.674702525139
-149.763961791992 -66.636123657227 -200.801971435547 0.876971960068
-126.921806335449 -65.148971557617 -200.161849975586 1.322454929352
-157.335800170898 -66.352874755859 -199.011550903320 2.316565513611
-147.667266845703 -67.761642456055 -204.418304443359 3.607770204544
-125.604797363281 -60.530185699463 -200.899337768555 1.744682312012
-134.957214355469 -63.778011322021 -203.673233032227 2.239625453949
-141.899353027344 -69.339019775391 -208.818939208984 1.760548710823
-132.257812500000 -66.890731811523 -225.738479614258 1.259691834450
-110.660079956055 -66.346519470215 -231.534667968750 1.967607855797
-144.158294677734 -65.471214294434 -230.722137451172 2.043582916260
-118.769226074219 -63.219856262207 -233.148666381836 1.319407224655
-115.787200927734 -60.913925170898 -232.905197143555 3.442811250687
-122.809173583984 -65.510818481445 -235.269226074219 0.976629495621
-130.729080200195 -64.553222656250 -236.642257690430 4.210320472717
-115.677001953125 -61.963836669922 -238.524353027344 6.279441356659
4.423767089844 -64.971618652344 -236.287231445313 1.381335496902
-152.013031005859 -66.046562194824 -240.215927124023 3.781088352203
6.450686931610 -66.824943542480 -235.536834716797 1.335255146027
5.570530891418 -62.583419799805 -242.629943847656 2.141238689423
1.909821987152 -67.496948242188 -241.866775512695 1.291580438614
14.071912765503 -62.634769439697 -241.111434936523 1.612250804901
-144.485855102539 -62.976753234863 -237.611175537109 1.673475623131
-4.933399200439 -66.744239807129 -247.775070190430 4.195252418518
19.484012603760 -65.478889465332 -241.592880249023 1.520232558250
49.785694122314 -64.343711853027 -249.619628906250 1.521035671234
50.841163635254 -64.499382019043 -250.232666015625 1.321317195892
-146.665008544922 -65.979370117188 -254.906021118164 2.426232099533
-5.711490154266 -66.325355529785 -252.187423706055 0.859611034393
23.013416290283 -66.344871520996 -256.138488769531 0.547127246857
-132.159164428711 -59.579357147217 -260.690948486328 5.177736282349
-123.935157775879 -62.856945037842 -260.799987792969 1.899822354317
-124.635185241699 -65.142997741699 -260.290130615234 1.112486362457
26.676656723022 -65.415557861328 -259.118469238281 1.176032543182
-133.731506347656 -62.167613983154 -267.891418457031 6.094496250153
30.855436325073 -63.727699279785 -260.817962646484 1.728683710098
32.794963836670 -65.828147888184 -263.658813476563 2.472441911697
-152.808227539063 -66.146324157715 -269.651275634766 2.611177682877
-146.316772460938 -69.128700256348 -289.523132324219 1.961663842201
-149.136840820313 -60.914104461670 -290.530487060547 2.786699533463
-143.468078613281 -61.767440795898 -296.729766845703 4.129890441895
12.490505218506 -68.301414489746 -292.740081787109 3.164100408554
-153.942291259766 -61.751979827881 -302.570770263672 5.579619884491
43.197959899902 -72.829727172852 -26.326770782471 2.666944742203
32.960319519043 -73.959533691406 -40.549865722656 2.252346277237
-63.697395324707 -64.555114746094 -47.500061035156 3.616783618927
-74.582099914551 -64.498313903809 -48.182907104492 2.307288646698
-29.378498077393 -64.881759643555 -51.693424224854 3.105548620224
-24.457004547119 -69.970298767090 -55.571418762207 2.753558158875
-13.581583023071 -63.532268524170 -67.617706298828 0.968757450581
-28.537899017334 -63.415916442871 -70.894538879395 2.232362031937
62.761821746826 -67.243759155273 -73.816131591797 3.389177560806
-98.915313720703 -60.987571716309 -80.659469604492 1.285856366158
-48.438423156738 -66.600692749023 -87.603157043457 2.354096174240
52.609035491943 -68.333786010742 -86.053565979004 1.810557484627
56.642841339111 -67.270736694336 -86.603660583496 1.485918045044
60.263923645020 -67.784317016602 -88.873229980469 2.465552091599
104.302520751953 -66.734855651855 -90.328437805176 1.663010239601
50.279911041260 -64.534225463867 -91.021316528320 0.375148653984
97.099067687988 -63.148834228516 -99.894035339355 3.779048442841
-83.827270507813 -67.546844482422 -105.079330444336 0.927148699760
-95.967773437500 -65.696495056152 -103.790473937988 1.699246764183
73.551780700684 -63.819847106934 -111.898635864258 3.438408851624
-79.355232238770 -65.140350341797 -105.530143737793 2.155082702637
-79.464088439941 -69.487403869629 -116.555480957031 2.371777534485
-85.680244445801 -69.768157958984 -120.870651245117 2.431271314621
-56.906833648682 -66.796218872070 -128.130264282227 1.862264037132
-79.021270751953 -65.768753051758 -130.614608764648 1.132676959038
-64.057357788086 -62.709213256836 -131.168701171875 2.218421220779
-85.381805419922 -66.903831481934 -136.873718261719 2.659634113312
-77.400123596191 -64.244873046875 -134.815292358398 1.394863128662
-81.327331542969 -62.539974212646 -127.204406738281 2.010152339935
-90.216934204102 -63.699214935303 -132.262557983398 2.261555433273
-67.081001281738 -62.834022521973 -136.028182983398 4.705605506897
-92.039955139160 -64.975242614746 -134.776947021484 1.788872003555
-51.520042419434 -67.359458923340 -134.974685668945 2.018887758255
-57.123569488525 -69.575576782227 -140.688125610352 1.587023258209
26.401069641113 -66.176559448242 -140.124633789063 2.022634267807
-58.299694061279 -60.313106536865 -138.530456542969 1.444756388664
13.926416397095 -69.709678649902 -144.822326660156 3.397416830063
15.180738449097 -65.038825988770 -148.823669433594 1.435348629951
16.589300155640 -62.671314239502 -154.089187622070 2.614328384399
-99.260726928711 -63.633773803711 -147.277099609375 1.052656054497
-92.577171325684 -65.252357482910 -152.076507568359 1.644364953041
-97.426300048828 -61.708583831787 -153.283981323242 1.700430274010
-105.930297851563 -65.040969848633 -163.448913574219 2.318230867386
-98.712860107422 -63.711086273193 -161.282943725586 1.177879214287
-152.887817382813 -64.308723449707 -178.253875732422 1.341501474380
-154.720703125000 -64.390533447266 -178.649337768555 2.644003152847
-111.249275207520 -62.577514648438 -183.918182373047 3.495755195618
-142.779556274414 -62.243522644043 -180.214813232422 1.079531908035
-110.829719543457 -61.476654052734 -183.507003784180 2.791248321533
-150.491806030273 -58.354358673096 -189.802566528320 5.234619617462
-112.241950988770 -61.443901062012 -194.486694335938 3.541347980499
-111.143508911133 -64.674888610840 -186.111877441406 2.255353927612
-144.663635253906 -63.651412963867 -201.569747924805 1.703213572502
-130.954452514648 -65.341285705566 -199.227615356445 2.123125314713
-107.872077941895 -64.434700012207 -199.942520141602 1.303413629532
-116.607292175293 -59.552795410156 -201.200805664063 3.419127941132
-113.550949096680 -64.805458068848 -202.664138793945 1.889083027840
-116.634117126465 -60.381790161133 -204.935562133789 4.603357791901
-134.893142700195 -61.651222229004 -200.052551269531 2.660829544067
-138.979034423828 -63.678905487061 -205.401977539063 4.084641456604
-131.538055419922 -62.534797668457 -209.521209716797 4.072250366211
-128.093444824219 -59.482524871826 -203.687271118164 4.236157894135
-125.010841369629 -62.741401672363 -207.282592773438 2.139444828033
-114.338035583496 -63.078762054443 -206.961502075195 4.418843746185
-148.518585205078 -62.948623657227 -216.651733398438 2.683822154999
-152.435058593750 -63.373008728027 -222.811935424805 1.486170530319
-153.410659790039 -62.297229766846 -225.309188842773 1.385846257210
-140.743179321289 -68.001533508301 -227.913223266602 2.495143413544
-132.349441528320 -60.060356140137 -229.643066406250 3.593099117279
-122.779060363770 -65.517868041992 -222.862930297852 2.971540212631
-141.145782470703 -65.238449096680 -231.609222412109 1.737015724182
-151.535064697266 -65.416534423828 -228.954910278320 2.549815177917
-134.421188354492 -64.532951354980 -228.885314941406 1.392340540886
-133.793029785156 -60.865238189697 -230.957351684570 2.715073108673
-147.978439331055 -63.765316009521 -232.134262084961 1.216866612434
-135.121902465820 -58.380855560303 -232.304489135742 5.691883563995
-127.951377868652 -62.190917968750 -233.100311279297 2.834045171738
-10.809293746948 -66.800979614258 -237.979782104492 2.026538133621
4.750511169434 -63.423786163330 -241.431747436523 1.885888814926
13.557630538940 -60.575389862061 -243.654037475586 2.024695158005
9.317236900330 -67.000289916992 -244.479202270508 2.105394601822
-8.605474472046 -66.718986511230 -241.012237548828 1.502152562141
-12.461186408997 -64.818061828613 -247.816162109375 1.619133114815
37.947517395020 -63.323143005371 -250.729888916016 1.807738900185
47.805843353271 -64.497520446777 -253.197586059570 2.301814317703
-146.014358520508 -61.758071899414 -256.778198242188 1.697697997093
41.976295471191 -63.076221466064 -255.312469482422 0.950012505054
38.331382751465 -65.615242004395 -253.871520996094 0.772375702858
-158.543182373047 -66.184127807617 -260.157928466797 3.198693990707
-150.889419555664 -62.508571624756 -260.027038574219 1.203810572624
-150.821426391602 -66.101356506348 -262.068267822266 2.039129495621
2.640043973923 -65.355438232422 -264.396667480469 1.808678269386
-150.901412963867 -63.442249298096 -269.360656738281 3.498239755630
-0.284628987312 -64.517761230469 -275.151977539063 2.831685543060
-146.305892944336 -65.187690734863 -277.395935058594 2.554635286331
-147.661651611328 -63.046775817871 -284.207031250000 1.437127947807
-150.881591796875 -62.674396514893 -287.693572998047 1.858590126038
-149.623962402344 -56.840099334717 -286.138671875000 5.775469303131
-144.967498779297 -61.273437500000 -291.925048828125 2.326758384705
-155.121871948242 -61.899879455566 -287.956207275391 1.679781675339
-150.958938598633 -62.637760162354 -288.798309326172 1.094769239426
-151.418395996094 -60.408641815186 -290.166412353516 1.909446358681
-147.324523925781 -62.108463287354 -290.030395507813 2.676473855972
-143.768081665039 -62.221317291260 -289.757843017578 1.799390792847
11.646141052246 -65.480575561523 -285.872161865234 2.747899770737
-146.602905273438 -62.157234191895 -295.861145019531 2.247126340866
-156.785888671875 -59.287857055664 -294.165863037109 5.618729591370
-154.995208740234 -58.254241943359 -291.272216796875 5.414651393890
-150.343536376953 -60.621841430664 -295.895263671875 2.447377681732
-148.551834106445 -57.218761444092 -291.797027587891 5.664288520813
-146.379348754883 -63.900718688965 -294.510345458984 0.303017050028
4.351589202881 -65.512184143066 -293.286712646484 1.670883893967
-143.850631713867 -60.518779754639 -296.907409667969 4.745488166809
-147.555358886719 -59.520915985107 -295.940856933594 3.376769065857
26.332223892212 -61.196468353271 -17.076898574829 2.844818592072
39.550136566162 -71.657821655273 -20.891176223755 2.542808771133
40.038246154785 -64.358055114746 -21.898504257202 2.577753067017
15.266889572144 -71.751091003418 -32.216018676758 4.780114650726
24.230676651001 -58.970165252686 -35.614257812500 1.094812273979
35.063049316406 -68.612915039063 -36.372158050537 0.864424824715
-58.966461181641 -63.935127258301 -45.859611511230 3.128946781158
-53.214466094971 -65.303047180176 -43.530624389648 2.969286441803
87.741889953613 -67.020080566406 -64.122505187988 1.588157653809
-97.884880065918 -63.142990112305 -67.289436340332 1.723414778709
94.063781738281 -74.256187438965 -62.656879425049 7.089515686035
65.862396240234 -67.633247375488 -69.962257385254 3.470831871033
98.517814636230 -68.711784362793 -77.435684204102 2.847864866257
61.563407897949 -70.154991149902 -76.322296142578 5.319064140320
-44.025325775146 -66.068603515625 -79.087333679199 2.789386034012
58.002822875977 -63.288036346436 -81.917465209961 2.554911613464
-55.603504180908 -62.230155944824 -79.897926330566 1.190793991089
56.966979980469 -65.573448181152 -84.263977050781 2.516057491302
60.370887756348 -63.680965423584 -85.387603759766 1.546530127525
-100.250015258789 -64.523239135742 -85.488754272461 1.614695787430
49.622661590576 -64.803123474121 -86.487274169922 4.103305816650
50.071464538574 -70.002815246582 -93.278587341309 2.101540565491
62.985916137695 -67.344329833984 -92.183631896973 1.428259611130
50.508270263672 -64.713951110840 -96.531143188477 2.164697170258
-82.708862304688 -62.939697265625 -108.329399108887 2.231746196747
81.193374633789 -69.756057739258 -105.774047851563 1.547081470490
-82.503257751465 -67.104026794434 -119.164375305176 1.394358396530
-78.527420043945 -62.636501312256 -108.210868835449 1.096272230148
-81.271415710449 -65.356590270996 -124.167526245117 2.109816074371
-87.530601501465 -63.555904388428 -116.659378051758 0.511273205280
-95.316680908203 -62.263172149658 -121.579734802246 2.257936716080
-82.050453186035 -65.145790100098 -124.563613891602 1.951633691788
-54.230361938477 -62.400314331055 -127.075935363770 1.398883461952
-79.496582031250 -62.334686279297 -136.219055175781 3.659800291061
-58.206977844238 -59.806087493896 -131.923645019531 1.789523839951
-89.561965942383 -61.787456512451 -138.607482910156 1.486935138702
28.173305511475 -64.391876220703 -138.297698974609 0.462772130966
18.274072647095 -65.231201171875 -141.288314819336 1.999985456467
-94.400527954102 -56.440773010254 -143.924316406250 6.727974414825
19.596420288086 -66.310867309570 -148.892944335938 0.443276822567
-91.390052795410 -65.897155761719 -148.135528564453 1.946392297745
-95.326591491699 -59.851306915283 -149.331924438477 2.536992073059
17.763206481934 -65.064933776855 -158.912307739258 5.304576873779
-97.278312683105 -62.617408752441 -148.680908203125 0.972102046013
-99.407867431641 -61.454761505127 -149.366744995117 2.712794542313
-104.451705932617 -62.397735595703 -158.496627807617 2.781320333481
-97.042861938477 -62.843582153320 -162.988189697266 2.012281656265
-104.911743164063 -64.779785156250 -179.950637817383 1.866865038872
-109.789169311523 -67.815986633301 -170.911437988281 2.806613206863
-100.395713806152 -63.540634155273 -167.099472045898 3.083718538284
-106.484146118164 -63.567031860352 -171.294555664063 1.819543957710
-141.566162109375 -64.014686584473 -180.457214355469 2.494756937027
-110.880439758301 -62.621284484863 -180.109222412109 1.770528793335
-142.103958129883 -62.561923980713 -190.047698974609 2.760133743286
-149.315414428711 -59.997596740723 -192.557891845703 2.178071498871
-153.610046386719 -59.324775695801 -192.342071533203 3.113395929337
-123.447181701660 -60.762332916260 -198.599884033203 1.959378600121
-130.613296508789 -64.807846069336 -197.929565429688 1.725934147835
-122.965972900391 -61.158050537109 -202.593597412109 2.739886522293
-143.728897094727 -64.657760620117 -204.287597656250 2.278209447861
-124.126342773438 -65.181770324707 -205.976348876953 1.112418651581
-146.930038452148 -63.387817382813 -206.812286376953 2.356470823288
-151.890380859375 -62.353332519531 -208.198257446289 2.271737337112
-155.098907470703 -60.529125213623 -230.175521850586 1.738595366478
-143.001937866211 -66.733444213867 -234.019134521484 1.927348375320
-127.728996276855 -60.525245666504 -234.167495727539 4.478888034821
-154.030120849609 -60.265922546387 -233.167388916016 1.226523280144
-3.049748897552 -67.874443054199 -239.623291015625 1.395735502243
12.295125961304 -61.212287902832 -239.493865966797 2.845391035080
-2.553236961365 -66.589126586914 -244.139541625977 2.055968046188
-149.610031127930 -60.868732452393 -247.404388427734 2.278100728989
-7.829439163208 -61.716938018799 -244.110794067383 2.239446401596
-151.038726806641 -65.270912170410 -255.981643676758 1.404449820518
-6.588408946991 -66.285026550293 -250.301101684570 1.980960607529
-149.426559448242 -63.111190795898 -256.395599365234 1.668810367584
21.969413757324 -65.639419555664 -252.975341796875 1.936833500862
-152.328979492188 -58.105030059814 -257.814910888672 4.501666069031
-149.092956542969 -61.365653991699 -257.764617919922 1.646586298943
-152.540832519531 -61.286251068115 -256.783325195313 2.191880941391
-149.357116699219 -60.234947204590 -260.283111572266 1.671038031578
33.973354339600 -63.798091888428 -258.520782470703 2.890579700470
30.957752227783 -63.082241058350 -263.810363769531 2.957908630371
-145.919006347656 -61.538524627686 -258.495361328125 1.626838803291
-151.408401489258 -57.853790283203 -262.813018798828 3.671785593033
-154.072128295898 -63.867847442627 -262.574401855469 1.552952170372
-147.175628662109 -59.373603820801 -262.287261962891 2.421954870224
27.235593795776 -62.315387725830 -263.002380371094 1.198132038116
29.295850753784 -63.083248138428 -266.262542724609 3.198138713837
-153.810058593750 -62.403198242188 -265.505126953125 1.813969135284
-143.215942382813 -61.039913177490 -265.728912353516 3.359925508499
-149.511917114258 -58.564121246338 -265.768493652344 3.593056678772
-144.041885375977 -60.808605194092 -266.673492431641 3.893326520920
-144.685974121094 -63.664379119873 -266.167022705078 1.786908030510
-147.070281982422 -64.855033874512 -268.297363281250 3.047626733780
-148.248886108398 -59.342922210693 -268.504028320313 3.995319128036
-149.648742675781 -58.163444519043 -288.076416015625 4.676804065704
-147.766708374023 -60.902557373047 -284.848388671875 1.277370214462
-147.781188964844 -61.263603210449 -282.221313476563 2.099556684494
17.594085693359 -63.389564514160 -282.760620117188 2.273387432098
-153.682296752930 -58.546070098877 -287.687316894531 3.968849897385
-146.476394653320 -60.162284851074 -290.574981689453 3.526088476181
-4.551719188690 -67.980659484863 -288.311950683594 2.118451118469
5.529274940491 -62.723930358887 -293.129882812500 2.192243099213
-151.475524902344 -61.790790557861 -297.473815917969 2.650645017624
24.309341430664 -72.788108825684 -22.266258239746 2.367894649506
42.837661743164 -66.787498474121 -28.613885879517 2.451021194458
47.100574493408 -72.123497009277 -32.981437683105 2.352104187012
38.639701843262 -62.782348632813 -35.261440277100 1.187645196915
22.913414001465 -73.214744567871 -37.749176025391 2.477986574173
42.440971374512 -70.599624633789 -40.409358978271 1.750650048256
77.680023193359 -63.675277709961 -61.962940216064 2.021421432495
74.709793090820 -66.226501464844 -62.148605346680 2.032373189926
-18.338005065918 -65.666961669922 -70.194419860840 3.080127716064
65.104888916016 -62.932144165039 -71.055747985840 1.157657384872
-30.013008117676 -67.475807189941 -74.673530578613 0.963123321533
-36.407482147217 -69.016815185547 -80.925491333008 3.721550941467
-58.808063507080 -62.860404968262 -77.848670959473 4.185179233551
-56.443309783936 -61.529666900635 -80.653854370117 0.808275997639
62.165531158447 -69.715972900391 -82.479988098145 1.154979705811
104.969474792480 -70.356124877930 -89.148605346680 3.096807003021
-62.318344116211 -61.791992187500 -87.726066589355 0.270284563303
55.221668243408 -65.610389709473 -95.907165527344 1.884722709656
62.025070190430 -63.430019378662 -93.767318725586 0.421605139971
101.723495483398 -65.577583312988 -94.145202636719 2.454987049103
-67.797035217285 -66.332778930664 -95.319816589355 2.982409477234
53.531303405762 -61.638813018799 -96.058227539063 1.441301465034
-67.454605102539 -67.090988159180 -106.741508483887 3.243115901947
66.386497497559 -66.374023437500 -96.700942993164 1.037526726723
65.971061706543 -64.850265502930 -103.110626220703 2.883799076080
-76.454559326172 -62.249404907227 -110.136993408203 1.330843567848
-99.031204223633 -61.032600402832 -114.116363525391 1.727551817894
-71.382026672363 -58.424049377441 -112.461647033691 1.935077905655
-85.202911376953 -64.334068298340 -113.302650451660 1.962323546410
-64.398689270020 -65.277542114258 -116.440025329590 1.366350650787
-85.677299499512 -61.137573242188 -111.022628784180 2.989903688431
-78.140769958496 -64.037742614746 -116.957313537598 1.036021590233
-78.203567504883 -65.387184143066 -117.708267211914 2.035065889359
-69.804237365723 -66.144546508789 -121.492118835449 4.593605041504
-86.137992858887 -65.521820068359 -127.995773315430 2.089852571487
33.406917572021 -64.056884765625 -128.417266845703 1.860223770142
-51.179229736328 -63.407604217529 -130.794723510742 2.195152997971
30.225837707520 -63.717189788818 -134.617385864258 1.950859785080
29.393972396851 -64.979881286621 -132.917724609375 1.764732718468
29.291978836060 -66.155532836914 -132.688262939453 2.685813188553
-54.781425476074 -61.698726654053 -133.751037597656 1.092347741127
19.832134246826 -64.073455810547 -146.443725585938 0.844185948372
22.140623092651 -64.668128967285 -144.605377197266 2.431287527084
