-67.611946105957 -74.681938171387 -243.681091308594 3.306050062180
21.276348114014 -75.315696716309 -246.626449584961 0.907794415951
-143.566772460938 -75.713562011719 -244.625335693359 2.936963796616
-72.109512329102 -76.098617553711 -251.215896606445 1.967123389244
15.889430999756 -75.979728698730 -248.705047607422 1.304793000221
-160.774337768555 -72.308792114258 -248.928161621094 2.282759428024
15.624735832214 -77.560035705566 -252.346969604492 1.797574758530
-79.389160156250 -70.103340148926 -250.192398071289 0.566516280174
-74.629211425781 -74.436805725098 -250.359939575195 1.408364057541
20.187482833862 -75.765342712402 -254.567947387695 1.952847003937
-88.631675720215 -73.045028686523 -251.716323852539 1.979378700256
-125.137901306152 -70.948219299316 -254.592559814453 2.463181018829
-133.023391723633 -75.488693237305 -259.080261230469 1.841511487961
-134.539154052734 -75.615539550781 -254.320190429688 2.209421873093
-146.575637817383 -73.779632568359 -260.431884765625 0.928146541119
-143.795959472656 -71.032768249512 -254.571960449219 1.888421416283
-134.307952880859 -71.672538757324 -261.231964111328 1.446587681770
-161.139404296875 -70.570236206055 -260.240936279297 2.493728160858
-126.507797241211 -72.294044494629 -265.681884765625 2.270228147507
-134.802474975586 -69.792503356934 -262.044036865234 1.134941577911
-163.182357788086 -70.441390991211 -266.853210449219 2.579822063446
-156.200531005859 -70.711250305176 -263.612915039063 1.763839602470
-148.815399169922 -71.462242126465 -265.011230468750 3.408977270126
-147.528442382813 -73.359054565430 -265.160339355469 2.229162693024
17.196001052856 -76.263549804688 -278.081420898438 1.217351913452
-165.613006591797 -72.654441833496 -266.589324951172 3.403981924057
-151.404129028320 -73.526962280273 -272.981628417969 1.497133612633
-5.277007102966 -80.567184448242 -272.672393798828 1.422740697861
-156.760269165039 -70.819137573242 -272.036102294922 2.470525026321
12.676766395569 -77.271110534668 -281.494781494141 1.599449634552
-151.783859252930 -72.193984985352 -281.348144531250 2.293756484985
-164.030319213867 -73.159004211426 -287.268920898438 2.657422304153
-154.400802612305 -74.298568725586 -279.816955566406 3.671282052994
-164.618621826172 -70.813674926758 -287.218719482422 1.892236351967
1.835149049759 -75.928215026855 -286.964874267578 1.330458760262
7.803772926331 -77.805290222168 -282.579528808594 2.521109104156
-101.522644042969 -71.236167907715 -290.304870605469 2.374301195145
-153.489120483398 -76.384902954102 -287.266967773438 1.156366825104
-147.805130004883 -70.728416442871 -285.391723632813 1.963218688965
-106.839950561523 -71.675682067871 -290.151031494141 1.044413089752
-151.760360717773 -74.300239562988 -291.403839111328 2.507688999176
-148.009902954102 -75.068176269531 -288.911712646484 1.691863179207
-71.676300048828 -75.088363647461 -292.046173095703 3.162154436111
-165.324264526367 -73.892135620117 -289.003112792969 1.586572289467
-122.639083862305 -69.882316589355 -290.863220214844 2.111629724503
-42.719165802002 -76.403816223145 -287.445922851563 1.643956661224
-152.912002563477 -72.114730834961 -287.983764648438 2.813215732574
-132.666595458984 -68.399688720703 -292.889862060547 1.217852711678
-18.137907028198 -71.298263549805 -293.262573242188 2.487700223923
-127.536193847656 -69.910537719727 -292.863372802734 1.320038437843
6.300199031830 -74.231422424316 -293.849060058594 1.886668324471
15.846986770630 -71.607559204102 -291.995330810547 2.164644956589
-133.099044799805 -69.877258300781 -291.216552734375 1.793153643608
-145.215789794922 -73.459541320801 -296.688659667969 1.477111935616
-155.734329223633 -73.702888488770 -313.389862060547 1.729978561401
-71.297874450684 -73.084991455078 -51.909358978271 1.258758425713
-21.454088211060 -72.554954528809 -63.376380920410 2.983514547348
-19.499481201172 -79.022758483887 -64.722320556641 4.365882396698
73.367729187012 -75.749740600586 -76.578125000000 2.031947851181
91.761383056641 -77.476341247559 -75.325340270996 3.249762296677
-36.262821197510 -76.386436462402 -78.590934753418 1.651811599731
76.029335021973 -77.026008605957 -79.076988220215 1.856505751610
90.217628479004 -80.830169677734 -81.880958557129 4.485649108887
68.683990478516 -77.366004943848 -83.088851928711 3.877865791321
73.415275573730 -76.626853942871 -88.347846984863 1.985362291336
-49.057830810547 -77.855300903320 -85.965667724609 1.005280256271
-91.111114501953 -78.219856262207 -88.074890136719 3.455445051193
59.429176330566 -79.009780883789 -93.472389221191 4.744064331055
50.807518005371 -78.411804199219 -98.631126403809 2.041958570480
94.489753723145 -74.962692260742 -98.750015258789 2.252535581589
-91.471748352051 -72.083396911621 -101.333633422852 3.990542173386
82.654319763184 -74.217720031738 -98.750854492188 1.471268177032
73.795967102051 -77.495010375977 -99.655738830566 4.174754619598
92.387123107910 -78.883773803711 -97.946495056152 4.619944572449
83.919250488281 -76.873062133789 -97.613670349121 1.877252101898
83.699371337891 -79.778907775879 -98.220001220703 3.876714229584
-84.658973693848 -77.580909729004 -102.125015258789 4.116537570953
43.190288543701 -75.466087341309 -106.395378112793 2.631503343582
106.160919189453 -77.973434448242 -110.429946899414 3.847608804703
108.784584045410 -77.611625671387 -110.436798095703 2.951163291931
48.812698364258 -78.849212646484 -118.456809997559 2.333405256271
111.837966918945 -79.091011047363 -120.787895202637 3.852262258530
117.312217712402 -79.291976928711 -134.653823852539 3.819851160049
-50.743041992188 -73.664459228516 -130.926986694336 2.667520046234
28.032241821289 -75.685134887695 -134.167968750000 1.213948249817
41.273746490479 -78.590942382813 -133.292205810547 2.342488527298
25.785358428955 -73.454627990723 -142.380905151367 1.890507459641
113.632102966309 -79.116348266602 -138.136505126953 2.568982362747
112.450904846191 -77.500129699707 -131.531204223633 1.613502025604
-72.953262329102 -75.023605346680 -147.973022460938 1.507224202156
-43.288284301758 -74.755287170410 -142.573059082031 1.210121870041
-70.566070556641 -73.258811950684 -151.020141601563 2.034033298492
20.368013381958 -74.418594360352 -149.360046386719 2.744731187820
113.205627441406 -74.492408752441 -149.149902343750 1.135884046555
-52.992965698242 -76.244323730469 -150.688125610352 2.201091766357
-70.598861694336 -73.717376708984 -150.734680175781 1.947470545769
-38.289672851563 -78.181365966797 -152.248794555664 1.796787738800
33.042629241943 -71.246421813965 -152.856704711914 2.669826984406
110.695396423340 -73.679588317871 -150.921081542969 1.346837162971
116.030708312988 -75.246673583984 -160.340454101563 2.282961606979
-67.581153869629 -72.008079528809 -154.764816284180 1.734118461609
-72.027870178223 -76.244979858398 -160.923065185547 2.602250099182
22.361087799072 -78.568855285645 -163.095077514648 0.855457186699
-59.447647094727 -72.705421447754 -166.565658569336 1.700123310089
-32.150890350342 -73.691017150879 -162.203186035156 2.136016845703
8.505332946777 -76.387260437012 -163.197570800781 2.709712982178
109.414581298828 -74.275375366211 -161.456680297852 1.863647341728
8.469272613525 -77.866592407227 -166.742614746094 4.425338745117
-32.197231292725 -75.221076965332 -165.419143676758 2.058353424072
-1.264500975609 -71.428947448730 -165.443771362305 1.248487591743
108.268867492676 -73.211807250977 -167.844818115234 1.642597913742
-40.739971160889 -72.440124511719 -165.296371459961 2.006993532181
29.857255935669 -72.677284240723 -171.912368774414 2.064911603928
113.629661560059 -78.638427734375 -172.291549682617 3.385767221451
-56.587280273438 -71.724639892578 -175.909896850586 2.066200017929
-27.575458526611 -77.055282592773 -174.440826416016 0.658944189548
103.627151489258 -75.826072692871 -173.947219848633 2.989790678024
29.775947570801 -73.542861938477 -169.426773071289 2.141070604324
108.244331359863 -77.448402404785 -175.027404785156 2.593565225601
-36.247997283936 -71.645225524902 -177.872222900391 1.507386207581
109.006263732910 -78.007171630859 -180.557540893555 2.088078498840
-61.231937408447 -72.139526367188 -177.332565307617 2.732072114944
-24.901733398438 -78.217536926270 -178.675338745117 1.709310173988
-145.744262695313 -69.181510925293 -183.266174316406 2.600727081299
-53.508117675781 -73.518470764160 -180.470443725586 1.249108433723
-146.476577758789 -73.841598510742 -186.032012939453 1.628749847412
-33.414726257324 -72.495262145996 -184.760772705078 1.017028212547
27.510063171387 -78.434097290039 -181.594940185547 1.818605184555
107.129951477051 -76.110359191895 -183.134567260742 0.987040221691
-33.381828308105 -74.628326416016 -183.655715942383 1.222038269043
11.643701553345 -75.240211486816 -190.578720092773 1.395226359367
17.972408294678 -74.059562683105 -203.325164794922 1.669310212135
-147.515808105469 -73.984672546387 -189.508758544922 1.633386492729
105.714332580566 -77.234672546387 -195.417861938477 2.036328792572
-20.653951644897 -72.119834899902 -192.914596557617 2.613844156265
102.004348754883 -76.237884521484 -188.102142333984 1.822645783424
13.564043998718 -72.439880371094 -189.193695068359 1.555569529533
-136.230972290039 -72.878837585449 -203.460403442383 2.338839530945
-138.136398315430 -72.954566955566 -199.642395019531 2.437221527100
100.932823181152 -77.520080566406 -201.210662841797 1.628058433533
-11.253051757813 -77.785026550293 -200.256149291992 3.055926561356
-15.681811332703 -75.043495178223 -202.753967285156 1.712278962135
11.225692749023 -76.180389404297 -207.176223754883 1.394140958786
-149.330718994141 -71.462753295898 -205.630905151367 0.884043514729
-145.574142456055 -74.306785583496 -207.850158691406 2.772835493088
100.798362731934 -71.075515747070 -204.375534057617 0.950806856155
-81.499214172363 -73.096038818359 -207.923446655273 2.676121711731
-35.363639831543 -74.602127075195 -201.431121826172 2.381227016449
19.489715576172 -76.713699340820 -213.167739868164 2.234318494797
-24.509256362915 -74.384925842285 -210.897293090820 1.091185688972
-75.833892822266 -72.002868652344 -207.597961425781 2.466131448746
91.699394226074 -74.903511047363 -209.516723632813 1.671137213707
-79.710205078125 -71.167274475098 -212.087982177734 1.743468165398
-146.660827636719 -73.137916564941 -218.385040283203 1.162747621536
-79.262344360352 -72.211318969727 -212.982345581055 2.031937122345
-12.516385078430 -69.606384277344 -209.568420410156 1.345692157745
-19.944950103760 -71.435585021973 -218.629379272461 2.233315467834
19.199338912964 -74.112335205078 -213.069686889648 1.983266472816
-4.796362876892 -75.243392944336 -219.313491821289 1.175925493240
-87.590789794922 -76.312225341797 -218.654464721680 1.433342933655
93.327453613281 -74.031997680664 -213.419891357422 1.535660505295
-97.684898376465 -72.302719116211 -215.392990112305 1.485334753990
-151.530700683594 -71.891418457031 -223.813873291016 1.654623508453
-24.475841522217 -72.673706054688 -223.406692504883 1.631688594818
18.461261749268 -74.613166809082 -215.820266723633 2.026541471481
-101.329841613770 -73.204772949219 -219.752365112305 1.608601093292
8.121281623840 -71.059288024902 -218.573913574219 2.986639976501
-24.968425750732 -73.860969543457 -215.373947143555 2.496719121933
83.581130981445 -72.913963317871 -223.976806640625 1.266947627068
-144.609695434570 -72.045188903809 -218.893402099609 1.336357593536
11.040876388550 -72.584243774414 -225.531066894531 2.311785221100
-8.802733421326 -76.594841003418 -225.524414062500 1.626865386963
18.242265701294 -68.360473632813 -222.170120239258 1.530543208122
84.321784973145 -75.317665100098 -222.106323242188 1.354535102844
-12.912968635559 -75.778579711914 -228.330841064453 2.497869253159
-129.862976074219 -73.802436828613 -226.313034057617 2.638645648956
-13.143880844116 -73.864311218262 -224.228729248047 1.420764207840
17.446960449219 -74.196380615234 -230.905517578125 1.710194826126
-126.032112121582 -74.699729919434 -227.012680053711 0.989118516445
-150.886169433594 -69.421859741211 -229.242874145508 2.587500095367
-141.692947387695 -71.543022155762 -228.621856689453 2.255659341812
-130.185668945313 -70.852745056152 -227.607147216797 3.176181554794
-12.433503150940 -71.697463989258 -224.950103759766 1.393055081367
72.547744750977 -73.931945800781 -227.970825195313 1.583080410957
-142.576110839844 -69.005653381348 -235.957977294922 1.303989171982
71.475700378418 -75.296813964844 -228.570343017578 2.470381259918
-19.782243728638 -76.601287841797 -229.452651977539 0.673124611378
-141.597579956055 -75.667976379395 -229.125579833984 0.672903358936
77.983665466309 -78.910072326660 -228.732238769531 2.915992736816
10.368393898010 -77.349098205566 -233.301712036133 1.408289909363
-140.953704833984 -76.407524108887 -235.081680297852 2.962827444077
-149.369262695313 -71.393013000488 -233.602355957031 3.332007408142
17.559644699097 -70.618919372559 -231.179244995117 1.129762649536
-2.031220912933 -75.746292114258 -237.484161376953 1.201955318451
-27.003833770752 -72.710922241211 -236.940979003906 2.191241025925
-0.930887997150 -69.625854492188 -237.294906616211 1.286690115929
-160.122238159180 -74.128227233887 -237.483062744141 1.714381575584
8.634625434875 -72.332244873047 -243.279052734375 0.859049737453
-164.047668457031 -72.570838928223 -238.497772216797 1.111073374748
-12.129099845886 -74.465309143066 -237.455978393555 2.220186233521
62.204349517822 -74.680557250977 -238.985137939453 2.339709997177
-12.401358604431 -72.433479309082 -237.853027343750 1.507552027702
-24.211662292480 -72.336723327637 -244.106460571289 2.210137128830
-24.333374023438 -72.643867492676 -241.512176513672 0.752156436443
-12.190969467163 -75.403526306152 -240.659454345703 2.358250379562
-145.648101806641 -72.658454895020 -230.751998901367 1.677033901215
8.763824462891 -72.727027893066 -242.072799682617 0.759303927422
64.924316406250 -73.358596801758 -243.440750122070 1.706949949265
15.392013549805 -71.326477050781 -244.851913452148 2.239607334137
-165.296096801758 -70.368354797363 -241.289108276367 2.370103597641
-49.811637878418 -71.894302368164 -240.526412963867 2.385885477066
4.577586174011 -79.826431274414 -248.000610351563 1.857179641724
17.672809600830 -73.456459045410 -243.999740600586 1.711412906647
-53.531127929688 -72.023017883301 -246.937362670898 1.642095446587
-2.130532979965 -69.356437683105 -247.971115112305 4.629105091095
21.573194503784 -78.047096252441 -247.781509399414 1.448825120926
-168.451873779297 -69.961174011230 -248.483184814453 2.171794176102
-66.921257019043 -75.697059631348 -247.960830688477 1.142394661903
-50.890785217285 -71.603302001953 -247.139419555664 2.080463409424
-80.428833007813 -71.442634582520 -251.069000244141 2.122181177139
-160.347183227539 -72.641670227051 -246.731155395508 2.124650478363
-150.042404174805 -66.118316650391 -249.211944580078 2.333528041840
-59.445163726807 -74.291915893555 -249.452636718750 1.647734403610
-68.088775634766 -72.311294555664 -249.713912963867 0.939091861248
-152.937942504883 -69.826614379883 -252.439758300781 0.862568497658
-151.360458374023 -72.416229248047 -252.085708618164 1.315523028374
-75.166328430176 -69.274238586426 -254.128692626953 2.269730091095
-92.750106811523 -69.738845825195 -254.978225708008 2.193220853806
-163.690170288086 -67.117355346680 -251.947830200195 2.744130134583
-156.160079956055 -71.670417785645 -259.518096923828 1.613049030304
-134.149505615234 -73.101486206055 -258.081207275391 2.582177877426
-82.468307495117 -72.237998962402 -251.148452758789 2.320155143738
-161.480972290039 -68.839385986328 -252.691375732422 1.716618657112
-141.170013427734 -69.917999267578 -256.655212402344 1.555976271629
-84.648437500000 -71.375923156738 -251.048294067383 0.840555489063
-96.018554687500 -69.797752380371 -260.119934082031 1.894298791885
-144.406158447266 -72.446037292480 -255.806015014648 2.411645412445
-92.823242187500 -71.724937438965 -255.918380737305 2.782792091370
-151.918792724609 -69.990425109863 -255.807388305664 1.530932784081
-101.654113769531 -71.489311218262 -255.395919799805 1.069721817970
-168.010589599609 -70.649887084961 -258.657196044922 1.077033281326
-160.832870483398 -72.655403137207 -263.255676269531 1.744312644005
-125.773788452148 -74.460632324219 -256.453002929688 1.227502822876
-151.023040771484 -71.578903198242 -259.263092041016 2.095128536224
-111.166633605957 -69.100921630859 -261.728057861328 2.369968175888
-13.670852661133 -71.451416015625 -261.710266113281 1.451747655869
-140.919998168945 -71.219795227051 -260.847198486328 1.790137887001
-125.180541992188 -71.008399963379 -259.946044921875 1.901984572411
-153.507614135742 -69.821159362793 -262.482025146484 1.293270707130
24.226156234741 -73.639404296875 -270.654846191406 3.122847080231
-148.007019042969 -73.285736083984 -278.526977539063 2.358547687531
-167.740982055664 -71.201095581055 -279.967742919922 2.563413619995
-7.515073776245 -72.521369934082 -279.286376953125 2.776476860046
-145.184692382813 -71.026962280273 -280.356201171875 1.691654443741
-8.848016738892 -70.928771972656 -283.005432128906 1.274212121964
13.505839347839 -72.863990783691 -285.945068359375 1.052296638489
-135.951797485352 -69.654502868652 -285.810058593750 1.304765462875
-67.619590759277 -73.406723022461 -286.827087402344 1.638625502586
-32.654289245605 -74.223526000977 -287.944519042969 2.131980895996
-112.202613830566 -71.192398071289 -284.270141601563 2.761879205704
-94.647148132324 -74.912780761719 -290.150817871094 0.775450229645
-88.930938720703 -71.680313110352 -291.277099609375 1.497561216354
-49.130836486816 -73.096992492676 -291.771942138672 3.156901836395
-115.292655944824 -75.141342163086 -288.515289306641 1.268983006477
-113.027282714844 -72.368415832520 -290.156860351563 1.539029359818
-32.366764068604 -69.702651977539 -289.027069091797 2.617632865906
-114.636924743652 -71.586929321289 -292.895538330078 1.929121971130
-126.353889465332 -67.127777099609 -290.031646728516 1.988558530807
-143.721939086914 -72.768974304199 -293.481811523438 1.568359851837
7.843963146210 -72.164886474609 -291.378631591797 1.733127236366
17.310815811157 -74.140632629395 -293.201263427734 1.878467440605
-159.209793090820 -70.684799194336 -292.709686279297 1.075130224228
-157.642623901367 -74.093658447266 -300.598785400391 2.308546304703
-146.288879394531 -71.869071960449 -310.383270263672 2.247575044632
-151.262725830078 -69.358291625977 -310.699829101563 2.636051893234
-151.873291015625 -71.965850830078 -313.452941894531 1.342731356621
29.776206970215 -79.846763610840 -14.844779968262 6.425434589386
31.748537063599 -75.133483886719 -18.131267547607 2.366891384125
22.373699188232 -76.963020324707 -24.165666580200 4.166386127472
29.898414611816 -74.540008544922 -39.120727539063 2.851906776428
-57.173439025879 -74.592124938965 -49.600151062012 3.589087724686
-64.274131774902 -75.022262573242 -50.041622161865 3.081440925598
-37.942905426025 -78.491874694824 -50.220355987549 5.990009307861
-83.476776123047 -71.373298645020 -62.750892639160 3.877419948578
82.100715637207 -79.498596191406 -74.158424377441 3.853653669357
-14.516031265259 -73.916152954102 -70.916503906250 2.236890554428
90.018829345703 -77.776695251465 -66.319503784180 5.459558963776
100.259368896484 -76.576545715332 -76.902145385742 3.557044982910
-91.656333923340 -72.990905761719 -76.183479309082 1.178403615952
68.546981811523 -76.380592346191 -80.347152709961 3.919415235519
-40.180480957031 -78.942596435547 -85.567543029785 1.540253520012
101.822616577148 -75.836410522461 -82.007354736328 4.300583362579
-54.710624694824 -73.767341613770 -88.502220153809 2.976900577545
51.927383422852 -76.539085388184 -90.493759155273 2.556212663651
71.794448852539 -81.443969726563 -90.765792846680 6.182281494141
56.391578674316 -75.328620910645 -96.218429565430 2.017318487167
53.695980072021 -77.770568847656 -98.523056030273 1.525890231133
75.278358459473 -79.394241333008 -95.653953552246 4.186252117157
47.373535156250 -75.701454162598 -105.145317077637 2.651803731918
101.299095153809 -77.190528869629 -100.739303588867 4.000781059265
106.750335693359 -80.371940612793 -106.445075988770 4.705997943878
80.896911621094 -73.651687622070 -103.335525512695 2.538972616196
92.688110351563 -77.639808654785 -103.426979064941 4.983844280243
101.754394531250 -76.881767272949 -95.095397949219 4.401499748230
110.389457702637 -77.167404174805 -103.673080444336 2.915908575058
40.460697174072 -75.857101440430 -106.053901672363 1.899948835373
113.430374145508 -73.858444213867 -118.541633605957 1.524840474129
114.648773193359 -77.711654663086 -118.837280273438 4.344520092010
32.215320587158 -74.096672058105 -123.424690246582 0.867507517338
45.614669799805 -76.935455322266 -118.811103820801 0.847887635231
116.145904541016 -76.704666137695 -130.136810302734 2.258408308029
37.124149322510 -75.081962585449 -126.557800292969 3.066519975662
115.916595458984 -79.812988281250 -127.719390869141 4.889448165894
109.638053894043 -77.307296752930 -122.385818481445 3.299653768539
27.311008453369 -76.070907592773 -135.478851318359 2.053535461426
-47.053829193115 -74.921203613281 -133.993728637695 2.863582849503
-51.201698303223 -72.886787414551 -134.975860595703 0.497314125299
112.256843566895 -75.560623168945 -134.896347045898 1.463373064995
-68.333251953125 -77.816040039063 -140.421813964844 4.839455604553
-71.910354614258 -74.859451293945 -140.245620727539 1.770715355873
-58.028514862061 -74.862426757813 -141.089019775391 0.840267121792
32.847621917725 -75.237098693848 -143.516540527344 2.960626125336
117.095611572266 -77.794334411621 -145.848968505859 4.763274669647
-68.446357727051 -71.059532165527 -146.946655273438 1.966326236725
-47.046298980713 -74.140464782715 -142.473052978516 2.453303337097
34.334609985352 -75.731071472168 -151.130447387695 1.402702331543
-67.184753417969 -75.256019592285 -147.731063842773 0.800203263760
114.949317932129 -75.157859802246 -141.208679199219 1.327532291412
112.829254150391 -74.057319641113 -157.428329467773 1.360112309456
117.263114929199 -77.072517395020 -152.880889892578 2.182420253754
-37.449916839600 -76.794883728027 -152.985671997070 0.990234255791
-63.763065338135 -73.957939147949 -164.202789306641 2.302773475647
-68.188735961914 -70.929878234863 -156.999191284180 1.731675982475
31.111501693726 -76.214485168457 -146.281265258789 1.602565169334
-1.131080031395 -76.494812011719 -161.988250732422 2.143541574478
110.134017944336 -75.327667236328 -161.502502441406 1.589960455894
112.805107116699 -74.236686706543 -152.888565063477 1.185376882553
113.218025207520 -78.015121459961 -158.310211181641 1.503890156746
-62.727046966553 -71.328384399414 -159.899322509766 1.409171342850
-44.366230010986 -75.981193542480 -165.124694824219 1.410604119301
-1.320384979248 -73.751754760742 -164.907012939453 1.923190593719
-28.247018814087 -74.277542114258 -174.767135620117 2.277337551117
106.979980468750 -74.747711181641 -167.100326538086 1.247271895409
-33.390045166016 -77.198966979980 -159.960617065430 1.782874107361
110.428817749023 -74.109443664551 -168.219680786133 0.859519124031
-40.770751953125 -74.486511230469 -173.488281250000 1.544022321701
109.669853210449 -73.471923828125 -168.478363037109 1.362190961838
-150.472824096680 -73.668235778809 -179.874359130859 1.495925903320
-25.882915496826 -70.372085571289 -176.565628051758 0.932961165905
-19.288082122803 -74.069480895996 -183.194152832031 1.691888928413
25.871881484985 -77.544075012207 -177.022598266602 0.695374250412
16.077867507935 -74.006675720215 -183.001571655273 1.567968964577
28.651926040649 -74.860877990723 -182.901382446289 2.094537019730
105.249534606934 -79.002143859863 -183.645248413086 2.423181533813
-150.773391723633 -69.790161132813 -184.649398803711 2.276319265366
-18.727519989014 -76.167007446289 -184.723632812500 0.728091061115
103.200630187988 -76.178054809570 -178.465835571289 3.151554107666
104.222076416016 -72.052688598633 -189.491836547852 1.469793558121
109.197402954102 -76.497138977051 -177.679489135742 1.294830679893
100.057411193848 -76.676811218262 -193.616912841797 2.259763479233
-150.320678710938 -72.859451293945 -196.338348388672 2.794449090958
101.016502380371 -75.593627929688 -205.357345581055 1.183745861053
-27.213220596313 -71.515007019043 -196.953033447266 1.477367520332
98.537345886230 -74.692703247070 -195.625442504883 1.528045177460
-120.421211242676 -75.667106628418 -199.970748901367 3.626388311386
-28.810066223145 -78.122985839844 -190.021560668945 1.647130250931
-140.902374267578 -68.442192077637 -198.040008544922 2.068646192551
96.325721740723 -74.974655151367 -198.458724975586 1.917820692062
9.621267318726 -74.693794250488 -198.910369873047 1.804491877556
24.868522644043 -72.968177795410 -192.381256103516 1.329660773277
-147.122314453125 -72.613716125488 -202.724853515625 1.433486819267
-137.959259033203 -71.566596984863 -201.850540161133 1.822702527046
-9.071325302124 -73.226264953613 -206.524108886719 0.932540237904
-123.411148071289 -72.243698120117 -203.568328857422 1.267712235451
-142.942581176758 -74.654426574707 -199.558654785156 1.922297835350
4.921713829041 -74.152320861816 -199.411544799805 4.353321075439
-23.288669586182 -75.694267272949 -200.940261840820 2.062211990356
21.621170043945 -76.773506164551 -202.174331665039 0.931678116322
7.582364082336 -74.973625183105 -211.659530639648 1.242638468742
86.423599243164 -72.165542602539 -208.348434448242 3.216918945313
-17.415708541870 -70.916938781738 -211.694519042969 1.945048093796
92.308288574219 -72.473594665527 -208.754272460938 1.235000491142
98.007011413574 -76.526855468750 -206.869796752930 1.957885384560
-148.007675170898 -72.951965332031 -214.363754272461 1.217084527016
96.441101074219 -76.279617309570 -211.431900024414 1.243606925011
5.967207908630 -72.851303100586 -207.099487304688 2.171279668808
4.520627975464 -75.697715759277 -214.255844116211 2.688509702682
-32.007888793945 -72.959907531738 -206.778625488281 2.278125524521
-88.465148925781 -72.027290344238 -212.918731689453 2.731446743011
-25.288652420044 -74.729911804199 -210.673583984375 0.775301992893
86.087501525879 -73.654121398926 -216.703964233398 1.154265999794
90.248130798340 -73.525627136230 -216.812408447266 0.883427202702
-30.883659362793 -72.473686218262 -212.021072387695 2.249515533447
-83.420333862305 -69.630226135254 -218.152923583984 4.266700744629
-0.119966000319 -75.439674377441 -218.540420532227 2.779636383057
83.020996093750 -70.986740112305 -212.912506103516 4.410673141479
-151.014709472656 -75.425231933594 -221.767303466797 2.627884864807
-164.848892211914 -70.160118103027 -214.132690429688 2.875390291214
-161.059402465820 -74.029632568359 -222.155517578125 1.854772210121
-20.469179153442 -73.958114624023 -226.675918579102 1.835401177406
-152.980545043945 -74.533172607422 -222.656585693359 1.361697316170
-4.800819873810 -74.423370361328 -224.282318115234 3.477532148361
7.498590946198 -74.550254821777 -218.199447631836 2.112138032913
-166.214141845703 -71.338623046875 -225.414215087891 1.487967014313
-157.868072509766 -71.879005432129 -227.263534545898 1.580512762070
80.185234069824 -77.126029968262 -231.252426147461 1.360327601433
1.219323039055 -72.170333862305 -226.416778564453 0.981021404266
-156.556579589844 -66.987594604492 -225.964126586914 1.928307652473
-141.566253662109 -73.321899414063 -224.277709960938 1.228093624115
-18.240608215332 -72.195930480957 -223.700561523438 1.802070021629
0.513931989670 -77.509239196777 -222.313140869141 2.409182071686
81.032043457031 -71.754829406738 -225.345718383789 1.392987251282
-160.305786132813 -69.852287292480 -227.743423461914 3.345238447189
-143.030120849609 -69.351127624512 -230.718917846680 2.985180377960
-124.152214050293 -70.234375000000 -230.763122558594 2.440490484238
79.733566284180 -75.489044189453 -226.456604003906 1.627705335617
-114.682380676270 -71.847610473633 -229.047775268555 1.217327952385
-145.456985473633 -71.538375854492 -229.186859130859 1.988327383995
-149.549636840820 -70.203659057617 -231.305435180664 3.438331365585
-148.076950073242 -72.266502380371 -231.254364013672 2.064892530441
-154.882049560547 -72.018493652344 -229.020889282227 0.968080818653
-164.133392333984 -71.848739624023 -228.948455810547 2.141041040421
-132.752502441406 -71.779220581055 -235.246398925781 1.567000985146
-132.331802368164 -72.801879882813 -233.060348510742 1.030225038528
-152.263336181641 -75.070777893066 -232.870208740234 2.659852266312
-144.395660400391 -68.028076171875 -236.694137573242 1.389819502831
-150.661102294922 -71.903839111328 -235.246261596680 1.280566453934
75.889930725098 -75.906845092773 -232.215774536133 1.587079644203
68.381362915039 -69.048881530762 -235.660644531250 0.907564222813
-156.027969360352 -69.969413757324 -235.285202026367 1.918326258659
72.774429321289 -69.556198120117 -232.956985473633 1.824268937111
-18.769256591797 -71.460609436035 -236.443161010742 2.249024152756
12.407060623169 -74.373176574707 -236.900344848633 2.147134542465
7.926524162292 -73.921424865723 -235.828750610352 3.039921998978
-153.517532348633 -71.379997253418 -242.592407226563 3.663664817810
15.603342056274 -72.560020446777 -240.884384155273 1.690329670906
61.979759216309 -72.468292236328 -237.726150512695 1.758595943451
14.446363449097 -70.755111694336 -237.701477050781 1.958063840866
6.368741989136 -73.467208862305 -241.380294799805 1.908742904663
-5.476359844208 -70.863937377930 -240.133056640625 1.048331379890
-20.118497848511 -71.298728942871 -242.648071289063 1.311833262444
-0.706381022930 -72.843803405762 -241.780090332031 0.998171091080
4.819893836975 -75.554061889648 -244.846450805664 1.760172605515
58.432376861572 -74.529823303223 -241.365859985352 0.276191055775
-54.460685729980 -75.615509033203 -244.676589965820 1.564497590065
20.624584197998 -71.998779296875 -247.132308959961 1.524249792099
-58.556663513184 -73.255805969238 -241.695373535156 3.735142469406
-8.863772392273 -72.884918212891 -247.724853515625 1.077417135239
-65.055343627930 -68.775245666504 -250.115020751953 2.985150337219
-85.040000915527 -70.265647888184 -253.018157958984 0.967860877514
-81.630859375000 -72.811149597168 -252.050521850586 2.800035715103
-8.841680526733 -71.945129394531 -254.618194580078 2.836242198944
-122.893615722656 -71.151206970215 -258.991912841797 2.845749616623
-13.123078346252 -73.448539733887 -252.842575073242 1.981310606003
-116.010147094727 -71.490928649902 -255.650283813477 2.274042844772
-115.507858276367 -70.121498107910 -258.560729980469 2.059654951096
-102.577514648438 -71.411811828613 -256.470825195313 1.452524423599
-142.903991699219 -70.140563964844 -261.793884277344 0.903050780296
-144.053543090820 -70.443534851074 -267.203186035156 2.161976099014
-167.699935913086 -70.842155456543 -263.603485107422 1.799993872643
20.313188552856 -75.798187255859 -280.152160644531 3.138875484467
-57.068866729736 -69.635253906250 -285.254333496094 1.697258830070
-66.267890930176 -70.436004638672 -283.590759277344 3.151315450668
-41.205169677734 -73.378265380859 -283.789245605469 2.111276388168
-27.105707168579 -72.709983825684 -286.361938476563 1.430295705795
-95.398368835449 -72.901519775391 -289.192260742188 1.798798680305
-29.874982833862 -69.857368469238 -285.561004638672 3.151435852051
-3.164880990982 -72.047126770020 -286.029693603516 1.815325498581
-166.449798583984 -70.359825134277 -289.310638427734 2.482042312622
-14.949807167053 -73.965293884277 -285.781860351563 2.261121034622
7.285497188568 -73.255599975586 -287.803955078125 1.690340280533
15.027573585510 -76.557807922363 -283.515686035156 3.634822607040
-56.054611206055 -73.744941711426 -287.556823730469 1.912694215775
-32.304271697998 -72.054542541504 -291.362518310547 1.762071609497
15.142033576965 -70.206848144531 -292.877807617188 2.323780059814
-69.988426208496 -69.858505249023 -292.811950683594 2.956556320190
-39.317050933838 -69.103523254395 -288.991455078125 3.058857917786
-16.928310394287 -69.826469421387 -289.821899414063 1.819663405418
15.946847915649 -74.314933776855 -290.889923095703 1.360602140427
-10.668006896973 -73.427886962891 -294.100250244141 3.417438507080
4.866918087006 -70.789451599121 -293.627105712891 1.256360173225
15.153011322021 -74.053520202637 -290.458343505859 1.397218108177
-133.983154296875 -69.576202392578 -294.286193847656 1.621333122253
-144.083328247070 -72.677909851074 -299.148834228516 1.760343074799
-150.118331909180 -70.459671020508 -313.180847167969 1.332458496094
44.216197967529 -76.361244201660 -13.556030273438 4.755757331848
31.313833236694 -76.697929382324 -11.673950195313 5.318222045898
40.462512969971 -76.992950439453 -15.269354820251 4.344825267792
23.185596466064 -73.518470764160 -18.531932830811 1.653021454811
46.144283294678 -74.788986206055 -22.193181991577 3.427070379257
26.732591629028 -74.791931152344 -23.802021026611 3.300912618637
24.922937393188 -76.775993347168 -27.360448837280 4.530815124512
25.950839996338 -77.142890930176 -38.148574829102 6.301374912262
40.690677642822 -78.635475158691 -30.680643081665 7.248718261719
27.419427871704 -79.810836791992 -36.236198425293 7.723788738251
44.234745025635 -75.235084533691 -37.492904663086 3.834152221680
33.008319854736 -76.889167785645 -39.275966644287 4.551782131195
39.919567108154 -77.834129333496 -35.801963806152 6.122260093689
32.107727050781 -75.497978210449 -39.786861419678 3.225817203522
44.748981475830 -76.416709899902 -41.018180847168 5.405156135559
34.872306823730 -75.896881103516 -38.832897186279 3.246922492981
-39.820297241211 -73.760467529297 -48.096122741699 2.262939453125
-28.923292160034 -70.656463623047 -50.440700531006 1.855147600174
-88.263031005859 -73.337455749512 -54.614532470703 4.517248630524
-87.969703674316 -75.494140625000 -65.416831970215 3.582026004791
78.991279602051 -78.668678283691 -66.445838928223 6.924182891846
85.415969848633 -75.950080871582 -72.214035034180 2.219029903412
-18.547510147095 -73.217796325684 -73.342559814453 2.598409414291
-87.154220581055 -74.615707397461 -71.562049865723 1.035392165184
-24.090623855591 -74.352645874023 -76.540817260742 2.174386024475
-48.606323242188 -75.664482116699 -84.774818420410 2.045607328415
67.030433654785 -72.044158935547 -85.868087768555 2.911160945892
53.793472290039 -74.474700927734 -92.903755187988 1.271578073502
100.594596862793 -74.157119750977 -91.039085388184 3.311229944229
70.510040283203 -77.042724609375 -96.268867492676 2.851020097733
-67.168998718262 -75.693977355957 -90.857292175293 3.387431383133
-61.115806579590 -72.397186279297 -97.641998291016 4.815391540527
45.889621734619 -75.738014221191 -97.084251403809 2.213191270828
78.502059936523 -74.129989624023 -99.473777770996 0.988531649113
55.497131347656 -82.177467346191 -104.767166137695 4.882612705231
102.356369018555 -75.428054809570 -96.207031250000 2.608378648758
-94.167266845703 -75.312133789063 -107.067916870117 3.361861467361
40.918098449707 -75.235298156738 -110.318748474121 1.781515240669
108.106620788574 -76.439102172852 -108.296226501465 3.082610607147
49.562797546387 -74.913688659668 -110.877983093262 2.101435422897
102.546813964844 -76.475929260254 -109.299331665039 3.565805673599
-84.403877258301 -73.693122863770 -115.076049804688 3.550250291824
36.861957550049 -78.047760009766 -111.552742004395 2.588729619980
107.695663452148 -74.331008911133 -116.310249328613 2.775872468948
105.799125671387 -72.868240356445 -115.281784057617 1.653375148773
106.582527160645 -75.801162719727 -114.640563964844 1.585534214973
111.590873718262 -74.518669128418 -114.073493957520 2.526617050171
40.960998535156 -76.645919799805 -109.819343566895 1.485057830811
33.125293731689 -72.389274597168 -116.882469177246 1.781046748161
41.986553192139 -74.528404235840 -113.734756469727 3.097986698151
107.837532043457 -76.607978820801 -121.310684204102 2.309924602509
41.180175781250 -73.125976562500 -122.809616088867 1.729054927826
110.124717712402 -74.305786132813 -131.645126342773 1.765281438828
112.001914978027 -73.924514770508 -130.525619506836 1.383661627769
34.640029907227 -72.551177978516 -120.184555053711 2.452136039734
-76.964477539063 -73.405792236328 -125.089599609375 3.715501785278
114.927459716797 -72.686630249023 -133.691299438477 1.922011852264
-53.459712982178 -73.663810729980 -137.110839843750 0.510963559151
36.502563476563 -75.217628479004 -134.335678100586 2.483266115189
-72.339080810547 -73.763671875000 -135.074417114258 3.571815967560
27.896923065186 -76.542800903320 -131.295715332031 1.956406831741
-78.671646118164 -73.751800537109 -142.453338623047 2.504614830017
-44.416023254395 -76.473121643066 -141.585281372070 1.624903798103
-73.059249877930 -74.068626403809 -137.820144653320 1.182436227798
111.163322448730 -74.194938659668 -136.522308349609 1.665541529655
118.152069091797 -73.221382141113 -141.047821044922 2.361531496048
119.008110046387 -77.944877624512 -145.921752929688 5.736759185791
-76.410240173340 -72.320053100586 -143.253524780273 0.905080318451
8.926639556885 -70.132316589355 -150.313003540039 0.850005328655
-51.143463134766 -73.986717224121 -148.972915649414 1.758868336678
-49.934917449951 -74.184616088867 -154.885879516602 1.951754570007
107.793426513672 -74.876785278320 -161.153854370117 1.737423896790
-40.569828033447 -75.241607666016 -148.853057861328 1.420138835907
14.888219833374 -71.768966674805 -157.221313476563 0.612707376480
23.197479248047 -75.508880615234 -157.185287475586 2.658446073532
115.611137390137 -73.907829284668 -164.096481323242 2.380708456039
30.674081802368 -73.295410156250 -165.275482177734 1.882143139839
-0.030377000570 -74.902595520020 -163.075729370117 1.234237194061
32.707981109619 -74.721282958984 -160.363265991211 1.591357469559
-66.902412414551 -71.473625183105 -157.228607177734 1.563955783844
-64.912834167480 -72.725708007813 -158.689758300781 1.527255654335
-68.003433227539 -71.592857360840 -165.187438964844 1.113988637924
115.632934570313 -71.298912048340 -160.851211547852 2.912277936935
-43.707618713379 -73.354232788086 -162.547134399414 1.342102885246
18.616823196411 -73.890274047852 -165.059707641602 1.139452099800
-63.084583282471 -71.868003845215 -169.169692993164 2.055009603500
-62.199325561523 -71.136329650879 -170.912780761719 2.946141004562
-40.447193145752 -74.110496520996 -159.819335937500 1.736172437668
-32.713813781738 -75.271697998047 -168.194076538086 2.248731374741
115.844482421875 -76.487266540527 -170.790771484375 2.639242649078
-36.146236419678 -68.433914184570 -179.238998413086 3.494717597961
14.589450836182 -74.535552978516 -172.688385009766 3.057642221451
111.558074951172 -76.771232604980 -183.803024291992 2.097334384918
-146.778717041016 -73.644477844238 -175.580856323242 1.443303227425
-145.054443359375 -71.786766052246 -173.048141479492 2.345222234726
-147.784576416016 -70.119247436523 -179.396148681641 3.376522779465
-141.588653564453 -73.195892333984 -182.268447875977 1.665351629257
-30.986925125122 -71.575431823730 -184.994537353516 2.453733205795
-22.243841171265 -73.042335510254 -185.238189697266 1.709137797356
24.159883499146 -69.772346496582 -190.528884887695 2.282336950302
-140.570236206055 -70.964981079102 -186.182601928711 2.600495338440
-146.421112060547 -71.980491638184 -188.032394409180 1.468259930611
-20.418085098267 -70.435523986816 -185.928161621094 1.578059554100
11.973684310913 -73.631248474121 -182.062820434570 3.057925701141
-148.489212036133 -71.477478027344 -193.723617553711 1.872717261314
-30.714832305908 -73.492607116699 -187.487533569336 1.566980719566
100.996414184570 -74.059700012207 -187.821090698242 2.263455867767
107.153121948242 -73.087722778320 -189.270431518555 1.936394453049
25.077800750732 -68.951095581055 -192.872695922852 2.028493165970
-12.633101463318 -73.180068969727 -188.006652832031 5.553222179413
-26.884750366211 -74.622756958008 -192.901031494141 1.614476084709
-154.477142333984 -72.372352600098 -198.624237060547 0.699429869652
-131.759429931641 -72.516029357910 -196.347442626953 1.304389119148
-124.288040161133 -69.110084533691 -194.475540161133 0.091435775161
-123.807609558105 -70.050659179688 -197.076904296875 1.675283551216
-21.572658538818 -68.679885864258 -195.598617553711 1.709169149399
13.535698890686 -75.070411682129 -191.995223999023 2.341222286224
93.499366760254 -77.180450439453 -200.748641967773 3.495599508286
-149.154327392578 -67.868530273438 -194.847518920898 1.849942445755
-144.170471191406 -69.011566162109 -198.175384521484 2.219871520996
-150.016754150391 -70.736129760742 -199.614166259766 2.234432935715
-154.038284301758 -69.102661132813 -196.902084350586 1.124016046524
-23.884603500366 -72.129997253418 -199.141586303711 1.447753310204
-9.828239440918 -71.381599426270 -194.898483276367 4.314607143402
-145.461608886719 -67.514938354492 -201.554290771484 3.128521919250
-17.574350357056 -71.866386413574 -200.700057983398 2.049149036407
-160.532562255859 -70.453186035156 -200.115829467773 3.245237112045
-133.471603393555 -71.237419128418 -198.884628295898 1.112783193588
16.585096359253 -74.618652343750 -206.613098144531 2.000435352325
-160.393173217773 -67.929206848145 -203.527572631836 1.482571005821
-145.254257202148 -72.565727233887 -205.996368408203 1.014945626259
9.133995056152 -71.000083923340 -202.358551025391 2.387446403503
-153.221282958984 -68.672859191895 -202.100753784180 1.141694426537
-23.699035644531 -71.963851928711 -201.377197265625 2.215881586075
98.256263732910 -74.417518615723 -198.915969848633 0.349576890469
-157.594070434570 -71.816162109375 -211.985321044922 0.806932032108
-163.645660400391 -73.912178039551 -207.216171264648 3.709947586060
-75.975479125977 -69.860237121582 -207.822097778320 3.724056959152
90.170745849609 -72.850440979004 -208.627578735352 1.599903941154
-2.943764925003 -71.223312377930 -217.973480224609 1.492917299271
-153.649597167969 -69.781127929688 -212.368759155273 2.785040140152
-86.737457275391 -71.678901672363 -213.017944335938 2.462901353836
-8.466003417969 -75.017860412598 -210.940902709961 1.511506557465
16.442327499390 -72.352340698242 -219.515289306641 1.880818605423
-144.067337036133 -71.534492492676 -219.589981079102 1.491432428360
-2.766249895096 -76.153396606445 -220.567367553711 1.394247651100
-18.528949737549 -73.202606201172 -217.853744506836 2.068158149719
-13.743789672852 -69.177337646484 -220.005554199219 2.322295427322
91.113311767578 -73.340019226074 -218.762329101563 1.497067213058
-19.872570037842 -70.991432189941 -216.406814575195 2.758891344070
-30.875633239746 -71.568191528320 -216.730361938477 1.897542238235
-106.693473815918 -66.981681823730 -224.261169433594 1.963680863380
-15.266562461853 -70.585823059082 -222.822738647461 1.138912200928
93.303337097168 -71.402618408203 -218.630889892578 2.391869306564
78.352622985840 -73.959815979004 -220.168243408203 2.797530651093
8.047048568726 -73.661491394043 -218.995819091797 2.514090538025
-10.312249183655 -70.086524963379 -225.010864257813 1.852034091949
79.485603332520 -73.723564147949 -221.738891601563 1.428710937500
-121.560409545898 -74.103569030762 -224.804428100586 2.164438247681
-19.164939880371 -70.259147644043 -222.816757202148 2.069964647293
-96.293083190918 -70.624031066895 -223.209625244141 1.972974419594
-101.663436889648 -71.273345947266 -223.768554687500 1.697594404221
-130.750411987305 -72.721885681152 -228.293670654297 2.377088546753
82.174339294434 -73.250694274902 -223.363174438477 2.078100204468
-122.353866577148 -71.478065490723 -226.884429931641 1.789586305618
5.582268238068 -71.682319641113 -228.445114135742 2.211116552353
82.100090026855 -71.781761169434 -224.150070190430 2.285644769669
-14.888298988342 -73.039207458496 -230.239028930664 1.278459429741
-12.703308105469 -72.827964782715 -227.122085571289 1.155064702034
-1.061368942261 -77.067008972168 -229.688446044922 1.945777058601
11.121264457703 -74.165679931641 -227.152709960938 2.437181234360
89.732795715332 -74.406654357910 -226.257949829102 4.451429843903
10.822730064392 -70.838485717773 -231.099960327148 1.841540813446
6.405677795410 -71.982650756836 -229.150634765625 2.144377708435
-8.170900344849 -72.632125854492 -230.962310791016 1.327264904976
-5.907924175262 -72.961807250977 -229.854614257813 0.607491612434
19.604387283325 -71.161544799805 -232.453720092773 2.791275978088
-11.589556694031 -69.622108459473 -232.901443481445 0.448583394289
71.873283386230 -73.304962158203 -239.552124023438 1.953173041344
-8.270234107971 -70.490257263184 -238.517654418945 2.067180633545
19.851505279541 -73.307197570801 -235.503723144531 0.948973774910
-162.027923583984 -68.967590332031 -239.955871582031 2.525782585144
-4.711215972900 -69.948402404785 -236.773605346680 1.899009823799
-7.261091232300 -72.708885192871 -239.942596435547 0.773946404457
-166.857376098633 -70.563224792480 -250.324813842773 1.469920635223
-9.996657371521 -70.285331726074 -244.114715576172 2.557354450226
16.422826766968 -69.571342468262 -245.216125488281 2.534894704819
-146.852584838867 -72.080093383789 -251.393478393555 1.952227711678
-72.466804504395 -70.428413391113 -250.046707153320 1.273081302643
-60.827167510986 -72.050712585449 -246.700073242188 1.578204631805
53.170516967773 -70.329002380371 -246.566528320313 1.391553044319
-73.867935180664 -70.670593261719 -246.456954956055 1.930439472198
17.679977416992 -72.668846130371 -249.291107177734 2.339724302292
-72.296012878418 -71.377090454102 -250.957092285156 1.434977412224
-14.537955284119 -70.138671875000 -245.638107299805 1.885706901550
-144.740676879883 -72.844284057617 -252.329528808594 0.886148273945
47.438240051270 -69.128387451172 -249.730041503906 1.559617877007
-79.288085937500 -72.971534729004 -255.388870239258 1.901636123657
-101.961082458496 -67.787025451660 -254.568206787109 1.891955018044
-98.594902038574 -72.218597412109 -254.215637207031 0.795926332474
-119.108360290527 -68.602470397949 -252.554550170898 4.393677711487
-105.060028076172 -68.177055358887 -256.689239501953 2.067463159561
-105.084991455078 -70.229103088379 -257.707214355469 2.732995033264
22.358572006226 -69.485580444336 -258.268920898438 1.979615926743
-128.617889404297 -67.862953186035 -264.594299316406 2.803442716599
-13.173400878906 -72.056716918945 -275.308135986328 2.558743476868
-147.024414062500 -67.238555908203 -282.797668457031 1.812314271927
-168.125183105469 -70.952629089355 -285.058074951172 0.934628665447
-124.373954772949 -70.790962219238 -283.697387695313 1.997709989548
-113.591087341309 -66.925643920898 -286.379211425781 3.382746934891
-74.980087280273 -66.268119812012 -284.077423095703 4.323962211609
-56.984653472900 -71.082458496094 -286.366699218750 0.691453099251
-41.370792388916 -69.589973449707 -285.740783691406 1.921662449837
-14.876120567322 -73.772842407227 -289.586669921875 1.498010039330
-13.310811996460 -68.482383728027 -291.429870605469 3.076084375381
-37.939250946045 -72.394500732422 -289.916687011719 1.839100360870
-33.921398162842 -70.434165954590 -288.481048583984 2.863066911697
-18.514417648315 -67.835685729980 -288.439178466797 3.949865579605
-71.376541137695 -69.188606262207 -292.641357421875 3.495105743408
-55.113327026367 -69.692474365234 -290.735534667969 1.264330148697
-17.193735122681 -67.376815795898 -291.174133300781 4.284851074219
-13.333243370056 -72.337554931641 -289.484832763672 1.479454874992
-3.300623893738 -70.066520690918 -292.127380371094 2.703628063202
2.903937101364 -67.716110229492 -291.918426513672 1.079461693764
-91.766693115234 -70.045463562012 -292.579559326172 1.682991743088
-139.412734985352 -71.057838439941 -294.575866699219 3.270063877106
-115.941246032715 -70.650665283203 -292.238128662109 0.562124252319
-153.189651489258 -68.162063598633 -294.427703857422 1.211519241333
-151.636703491211 -69.909790039063 -299.052368164063 1.992344856262
-146.383590698242 -67.726943969727 -299.543701171875 2.015517950058
45.622070312500 -73.489822387695 -20.820505142212 1.481400609016
20.994518280029 -78.071372985840 -23.124988555908 5.471350669861
50.654720306396 -72.952743530273 -24.638551712036 2.246606111526
