-13.884958267212 -81.883827209473 -181.765258789063 2.654447555542
-19.951885223389 -80.906890869141 -183.083557128906 1.675486564636
-26.728597640991 -83.322090148926 -181.582656860352 2.488465785980
-39.223606109619 -83.033386230469 -190.197555541992 2.564585208893
-54.023403167725 -81.230041503906 -189.602447509766 3.161332130432
-33.673976898193 -81.767723083496 -194.667129516602 1.656962275505
-142.586822509766 -76.788139343262 -187.640243530273 1.086581110954
-152.863769531250 -78.494529724121 -196.427154541016 1.281818747520
-153.998947143555 -79.047370910645 -200.427276611328 1.833693027496
-150.590698242188 -78.248954772949 -202.587005615234 1.825164556503
-71.582366943359 -84.226150512695 -209.914367675781 1.974976420403
-61.974472045898 -78.708045959473 -206.726318359375 0.776547670364
-150.060272216797 -79.910827636719 -213.547149658203 3.001167774200
-74.515548706055 -81.924140930176 -211.626068115234 1.767777085304
-72.841926574707 -82.617057800293 -213.144515991211 2.071255207062
-78.479034423828 -78.487960815430 -211.986831665039 1.576057910919
-143.866210937500 -80.432991027832 -226.277572631836 1.428950786591
-145.637359619141 -80.946136474609 -231.999053955078 1.900698065758
-151.834487915039 -81.804199218750 -251.194915771484 2.908516645432
13.650659561157 -80.061080932617 -246.329574584961 1.695947885513
8.105883598328 -80.155433654785 -248.143554687500 1.492957115173
-136.915588378906 -81.762039184570 -259.193054199219 1.814405441284
12.841534614563 -85.299217224121 -254.849975585938 1.897355318069
9.208513259888 -83.670135498047 -257.471984863281 1.926868200302
-151.772811889648 -82.574157714844 -264.697875976563 2.726464748383
-154.638687133789 -78.912780761719 -276.527526855469 3.318451404572
-5.577578067780 -81.708457946777 -273.613739013672 2.193323373795
9.501819610596 -83.149055480957 -278.920837402344 1.831768393517
-155.143417358398 -84.090988159180 -285.505310058594 1.859973907471
-143.961914062500 -83.268058776855 -279.370300292969 2.618910074234
-146.770141601563 -81.449455261230 -304.058288574219 3.353559494019
-46.068874359131 -82.550849914551 -71.685440063477 1.807172894478
-70.661537170410 -78.152969360352 -70.294288635254 3.106005668640
-43.519306182861 -82.084648132324 -70.299743652344 0.862405121326
-33.016387939453 -82.373535156250 -76.640655517578 1.017071008682
-74.600112915039 -78.156761169434 -69.826972961426 1.650991797447
-34.170730590820 -82.263519287109 -76.146865844727 1.400209903717
-47.788055419922 -75.728416442871 -84.949859619141 1.988742947578
-56.569404602051 -76.583160400391 -91.810089111328 1.978934168816
-65.231681823730 -84.635910034180 -92.512451171875 2.595110654831
-64.393524169922 -80.403221130371 -100.444091796875 2.519589900970
-91.833686828613 -79.890853881836 -109.964546203613 2.912198543549
40.740581512451 -80.514274597168 -119.280204772949 0.968294858932
36.718711853027 -84.710296630859 -122.429260253906 4.228032112122
-43.512298583984 -82.457771301270 -165.635421752930 3.420627593994
-42.453826904297 -80.151840209961 -160.930618286133 1.161497354507
-6.880178928375 -81.326400756836 -171.650253295898 0.880126476288
-63.184711456299 -83.747741699219 -168.942138671875 3.521650075912
-60.673381805420 -80.547653198242 -179.778274536133 3.047146797180
-58.830059051514 -80.317184448242 -174.406051635742 1.258241295815
-33.758697509766 -80.698303222656 -172.437713623047 0.779746651649
-56.907863616943 -79.912857055664 -181.138305664063 1.771911025047
-30.497632980347 -79.300514221191 -181.289901733398 1.293781638145
-147.794311523438 -78.234169006348 -185.409118652344 1.609821438789
-52.440288543701 -80.425483703613 -182.588302612305 2.329489707947
-46.057125091553 -79.539207458496 -194.711853027344 0.680778324604
-32.004802703857 -81.266067504883 -184.098510742188 2.064712524414
-34.699058532715 -82.331146240234 -188.800735473633 1.961080908775
-34.068222045898 -78.514747619629 -192.294097900391 1.110172033310
-24.415567398071 -82.192230224609 -188.545196533203 1.592684745789
-48.273895263672 -80.667823791504 -198.846298217773 2.459037303925
-145.656646728516 -74.904830932617 -193.962982177734 1.167025566101
-41.027267456055 -76.529121398926 -194.903778076172 1.290931344032
-40.579216003418 -78.924400329590 -201.338943481445 0.743927955627
-42.060356140137 -82.351013183594 -201.842285156250 1.788231253624
-46.089473724365 -78.052780151367 -200.337738037109 2.129689693451
-134.311309814453 -78.294937133789 -197.064407348633 2.379444122314
-137.171066284180 -77.818580627441 -201.020935058594 1.170091390610
-49.806186676025 -80.176269531250 -203.749084472656 1.754290580750
-61.273494720459 -83.208038330078 -204.735000610352 2.066489934921
-41.287342071533 -80.639579772949 -204.117294311523 2.847653865814
-144.159835815430 -79.861610412598 -205.715408325195 1.144346117973
-70.344184875488 -75.834556579590 -207.819747924805 0.885805845261
-37.396244049072 -82.756698608398 -208.624099731445 4.253023624420
13.974933624268 -82.186660766602 -205.868316650391 2.790402650833
-74.584205627441 -80.829986572266 -213.751037597656 0.847192406654
-30.767284393311 -78.494819641113 -214.048736572266 1.102224946022
11.036065101624 -80.672904968262 -218.967010498047 0.965515494347
-153.420272827148 -78.795341491699 -218.019760131836 3.503555774689
7.317969799042 -80.757675170898 -227.543777465820 2.495402097702
11.855954170227 -82.109062194824 -223.874252319336 2.669526338577
15.820473670959 -79.585769653320 -226.465850830078 1.705083131790
-138.459671020508 -82.063102722168 -226.982482910156 1.733920454979
-146.433731079102 -77.498374938965 -229.603393554688 1.991039991379
9.852213859558 -82.383453369141 -236.982833862305 1.681978464127
15.695514678955 -79.558601379395 -237.124664306641 1.246042609215
12.978889465332 -80.769927978516 -236.876403808594 2.093200445175
-150.655807495117 -80.880859375000 -241.544219970703 2.228445529938
-146.868850708008 -85.639923095703 -239.557937622070 1.629631280899
11.459479331970 -81.947227478027 -236.399322509766 1.750752925873
-40.670658111572 -80.273620605469 -244.500411987305 1.229282617569
16.870069503784 -81.097824096680 -247.959686279297 0.645281851292
-43.913501739502 -81.481895446777 -243.551452636719 1.520621418953
-146.354202270508 -82.011589050293 -256.780670166016 1.566370129585
15.907694816589 -82.320823669434 -252.893753051758 2.835489511490
-145.217788696289 -80.808227539063 -256.532073974609 2.825488567352
-154.292633056641 -79.942604064941 -257.341156005859 1.225508451462
13.884496688843 -80.240577697754 -256.224121093750 3.463671922684
-10.059936523438 -77.566162109375 -252.497711181641 1.755631446838
-9.779324531555 -80.698768615723 -262.994903564453 2.907877445221
-146.449981689453 -83.143295288086 -259.839721679688 1.407278299332
-156.855911254883 -74.192199707031 -261.929168701172 1.061011433601
-145.997848510742 -81.317993164063 -264.241027832031 1.519027233124
-151.946823120117 -75.792510986328 -269.286315917969 2.009609460831
-150.086563110352 -80.599357604980 -269.573791503906 2.055641412735
-9.480970382690 -82.339187622070 -268.982116699219 3.691910266876
-6.182508945465 -81.147903442383 -272.579559326172 2.146377801895
12.233478546143 -81.905197143555 -267.784576416016 2.096557855606
3.943348884583 -82.277427673340 -278.959625244141 1.002366662025
2.618170022964 -79.485359191895 -284.831420898438 2.138081789017
-139.575973510742 -75.977348327637 -290.861206054688 2.262536764145
-146.529586791992 -78.656478881836 -293.062744140625 2.533785343170
-61.669990539551 -78.183929443359 -64.307876586914 2.844008922577
-45.085796356201 -77.832809448242 -64.911697387695 2.316356182098
-48.820800781250 -75.726516723633 -66.575042724609 3.436804533005
-46.799160003662 -76.603782653809 -65.609252929688 2.723323822021
-68.567710876465 -81.673828125000 -66.487434387207 2.499648332596
-78.513175964355 -77.035858154297 -72.038032531738 3.554636955261
-37.914985656738 -78.607658386230 -78.298843383789 3.480483055115
-42.449558258057 -81.297210693359 -86.071640014648 2.209328174591
-49.820156097412 -83.021507263184 -88.196083068848 1.989252448082
-86.840621948242 -76.818305969238 -87.973297119141 4.050470829010
-75.909255981445 -81.216735839844 -106.951492309570 3.571077823639
42.381084442139 -79.784934997559 -108.491218566895 1.084109902382
-86.351806640625 -78.023284912109 -109.888107299805 2.074225425720
41.320476531982 -81.422134399414 -120.179016113281 1.152140378952
39.672916412354 -79.468894958496 -125.094734191895 1.433014035225
33.112621307373 -79.457443237305 -121.514495849609 2.285686016083
28.938827514648 -82.874191284180 -126.825157165527 4.923227310181
31.099916458130 -79.590202331543 -134.994766235352 2.390453100204
23.189420700073 -77.579643249512 -145.767791748047 2.108833074570
-48.953048706055 -81.307144165039 -154.997543334961 2.776148557663
29.966371536255 -80.250587463379 -144.486587524414 2.219909429550
23.406272888184 -82.328361511230 -157.550582885742 4.231053352356
-44.666316986084 -80.834968566895 -153.010513305664 1.006449937820
25.865203857422 -80.641517639160 -155.740478515625 1.691055178642
-48.319679260254 -76.542587280273 -161.619827270508 2.608967065811
24.349925994873 -80.451362609863 -166.626296997070 1.242301583290
-61.773605346680 -79.883712768555 -170.286285400391 1.355206608772
-6.864110946655 -82.657844543457 -173.847412109375 2.590578794479
-35.073623657227 -79.052177429199 -173.743164062500 1.023505568504
-12.768785476685 -81.544013977051 -173.557571411133 2.111249685287
-57.788303375244 -79.022010803223 -175.738830566406 1.835959434509
21.877172470093 -82.127555847168 -172.943954467773 3.217131853104
-15.185780525208 -78.710075378418 -183.593673706055 1.436356067657
-24.696601867676 -76.199760437012 -187.001266479492 1.690371513367
-54.309879302979 -76.678260803223 -184.475387573242 1.794254899025
-30.649541854858 -80.335395812988 -186.479705810547 1.830535650253
16.606006622314 -81.955528259277 -190.815078735352 2.998599290848
-150.281387329102 -79.836425781250 -188.491653442383 0.879833161831
-30.138427734375 -79.989868164063 -189.508758544922 1.028950333595
-49.891433715820 -76.885498046875 -190.211624145508 1.329451680183
-151.824874877930 -81.067893981934 -192.256958007813 2.550584077835
-143.658996582031 -79.211753845215 -197.108398437500 2.092283725739
-24.837503433228 -79.695365905762 -197.587326049805 1.829509973526
-22.915388107300 -80.115829467773 -195.930679321289 1.541388154030
-47.042201995850 -78.412521362305 -196.261505126953 1.440340518951
-21.530214309692 -80.839279174805 -196.825958251953 2.524441719055
-49.737075805664 -79.225585937500 -200.027038574219 0.964531362057
-47.370269775391 -79.470260620117 -198.747222900391 1.422434568405
-56.118148803711 -80.615081787109 -201.400665283203 0.840357005596
-20.706995010376 -76.738739013672 -206.448730468750 2.101439476013
-148.017593383789 -78.732032775879 -214.550292968750 1.856796860695
-60.368232727051 -77.260505676270 -208.808776855469 2.344549417496
-59.325721740723 -76.766052246094 -209.023269653320 2.084460735321
-33.932891845703 -74.792434692383 -207.418060302734 1.620239496231
-14.720009803772 -77.550384521484 -206.519744873047 1.261936664581
-37.157226562500 -78.038444519043 -208.882369995117 0.471771091223
-81.076332092285 -78.480827331543 -210.587219238281 1.691188931465
-145.580947875977 -82.467597961426 -210.505981445313 0.523144066334
-34.215999603271 -80.528312683105 -208.700302124023 2.293472528458
6.047014236450 -82.267501831055 -209.635589599609 5.343693256378
-66.992111206055 -80.769813537598 -211.854003906250 1.608400702477
-67.515144348145 -78.838241577148 -214.389236450195 1.906900048256
-26.883907318115 -76.330131530762 -215.170059204102 0.726716101170
-11.685441970825 -84.570098876953 -212.586380004883 4.870787620544
-27.526424407959 -80.722465515137 -218.345245361328 3.092111587524
16.526840209961 -79.904594421387 -216.577590942383 1.461507797241
-151.997817993164 -75.292716979980 -221.284591674805 2.396833896637
-12.197927474976 -83.970382690430 -219.460800170898 4.609909534454
-157.180572509766 -79.847946166992 -227.459655761719 3.505495548248
6.686266899109 -81.298065185547 -230.617935180664 3.454063177109
11.636417388916 -77.375495910645 -227.467453002930 1.903812170029
-3.823885917664 -79.950965881348 -223.419464111328 1.580222368240
15.156295776367 -80.573303222656 -228.491561889648 1.294167876244
-139.219268798828 -82.162452697754 -233.687332153320 3.133929014206
9.768670082092 -80.543495178223 -227.017700195313 2.283977508545
-154.880905151367 -76.784515380859 -229.922592163086 1.534492850304
-146.602508544922 -79.349060058594 -234.337417602539 2.680029630661
-2.719870090485 -81.073646545410 -222.392654418945 2.241895675659
17.499322891235 -82.464492797852 -234.563598632813 2.379395723343
-32.608283996582 -77.407424926758 -239.456436157227 1.977466106415
-146.793472290039 -77.351638793945 -240.272521972656 1.883507370949
-38.988529205322 -78.668830871582 -243.787857055664 1.498693108559
-47.369987487793 -78.059867858887 -241.884689331055 0.834941864014
-34.939220428467 -77.904655456543 -241.172088623047 2.377999305725
18.526481628418 -81.002494812012 -243.618804931641 1.665590882301
-50.850376129150 -75.350692749023 -246.216278076172 1.745686173439
14.294444084167 -80.850509643555 -246.281036376953 0.953627884388
10.243871688843 -78.407394409180 -241.151611328125 0.744816720486
8.574271202087 -81.931045532227 -248.975097656250 1.259502172470
-42.711677551270 -81.610755920410 -246.954818725586 2.397996902466
22.114797592163 -82.376846313477 -247.518707275391 2.317502975464
-145.148284912109 -77.743362426758 -248.223510742188 0.584302425385
19.255714416504 -78.526748657227 -250.169738769531 2.471173763275
-0.569037973881 -83.916091918945 -250.428833007813 2.335315942764
9.445129394531 -80.051048278809 -244.737762451172 1.627109050751
-151.775314331055 -73.998596191406 -254.429244995117 1.975046753883
-148.487548828125 -81.645401000977 -259.550811767578 1.303436994553
-143.436569213867 -78.429672241211 -259.336761474609 1.898829817772
-153.826538085938 -77.334991455078 -261.619903564453 3.402611970901
15.387158393860 -76.850624084473 -265.485137939453 4.762489318848
-154.642333984375 -74.408729553223 -272.071746826172 3.418801069260
-7.411137104034 -80.396087646484 -275.191375732422 2.344924211502
-152.203048706055 -78.529205322266 -271.061370849609 1.736450195313
-146.103073120117 -76.306640625000 -280.293579101563 2.048711061478
-154.245162963867 -74.913673400879 -276.713226318359 3.298344373703
-155.599258422852 -79.346488952637 -285.559234619141 0.846233665943
-133.816452026367 -79.889709472656 -289.288360595703 2.634625196457
-153.708068847656 -78.505943298340 -289.280548095703 2.515449285507
-148.015777587891 -81.420776367188 -291.110778808594 2.416613817215
-148.129638671875 -78.497169494629 -292.156036376953 3.705670118332
-154.131744384766 -79.159194946289 -296.353454589844 2.133817911148
-147.298797607422 -75.461853027344 -293.835083007813 1.207236647606
-153.752960205078 -77.717224121094 -301.285949707031 1.107644438744
-148.430053710938 -78.842971801758 -302.923980712891 2.081029653549
-149.527374267578 -74.963630676270 -304.913940429688 4.738152980804
-57.361110687256 -72.589126586914 -61.246574401855 4.450158119202
-64.611557006836 -77.274032592773 -63.763172149658 3.349242925644
-48.610225677490 -77.788696289063 -62.059806823730 2.497637748718
-27.175195693970 -79.535339355469 -75.086135864258 1.324476480484
-53.264545440674 -80.923889160156 -90.151557922363 1.743360400200
-88.983802795410 -83.853889465332 -99.694969177246 4.589571952820
43.079906463623 -80.462272644043 -107.140350341797 2.721304178238
-77.767425537109 -80.632125854492 -103.060928344727 1.930816173553
41.388908386230 -82.175559997559 -114.263427734375 2.216616153717
39.336299896240 -79.873725891113 -121.963867187500 2.278191804886
38.843009948730 -80.361198425293 -125.321434020996 0.867168962955
35.535511016846 -80.072723388672 -135.496109008789 2.018942117691
30.626823425293 -78.762115478516 -135.563354492188 2.229552984238
32.634346008301 -84.523422241211 -136.207809448242 4.532009601593
29.956964492798 -77.870651245117 -150.743347167969 0.789806127548
-46.126682281494 -75.864280700684 -150.155838012695 1.661370158195
27.578195571899 -81.622787475586 -141.175094604492 1.943494915962
-67.655044555664 -74.862434387207 -154.117980957031 0.815700411797
-38.673114776611 -80.687973022461 -154.486724853516 1.815886020660
-63.096134185791 -79.687873840332 -164.477310180664 0.923626542091
-41.235561370850 -79.513992309570 -159.210998535156 2.271979093552
29.584211349487 -80.078216552734 -157.368927001953 1.613198757172
-36.879772186279 -83.059951782227 -160.673538208008 1.243922591209
-3.536329984665 -80.350143432617 -172.761520385742 1.948054909706
31.706443786621 -76.199829101563 -163.871887207031 0.972918748856
-10.788977622986 -79.692604064941 -170.851684570313 0.997482359409
-60.590839385986 -78.250770568848 -164.180389404297 0.783572912216
-37.509689331055 -76.252388000488 -170.313735961914 0.999179244041
-32.117267608643 -76.633277893066 -173.852478027344 3.401349306107
23.354911804199 -80.972267150879 -176.653366088867 3.188679695129
-55.222637176514 -79.071525573730 -177.525009155273 2.719027280807
-30.331415176392 -75.728767395020 -175.982757568359 3.365287542343
21.401077270508 -79.527412414551 -183.675628662109 1.786903858185
-52.083011627197 -79.075019836426 -185.922363281250 0.299276530743
-26.457008361816 -75.008346557617 -183.292877197266 2.552958488464
-55.127658843994 -76.242301940918 -184.640441894531 2.445878028870
-42.143962860107 -78.331100463867 -195.402526855469 1.394117355347
-30.620254516602 -77.602066040039 -189.640106201172 2.053117513657
-43.405502319336 -79.660255432129 -196.680572509766 0.785944521427
-24.418613433838 -78.413421630859 -192.306777954102 1.071474432945
-138.044021606445 -78.717582702637 -197.624755859375 3.024892568588
18.339893341064 -79.499839782715 -200.626052856445 2.459109544754
-134.671478271484 -75.146812438965 -199.620056152344 1.824249863625
-22.595014572144 -76.591529846191 -196.766601562500 1.689678788185
-21.132032394409 -76.696861267090 -197.526916503906 0.912099778652
-42.751724243164 -78.923088073730 -196.080398559570 0.767502844334
12.717625617981 -77.698158264160 -196.385620117188 1.191269040108
-17.177335739136 -80.850769042969 -198.906539916992 2.730810165405
-58.999748229980 -79.481185913086 -205.487655639648 1.631352782249
-36.098537445068 -78.615966796875 -204.878158569336 1.085496783257
-64.231277465820 -75.862571716309 -207.755218505859 1.613906741142
-69.962333679199 -76.262535095215 -211.145568847656 1.903059840202
15.809909820557 -78.161956787109 -209.844711303711 2.046777486801
-86.671318054199 -77.068550109863 -213.367874145508 0.593449890614
-30.123380661011 -78.824913024902 -216.134078979492 1.363062500954
-81.182670593262 -78.753929138184 -212.467132568359 1.945701360703
-148.773498535156 -79.001609802246 -215.772384643555 0.450610756874
-8.592187881470 -78.864089965820 -215.964126586914 2.332864761353
-9.727675437927 -77.982391357422 -218.520355224609 1.875470280647
11.455517768860 -79.791015625000 -217.140991210938 1.619997143745
11.763384819031 -75.472335815430 -224.700515747070 2.138180971146
-3.017724990845 -80.318908691406 -230.009475708008 2.616617441177
-140.318893432617 -75.729698181152 -223.480819702148 1.941155672073
-150.323730468750 -81.124549865723 -233.723464965820 2.376594543457
-152.432662963867 -75.084968566895 -232.822830200195 2.809835672379
3.281047105789 -80.803077697754 -236.071029663086 1.517035841942
0.766413986683 -78.249252319336 -237.151397705078 1.413814902306
-24.989925384521 -81.947624206543 -242.044784545898 3.525203466415
-151.622909545898 -75.106460571289 -239.916152954102 1.067570805550
9.345477104187 -80.173004150391 -244.697891235352 1.617660760880
-24.479534149170 -75.119491577148 -242.422485351563 2.190153121948
17.724559783936 -78.808967590332 -237.901397705078 2.410290718079
-54.847419738770 -77.422897338867 -244.457839965820 1.363993287086
-51.797630310059 -78.392013549805 -249.214721679688 2.885757684708
-147.709426879883 -82.078460693359 -246.466110229492 2.394160270691
-63.920310974121 -78.391876220703 -248.411102294922 1.832168221474
-4.414223194122 -78.039894104004 -247.149932861328 1.398546576500
-11.379511833191 -77.541809082031 -256.483886718750 0.830718457699
-148.666458129883 -81.351181030273 -258.668518066406 2.146709203720
-134.173919677734 -76.093582153320 -257.486907958984 0.351074069738
-136.935501098633 -75.344436645508 -259.608062744141 1.376071333885
16.943635940552 -78.857658386230 -260.221069335938 2.454760074615
-146.945587158203 -78.354301452637 -272.222076416016 1.968490123749
16.586462020874 -80.507186889648 -268.359802246094 0.930456221104
-147.519363403320 -75.607681274414 -274.283599853516 2.785465478897
1.309497952461 -81.654067993164 -278.154327392578 1.775407195091
-144.779953002930 -78.013084411621 -282.794097900391 1.005711913109
-0.062408000231 -80.793441772461 -284.062652587891 3.654691457748
-153.605941772461 -75.789878845215 -284.012268066406 1.665464997292
-144.481933593750 -75.039558410645 -284.926574707031 1.231078982353
-138.285217285156 -79.556640625000 -286.935760498047 1.432148456573
-150.390258789063 -81.122352600098 -293.345153808594 3.024686574936
-21.353933334351 -77.161415100098 -290.601287841797 2.000359296799
-153.698532104492 -77.021347045898 -292.590606689453 2.402672052383
-149.562728881836 -79.095649719238 -295.702545166016 2.367644548416
-151.837219238281 -76.158714294434 -309.609436035156 3.102448463440
-57.554138183594 -75.480735778809 -57.788963317871 1.703191876411
-40.316654205322 -80.497512817383 -62.961311340332 2.352015018463
-77.024200439453 -78.695472717285 -66.869018554688 1.950317859650
-30.405294418335 -76.330070495605 -68.107833862305 1.988589286804
-27.249742507935 -78.560913085938 -72.356613159180 2.112451553345
-86.835929870605 -78.066322326660 -80.813720703125 1.220875382423
85.483428955078 -80.821868896484 -85.371711730957 2.441286563873
-36.901359558105 -76.143447875977 -84.935981750488 3.386440515518
80.941696166992 -82.164207458496 -86.430160522461 4.390401840210
76.811828613281 -79.534378051758 -88.901763916016 3.833759784698
84.162597656250 -79.380439758301 -88.406364440918 1.523840546608
82.872940063477 -78.152847290039 -92.013557434082 1.969550371170
89.824371337891 -78.850494384766 -93.959053039551 2.669003486633
-92.327682495117 -73.974411010742 -94.957832336426 2.526949882507
53.110332489014 -79.232765197754 -105.990898132324 1.500683307648
-94.861495971680 -69.544387817383 -113.695861816406 4.270925998688
43.674961090088 -80.656478881836 -109.879737854004 1.728900671005
48.587150573730 -79.221244812012 -113.873008728027 3.286969184875
39.492004394531 -78.544952392578 -115.593589782715 1.585421800613
31.733064651489 -78.999168395996 -136.339096069336 2.914747714996
25.686716079712 -78.364875793457 -141.006576538086 2.125282764435
21.612539291382 -72.966072082520 -144.691833496094 2.416471481323
31.679176330566 -76.228065490723 -144.260238647461 2.086921453476
-48.480899810791 -79.265861511230 -154.219924926758 0.596926331520
-48.731746673584 -78.154335021973 -151.550384521484 1.187391757965
-42.159091949463 -76.890129089355 -157.111358642578 2.341027021408
23.757970809937 -77.242019653320 -153.232437133789 1.068784475327
26.635990142822 -77.782402038574 -168.308090209961 1.695235371590
-34.619403839111 -75.327438354492 -168.283203125000 2.587607383728
-36.097934722900 -74.506866455078 -159.969039916992 1.294979214668
-46.555534362793 -78.835952758789 -158.776153564453 2.003634691238
1.402570009232 -76.287841796875 -164.216094970703 1.927866101265
23.267631530762 -79.231605529785 -153.418853759766 1.128314852715
31.414642333984 -76.127830505371 -160.880050659180 2.371414184570
27.393491744995 -76.963340759277 -170.115676879883 1.265071392059
-8.836559295654 -77.522918701172 -172.174423217773 2.847507476807
-3.946332931519 -78.165931701660 -170.518386840820 1.285415887833
-58.633544921875 -76.169380187988 -168.312103271484 1.322870612144
-61.647064208984 -76.617149353027 -170.681152343750 1.396480917931
-43.167171478271 -78.491661071777 -170.567413330078 1.349008798599
-39.421909332275 -76.232604980469 -167.888809204102 1.805272102356
21.441659927368 -75.245429992676 -172.866195678711 2.820697307587
-22.825542449951 -81.083076477051 -178.324478149414 2.243565082550
-32.766349792480 -75.930427551270 -181.229598999023 2.883579969406
-62.482563018799 -79.358383178711 -179.403869628906 3.190392494202
99.928153991699 -80.270393371582 -182.435882568359 4.693047046661
19.903940200806 -80.829650878906 -174.188293457031 2.459727525711
-27.174194335938 -77.447433471680 -180.434753417969 0.976449549198
-51.661647796631 -76.739730834961 -180.048355102539 0.501174747944
-20.982677459717 -75.312301635742 -180.699584960938 1.088163733482
110.263572692871 -79.646003723145 -180.874862670898 3.834279298782
-54.199615478516 -78.939422607422 -184.070968627930 2.521993637085
13.314022064209 -79.514099121094 -188.574935913086 2.386954545975
19.812858581543 -78.177833557129 -179.754898071289 2.804171562195
-56.930965423584 -80.393669128418 -178.556228637695 2.748849630356
-24.666297912598 -76.592445373535 -182.631378173828 2.029487848282
-56.854309082031 -79.083564758301 -176.980224609375 2.031272172928
-36.870510101318 -77.683219909668 -179.547210693359 2.373432397842
-29.761058807373 -77.365112304688 -187.544616699219 0.843729436398
19.946956634521 -78.561614990234 -188.400512695313 1.368115544319
-50.290580749512 -78.026557922363 -188.310623168945 1.806784868240
103.041450500488 -78.836219787598 -190.651641845703 2.577561616898
-52.304286956787 -74.513069152832 -190.109069824219 1.247718691826
7.569202899933 -77.736953735352 -202.368545532227 1.512952566147
19.322959899902 -77.516952514648 -199.583648681641 1.664495348930
-49.575473785400 -76.801849365234 -191.474090576172 1.243193984032
-19.395448684692 -78.248847961426 -189.994628906250 1.914764046669
100.178802490234 -79.067131042480 -195.910903930664 3.134752750397
97.247932434082 -81.833335876465 -196.436477661133 5.417162895203
-49.469703674316 -76.253684997559 -188.427261352539 2.099276304245
-149.679702758789 -80.886627197266 -198.953857421875 0.954501092434
-46.667713165283 -77.094383239746 -197.597778320313 1.777501940727
-146.111984252930 -77.132553100586 -198.029953002930 2.254420757294
-136.753082275391 -73.065773010254 -199.489883422852 1.977843523026
-46.206237792969 -78.829742431641 -197.430648803711 0.928836584091
9.488516807556 -79.170715332031 -208.280639648438 1.389911293983
-17.322589874268 -75.952789306641 -205.012069702148 1.205999493599
14.838797569275 -76.371681213379 -202.157608032227 1.339553713799
90.878784179688 -81.509605407715 -211.828506469727 4.719281673431
-37.053981781006 -76.136215209961 -202.138824462891 2.161156415939
-13.589526176453 -76.798149108887 -205.947952270508 1.169991850853
-15.297422409058 -76.207328796387 -213.102539062500 1.484548568726
-37.241645812988 -76.910652160645 -206.252105712891 1.899136900902
7.107998847961 -77.741737365723 -206.413833618164 1.980189085007
-78.796562194824 -76.536720275879 -210.644302368164 1.009989976883
14.768114089966 -78.640815734863 -214.264877319336 2.583401441574
-36.296699523926 -76.668037414551 -206.640716552734 1.159789085388
-146.000839233398 -78.163391113281 -208.561599731445 3.209560632706
-144.224700927734 -72.373001098633 -211.101684570313 1.782535195351
-88.553871154785 -76.909011840820 -213.281585693359 1.896961331367
-36.247829437256 -75.552680969238 -210.474014282227 2.964814662933
-19.620689392090 -81.008338928223 -213.051437377930 4.603454113007
-32.806343078613 -77.962783813477 -208.964843750000 0.779171586037
-92.414634704590 -77.583526611328 -217.303802490234 1.439877271652
-88.642494201660 -77.583625793457 -214.957443237305 0.916344702244
6.380290031433 -81.443290710449 -221.133163452148 1.965970277786
-150.887481689453 -72.106620788574 -214.501144409180 1.980794906616
-14.820881843567 -80.063262939453 -213.383377075195 2.296651840210
7.594900131226 -82.706817626953 -218.905593872070 3.059668779373
-145.703750610352 -74.716880798340 -219.369125366211 2.228483438492
-22.988550186157 -78.834793090820 -217.835250854492 0.812189579010
-1.818598031998 -75.460464477539 -221.199890136719 1.281899452209
-7.475207805634 -78.848075866699 -219.745117187500 1.778455257416
-153.617080688477 -73.172065734863 -224.007843017578 2.006819248199
-140.005416870117 -69.486343383789 -226.656738281250 1.724424004555
-6.389893054962 -78.067436218262 -224.729949951172 2.183116197586
-149.901123046875 -80.558898925781 -227.602920532227 1.582846760750
0.181388005614 -74.702392578125 -230.350234985352 3.090267896652
16.075736999512 -77.732177734375 -234.786788940430 1.647882819176
-2.595985889435 -79.247886657715 -231.618499755859 1.644001483917
-1.760103940964 -73.974021911621 -234.500213623047 1.585210084915
6.885914802551 -77.540252685547 -232.237777709961 1.240552544594
-152.792785644531 -75.972007751465 -237.999557495117 2.420814275742
-20.777086257935 -75.877418518066 -235.831268310547 4.058488368988
-35.975185394287 -78.977874755859 -239.335418701172 1.373875498772
2.227201938629 -76.394210815430 -234.045196533203 2.178003549576
0.430714994669 -81.089210510254 -240.941406250000 4.001204490662
1.432669997215 -77.042266845703 -234.419326782227 1.590903878212
-57.762500762939 -76.106971740723 -242.839370727539 2.640147924423
-150.122787475586 -73.225738525391 -248.013397216797 1.965730309486
-153.596343994141 -76.001312255859 -247.874023437500 3.037889480591
9.572301864624 -79.446685791016 -247.291168212891 1.315499186516
22.520378112793 -79.407867431641 -247.507125854492 1.612420558929
-61.892406463623 -74.872627258301 -248.124420166016 1.937739491463
-144.738143920898 -78.931816101074 -252.685607910156 2.397314071655
-154.507736206055 -78.115692138672 -254.662155151367 2.538805961609
-153.603439331055 -80.132591247559 -257.458068847656 1.112286567688
-143.745254516602 -73.518630981445 -261.802856445313 1.847606658936
-141.054672241211 -75.933029174805 -256.796508789063 1.970937490463
-10.206530570984 -78.726654052734 -256.849578857422 1.789636731148
-146.044967651367 -76.937103271484 -262.906005859375 2.928167343140
-14.439776420593 -78.511680603027 -266.592254638672 3.395168542862
-148.660110473633 -74.706344604492 -273.859893798828 3.313156843185
-148.869064331055 -75.348587036133 -282.541687011719 2.080929517746
-150.378906250000 -74.435890197754 -283.530883789063 1.506310701370
-4.732207775116 -73.940460205078 -285.345001220703 1.799532175064
-147.242752075195 -71.688941955566 -284.596191406250 1.330284833908
-29.250425338745 -77.883270263672 -286.889343261719 2.238953590393
-29.797777175903 -75.417839050293 -286.693450927734 2.265327930450
-16.375259399414 -75.640701293945 -292.068725585938 1.161449193954
-13.633753776550 -75.365585327148 -291.323455810547 1.217086195946
11.797695159912 -79.699356079102 -291.775573730469 3.123483657837
-126.442382812500 -76.638046264648 -289.947357177734 0.868116140366
-60.805603027344 -76.680755615234 -288.125885009766 2.211519718170
-41.718528747559 -75.008186340332 -290.151550292969 1.961368560791
-33.849605560303 -77.667175292969 -288.793975830078 0.988443315029
-10.234569549561 -76.059028625488 -292.718933105469 2.447128772736
4.009770870209 -78.206680297852 -288.719116210938 1.556675672531
-143.776351928711 -76.785636901855 -296.077850341797 3.414136409760
8.698786735535 -78.080657958984 -294.251770019531 3.075390577316
-153.958602905273 -73.591110229492 -302.089050292969 2.126241922379
-153.439834594727 -78.216575622559 -301.407440185547 1.691861033440
-154.239715576172 -72.753952026367 -311.866912841797 1.109374284744
-145.572204589844 -74.748489379883 -310.344848632813 2.012308359146
-51.350036621094 -76.006568908691 -52.863357543945 2.373648881912
-55.968223571777 -78.680679321289 -56.622062683105 3.201045036316
-66.795356750488 -74.806129455566 -55.601615905762 2.370785951614
-42.352092742920 -75.334098815918 -61.272968292236 2.205108642578
-37.254615783691 -76.585830688477 -59.664550781250 1.082409620285
-21.336620330811 -76.041023254395 -69.575645446777 1.549439549446
-82.869468688965 -74.155067443848 -69.083198547363 3.190107822418
82.975250244141 -79.045196533203 -78.866561889648 3.066095590591
-91.063545227051 -74.647315979004 -77.454895019531 3.176631450653
80.765968322754 -77.621978759766 -79.616699218750 1.636564254761
86.194923400879 -75.907562255859 -84.445465087891 2.050099134445
95.004234313965 -76.735488891602 -88.719322204590 3.079347610474
-61.084697723389 -79.615753173828 -96.054206848145 2.046166419983
81.808464050293 -79.033378601074 -96.110260009766 3.651586055756
76.785018920898 -81.246131896973 -92.216613769531 3.959942102432
85.860603332520 -79.004089355469 -90.819129943848 0.979502618313
-61.665878295898 -77.763175964355 -97.723854064941 2.425916194916
49.680305480957 -76.714614868164 -98.105545043945 1.869106292725
44.957580566406 -77.776817321777 -107.016143798828 2.434608697891
39.618438720703 -78.607795715332 -104.600334167480 2.313542127609
36.162651062012 -78.131614685059 -104.942497253418 3.758423566818
-92.365997314453 -73.190544128418 -107.509147644043 3.032965183258
35.008502960205 -76.854370117188 -117.768188476563 1.619460940361
-85.652160644531 -76.481567382813 -108.881553649902 2.338184833527
40.567352294922 -79.363861083984 -125.881729125977 1.020238876343
32.590236663818 -78.653526306152 -121.882827758789 1.379973292351
33.143638610840 -72.623283386230 -122.089813232422 1.015202045441
42.927955627441 -76.871780395508 -118.914924621582 0.693864345551
39.708923339844 -79.887840270996 -128.072448730469 3.175191640854
-52.977401733398 -71.682762145996 -135.637756347656 1.858906030655
36.084102630615 -80.569030761719 -135.212875366211 2.217235326767
35.120719909668 -77.349578857422 -143.623916625977 0.975104868412
-54.941108703613 -73.959915161133 -142.328430175781 2.410797595978
-47.031696319580 -76.434310913086 -140.723449707031 0.493459016085
34.063911437988 -77.259132385254 -143.430313110352 1.168216586113
110.092666625977 -75.698348999023 -141.840957641602 1.911558628082
112.146690368652 -76.443702697754 -145.007385253906 2.230293273926
25.718523025513 -78.626480102539 -143.104721069336 1.554490923882
-41.816116333008 -78.248588562012 -149.555694580078 0.389722347260
113.850524902344 -83.118850708008 -153.947891235352 6.485727787018
-39.560787200928 -75.023262023926 -153.327713012695 2.248644590378
-68.783119201660 -75.720077514648 -160.771667480469 2.051159143448
109.752761840820 -81.659530639648 -158.866088867188 4.527551174164
21.875595092773 -77.905738830566 -165.180252075195 2.552039384842
-0.279877007008 -78.044349670410 -163.242706298828 2.079241991043
111.031723022461 -78.954734802246 -154.981353759766 3.373786449432
-65.024024963379 -75.581344604492 -165.568634033203 1.455837130547
-38.807907104492 -76.696159362793 -163.608230590820 2.942924499512
111.349533081055 -79.038719177246 -165.256347656250 2.724635839462
27.667421340942 -74.241035461426 -158.947006225586 2.049363136292
-63.326934814453 -71.450691223145 -165.596649169922 2.243595600128
111.207336425781 -79.202156066895 -166.908737182617 2.000859737396
-66.010429382324 -77.542083740234 -168.909820556641 1.348215103149
-50.999473571777 -78.249450683594 -180.787475585938 1.531593680382
105.438514709473 -77.808090209961 -172.057861328125 2.940192222595
-60.565135955811 -74.537895202637 -171.239288330078 1.002676010132
111.076377868652 -78.150306701660 -176.914093017578 0.740916669369
-61.496864318848 -75.611862182617 -175.503509521484 1.481746792793
-15.777341842651 -74.994346618652 -177.775100708008 2.827302455902
-12.053646087646 -80.459823608398 -181.293273925781 3.291434049606
106.980590820313 -80.000442504883 -169.519012451172 3.525448083878
20.317705154419 -78.036888122559 -172.139328002930 1.011084794998
28.917718887329 -74.563781738281 -170.357452392578 1.398249626160
-57.939262390137 -75.200485229492 -177.381286621094 1.433130979538
17.469366073608 -76.002517700195 -182.378631591797 1.949469566345
-58.478820800781 -76.095794677734 -175.891052246094 1.134534835815
-52.595764160156 -74.901817321777 -190.994140625000 1.637703418732
11.737366676331 -75.474639892578 -184.384628295898 2.477347135544
-57.817985534668 -73.068878173828 -180.449157714844 0.628845691681
106.039375305176 -77.087638854980 -187.513031005859 2.224059581757
23.883308410645 -78.969291687012 -181.844970703125 2.290397167206
-34.506973266602 -74.597717285156 -188.701721191406 2.951112508774
-43.529975891113 -77.499160766602 -191.215744018555 1.418135762215
10.356022834778 -78.088516235352 -193.158721923828 3.411745309830
-19.838449478149 -77.623901367188 -189.809066772461 1.262578368187
-49.590980529785 -77.226081848145 -194.903900146484 1.421325564384
101.809829711914 -81.186393737793 -184.177520751953 4.724967002869
11.498502731323 -79.204788208008 -190.963134765625 3.348845005035
-134.476669311523 -78.412170410156 -199.114578247070 1.800949335098
-46.650901794434 -77.972709655762 -194.760131835938 1.228324055672
94.882072448730 -77.975608825684 -199.423202514648 3.107470035553
-149.661544799805 -79.933036804199 -202.185302734375 2.264572858810
17.486854553223 -77.433311462402 -198.060134887695 1.556037664413
-43.490184783936 -74.024391174316 -205.789505004883 4.375293254852
-31.931043624878 -78.504699707031 -206.040237426758 1.870830297470
-38.003795623779 -76.809173583984 -203.396179199219 2.235567092896
-45.534950256348 -79.882125854492 -197.712127685547 0.484818875790
99.366477966309 -78.566139221191 -203.900878906250 1.895472884178
-21.352466583252 -78.952598571777 -201.661697387695 0.921393394470
-151.068740844727 -74.641342163086 -202.828445434570 2.489516258240
15.137907028198 -78.611106872559 -203.812210083008 1.321744084358
-77.619079589844 -79.405395507813 -207.148452758789 1.664407372475
-147.344589233398 -73.265365600586 -212.278671264648 1.906363606453
94.115692138672 -79.410720825195 -212.506958007813 3.507847070694
-33.652580261230 -75.280715942383 -207.434158325195 1.723431944847
-29.743597030640 -76.692306518555 -212.803634643555 1.855775356293
8.062541961670 -77.817901611328 -210.904281616211 0.868946552277
-72.346008300781 -78.615737915039 -209.953903198242 1.810257554054
-29.047775268555 -81.416267395020 -208.006652832031 2.723046779633
-7.619849205017 -77.576065063477 -216.266860961914 2.006389617920
-73.016998291016 -77.246231079102 -214.417251586914 1.797888278961
-15.164034843445 -76.980293273926 -217.724288940430 1.893173575401
7.158421993256 -71.643669128418 -212.753585815430 1.597578883171
13.578543663025 -79.206863403320 -220.837020874023 1.688090801239
-150.853469848633 -75.713455200195 -217.142791748047 2.372686386108
-9.186256408691 -76.638191223145 -214.817138671875 1.719741702080
-99.610130310059 -72.044288635254 -220.461486816406 1.105406522751
-22.672266006470 -76.003684997559 -220.066513061523 1.527330398560
89.091102600098 -82.000755310059 -212.462722778320 5.094532966614
7.016163825989 -75.969757080078 -226.058349609375 1.063755989075
18.327400207520 -76.576301574707 -216.922744750977 1.180771708488
79.919952392578 -78.922966003418 -217.509613037109 4.801571846008
0.274571001530 -79.232864379883 -228.904556274414 1.647377848625
84.880233764648 -78.574226379395 -217.601242065430 2.310107946396
-20.088886260986 -74.109405517578 -223.738067626953 1.760042190552
14.990702629089 -75.498992919922 -219.485351562500 2.371639966965
-148.160552978516 -76.043907165527 -220.815902709961 1.667632102966
-24.023040771484 -77.846687316895 -225.718673706055 3.082713365555
0.914844989777 -75.984069824219 -229.612915039063 2.195754766464
-156.652023315430 -78.524971008301 -226.599822998047 2.405551433563
-137.828842163086 -76.223709106445 -228.228851318359 2.372483491898
4.238489151001 -76.824127197266 -224.894210815430 2.639048814774
-4.752702236176 -74.852867126465 -228.399200439453 2.412167549133
-137.466644287109 -72.390213012695 -230.213790893555 1.576288700104
-147.395416259766 -75.318435668945 -239.353668212891 0.861810803413
-148.817504882813 -74.867424011230 -236.055938720703 2.105801820755
-33.151767730713 -77.240592956543 -237.812622070313 1.838771343231
-144.833419799805 -76.468025207520 -242.844223022461 2.765332460403
16.685642242432 -77.911811828613 -241.935821533203 2.150101661682
4.417523860931 -76.846733093262 -244.281143188477 1.210160136223
-151.254425048828 -70.973373413086 -237.302780151367 2.131016492844
-150.159591674805 -74.570022583008 -244.098327636719 0.951076209545
-47.277881622314 -77.536811828613 -244.371353149414 1.730471253395
-32.351696014404 -77.264251708984 -246.011611938477 2.823140621185
3.753365993500 -77.818267822266 -244.482955932617 1.736181855202
-38.246295928955 -77.643630981445 -245.637771606445 2.166130304337
21.482145309448 -77.710136413574 -247.228302001953 1.877614259720
-6.454618930817 -79.136558532715 -251.452056884766 2.074466228485
-147.615615844727 -75.279548645020 -252.916610717773 2.301926374435
-9.805720329285 -80.698387145996 -252.526336669922 2.807689666748
-148.661621093750 -73.357635498047 -249.124801635742 3.445630311966
-67.249206542969 -77.266899108887 -250.053512573242 1.773454904556
-149.082015991211 -81.446571350098 -259.580718994141 1.321605682373
-127.702468872070 -74.650047302246 -258.697418212891 2.345530509949
-152.237777709961 -73.139343261719 -258.802246093750 2.264927864075
-12.447522163391 -74.634140014648 -266.884063720703 3.206286907196
-146.938507080078 -79.042266845703 -269.686889648438 1.055917859077
-150.572601318359 -75.041130065918 -267.971893310547 1.236693501472
-11.967761993408 -77.791862487793 -270.744171142578 1.205487608910
-146.321044921875 -75.124542236328 -270.678680419922 3.539921045303
-6.183491230011 -76.353469848633 -278.018402099609 0.893402993679
-46.854804992676 -75.779289245605 -285.389831542969 2.038698196411
-135.319763183594 -73.234642028809 -288.580474853516 1.961197614670
-135.398986816406 -74.018020629883 -286.092010498047 0.273635387421
-125.323730468750 -72.687911987305 -283.909790039063 1.042673945427
-53.341842651367 -75.345008850098 -286.704315185547 1.620064139366
-114.191375732422 -73.286094665527 -285.807464599609 1.401097059250
15.206076622009 -76.772575378418 -291.622955322266 0.953843891621
-59.073181152344 -74.569183349609 -288.933074951172 2.545023441315
-142.123168945313 -74.121963500977 -292.266540527344 1.884872317314
-63.657855987549 -74.789550781250 -290.547637939453 1.160080909729
-144.839279174805 -78.414413452148 -292.727447509766 2.430581569672
-117.775047302246 -73.269279479980 -290.774353027344 2.186157226563
-47.392826080322 -77.525360107422 -290.652587890625 2.359814643860
-35.081886291504 -76.454360961914 -291.519073486328 1.951634168625
-137.028793334961 -71.992485046387 -294.299102783203 1.972890496254
-13.606125831604 -73.403976440430 -286.014404296875 1.369798302650
2.374826908112 -76.699134826660 -289.143463134766 1.420091629028
5.725915908813 -75.955009460449 -291.294128417969 1.551124691963
14.316769599915 -77.826004028320 -295.032684326172 1.524289011955
-150.596755981445 -77.146469116211 -297.351776123047 1.394104599953
-147.020812988281 -72.933418273926 -295.879211425781 1.466890335083
-68.398208618164 -74.816291809082 -61.520336151123 2.644299030304
87.557929992676 -78.611907958984 -73.781562805176 4.296408176422
78.041145324707 -78.449470520020 -77.171089172363 3.753737688065
-27.987525939941 -77.912231445313 -76.905929565430 2.584324836731
83.409835815430 -76.478424072266 -75.774314880371 1.802736520767
-37.636085510254 -77.624130249023 -80.259315490723 2.436638116837
84.112892150879 -75.783737182617 -80.962600708008 1.938688635826
94.197555541992 -75.683189392090 -81.075790405273 1.350292801857
-65.399803161621 -69.678085327148 -95.007362365723 2.343616485596
73.194900512695 -77.913986206055 -94.244041442871 2.900593042374
79.617866516113 -76.389572143555 -97.666152954102 2.870198726654
94.041931152344 -79.734596252441 -95.045280456543 3.860210657120
54.563606262207 -78.414443969727 -97.811698913574 2.593367099762
-71.226768493652 -75.043556213379 -101.633041381836 2.229815244675
-75.029197692871 -71.325920104980 -101.567070007324 2.120180845261
49.228004455566 -78.783760070801 -104.626113891602 1.789333820343
-89.782630920410 -76.560836791992 -103.722099304199 3.354175567627
45.594371795654 -75.463027954102 -117.869224548340 1.452867269516
109.936714172363 -77.421775817871 -119.453407287598 1.240768909454
111.904960632324 -79.544784545898 -131.311737060547 3.691437959671
22.528457641602 -75.342002868652 -137.942520141602 3.571080446243
109.594696044922 -79.070144653320 -127.009666442871 2.844030618668
27.240209579468 -75.431678771973 -134.154418945313 2.042642593384
112.621360778809 -74.344390869141 -131.258758544922 1.366631269455
37.069446563721 -75.752830505371 -134.866928100586 1.889213442802
-54.933017730713 -75.847694396973 -142.091949462891 2.433332443237
34.936775207520 -78.664726257324 -144.127136230469 0.634819746017
108.516960144043 -76.399749755859 -136.448211669922 2.783476829529
-48.506389617920 -74.580818176270 -144.439163208008 2.111453056335
31.426998138428 -76.250663757324 -149.558837890625 2.399395227432
-57.044399261475 -71.726333618164 -140.679275512695 1.167862057686
-57.370056152344 -75.746536254883 -146.102111816406 2.110624551773
-52.398021697998 -77.635429382324 -150.112609863281 2.154988765717
-65.324356079102 -77.391586303711 -156.241256713867 1.108038544655
112.447708129883 -80.705009460449 -148.126159667969 3.455442428589
-50.853160858154 -79.679656982422 -155.578155517578 3.172796726227
21.749679565430 -79.894912719727 -155.990615844727 3.492269754410
107.951202392578 -78.593368530273 -160.402648925781 3.548606395721
-66.667060852051 -74.887619018555 -155.743728637695 1.631805777550
-45.888694763184 -76.573783874512 -156.955566406250 0.869873285294
8.028840065002 -74.350372314453 -154.953323364258 1.581954240799
-68.520912170410 -75.152420043945 -157.175323486328 1.928296208382
-63.570606231689 -76.936408996582 -160.012939453125 1.893920421600
-0.993786990643 -76.450347900391 -162.509780883789 2.150846242905
-43.531913757324 -73.520538330078 -167.809127807617 0.494109988213
29.119792938232 -74.990829467773 -166.389465332031 2.731287479401
-63.343238830566 -72.932167053223 -167.405578613281 1.611819386482
-57.260208129883 -76.711700439453 -167.593536376953 1.235413432121
16.142871856689 -78.567459106445 -160.704177856445 5.133229732513
-31.349943161011 -75.313468933105 -169.127105712891 1.820732474327
-30.074979782104 -77.903877258301 -167.139480590820 0.639333963394
15.154006004333 -77.500061035156 -174.889511108398 2.935582876205
-42.938922882080 -77.682067871094 -173.162216186523 2.957298278809
-11.857456207275 -76.905128479004 -172.885604858398 1.018157243729
-64.019844055176 -72.988189697266 -172.225997924805 1.758538603783
-7.177340984344 -74.085433959961 -173.138122558594 0.681779503822
-23.014822006226 -76.308570861816 -179.975662231445 1.221537232399
22.312948226929 -74.765113830566 -183.040328979492 2.449187278748
-39.621505737305 -76.464691162109 -172.463790893555 1.241539239883
19.211883544922 -73.888885498047 -177.050506591797 1.590213537216
-23.504638671875 -72.764930725098 -184.829147338867 1.502272844315
-32.936698913574 -77.547782897949 -179.763916015625 1.889723539352
-148.443817138672 -72.361190795898 -189.963104248047 2.677944898605
-20.322916030884 -78.882720947266 -185.084930419922 1.466102361679
-142.850784301758 -73.021194458008 -189.124160766602 1.898627996445
-152.832992553711 -73.648178100586 -187.424987792969 3.133097410202
-49.373371124268 -74.105567932129 -188.067108154297 1.120546221733
97.639617919922 -77.306587219238 -195.004776000977 3.165545225143
-145.480560302734 -74.813896179199 -191.793762207031 1.357836008072
-149.686859130859 -73.139663696289 -196.303115844727 3.050163745880
