24.090890884399 -66.751678466797 -149.501678466797 2.055830240250
-48.496677398682 -66.687362670898 -155.685684204102 4.006319999695
10.216429710388 -66.368865966797 -153.091506958008 1.247663378716
15.800760269165 -70.066200256348 -158.150024414063 1.430146813393
18.536285400391 -71.947959899902 -163.599487304688 1.881801009178
-48.183616638184 -69.672409057617 -162.777755737305 1.432187795639
-38.521343231201 -66.719841003418 -155.037185668945 3.305453538895
-45.662998199463 -68.077362060547 -161.263763427734 1.100572586060
-102.888145446777 -68.347938537598 -172.582138061523 0.712729752064
22.555438995361 -68.902465820313 -173.770477294922 1.892424702644
-33.940528869629 -67.641159057617 -176.116989135742 2.110641956329
16.292972564697 -71.515663146973 -178.042907714844 2.001324653625
-142.816177368164 -67.900878906250 -176.683639526367 1.817801237106
-31.443599700928 -64.945030212402 -172.991821289063 2.817400932312
-154.178710937500 -72.343872070313 -178.784179687500 2.416214942932
24.287815093994 -63.827262878418 -181.601837158203 4.799876213074
-32.137870788574 -68.798767089844 -171.606994628906 1.416725039482
-106.848678588867 -66.278892517090 -178.393707275391 1.751055955887
-106.242073059082 -71.971893310547 -184.155151367188 3.431781768799
-29.121007919312 -63.707611083984 -185.399902343750 4.484582424164
-22.753078460693 -71.771156311035 -181.794815063477 1.262513756752
14.891303062439 -67.055923461914 -189.101303100586 1.655451416969
17.941961288452 -65.730392456055 -197.040435791016 1.517526507378
14.758952140808 -67.849945068359 -186.772567749023 1.889671683311
-141.969039916992 -67.019828796387 -188.426971435547 1.132756590843
22.484727859497 -64.653930664063 -189.745361328125 4.885955333710
8.518692970276 -67.910850524902 -196.607086181641 1.986272096634
-136.152328491211 -66.647392272949 -195.355026245117 2.520033836365
-113.385314941406 -67.753967285156 -196.159942626953 1.330426454544
15.892088890076 -66.521903991699 -201.021667480469 1.680658936501
-115.397644042969 -67.040481567383 -197.561553955078 1.563854694366
-106.849868774414 -63.452560424805 -192.927963256836 4.284914493561
-164.338470458984 -69.453361511230 -201.197586059570 0.931981742382
-23.321455001831 -67.086196899414 -200.129425048828 2.853879213333
13.895512580872 -66.614006042480 -200.096893310547 2.041156291962
-141.969055175781 -68.451545715332 -204.911422729492 0.931280016899
-134.751052856445 -70.048187255859 -207.244354248047 3.030608892441
-19.066921234131 -66.530197143555 -207.389968872070 1.048147916794
-10.882025718689 -69.175865173340 -204.547927856445 1.791264653206
-13.744926452637 -68.734344482422 -205.976013183594 1.918222308159
-139.790664672852 -71.382080078125 -205.348937988281 3.364916086197
-15.447395324707 -68.534332275391 -212.956604003906 1.476444363594
-9.370010375977 -71.798179626465 -214.251632690430 1.845770001411
18.622545242310 -65.712959289551 -210.844192504883 2.821710824966
-13.777053833008 -71.465843200684 -211.495941162109 2.025251865387
11.559995651245 -68.421783447266 -209.911331176758 1.479440212250
-9.272833824158 -69.126937866211 -215.604598999023 1.443155765533
-19.916847229004 -65.721855163574 -212.107147216797 4.794709682465
13.839886665344 -72.602996826172 -220.795227050781 1.973365664482
-0.415298998356 -73.031013488770 -219.680130004883 1.669811725616
12.363562583923 -64.997695922852 -221.101745605469 2.999269962311
-4.827727794647 -70.350753784180 -226.859252929688 1.215878725052
-157.594863891602 -69.120918273926 -226.435165405273 2.551016807556
81.996932983398 -70.455055236816 -219.445144653320 0.570349097252
-134.067001342773 -66.660766601563 -225.355712890625 1.076299548149
-133.839889526367 -70.094932556152 -224.097579956055 1.253099560738
-7.203866958618 -69.114242553711 -225.250518798828 1.366969108582
9.826540946960 -68.323806762695 -233.737319946289 2.770872354507
-155.664245605469 -68.243789672852 -230.695266723633 1.569067478180
89.204444885254 -66.945686340332 -219.343963623047 2.679179191589
-0.946132004261 -67.255325317383 -225.746032714844 1.520471572876
1.819632053375 -69.039726257324 -222.937225341797 2.060808658600
75.263824462891 -70.932037353516 -228.754043579102 1.034640073776
1.905449986458 -66.376640319824 -234.862152099609 1.481783390045
-13.492672920227 -70.285316467285 -227.208877563477 1.662241816521
-125.226104736328 -67.081718444824 -235.265274047852 1.865024566650
-2.963741064072 -68.285148620605 -236.904251098633 1.546799063683
3.726290941238 -66.361633300781 -231.960281372070 1.371153593063
67.345535278320 -66.674835205078 -237.797180175781 1.316438198090
-156.925491333008 -69.892730712891 -239.418670654297 1.332784652710
-11.130197525024 -68.124618530273 -244.786026000977 1.209554910660
-167.767745971680 -70.918807983398 -240.067413330078 1.387380838394
11.199393272400 -65.963165283203 -242.024124145508 2.301244974136
-163.255584716797 -69.427970886230 -240.226150512695 2.336674690247
-159.389434814453 -70.114204406738 -247.306884765625 1.686986804008
58.397888183594 -68.514129638672 -244.820022583008 2.048105716705
63.620765686035 -69.857986450195 -242.186981201172 2.099678993225
57.515556335449 -69.098823547363 -244.067993164063 1.519087314606
53.135204315186 -68.559379577637 -248.561111450195 1.019714236259
-154.086303710938 -69.489158630371 -245.222030639648 1.330414175987
-155.130798339844 -66.521575927734 -249.698699951172 3.404094934464
-11.951990127563 -71.481269836426 -249.488693237305 1.189848899841
-150.017333984375 -68.384727478027 -247.917831420898 2.051496982574
21.055803298950 -70.092140197754 -251.056854248047 2.383577346802
-168.325729370117 -73.349777221680 -252.348266601563 2.463973999023
-166.241058349609 -67.206405639648 -249.670791625977 1.426854014397
-80.754310607910 -70.150924682617 -249.538970947266 1.429250955582
-167.994079589844 -68.583175659180 -261.163604736328 0.744810938835
-83.964828491211 -68.462921142578 -257.420623779297 3.471303939819
43.936862945557 -67.874282836914 -252.946029663086 2.169808626175
23.692304611206 -72.007415771484 -256.102111816406 1.545982480049
-157.217758178711 -69.755332946777 -263.126403808594 0.672372817993
-99.397064208984 -63.556961059570 -260.513427734375 3.033862113953
40.672016143799 -68.957412719727 -255.500183105469 1.259840607643
-103.396385192871 -75.008117675781 -259.841217041016 2.429012060165
-152.634887695313 -64.867546081543 -266.228088378906 1.508714675903
-103.773880004883 -67.870193481445 -259.379150390625 2.985541582108
-166.411849975586 -70.855232238770 -260.977111816406 1.429191350937
-111.650764465332 -69.998489379883 -264.256896972656 3.409216642380
-151.809600830078 -71.092315673828 -266.977050781250 1.246260643005
-157.116043090820 -67.494300842285 -264.871276855469 1.570576548576
-164.595825195313 -68.414260864258 -265.123199462891 2.452340841293
-162.628768920898 -67.363990783691 -263.669921875000 2.170137882233
-164.245300292969 -69.081825256348 -267.073272705078 1.378697395325
-164.265213012695 -69.637420654297 -264.047363281250 2.226217985153
27.262042999268 -70.115905761719 -265.115478515625 1.978121876717
-148.376876831055 -72.238395690918 -264.862945556641 3.010667800903
-148.190353393555 -68.877349853516 -285.445159912109 2.829891204834
26.281017303467 -69.889816284180 -276.292755126953 4.501855850220
-10.129052162170 -70.691673278809 -274.603881835938 2.879303693771
-124.214408874512 -68.053283691406 -285.471160888672 1.784422516823
-134.743789672852 -70.287101745605 -287.210296630859 1.538980484009
-132.842575073242 -68.388648986816 -289.652740478516 0.884149312973
-125.251220703125 -69.896324157715 -286.965637207031 1.401590466499
-112.734634399414 -68.228263854980 -290.885284423828 1.159530282021
-103.735748291016 -65.993484497070 -286.501770019531 2.304985523224
10.951459884644 -72.042381286621 -292.418243408203 2.535514116287
-83.376144409180 -70.038505554199 -290.681243896484 1.405181169510
-147.504364013672 -70.024147033691 -289.573730468750 1.527189612389
-100.089744567871 -69.551055908203 -291.605285644531 0.397956699133
-127.632057189941 -67.001121520996 -293.008209228516 0.347880810499
11.216220855713 -71.688850402832 -288.140441894531 2.087322950363
-110.436553955078 -64.389419555664 -290.112152099609 3.879022121429
4.546389102936 -69.553497314453 -293.220977783203 0.936740994453
-141.597579956055 -68.950088500977 -289.999420166016 0.862393260002
-151.316955566406 -70.022888183594 -297.216247558594 2.068954229355
-156.241409301758 -69.338989257813 -315.453186035156 3.924215078354
-153.467926025391 -68.909942626953 -313.125183105469 1.351763725281
47.607692718506 -68.026679992676 -24.239307403564 2.832816600800
23.133852005005 -66.262763977051 -35.283458709717 2.526624441147
30.649282455444 -67.158752441406 -36.341110229492 1.927206754684
-44.993350982666 -68.209053039551 -47.760921478271 0.899933576584
-12.716795921326 -64.509368896484 -62.311946868896 3.335655689240
94.335113525391 -67.378227233887 -67.661277770996 1.841596007347
68.685203552246 -62.268089294434 -69.111068725586 2.700139045715
-24.148981094360 -66.357994079590 -74.555541992188 2.526596069336
-97.893577575684 -70.410385131836 -87.023010253906 2.584942817688
-42.404197692871 -66.567718505859 -82.837120056152 2.387532234192
61.628936767578 -65.661087036133 -80.967643737793 1.915635943413
62.338844299316 -68.762550354004 -85.438133239746 2.207805156708
53.595130920410 -64.238655090332 -87.172012329102 1.969582796097
-58.769496917725 -65.461364746094 -90.710289001465 3.067537069321
66.935264587402 -62.739398956299 -88.813362121582 1.699303269386
43.869548797607 -69.659912109375 -97.487617492676 2.290521621704
68.645111083984 -68.039047241211 -94.117172241211 0.968068897724
-62.096897125244 -64.804946899414 -96.452323913574 2.100680351257
50.303520202637 -68.272666931152 -92.750762939453 1.546133995056
45.879623413086 -68.104454040527 -97.991394042969 1.511174082756
103.530944824219 -63.760883331299 -99.765029907227 1.826780080795
-66.305778503418 -66.501419067383 -99.305572509766 1.199620485306
110.794105529785 -65.846786499023 -99.498100280762 3.123667478561
-78.814666748047 -68.609825134277 -101.602592468262 2.289588451385
54.740070343018 -69.067253112793 -104.493797302246 1.391452550888
48.201194763184 -64.769790649414 -100.317733764648 1.935112476349
92.052940368652 -64.721549987793 -103.094924926758 3.785261154175
84.736862182617 -65.010147094727 -105.968742370605 1.892709732056
55.033843994141 -66.397956848145 -104.083473205566 3.889312028885
-76.022407531738 -67.266250610352 -111.546661376953 1.541333675385
-76.515586853027 -65.937500000000 -115.421325683594 1.487367868423
-80.049163818359 -67.924163818359 -118.829139709473 2.252328872681
-92.842437744141 -71.351928710938 -119.000427246094 0.499461561441
105.199508666992 -61.611251831055 -115.707359313965 5.308094501495
-88.048805236816 -69.021064758301 -119.536079406738 3.189323186874
-76.336914062500 -63.238601684570 -121.759307861328 1.752359867096
109.857788085938 -65.288627624512 -115.156173706055 2.589308500290
-61.279903411865 -59.471248626709 -118.486221313477 2.520646572113
114.158828735352 -69.894325256348 -130.458435058594 1.467657446861
110.473045349121 -67.955924987793 -128.491607666016 1.666739225388
107.680740356445 -67.564331054688 -124.897621154785 2.516812801361
-92.963470458984 -67.372863769531 -138.339828491211 0.420735538006
-46.518497467041 -66.837020874023 -142.025650024414 1.919681549072
-78.614982604980 -64.991577148438 -144.970108032227 4.250289916992
-68.756446838379 -66.997390747070 -149.366622924805 2.471112728119
-69.703117370605 -65.626991271973 -148.348052978516 3.036164045334
-54.634498596191 -66.262695312500 -143.914947509766 1.543594121933
-46.386100769043 -70.543815612793 -146.173980712891 1.157077550888
16.943193435669 -66.917778015137 -146.147109985352 1.452624559402
-93.626731872559 -64.019577026367 -143.483459472656 1.360991239548
-45.154602050781 -65.556961059570 -147.497451782227 2.935092449188
-51.605682373047 -61.198482513428 -147.986694335938 6.603380203247
-41.484786987305 -65.257659912109 -155.049194335938 2.726770639420
28.204721450806 -69.072059631348 -161.524185180664 1.937549591064
-49.447563171387 -67.284561157227 -151.210342407227 0.516754925251
-99.862739562988 -63.097858428955 -150.119750976563 2.213565349579
-44.705879211426 -64.248191833496 -157.044677734375 4.098182678223
26.287734985352 -68.718650817871 -147.822250366211 1.797505617142
-97.847969055176 -71.869834899902 -163.564331054688 4.692563056946
23.363752365112 -68.911911010742 -157.335937500000 1.799461722374
-106.931785583496 -64.643646240234 -170.542739868164 1.514707207680
-100.387031555176 -67.435623168945 -164.285766601563 1.933136940002
22.895790100098 -66.845230102539 -164.643249511719 2.785541057587
26.906995773315 -65.387100219727 -167.543838500977 3.767762184143
-107.547073364258 -69.346771240234 -174.298660278320 1.544010281563
-141.324462890625 -65.359779357910 -175.564071655273 0.345691859722
-18.928947448730 -67.723365783691 -189.406784057617 2.586662769318
-26.583742141724 -66.472351074219 -181.774719238281 3.222416639328
-114.448387145996 -68.605567932129 -187.718475341797 1.571207761765
-142.914413452148 -63.214172363281 -188.049774169922 0.736805558205
-102.569458007813 -64.762252807617 -182.318252563477 3.118081092834
-157.103591918945 -67.680320739746 -191.615432739258 2.644257307053
-130.276641845703 -71.551704406738 -196.088485717773 1.715121388435
-132.250793457031 -69.409545898438 -197.082183837891 0.678909301758
-18.929473876953 -65.664192199707 -189.478240966797 3.881755113602
-119.346778869629 -68.101501464844 -198.811737060547 2.631329059601
-116.022628784180 -64.360748291016 -199.818771362305 1.757959246635
-25.967180252075 -69.279014587402 -194.644088745117 1.763935446739
-153.353530883789 -65.288345336914 -199.002212524414 1.639399051666
-131.188262939453 -69.412979125977 -205.749374389648 2.139709949493
-123.902107238770 -65.559692382813 -205.412902832031 0.417759925127
19.136209487915 -69.348739624023 -201.570724487305 1.994960427284
-160.972091674805 -67.091217041016 -204.351226806641 1.707388520241
12.334247589111 -66.643867492676 -215.109649658203 1.806420922279
15.043069839478 -68.592803955078 -214.477157592773 1.317846655846
-15.950429916382 -64.157112121582 -209.103622436523 4.285865306854
-3.914973020554 -67.764862060547 -216.330520629883 1.107179164886
-168.954376220703 -65.192672729492 -211.592758178711 4.780304431915
-157.998245239258 -64.454231262207 -214.141906738281 2.596514701843
-93.570243835449 -67.518760681152 -219.138320922852 2.695665836334
-97.449264526367 -69.269149780273 -223.466171264648 1.345926165581
-159.767547607422 -68.308326721191 -226.351104736328 1.502231597900
-105.351730346680 -65.976882934570 -220.100006103516 3.520425319672
-10.971523284912 -66.053153991699 -214.236648559570 1.890200853348
-126.277046203613 -69.367431640625 -223.249053955078 2.127660751343
-140.942504882813 -68.472190856934 -225.120086669922 1.202674031258
-1.964517951012 -69.082435607910 -221.252883911133 1.442432880402
-133.127700805664 -66.283920288086 -225.807998657227 1.244214653969
-122.574844360352 -71.605796813965 -224.092391967773 2.014078855515
-113.161865234375 -69.783660888672 -225.589935302734 1.820324778557
1.532739996910 -63.177017211914 -228.130310058594 4.780549049377
-106.042610168457 -66.421600341797 -231.511840820313 2.967961072922
-159.292282104492 -62.805221557617 -224.222473144531 3.052520275116
-145.476821899414 -66.965118408203 -227.911132812500 1.549360156059
-164.236038208008 -67.281196594238 -226.427749633789 3.063110351563
-6.750531196594 -67.230514526367 -226.709762573242 2.974743127823
-7.176436901093 -67.955818176270 -232.589050292969 1.424791455269
79.634452819824 -69.775787353516 -224.806564331055 1.915992617607
1.094051957130 -69.624580383301 -229.431488037109 2.458835840225
-141.721984863281 -67.761619567871 -237.296997070313 2.325035810471
-13.035053253174 -66.242828369141 -229.264160156250 2.713906049728
75.277030944824 -67.986076354980 -227.426208496094 1.104897141457
75.914512634277 -68.151618957520 -232.471374511719 2.588584661484
-133.351455688477 -66.524093627930 -233.522171020508 0.940739691257
-156.186828613281 -70.273414611816 -229.617401123047 1.129989385605
-112.964370727539 -66.580070495605 -233.838668823242 2.295664310455
-123.471427917480 -63.862560272217 -236.669311523438 2.253321409225
-162.452239990234 -66.675224304199 -236.165817260742 0.262801557779
-158.844085693359 -68.290611267090 -236.954162597656 2.373485326767
-145.494415283203 -64.392272949219 -235.357971191406 1.834084272385
-11.504960060120 -66.865165710449 -235.408508300781 2.503633975983
-3.912246942520 -67.260452270508 -240.477478027344 1.786982774734
-159.438293457031 -66.518775939941 -241.960601806641 1.253315448761
6.742033958435 -68.698944091797 -238.090621948242 2.168507337570
4.107555866241 -68.548118591309 -236.573684692383 1.604776501656
-158.818130493164 -67.655410766602 -240.096328735352 1.334784269333
18.091188430786 -71.592201232910 -242.024612426758 2.265241622925
52.105552673340 -70.197326660156 -244.888122558594 1.552938580513
51.898338317871 -70.134178161621 -243.925155639648 1.543107151985
-14.657645225525 -69.020477294922 -247.012664794922 1.311874866486
49.537967681885 -66.853446960449 -248.755401611328 1.573181152344
-160.191116333008 -65.049385070801 -251.427062988281 3.909482002258
-157.842758178711 -68.261344909668 -248.723480224609 1.648723363876
-159.210601806641 -71.440490722656 -250.772247314453 2.431297063828
56.022762298584 -67.763877868652 -248.248977661133 1.887847781181
-90.929420471191 -66.968475341797 -253.512252807617 1.640205264091
-123.595932006836 -67.319068908691 -255.361450195313 2.055807828903
-104.582847595215 -72.001106262207 -254.425231933594 1.602699279785
27.878984451294 -71.713920593262 -257.145416259766 2.208397150040
42.557807922363 -66.121063232422 -250.824615478516 2.212049961090
-99.540832519531 -65.639587402344 -255.720321655273 2.610511541367
-92.424079895020 -64.137565612793 -252.386062622070 4.399880409241
46.697834014893 -71.721969604492 -254.050262451172 2.240992546082
43.483783721924 -66.558631896973 -256.349975585938 0.496695071459
-153.648162841797 -72.710258483887 -259.088287353516 2.570587635040
31.714939117432 -68.114418029785 -258.959411621094 0.935760796070
-141.620025634766 -71.059410095215 -265.364837646484 2.048833608627
-112.226066589355 -67.745704650879 -263.268463134766 2.414441823959
-135.790328979492 -67.153068542480 -263.584808349609 1.120172739029
32.501220703125 -67.864624023438 -262.469940185547 1.928443074226
-124.959716796875 -67.025741577148 -264.471893310547 1.665787577629
-10.059227943420 -66.940986633301 -258.165435791016 2.855370759964
22.837455749512 -71.321426391602 -270.764038085938 1.807020902634
-4.467338085175 -72.240341186523 -265.254821777344 5.463199615479
21.070840835571 -70.360656738281 -279.640350341797 2.709506988525
-151.966140747070 -70.274925231934 -283.566070556641 2.591454505920
-9.653911590576 -67.209930419922 -280.657806396484 1.369247198105
-151.816955566406 -71.872596740723 -283.608795166016 2.686923980713
-122.483818054199 -70.173324584961 -285.870758056641 1.890795350075
-159.166015625000 -74.212371826172 -287.380371093750 2.596914291382
-113.430580139160 -68.455230712891 -287.875274658203 1.701140403748
-103.123962402344 -68.858688354492 -290.262664794922 2.206505298615
-5.663838863373 -67.043998718262 -285.250549316406 1.441948771477
-106.993942260742 -69.849868774414 -289.931152343750 1.145911693573
-115.204101562500 -66.372917175293 -286.020690917969 3.516757011414
-118.944641113281 -65.709754943848 -292.470855712891 2.563531637192
-136.737869262695 -68.359001159668 -290.785003662109 1.599204421043
-124.908103942871 -66.347541809082 -292.400390625000 1.838185429573
-156.376327514648 -72.948471069336 -290.973663330078 1.739039301872
-145.517227172852 -66.844535827637 -293.835968017578 1.145022392273
-155.114349365234 -66.504402160645 -302.894653320313 2.519469022751
-152.715316772461 -67.279624938965 -312.136016845703 0.894001007080
-156.940185546875 -67.320205688477 -302.193969726563 3.365617036819
-140.304092407227 -69.824417114258 -311.560516357422 3.736744880676
-148.085815429688 -70.146751403809 -314.838317871094 1.774004697800
35.167995452881 -65.995063781738 -8.380006790161 4.964369297028
46.605701446533 -69.124160766602 -15.718581199646 1.853514313698
23.957023620605 -62.394580841064 -23.056947708130 2.587717056274
50.308719635010 -66.127006530762 -26.673364639282 3.428027629852
28.091466903687 -67.903259277344 -33.769874572754 1.766116619110
32.790199279785 -66.778610229492 -33.992511749268 2.120143175125
-57.690666198730 -61.759571075439 -47.570278167725 4.471971035004
79.994636535645 -62.100891113281 -60.293930053711 1.518320322037
81.323371887207 -66.724937438965 -65.899360656738 3.799148797989
-90.211906433105 -66.603652954102 -62.688743591309 2.576098203659
-12.485869407654 -63.216224670410 -61.249904632568 3.663710832596
-92.255264282227 -67.590965270996 -70.427024841309 3.059174299240
96.652839660645 -67.629013061523 -67.607238769531 1.893772363663
-13.535030364990 -62.823936462402 -67.771308898926 1.559580683708
67.921295166016 -68.333488464355 -77.901771545410 1.267754793167
-41.655700683594 -69.897583007813 -79.186058044434 1.771326899529
-26.940120697021 -69.297126770020 -75.599945068359 1.521691441536
56.546997070313 -62.698204040527 -85.461563110352 2.751997947693
-43.734272003174 -75.779808044434 -84.269958496094 1.973758459091
65.185935974121 -58.810249328613 -86.207000732422 2.564876556396
53.252639770508 -69.874748229980 -88.901679992676 1.520350933075
54.046154022217 -66.060287475586 -92.890541076660 2.423804759979
59.939102172852 -70.283187866211 -89.921501159668 1.896296977997
57.225162506104 -63.146884918213 -94.962112426758 2.284911632538
100.134483337402 -63.162345886230 -96.609924316406 2.084904432297
106.375671386719 -62.029018402100 -97.467750549316 2.581838369370
60.205226898193 -68.438095092773 -99.055061340332 2.065387964249
107.314720153809 -62.066646575928 -98.359672546387 3.026079893112
-76.523529052734 -65.573974609375 -99.424865722656 2.028289079666
-72.255561828613 -65.513977050781 -102.156776428223 1.942403674126
100.705718994141 -62.893272399902 -97.360740661621 1.619180440903
53.650325775146 -66.526184082031 -100.019462585449 1.422696352005
70.825561523438 -67.265327453613 -97.720466613770 2.587680101395
-72.032478332520 -66.112197875977 -107.491020202637 1.724610328674
-84.695861816406 -64.734458923340 -107.441810607910 1.530748367310
89.610221862793 -68.652908325195 -103.214775085449 2.557581901550
40.635288238525 -67.080879211426 -103.529731750488 2.153775691986
105.283607482910 -62.635902404785 -104.659675598145 4.246869564056
47.043109893799 -68.138824462891 -112.696319580078 1.334553122520
110.526031494141 -65.999076843262 -102.284683227539 2.584659337997
-78.232070922852 -65.522033691406 -111.230087280273 1.091792702675
104.973381042480 -61.879314422607 -107.400001525879 5.578823089600
-83.765541076660 -63.776409149170 -121.430442810059 1.950486183167
-57.990859985352 -68.366073608398 -128.491241455078 0.954829335213
-55.363948822021 -65.126808166504 -124.854057312012 1.096639633179
-71.907951354980 -67.472839355469 -130.027618408203 2.689567327499
-50.391803741455 -67.448875427246 -130.862197875977 1.153422117233
-83.460968017578 -67.733222961426 -133.079635620117 2.180647850037
-76.937812805176 -63.253353118896 -133.212463378906 1.147399544716
-80.035110473633 -66.238624572754 -131.119659423828 1.325839519501
-59.589096069336 -70.595268249512 -141.483016967773 1.324286222458
-71.004165649414 -66.016403198242 -140.761245727539 3.121826171875
-59.444877624512 -69.305397033691 -135.072250366211 3.042749643326
-57.983753204346 -66.546752929688 -141.843948364258 2.674809217453
17.351673126221 -62.879699707031 -143.291717529297 1.801762104034
-90.393768310547 -66.701332092285 -142.458541870117 2.018989324570
-47.045093536377 -69.889266967773 -146.553115844727 1.959779500961
-95.857124328613 -64.606124877930 -150.059844970703 2.559735536575
-100.275711059570 -64.155960083008 -149.607650756836 1.898103952408
19.786825180054 -68.135757446289 -153.167449951172 2.889176607132
14.715652465820 -67.629776000977 -157.581115722656 2.585381984711
-95.172027587891 -68.109817504883 -160.020843505859 1.284439921379
-102.868438720703 -66.566246032715 -154.574279785156 1.975856661797
-99.671920776367 -65.462829589844 -168.754760742188 2.310481548309
22.761245727539 -65.808441162109 -169.285537719727 2.299450635910
-109.796234130859 -66.395858764648 -173.196090698242 2.130992412567
23.366872787476 -66.549819946289 -165.848281860352 1.886439919472
-146.878967285156 -66.854293823242 -177.308944702148 1.912297844887
18.557985305786 -66.311347961426 -175.863464355469 1.953961253166
24.940238952637 -67.342758178711 -185.272415161133 2.446730375290
-151.548126220703 -65.578620910645 -187.455718994141 1.265306949615
22.138084411621 -67.281265258789 -175.798461914063 1.556303262711
19.852552413940 -61.239871978760 -179.918090820313 5.318372249603
-142.896743774414 -70.227745056152 -185.517562866211 2.504231452942
-151.083297729492 -64.602676391602 -190.117706298828 3.221639871597
20.708248138428 -66.719657897949 -187.763885498047 2.537456989288
19.273908615112 -68.329399108887 -189.243637084961 1.462875127792
-141.343460083008 -68.803565979004 -194.542755126953 1.392513871193
-108.192031860352 -67.339706420898 -198.222167968750 1.892871379852
24.729236602783 -67.305335998535 -197.901367187500 4.245941162109
-124.034347534180 -66.762123107910 -195.479400634766 1.871793627739
11.522747993469 -68.843818664551 -199.404663085938 0.978484392166
-129.384979248047 -62.215660095215 -195.157333374023 2.526409149170
-158.646286010742 -64.745956420898 -191.655761718750 4.550522804260
-160.678527832031 -66.378280639648 -197.749191284180 2.184749841690
-157.984909057617 -67.906211853027 -196.057769775391 2.148273944855
-19.326774597168 -66.872535705566 -204.385330200195 2.047358751297
-166.778533935547 -69.128028869629 -200.620391845703 2.075768232346
-25.693479537964 -63.778686523438 -192.575317382813 4.700437545776
-14.667318344116 -68.022338867188 -195.648864746094 2.233903884888
10.581412315369 -62.411548614502 -195.260269165039 5.572538852692
-156.960769653320 -67.034317016602 -204.878143310547 2.830618143082
-107.293861389160 -65.796478271484 -202.814636230469 3.302773952484
-16.674427032471 -63.960086822510 -201.476547241211 4.282374858856
-159.346664428711 -63.020378112793 -202.773483276367 4.033560276031
17.566024780273 -66.963577270508 -201.015060424805 1.518428921700
-167.981475830078 -65.093719482422 -206.160903930664 2.869439840317
-119.906311035156 -69.196182250977 -203.457473754883 3.127171278000
-114.557815551758 -64.462944030762 -207.972839355469 4.638492107391
-122.157310485840 -66.090187072754 -204.997161865234 1.523659825325
-13.988771438599 -66.012641906738 -203.394226074219 1.847680568695
-16.530426025391 -67.085289001465 -204.286956787109 0.840376317501
-163.442596435547 -66.410064697266 -211.851287841797 1.086516618729
-159.210800170898 -65.203887939453 -213.523483276367 2.286377906799
-163.915374755859 -67.549514770508 -220.654006958008 1.344358563423
-140.462356567383 -68.989059448242 -215.029296875000 4.220375537872
-143.824371337891 -67.321701049805 -224.831085205078 1.954244136810
-2.036883115768 -65.389244079590 -219.681549072266 3.316859722137
-8.638021469116 -70.305343627930 -216.642166137695 1.874318838120
-99.059478759766 -65.562927246094 -221.429489135742 2.292064428329
-5.778553009033 -65.729598999023 -231.908111572266 2.796760082245
-166.102172851563 -64.943084716797 -230.200378417969 3.218701601028
-105.773254394531 -65.206809997559 -232.975036621094 4.360029697418
2.397054910660 -67.049278259277 -226.303268432617 2.890725851059
3.835481882095 -66.026557922363 -229.537307739258 1.576221466064
-110.776603698730 -67.795585632324 -233.722885131836 2.229227542877
-0.468957990408 -67.727981567383 -228.461074829102 1.244961142540
-116.703453063965 -64.601905822754 -235.048629760742 2.379796504974
-6.710577011108 -64.360031127930 -232.917922973633 3.244903326035
-1.156658053398 -66.035995483398 -234.592407226563 2.283492803574
-0.511119008064 -66.737777709961 -237.362365722656 1.560540914536
72.720985412598 -64.276016235352 -235.501007080078 3.335501194000
-9.674052238464 -69.913024902344 -237.331008911133 1.798907160759
8.440601348877 -67.664985656738 -236.815567016602 2.060348987579
12.244042396545 -66.205497741699 -238.692520141602 2.719356536865
6.533995151520 -67.735534667969 -238.447631835938 1.421552538872
3.685096979141 -68.524169921875 -240.739288330078 1.474748611450
65.263114929199 -63.143398284912 -237.692581176758 3.752386093140
70.069763183594 -64.221794128418 -239.307022094727 4.420368194580
9.503479957581 -66.938728332520 -246.498062133789 2.680938482285
55.179397583008 -67.979621887207 -241.367019653320 1.888294935226
56.700950622559 -70.548210144043 -239.783599853516 2.085494756699
48.155696868896 -64.105072021484 -248.628753662109 1.487483024597
42.503112792969 -65.111465454102 -250.587570190430 1.176978111267
41.937705993652 -66.146896362305 -255.703674316406 1.655764102936
-130.672546386719 -63.791133880615 -258.740295410156 2.518099784851
-9.214221954346 -66.733200073242 -249.770477294922 1.846692323685
29.599641799927 -66.069252014160 -257.446350097656 1.900190114975
46.201587677002 -66.233825683594 -247.336395263672 2.196652173996
28.580741882324 -69.462211608887 -253.244796752930 3.105613470078
-101.686408996582 -68.946807861328 -259.305694580078 1.721660852432
32.458831787109 -67.970474243164 -255.600433349609 0.833294272423
-145.929489135742 -69.380195617676 -261.874603271484 3.013607263565
-115.198280334473 -68.782081604004 -257.512481689453 1.598750829697
-107.659523010254 -67.227210998535 -258.521331787109 1.669101357460
-2.343144893646 -69.183845520020 -258.673187255859 4.677251815796
-149.274429321289 -68.725959777832 -258.320404052734 0.333214849234
36.507328033447 -66.979728698730 -261.158935546875 2.070574998856
-108.598403930664 -66.138847351074 -257.299560546875 1.955877661705
27.381542205811 -70.402969360352 -258.564880371094 1.856500387192
-133.749526977539 -69.074211120605 -263.611114501953 1.309209108353
-115.305183410645 -66.550109863281 -264.735687255859 1.989356279373
-108.371871948242 -66.753273010254 -261.948577880859 0.392428308725
-113.807487487793 -71.430564880371 -262.105255126953 1.073368787766
-138.852676391602 -68.849349975586 -258.739868164063 3.115477323532
30.201015472412 -67.617691040039 -259.553955078125 0.838312923908
-116.193107604980 -66.163330078125 -263.726043701172 1.259838938713
-143.149078369141 -68.992729187012 -264.429168701172 1.674539804459
-3.831682920456 -65.430709838867 -270.452911376953 1.794162631035
-149.462860107422 -70.015739440918 -282.118713378906 2.512350082397
-6.999735832214 -68.176391601563 -285.946258544922 0.730962574482
-4.061804771423 -65.340766906738 -282.613708496094 1.875256538391
-132.994842529297 -67.503936767578 -288.579864501953 1.715591549873
-126.199584960938 -68.125595092773 -291.248229980469 1.919010281563
-134.309234619141 -67.772720336914 -294.855194091797 2.801937818527
-125.233329772949 -66.651954650879 -292.597229003906 1.791152834892
-153.481094360352 -68.391342163086 -295.512634277344 1.329199314117
-154.737747192383 -68.309600830078 -301.246307373047 1.239001750946
-146.436676025391 -71.039726257324 -301.929199218750 1.681135296822
-148.342239379883 -68.717033386230 -304.329162597656 2.395896673203
-143.693237304688 -67.862739562988 -300.068664550781 2.208906888962
-148.049133300781 -67.236442565918 -305.237976074219 1.507067084312
-144.738861083984 -66.026489257813 -315.823913574219 4.171941280365
19.178821563721 -67.593597412109 -26.906255722046 2.175291061401
49.145477294922 -67.541809082031 -35.044651031494 2.744362115860
25.273702621460 -70.272346496582 -37.089775085449 1.446779727936
32.305084228516 -65.910369873047 -41.898097991943 1.866213083267
-42.731365203857 -59.601856231689 -47.972667694092 2.310763120651
-76.675354003906 -62.704639434814 -50.854293823242 4.406026840210
80.349807739258 -63.664554595947 -60.499256134033 0.634398758411
74.538360595703 -65.119697570801 -61.338836669922 1.519943594933
71.576644897461 -66.213623046875 -65.307640075684 1.106920361519
-99.290359497070 -64.674613952637 -73.218757629395 3.369227886200
99.366477966309 -67.882064819336 -74.596939086914 2.796689510345
-30.409103393555 -65.893035888672 -82.513069152832 4.616516113281
63.122657775879 -63.270465850830 -75.680145263672 2.443064451218
-43.143505096436 -61.921150207520 -82.720085144043 2.890052318573
-53.904205322266 -62.689899444580 -82.771186828613 2.581041097641
50.933269500732 -65.873771667480 -89.704666137695 1.984099507332
102.445922851563 -64.273414611816 -89.277763366699 2.744957208633
64.215065002441 -62.765048980713 -92.930664062500 1.822326660156
56.899925231934 -63.421123504639 -92.130859375000 1.867099761963
48.856067657471 -62.550739288330 -100.733230590820 2.344775676727
56.788047790527 -61.562679290771 -99.635757446289 2.850361347198
103.271179199219 -62.958221435547 -96.706947326660 1.862601876259
69.998954772949 -64.283325195313 -105.407539367676 1.463468790054
50.379173278809 -64.688629150391 -105.013954162598 1.857124209404
76.848739624023 -69.334640502930 -105.962493896484 1.615812420845
95.851852416992 -61.613639831543 -106.803993225098 1.888016104698
-75.079284667969 -63.145599365234 -101.905380249023 1.628348827362
-86.581481933594 -65.689811706543 -110.590614318848 2.588550806046
-81.967338562012 -65.897949218750 -113.123954772949 0.454991728067
-59.885261535645 -64.229141235352 -118.827636718750 1.635135531425
-56.836025238037 -68.543876647949 -126.100585937500 1.617814660072
-94.330101013184 -64.807411193848 -122.211540222168 1.172843813896
-74.818840026855 -66.470123291016 -119.725692749023 1.438683748245
-76.335823059082 -68.610343933105 -132.599990844727 0.364181607962
-60.538867950439 -63.000446319580 -128.515808105469 2.347933530807
-88.232048034668 -61.937061309814 -130.846191406250 2.201122283936
-89.430564880371 -64.650024414063 -130.508285522461 1.568990945816
-47.766761779785 -68.756927490234 -135.344589233398 2.039985895157
-51.071105957031 -65.933494567871 -136.729095458984 1.504756569862
-76.863922119141 -66.938400268555 -138.770874023438 2.249948501587
-53.525218963623 -67.022506713867 -141.624313354492 0.894669413567
-73.935653686523 -68.249351501465 -144.072494506836 1.811650037766
21.548583984375 -63.085754394531 -138.268463134766 1.118484497070
-56.984363555908 -69.149719238281 -144.898406982422 1.342862010002
-54.561668395996 -62.652992248535 -145.735748291016 4.457068443298
9.732866287231 -68.404457092285 -154.677734375000 0.937374770641
17.232593536377 -63.789016723633 -150.618621826172 0.929285347462
-141.639419555664 -66.295623779297 -174.998321533203 1.327157616615
-109.632469177246 -65.120849609375 -178.708953857422 1.210487604141
-108.876899719238 -63.019298553467 -190.330200195313 2.367578506470
-151.729263305664 -67.802833557129 -192.361511230469 1.994559407234
-112.264656066895 -65.329055786133 -186.336608886719 1.239960312843
-151.221145629883 -62.608131408691 -197.203598022461 1.770806789398
-113.258583068848 -64.871414184570 -199.171829223633 1.189932465553
-149.405548095703 -63.955688476563 -201.304977416992 1.483030796051
-149.611907958984 -66.424011230469 -207.190643310547 1.745327353477
-151.960723876953 -69.925468444824 -208.838424682617 2.674159765244
-146.753768920898 -66.330520629883 -224.803100585938 2.097017526627
-149.207427978516 -69.244132995605 -226.167358398438 2.703000068665
-103.967597961426 -64.459251403809 -226.603347778320 3.326182365417
-100.827934265137 -66.246795654297 -222.969207763672 1.798514604568
-122.182868957520 -62.509967803955 -231.246307373047 3.167820692062
-106.972419738770 -65.908912658691 -226.705871582031 0.784603595734
-155.334594726563 -67.707504272461 -231.584259033203 0.866700589657
-1.829179048538 -65.845031738281 -225.711502075195 2.544891595840
-132.713745117188 -68.291175842285 -231.537002563477 2.414421081543
-152.237777709961 -67.899627685547 -236.085540771484 1.081403851509
-135.787246704102 -68.910415649414 -234.029373168945 1.875968933105
-10.074089050293 -65.627304077148 -235.820663452148 2.249655008316
10.082800865173 -66.685905456543 -242.623764038086 2.193590402603
64.076164245605 -62.418632507324 -239.905792236328 4.125252723694
19.531156539917 -69.385078430176 -248.055618286133 1.469187378883
57.228862762451 -65.866256713867 -242.832870483398 1.394864082336
42.518859863281 -67.994087219238 -248.911422729492 0.902435839176
60.125312805176 -64.123695373535 -250.756454467773 5.460423946381
-151.191146850586 -66.846252441406 -251.214691162109 1.604905724525
-148.140869140625 -70.388137817383 -255.260421752930 3.111385583878
44.111389160156 -65.300743103027 -256.079895019531 1.043459415436
30.714523315430 -66.155311584473 -255.103485107422 2.743283033371
49.012744903564 -64.229980468750 -251.968734741211 2.132945537567
-143.439697265625 -69.672760009766 -260.376953125000 2.050509929657
-135.089233398438 -65.360725402832 -256.130187988281 1.752437472343
-123.607582092285 -64.695541381836 -258.651397705078 2.136700868607
-132.703002929688 -67.111976623535 -256.827545166016 2.659220695496
-139.520706176758 -67.577720642090 -258.755462646484 3.167606353760
-122.352867126465 -66.167091369629 -260.169952392578 3.434105157852
-141.438400268555 -65.367660522461 -261.159210205078 1.758679628372
-124.944664001465 -68.539039611816 -260.185241699219 2.139904260635
-121.062545776367 -67.057342529297 -265.073547363281 3.119204282761
-126.221717834473 -67.477706909180 -265.533264160156 1.188393235207
-119.096290588379 -63.965862274170 -264.752288818359 2.419044733047
-3.890515089035 -67.088989257813 -265.687194824219 1.096665382385
29.301134109497 -64.130477905273 -261.538452148438 2.063541412354
-144.889678955078 -63.520191192627 -267.830444335938 3.205532550812
27.587360382080 -66.952842712402 -268.515502929688 2.654348611832
-3.486795902252 -62.639022827148 -274.116455078125 5.084516525269
18.544292449951 -72.059303283691 -282.981933593750 2.070777177811
-140.130752563477 -67.771850585938 -290.007781982422 2.192768096924
-123.977165222168 -68.320587158203 -287.981262207031 1.009675025940
-130.768951416016 -63.658863067627 -291.130218505859 4.003123760223
-157.028747558594 -63.449737548828 -292.973571777344 2.189229965210
-124.593360900879 -62.908233642578 -290.077728271484 2.658310651779
-116.635200500488 -65.172271728516 -289.895599365234 1.425343394279
-124.081314086914 -68.982254028320 -296.366668701172 2.863646268845
-149.375061035156 -69.863433837891 -294.500946044922 1.711908459663
27.735816955566 -67.436172485352 -11.782402992249 3.754235029221
30.987777709961 -68.090911865234 -16.710599899292 0.668027520180
37.496646881104 -64.725395202637 -19.178949356079 1.997113585472
47.603797912598 -58.982791900635 -22.859241485596 2.198624372482
26.977394104004 -69.255271911621 -27.254100799561 2.354830503464
20.037900924683 -67.641441345215 -33.885478973389 3.422178030014
-34.629650115967 -64.497879028320 -46.251419067383 1.490404963493
-82.615386962891 -65.573974609375 -53.416156768799 2.153533220291
-16.641016006470 -63.861728668213 -58.374134063721 3.932240009308
72.566291809082 -62.197376251221 -63.839797973633 2.598971843719
101.579185485840 -63.035392761230 -67.450805664063 2.391006708145
64.654556274414 -62.525974273682 -82.064140319824 0.857331693172
61.261405944824 -59.489978790283 -82.295288085938 1.682052016258
100.217300415039 -63.856212615967 -83.193550109863 3.492411613464
-64.105712890625 -61.886970520020 -90.747352600098 3.111825227737
-65.441001892090 -64.177780151367 -91.402038574219 1.703350782394
49.633296966553 -62.021434783936 -92.596374511719 3.059040069580
-67.177894592285 -65.686141967773 -96.142295837402 1.825171589851
-71.493858337402 -64.062004089355 -101.060050964355 2.240899801254
-96.650039672852 -63.259281158447 -100.289352416992 2.494226694107
-75.729476928711 -61.165294647217 -100.433479309082 2.529982089996
46.927127838135 -61.046245574951 -100.917045593262 3.753700017929
-67.428504943848 -66.241928100586 -103.595985412598 2.323247909546
49.549827575684 -62.000762939453 -102.298881530762 2.278275489807
96.271842956543 -63.563396453857 -103.533721923828 2.417612552643
90.927490234375 -63.687904357910 -110.106803894043 1.675305724144
-72.756935119629 -64.005325317383 -114.720771789551 3.411580801010
-84.400886535645 -65.215522766113 -112.801567077637 2.643301486969
-61.725162506104 -64.203926086426 -119.317474365234 2.055620670319
-96.059707641602 -61.101936340332 -119.648498535156 2.897404670715
-76.465995788574 -66.182151794434 -127.532264709473 0.810160100460
-93.259666442871 -58.432384490967 -125.857666015625 2.856065750122
-63.200893402100 -62.591712951660 -118.142097473145 1.096068978310
-60.083423614502 -58.848228454590 -120.674011230469 1.887861251831
-88.452613830566 -64.906501770020 -129.962493896484 0.990321278572
-63.048606872559 -67.418296813965 -127.573272705078 1.724318385124
-83.886199951172 -63.489681243896 -132.876342773438 3.013347864151
-79.274856567383 -65.174285888672 -134.201507568359 2.045047521591
-61.823623657227 -67.781372070313 -134.651290893555 2.075267076492
-60.614532470703 -60.811367034912 -134.826919555664 1.672144174576
-54.434253692627 -59.805492401123 -135.657363891602 1.870181441307
-96.069725036621 -62.049556732178 -132.852462768555 5.524435520172
-96.662857055664 -62.062133789063 -144.648239135742 3.261096239090
-88.229957580566 -64.732803344727 -135.368331909180 1.596829533577
21.010421752930 -66.490570068359 -147.939987182617 1.455720901489
-49.598220825195 -65.012664794922 -141.912979125977 1.308782219887
18.404098510742 -64.065826416016 -149.741775512695 1.276091337204
-97.630783081055 -65.358757019043 -165.012908935547 3.886617898941
-102.295059204102 -68.839057922363 -171.894989013672 0.523537218571
-101.881278991699 -61.799545288086 -171.891921997070 2.976774454117
-107.278648376465 -60.328720092773 -171.987030029297 3.774788618088
-106.834037780762 -65.595909118652 -180.149932861328 1.964420676231
-109.919013977051 -64.593681335449 -178.956954956055 1.357390403748
-141.400848388672 -63.614837646484 -187.969284057617 2.246209859848
-111.194030761719 -63.801319122314 -187.134094238281 2.230530738831
-132.870178222656 -62.442043304443 -200.533767700195 1.823690652847
-148.440155029297 -67.164154052734 -199.331878662109 1.171680808067
-125.614723205566 -65.399322509766 -198.812210083008 2.390519380569
-156.008132934570 -66.932014465332 -197.517898559570 2.400827169418
-146.343826293945 -68.339363098145 -202.932601928711 3.526436328888
-124.354469299316 -60.781707763672 -199.649444580078 1.325935602188
-133.678497314453 -64.194107055664 -202.319351196289 0.755157232285
-140.574188232422 -69.939834594727 -207.322601318359 3.521413564682
-131.024444580078 -67.728118896484 -224.326568603516 2.368262767792
-109.456092834473 -67.052673339844 -230.217575073242 1.172800302505
-142.959014892578 -66.549438476563 -229.291458129883 1.754375576973
-117.607101440430 -64.054100036621 -231.863464355469 1.827392578125
-114.651321411133 -61.709224700928 -231.679061889648 2.451443433762
-121.627822875977 -66.434867858887 -233.920684814453 2.686806678772
-129.563385009766 -65.597610473633 -235.281921386719 2.484090328217
-114.549629211426 -62.873043060303 -237.275894165039 4.875183582306
5.585519790649 -64.441001892090 -235.449829101563 1.329109907150
-150.841506958008 -67.410850524902 -238.740493774414 3.300453662872
7.636701107025 -66.254875183105 -234.669555664063 1.961070179939
6.680887222290 -62.170520782471 -241.844635009766 1.405250191689
3.080646038055 -67.109451293945 -240.966476440430 1.555050134659
15.187838554382 -62.092044830322 -240.358840942383 1.370522618294
-143.341125488281 -64.201057434082 -236.228866577148 2.329243659973
-3.792671918869 -66.557746887207 -246.862014770508 3.062393903732
20.630966186523 -64.882492065430 -240.803131103516 2.351554870605
50.887474060059 -63.561126708984 -248.970565795898 0.368329614401
51.942417144775 -63.717109680176 -249.584426879883 0.924188315868
-145.548919677734 -67.583541870117 -253.449798583984 1.832958221436
-4.591890811920 -66.238685607910 -251.278930664063 2.042492151260
24.116497039795 -66.006225585938 -255.341690063477 1.796286582947
-131.140258789063 -61.135948181152 -259.421752929688 3.940936565399
-122.879005432129 -64.319473266602 -259.495910644531 2.682553529739
-123.550399780273 -66.602531433105 -258.936523437500 2.127534866333
27.757604598999 -65.095924377441 -258.354492187500 1.572121620178
-132.708847045898 -63.889698028564 -266.561401367188 4.332178592682
31.910085678101 -63.394989013672 -260.104644775391 1.893156051636
33.863502502441 -65.530738830566 -262.909454345703 1.898213624954
-151.744186401367 -68.124732971191 -268.164276123047 0.649804174900
-145.291778564453 -71.439369201660 -287.996154785156 3.668348073959
-148.211273193359 -63.280479431152 -289.160644531250 1.745487213135
-142.555877685547 -64.195228576660 -295.363372802734 3.140208005905
13.482045173645 -68.836479187012 -291.853790283203 2.601570129395
-153.051055908203 -64.421295166016 -301.162231445313 2.576480627060
45.223983764648 -67.532272338867 -25.526433944702 1.436171770096
34.947776794434 -69.072799682617 -39.683006286621 1.666027307510
-61.838176727295 -60.934944152832 -46.444469451904 3.094738245010
-72.725250244141 -61.018436431885 -47.085529327393 3.499361038208
-27.533523559570 -60.949619293213 -50.765167236328 2.560528278351
-22.567302703857 -66.059356689453 -54.557319641113 3.183555364609
-11.812362670898 -59.744544982910 -66.775772094727 2.922031402588
-26.781017303467 -59.869041442871 -69.995460510254 2.938681364059
64.545768737793 -62.696907043457 -73.196922302246 1.516834735870
-97.217567443848 -58.458339691162 -79.531326293945 2.608740568161
-46.704566955566 -63.627132415771 -86.556877136230 3.798296451569
54.361274719238 -64.155876159668 -85.369422912598 2.075841665268
58.380332946777 -63.057643890381 -85.957054138184 1.884709358215
61.998756408691 -63.575725555420 -88.229835510254 2.335191011429
106.016426086426 -62.045669555664 -89.879409790039 2.450654268265
51.969612121582 -60.486484527588 -90.404846191406 2.425838232040
98.736305236816 -58.740783691406 -99.488136291504 3.308116197586
-82.144256591797 -65.342636108398 -103.870689392090 2.148592948914
-94.300697326660 -63.607128143311 -102.572326660156 3.778139591217
75.154289245605 -59.931438446045 -111.383773803711 2.690614461899
-77.702316284180 -62.894207000732 -104.388336181641 1.626789212227
-77.801124572754 -67.467895507813 -115.321701049805 1.451965928078
-84.029472351074 -67.909355163574 -119.605728149414 1.366478800774
-55.319732666016 -64.753700256348 -127.037841796875 1.434473514557
-77.453681945801 -64.034080505371 -129.455764770508 1.328895568848
-62.528663635254 -60.813217163086 -130.131317138672 2.007657766342
-83.823600769043 -65.371238708496 -135.665222167969 2.586093664169
-75.865966796875 -62.578144073486 -133.693161010742 2.372655630112
-79.784683227539 -60.762859344482 -126.103454589844 1.002563238144
-88.678756713867 -62.128837585449 -131.101760864258 2.405396223068
-65.568572998047 -61.072929382324 -134.975296020508 4.242604732513
-90.496032714844 -63.477329254150 -133.582275390625 2.836497068405
-49.952045440674 -65.394966125488 -133.890411376953 0.451904922724
-55.550376892090 -67.792877197266 -139.535125732422 2.313153028488
27.930389404297 -63.414447784424 -139.369888305664 1.594724059105
-56.826602935791 -58.502288818359 -137.563247680664 1.496577143669
15.480578422546 -67.187820434570 -143.945053100586 0.420301467180
16.665487289429 -62.585948944092 -148.046234130859 2.030557632446
18.026851654053 -60.310974121094 -153.364700317383 2.063154935837
