-42.511955261230 -72.989074707031 -197.514328002930 3.175581455231
102.750885009766 -75.424240112305 -196.030166625977 1.416792392731
107.584205627441 -74.705444335938 -184.581512451172 1.686779737473
-43.778678894043 -74.910240173340 -196.233551025391 1.958995342255
-22.516675949097 -80.234672546387 -197.714706420898 2.800179958344
-147.302963256836 -78.397499084473 -200.340179443359 2.814170837402
-24.380044937134 -75.641273498535 -196.581268310547 1.059302687645
-156.779022216797 -75.254653930664 -198.453445434570 2.415501117706
-152.100616455078 -79.834739685059 -204.559097290039 2.497788906097
-142.550781250000 -76.385551452637 -202.290237426758 2.078747510910
-37.764217376709 -75.622642517090 -199.624938964844 2.249163150787
101.876495361328 -76.587844848633 -200.637451171875 1.623015880585
-40.320137023926 -73.283836364746 -199.507324218750 1.472337841988
-142.603744506836 -77.796882629395 -205.394073486328 1.224357128143
-37.122093200684 -72.001533508301 -205.524154663086 2.493481397629
-20.046712875366 -79.061653137207 -209.620697021484 3.481795549393
97.718879699707 -77.589126586914 -204.199462890625 2.296292304993
92.040199279785 -76.761077880859 -212.282653808594 0.513654410839
-33.657867431641 -73.628303527832 -216.897506713867 2.930349111557
-86.759719848633 -75.717765808105 -211.077804565430 1.099724531174
-74.967941284180 -75.377349853516 -211.730651855469 0.756411910057
-17.933271408081 -75.293937683105 -213.424118041992 2.029586315155
-149.162292480469 -75.340156555176 -206.344757080078 0.725725352764
90.937988281250 -75.837417602539 -212.481170654297 1.296461462975
89.702529907227 -74.069679260254 -217.230789184570 0.487089514732
90.965522766113 -75.808853149414 -219.102676391602 0.757424473763
-101.517059326172 -74.587173461914 -220.417373657227 1.404946088791
-152.292221069336 -76.711372375488 -222.515213012695 2.433452129364
-19.226579666138 -73.943374633789 -222.310577392578 1.348545551300
80.726509094238 -73.455863952637 -225.098754882813 2.500859260559
-148.871124267578 -77.642944335938 -224.476837158203 1.668256998062
-27.288497924805 -76.163093566895 -218.715194702148 1.728291511536
-132.666915893555 -72.976577758789 -231.673171997070 1.978036522865
-11.038822174072 -77.394485473633 -229.639266967773 1.668745160103
18.262071609497 -74.689056396484 -225.496215820313 1.135787367821
20.486690521240 -76.164581298828 -232.165588378906 2.460621118546
-154.011810302734 -77.324272155762 -234.778259277344 3.031039237976
-125.057609558105 -71.367965698242 -233.088134765625 1.666390538216
-7.384943962097 -74.432136535645 -234.830627441406 0.735386967659
0.901742994785 -74.469474792480 -236.785812377930 1.451073646545
70.007507324219 -75.306251525879 -232.055572509766 2.075362682343
71.501365661621 -72.986297607422 -237.093444824219 1.933997511864
0.469530999660 -73.776596069336 -239.828796386719 1.160770773888
17.251878738403 -71.927368164063 -239.159332275391 1.001765131950
-29.316822052002 -69.325485229492 -240.324249267578 5.243142604828
-32.885490417480 -80.367782592773 -241.280822753906 0.871356368065
-46.045158386230 -74.254074096680 -238.558593750000 1.519149780273
-38.419437408447 -72.965454101563 -240.748687744141 2.528057336807
-16.620765686035 -76.173156738281 -242.415603637695 0.389783203602
-51.578853607178 -73.140548706055 -243.728439331055 3.132150173187
2.717206001282 -75.325752258301 -244.653244018555 1.363111257553
-67.344581604004 -75.267211914063 -244.160034179688 2.928722620010
21.560228347778 -75.912948608398 -246.552505493164 1.247919440269
-143.291946411133 -76.340438842773 -245.552612304688 3.347882986069
-71.795623779297 -76.798599243164 -251.700027465820 1.899854063988
16.186298370361 -76.610092163086 -248.653747558594 0.666548550129
-160.473800659180 -73.006958007813 -250.011169433594 2.244552135468
15.944300651550 -78.245056152344 -252.273056030273 1.055753469467
-79.083007812500 -70.791259765625 -250.811248779297 0.813443422318
-74.320953369141 -75.125022888184 -250.884552001953 1.333972692490
20.520053863525 -76.482292175293 -254.492843627930 1.763562321663
-88.315238952637 -73.758872985840 -252.347213745117 1.986369848251
-124.803771972656 -71.718757629395 -255.477584838867 1.669197916985
-132.660446166992 -76.329017639160 -259.944610595703 2.538226604462
-134.205245971680 -76.384857177734 -255.192535400391 2.209881782532
-146.204635620117 -74.645378112793 -261.404541015625 2.089850425720
-143.461578369141 -71.809745788574 -255.569702148438 2.236099243164
-133.932861328125 -72.546104431152 -262.161254882813 1.738026499748
-160.770172119141 -71.438751220703 -261.350830078125 3.130222082138
-126.105484008789 -73.231582641602 -266.553588867188 3.068838119507
-134.422912597656 -70.678665161133 -263.004486083984 0.770709991455
-162.772705078125 -71.410034179688 -267.976623535156 3.047108888626
-155.810729980469 -71.628646850586 -264.690063476563 2.793979167938
-148.416992187500 -72.397880554199 -266.031799316406 2.523223876953
-147.128631591797 -74.296257019043 -266.144531250000 1.039013981819
17.672508239746 -77.334922790527 -278.014007568359 2.112554311752
-165.204315185547 -73.619758605957 -267.694366455078 2.987069845200
-150.956390380859 -74.583099365234 -273.985900878906 1.934251070023
-4.831984043121 -81.564910888672 -272.678283691406 1.341081738472
-156.318939208984 -71.863311767578 -273.113922119141 2.831108331680
13.174496650696 -78.395301818848 -281.439392089844 1.577219843864
-151.285324096680 -73.376159667969 -282.373687744141 1.737413167953
-163.495101928711 -74.434494018555 -288.353973388672 2.421618223190
-153.911026000977 -75.458442687988 -280.827056884766 2.773026227951
-164.084335327148 -72.088882446289 -288.342620849609 2.498220682144
2.366158008575 -77.138702392578 -286.995178222656 2.384917497635
8.308369636536 -78.947486877441 -282.545715332031 2.943496227264
-100.970558166504 -72.534843444824 -291.036621093750 1.664654493332
-152.953247070313 -77.656166076660 -288.239166259766 1.969700217247
-147.282348632813 -71.970077514648 -286.414459228516 2.919170856476
-106.288589477539 -72.973922729492 -290.908691406250 1.297735214233
-151.199783325195 -75.633293151855 -292.396240234375 1.860529661179
-147.464431762695 -76.362327575684 -289.870025634766 1.893887758255
-71.113082885742 -76.401954650879 -292.537475585938 3.956962823868
-164.778228759766 -75.194068908691 -290.084838867188 1.409447073936
-122.083557128906 -71.197189331055 -291.744232177734 2.057013511658
-42.184253692627 -77.637626647949 -287.741149902344 1.605691313744
-152.372894287109 -73.397048950195 -289.016510009766 2.792233467102
-132.098892211914 -69.748825073242 -293.854156494141 2.148466587067
-17.569278717041 -72.611160278320 -293.483642578125 2.299918174744
-126.968338012695 -71.257240295410 -293.773590087891 0.965372025967
6.872751235962 -75.543945312500 -293.876678466797 0.785289645195
16.407318115234 -72.889060974121 -292.004302978516 2.255774974823
-132.541152954102 -71.201232910156 -292.161468505859 2.614555835724
-144.623260498047 -74.869743347168 -297.653045654297 2.557140111923
-155.039443969727 -75.367889404297 -314.412628173828 3.658927440643
-72.203224182129 -70.789581298828 -52.460071563721 1.775877356529
-22.290414810181 -70.413879394531 -63.629081726074 4.387876510620
-20.325866699219 -76.900474548340 -64.865684509277 2.615907192230
72.611198425293 -73.772354125977 -76.201835632324 1.432619690895
90.997322082520 -75.473258972168 -74.810913085938 2.291392326355
-37.004821777344 -74.478965759277 -78.874496459961 1.441426038742
75.288383483887 -75.085067749023 -78.664932250977 1.312315106392
89.494575500488 -78.925796508789 -81.324676513672 2.612538099289
67.967788696289 -75.487983703613 -82.716026306152 3.215373754501
72.730934143066 -74.826240539551 -87.956542968750 2.445792675018
-49.754112243652 -76.063133239746 -86.304344177246 1.581263542175
-91.793617248535 -76.474594116211 -88.664688110352 2.757615089417
58.777072906494 -77.290985107422 -93.130020141602 3.002010583878
50.186950683594 -76.773727416992 -98.349739074707 1.819185495377
93.868164062500 -73.310966491699 -98.253616333008 1.630955338478
-92.074851989746 -70.538230895996 -102.016128540039 3.912103891373
82.032752990723 -72.570381164551 -98.337951660156 2.634872198105
73.180984497070 -75.864112854004 -99.247566223145 2.883588314056
91.761726379395 -77.220283508301 -97.404106140137 3.245156049728
83.291427612305 -75.207870483398 -97.153274536133 0.884663581848
83.076049804688 -78.122573852539 -97.717193603516 2.754537105560
-85.255874633789 -76.044540405273 -102.683151245117 5.197609424591
42.616527557373 -73.947799682617 -106.203765869141 2.346306324005
105.611328125000 -76.492675781250 -109.815460205078 2.229203462601
108.234886169434 -76.130065917969 -109.811729431152 2.337096214294
48.313488006592 -77.509780883789 -118.178421020508 1.979804873466
111.351890563965 -77.763740539551 -120.120567321777 2.381850719452
116.910865783691 -78.171096801758 -133.948211669922 2.748765230179
-51.165565490723 -72.549110412598 -131.333023071289 1.650293827057
27.628606796265 -74.589714050293 -134.061996459961 2.145663738251
40.865295410156 -77.477233886719 -133.061798095703 1.816276311874
25.431369781494 -72.483718872070 -142.321121215820 2.024496793747
113.252059936523 -78.049163818359 -137.455551147461 2.757823705673
112.030067443848 -76.334289550781 -130.882629394531 1.643494486809
-73.270797729492 -74.172340393066 -148.492065429688 2.142208814621
-43.639457702637 -73.812149047852 -142.915618896484 0.816649019718
-70.865501403809 -72.452682495117 -151.550735473633 2.252351522446
20.057050704956 -73.554428100586 -149.317947387695 2.752709150314
112.891662597656 -73.591430664063 -148.539611816406 1.762405991554
-53.293945312500 -75.426498413086 -151.066528320313 1.827755331993
-70.899909973145 -72.906913757324 -151.258605957031 2.218219518661
-38.580860137939 -77.381446838379 -152.508071899414 1.630465507507
32.751949310303 -70.430580139160 -152.784393310547 2.343644618988
110.392097473145 -72.806228637695 -150.338104248047 1.298188328743
115.785308837891 -74.512771606445 -159.700103759766 1.709424972534
-67.858085632324 -71.257293701172 -155.295471191406 1.144000291824
-72.265922546387 -75.587875366211 -161.416381835938 3.286539316177
22.135179519653 -77.909927368164 -162.976608276367 0.794220089912
-59.652400970459 -72.128967285156 -167.034591674805 1.869804024696
-32.382553100586 -73.038993835449 -162.491134643555 1.396171212196
8.279718399048 -75.735145568848 -163.196502685547 2.410189151764
109.175872802734 -73.560752868652 -160.871185302734 1.624946951866
8.265730857849 -77.267593383789 -166.719085693359 4.032384872437
-32.408821105957 -74.617225646973 -165.683959960938 1.790825605392
-1.477542996407 -70.814689636230 -165.576629638672 1.833419084549
108.068946838379 -72.593727111816 -167.281478881836 1.746307969093
-40.952903747559 -71.837844848633 -165.655181884766 1.594753742218
29.683513641357 -72.148826599121 -171.835494995117 1.685488462448
113.458282470703 -78.084625244141 -171.613296508789 2.934798479080
-56.735229492188 -71.287696838379 -176.374862670898 2.405982255936
-27.731485366821 -76.585144042969 -174.648651123047 0.701156139374
103.465332031250 -75.301094055176 -173.372116088867 2.900647163391
29.587245941162 -72.976974487305 -169.337722778320 2.277268886566
108.089462280273 -76.937805175781 -174.399581909180 2.505807638168
-36.384349822998 -71.230407714844 -178.213882446289 1.659448504448
108.885337829590 -77.579353332520 -179.915924072266 1.493663549423
-61.370986938477 -71.725593566895 -177.819488525391 3.278064489365
-25.031608581543 -77.809936523438 -178.848800659180 1.485527753830
-145.846267700195 -68.887725830078 -184.313018798828 3.214587688446
-53.627758026123 -73.148750305176 -180.889038085938 1.219110369682
-146.560394287109 -73.589118957520 -187.012924194336 0.849865198135
-33.508789062500 -72.182853698730 -185.071441650391 0.601525723934
27.397115707397 -78.051353454590 -181.444610595703 1.665444254875
107.024299621582 -75.722160339355 -182.532592773438 0.388345807791
-33.482070922852 -74.299057006836 -183.934265136719 1.471631526947
11.585105895996 -74.998603820801 -190.572128295898 1.330856919289
17.991296768188 -74.007362365723 -203.295989990234 1.674072742462
-147.578308105469 -73.784805297852 -190.493408203125 2.406201124191
105.684104919434 -77.031471252441 -194.806015014648 2.501298189163
-20.698509216309 -71.925392150879 -193.151901245117 2.391644001007
101.929199218750 -75.926185607910 -187.528915405273 2.261734485626
13.496188163757 -72.177070617676 -189.217651367188 1.452791929245
-136.208694458008 -72.884696960449 -204.390899658203 3.241637468338
-138.137405395508 -72.903717041016 -200.583892822266 2.009109497070
100.938171386719 -77.405639648438 -200.622985839844 1.402791857719
-11.251369476318 -77.696868896484 -200.349899291992 2.950231075287
-15.665518760681 -74.994796752930 -202.915649414063 1.759024858475
11.268825531006 -76.188270568848 -207.155868530273 1.404151916504
-149.295303344727 -71.506134033203 -206.662429809570 1.578864812851
-145.524475097656 -74.381835937500 -208.815704345703 2.681612014771
100.821327209473 -71.009422302246 -203.885131835938 0.742424070835
-81.450614929199 -73.149108886719 -208.515777587891 2.175672531128
-35.355186462402 -74.540725708008 -201.719848632813 2.214191913605
19.569467544556 -76.808578491211 -213.088104248047 2.367202758789
-24.443195343018 -74.461891174316 -211.121719360352 1.026217818260
-75.787689208984 -72.049118041992 -208.172149658203 1.939433813095
91.754989624023 -74.917549133301 -209.023681640625 1.634050607681
-79.636703491211 -71.282508850098 -212.697814941406 2.236965417862
-146.547058105469 -73.371833801270 -219.373397827148 1.472735404968
-79.183097839355 -72.339714050293 -213.573638916016 1.533987641335
-12.459964752197 -69.659576416016 -209.791595458984 1.301597237587
-19.832504272461 -71.627433776855 -218.869247436523 2.083074331284
19.277790069580 -74.206138610840 -213.030929565430 2.051746606827
-4.678987026215 -75.439605712891 -219.403488159180 1.010619878769
-87.475608825684 -76.528419494629 -219.234237670898 1.776904940605
93.406639099121 -74.104202270508 -212.929473876953 1.493581652641
-97.590545654297 -72.474006652832 -216.095123291016 0.870972752571
-151.383987426758 -72.208831787109 -224.850006103516 2.311578989029
-24.333768844604 -72.938858032227 -223.654983520508 1.827158689499
18.556678771973 -74.748519897461 -215.778121948242 1.928134918213
-101.208534240723 -73.442802429199 -220.462615966797 1.021064639091
8.232763290405 -71.240173339844 -218.647994995117 2.935626506805
-24.875131607056 -74.005439758301 -215.608474731445 2.319970607758
83.724731445313 -73.148498535156 -223.561355590820 1.049563169479
-144.493148803711 -72.286125183105 -219.885589599609 1.535717487335
11.195246696472 -72.868461608887 -225.563476562500 2.549574613571
-8.646946907043 -76.885696411133 -225.617752075195 1.732591867447
18.374813079834 -68.592048645020 -222.222473144531 1.459293603897
84.454589843750 -75.523536682129 -221.650466918945 1.637021780014
-12.740169525146 -76.113197326660 -228.461196899414 2.314580917358
-129.700866699219 -74.149337768555 -227.187744140625 2.934383630753
-12.996673583984 -74.137580871582 -224.389801025391 1.261042475700
17.634502410889 -74.558868408203 -230.873855590820 1.306682944298
-125.865554809570 -75.055656433105 -227.850402832031 1.043083786964
-150.706939697266 -69.820915222168 -230.311462402344 3.209154605865
-141.517120361328 -71.929168701172 -229.602478027344 1.806717514992
-130.016448974609 -71.219543457031 -228.527999877930 3.708844423294
-12.282485008240 -71.981559753418 -225.139312744141 1.077589631081
72.716247558594 -74.230392456055 -227.606933593750 1.789933800697
-142.356094360352 -69.502662658691 -236.981185913086 1.260621666908
71.648254394531 -75.604499816895 -228.192398071289 2.951309204102
-19.602235794067 -76.955162048340 -229.612457275391 0.346956461668
-141.417541503906 -76.061187744141 -230.043563842773 0.859427273273
78.158073425293 -79.217422485352 -228.260223388672 2.821087360382
10.571570396423 -77.749809265137 -233.265579223633 1.785801649094
-140.737075805664 -76.889938354492 -235.983825683594 3.868154287338
-149.162872314453 -71.856811523438 -234.631484985352 2.875045537949
17.747890472412 -70.985885620117 -231.200637817383 0.875040173531
-1.802677989006 -76.214538574219 -237.547317504883 0.703472197056
-26.778966903687 -73.180404663086 -237.202392578125 1.794175863266
-0.705178022385 -70.091552734375 -237.443374633789 1.032748818398
-159.891189575195 -74.653938293457 -238.536254882813 2.345212459564
8.897471427917 -72.884109497070 -243.327621459961 0.755391836166
-163.810760498047 -73.113395690918 -239.598205566406 2.135243177414
-11.900886535645 -74.936935424805 -237.600082397461 2.430574417114
62.440582275391 -75.148200988770 -238.671737670898 2.442600965500
-12.171262741089 -72.911407470703 -238.029266357422 1.380143404007
-23.943143844604 -72.912925720215 -244.355499267578 2.332783222198
-24.080631256104 -73.181083679199 -241.757675170898 0.334927916527
-11.942917823792 -75.923217773438 -240.789398193359 2.836186647415
-145.458862304688 -73.077926635742 -231.739746093750 2.359418392181
9.019399642944 -73.260665893555 -242.114791870117 0.678872704506
65.187377929688 -73.892372131348 -243.130004882813 1.899169087410
15.664075851440 -71.899635314941 -244.874099731445 1.839412689209
-165.042694091797 -70.953567504883 -242.429901123047 1.834743380547
-49.564647674561 -72.426025390625 -240.938934326172 1.689652800560
4.871399879456 -80.449874877930 -247.960693359375 2.221959114075
17.940196990967 -74.015747070313 -243.976104736328 2.182204961777
-53.244842529297 -72.652427673340 -247.369827270508 2.144176244736
-1.839607000351 -69.983055114746 -248.129547119141 4.323549747467
21.864870071411 -78.661293029785 -247.664535522461 1.317160487175
-168.154541015625 -70.655700683594 -249.648437500000 2.107292652130
-66.627464294434 -76.346290588379 -248.419723510742 0.928847491741
-50.603427886963 -72.234840393066 -247.562042236328 2.110824108124
-80.116943359375 -72.143951416016 -251.673950195313 2.669942140579
-160.059997558594 -73.306625366211 -247.806838989258 1.949192523956
-149.742004394531 -66.817558288574 -250.322402954102 1.664324760437
-59.142776489258 -74.961013793945 -249.886795043945 1.689115405083
-67.785171508789 -72.987678527832 -250.230606079102 0.875694036484
-152.616760253906 -70.574996948242 -253.511749267578 0.964339375496
-151.040771484375 -73.158424377441 -253.109176635742 1.464012145996
-74.836418151855 -70.019882202148 -254.733688354492 2.724500417709
-92.414543151855 -70.503578186035 -255.683532714844 2.825820684433
-163.372528076172 -67.862548828125 -253.126281738281 2.795710325241
-155.795059204102 -72.526138305664 -260.581115722656 2.605001926422
-133.793289184570 -73.927482604980 -258.988464355469 1.667528510094
-82.155677795410 -72.941154479980 -251.753906250000 2.765708923340
-161.158355712891 -69.594757080078 -253.830352783203 2.010129451752
-140.823257446289 -70.725456237793 -257.653381347656 2.079506874084
-84.336616516113 -72.078468322754 -251.680023193359 0.597928643227
-95.651481628418 -70.640937805176 -260.843627929688 2.095870256424
-144.063842773438 -73.241622924805 -256.786071777344 2.011922836304
-92.481399536133 -72.503601074219 -256.594177246094 1.863532423973
-151.576995849609 -70.789031982422 -256.870239257813 2.373005867004
-101.315361022949 -72.263351440430 -256.129241943359 1.495214462280
-167.650894165039 -71.497085571289 -259.808074951172 1.409091591835
-160.444656372070 -73.568885803223 -264.331970214844 1.155224680901
-125.427322387695 -75.258956909180 -257.288848876953 1.838892459869
-150.659698486328 -72.428947448730 -260.296142578125 1.748069524765
-110.789642333984 -69.973846435547 -262.554565429688 1.777736783028
-13.295153617859 -72.288467407227 -261.905883789063 2.134479522705
-140.547256469727 -72.090026855469 -261.823730468750 2.442650079727
-124.813667297363 -71.859397888184 -260.829742431641 1.607488751411
-153.125030517578 -70.720680236816 -263.556243896484 0.856389284134
24.656421661377 -74.596908569336 -270.584930419922 3.311913013458
-147.525497436523 -74.424011230469 -279.513397216797 1.352131247520
-167.250869750977 -72.368415832520 -281.105865478516 3.220284223557
-7.031753063202 -73.620231628418 -279.426025390625 1.912151932716
-144.692672729492 -72.191963195801 -281.359100341797 0.504635572433
-8.342366218567 -72.084190368652 -283.176666259766 1.098646879196
14.029566764832 -74.055259704590 -285.950256347656 0.646918118000
-135.426971435547 -70.898284912109 -286.776489257813 1.519305229187
-67.088806152344 -74.640594482422 -287.319549560547 2.530383586884
-32.117107391357 -75.461425781250 -288.210998535156 2.001530647278
-111.687232971191 -72.404251098633 -285.068572998047 2.760666608810
-94.095130920410 -76.206237792969 -290.785308837891 2.203139781952
-88.373023986816 -72.988990783691 -291.925109863281 2.378118753433
-48.570251464844 -74.398521423340 -292.155487060547 3.344493865967
-114.750190734863 -76.417671203613 -289.272674560547 2.743373155594
-112.475578308105 -73.668907165527 -290.941864013672 0.900369167328
-31.824193954468 -70.957237243652 -289.359588623047 1.466314315796
-114.068656921387 -72.929252624512 -293.701782226563 1.555368065834
-125.804122924805 -68.431816101074 -290.976867675781 1.711467981339
-143.149215698242 -74.130516052246 -294.447875976563 2.532844305038
8.400824546814 -73.439956665039 -291.428192138672 1.406362414360
17.879177093506 -75.439437866211 -293.163085937500 1.918033361435
-158.642074584961 -72.040588378906 -293.801788330078 1.574542522430
-157.025787353516 -75.567062377930 -301.629028320313 2.195165157318
-145.613037109375 -73.485664367676 -311.376312255859 1.828956127167
-150.585525512695 -70.981727600098 -311.760955810547 1.148145675659
-151.178543090820 -73.630592346191 -314.478240966797 1.638916492462
28.644210815430 -76.956893920898 -14.681321144104 4.577017307281
30.635318756104 -72.292831420898 -18.026174545288 0.748961746693
21.298040390015 -74.216247558594 -24.089544296265 1.608274459839
28.913385391235 -72.015556335449 -39.033092498779 1.423994779587
-58.092765808105 -72.256721496582 -50.042236328125 2.696727991104
-65.190505981445 -72.696014404297 -50.520557403564 2.692992687225
-38.857742309570 -76.158378601074 -50.486270904541 4.227032184601
-84.316093444824 -69.245437622070 -63.400302886963 4.060064315796
81.330253601074 -77.481246948242 -73.672760009766 2.363961935043
-15.306024551392 -71.885734558105 -71.105361938477 2.066264629364
89.199829101563 -75.638862609863 -65.812385559082 3.610724449158
99.504547119141 -74.594184875488 -76.349121093750 1.662814497948
-92.412940979004 -71.067703247070 -76.856765747070 2.519787311554
67.813758850098 -74.461524963379 -79.990341186523 3.679759263992
-40.879066467285 -77.141098022461 -85.835693359375 0.800088703632
101.098777770996 -73.930297851563 -81.455238342285 3.338938236237
-55.392402648926 -72.015808105469 -88.936538696289 1.831846356392
51.256542205811 -74.778518676758 -90.234741210938 2.079008579254
71.126228332520 -79.679740905762 -90.311660766602 4.487846851349
55.755321502686 -73.652610778809 -95.949592590332 1.092217683792
53.074523925781 -76.129898071289 -98.233673095703 1.455715179443
74.639396667480 -77.702445983887 -95.208702087402 2.612774372101
46.792121887207 -74.162834167480 -104.924789428711 3.168998479843
100.690139770508 -75.565979003906 -100.167556762695 2.371586322784
106.177024841309 -78.830802917480 -105.791458129883 3.319183826447
80.303253173828 -72.073951721191 -102.941261291504 1.492829442024
92.095870971680 -76.058723449707 -102.900733947754 3.379708766937
101.110847473145 -75.172264099121 -94.526260375977 3.955590486526
109.798263549805 -75.583656311035 -103.045776367188 2.570420026779
39.885009765625 -74.334625244141 -105.873130798340 0.966535747051
112.929122924805 -72.497428894043 -117.943534851074 1.759170413017
114.150352478027 -76.354209899902 -118.173774719238 3.409563541412
31.745502471924 -72.838455200195 -123.318466186523 1.398348927498
45.117164611816 -75.602722167969 -118.580963134766 1.184983849525
115.716255187988 -75.516609191895 -129.477813720703 1.741298437119
36.673660278320 -73.868942260742 -126.406364440918 3.470314979553
115.473014831543 -78.588333129883 -127.015388488770 4.193171024323
109.161300659180 -76.005050659180 -121.758537292480 2.326043605804
26.915506362915 -74.995414733887 -135.371322631836 1.331416845322
-47.457332611084 -73.850471496582 -134.357940673828 2.151220083237
-51.599674224854 -71.832550048828 -135.395858764648 1.030249714851
111.856056213379 -74.445640563965 -134.277664184570 0.722730994225
-68.696281433105 -76.849304199219 -140.871643066406 3.784773588181
-72.275192260742 -73.891700744629 -140.761764526367 1.254824638367
-58.388458251953 -73.902313232422 -141.520217895508 0.856142520905
32.500923156738 -74.280487060547 -143.386672973633 2.375379800797
116.762298583984 -76.841957092285 -145.165710449219 3.810035228729
-68.771324157715 -70.191658020020 -147.497879028320 1.024858355522
-47.398178100586 -73.197257995605 -142.847839355469 3.185400962830
34.034564971924 -74.888305664063 -150.983062744141 1.786086916924
-67.503814697266 -74.399009704590 -148.211395263672 1.038433670998
114.586959838867 -74.136817932129 -140.578781127930 1.094590187073
112.565795898438 -73.280944824219 -156.825775146484 0.729218482971
116.972587585449 -76.225845336914 -152.206542968750 1.964859604836
-37.736991882324 -76.005889892578 -153.260543823242 1.572663903236
-63.981842041016 -73.347396850586 -164.679580688477 2.327162504196
-68.452293395996 -70.213012695313 -157.549468994141 1.826969385147
30.782003402710 -75.299949645996 -146.146942138672 2.490790367126
-1.363878011703 -75.827995300293 -162.044601440430 1.827016234398
109.895858764648 -74.613357543945 -160.896789550781 1.928281784058
112.513946533203 -73.392066955566 -152.284072875977 0.836014211178
112.961021423340 -77.251411437988 -157.645690917969 0.628620505333
-62.972862243652 -70.653083801270 -160.409866333008 1.985786437988
-44.579189300537 -75.377243041992 -165.452453613281 1.286826133728
-1.536079049110 -73.129180908203 -165.005355834961 1.586708784103
-28.401790618896 -73.812866210938 -175.020767211914 2.752844572067
106.775939941406 -74.118736267090 -166.521865844727 1.176236987114
-33.634449005127 -76.513290405273 -160.203689575195 1.091549515724
110.231391906738 -73.496116638184 -167.629608154297 1.528716206551
-40.933048248291 -74.007125854492 -173.815429687500 1.282666444778
109.473838806152 -72.862831115723 -167.902465820313 2.139683485031
-150.594253540039 -73.324676513672 -180.883102416992 0.977781176567
-26.027793884277 -69.934020996094 -176.863281250000 1.177441477776
-19.391559600830 -73.728233337402 -183.395080566406 1.397151470184
25.730772018433 -77.093307495117 -176.896240234375 0.789051294327
15.972534179688 -73.649719238281 -182.987426757813 1.704202055931
28.545976638794 -74.497764587402 -182.797607421875 1.730974316597
105.147827148438 -78.621971130371 -183.011230468750 1.716922044754
-150.866683959961 -69.518920898438 -185.717636108398 2.071012020111
-18.821090698242 -75.848297119141 -184.889404296875 0.702897548676
103.066528320313 -75.721107482910 -177.887466430664 3.622452497482
104.154243469238 -71.761550903320 -188.967788696289 2.000286340714
109.058471679688 -76.026161193848 -177.059783935547 0.525447607040
100.016128540039 -76.448661804199 -193.048248291016 2.101511955261
-150.341690063477 -72.763381958008 -197.356140136719 2.806914091110
101.046676635742 -75.541702270508 -204.797546386719 1.245186686516
-27.233131408691 -71.383705139160 -197.238952636719 1.657416939735
98.507835388184 -74.495513916016 -195.095626831055 2.093313694000
-120.419815063477 -75.614471435547 -200.763214111328 3.333805561066
-28.870531082153 -77.887336730957 -190.218826293945 1.787286639214
-140.914352416992 -68.368782043457 -199.066436767578 2.649066448212
96.313652038574 -74.820816040039 -197.937805175781 2.041408777237
9.613495826721 -74.578201293945 -198.923248291016 1.809403061867
24.820085525513 -72.749122619629 -192.327789306641 1.101766943932
-147.104400634766 -72.612495422363 -203.725967407227 2.380191564560
-137.947158813477 -71.549034118652 -202.811538696289 2.198462963104
-9.032600402832 -73.232040405273 -206.672241210938 1.046822667122
-123.388626098633 -72.246604919434 -204.430053710938 1.604429364204
-142.943557739258 -74.603874206543 -200.503982543945 1.732138514519
4.916947841644 -74.046020507813 -199.461196899414 4.309154987335
-23.283145904541 -75.620994567871 -201.138870239258 1.879828095436
21.633689880371 -76.702377319336 -202.082229614258 0.927080333233
7.652645111084 -75.050346374512 -211.678985595703 1.217891335487
86.471405029297 -72.164245605469 -207.928909301758 3.560819149017
-17.345844268799 -71.003707885742 -211.927642822266 1.760810613632
92.358551025391 -72.476226806641 -208.294128417969 1.231383442879
98.046745300293 -76.498641967773 -206.314163208008 2.228747844696
-147.918502807617 -73.125946044922 -215.363662719727 0.869391381741
96.508689880371 -76.320564270020 -210.888946533203 1.082944393158
6.009068965912 -72.860321044922 -207.161300659180 2.227726459503
4.607035160065 -75.814491271973 -214.282760620117 2.673056125641
-31.967248916626 -72.977844238281 -207.070831298828 1.988224387169
-88.386169433594 -72.158081054688 -213.569015502930 2.288278579712
-25.223850250244 -74.803756713867 -210.897628784180 0.559783279896
86.186798095703 -73.778350830078 -216.263031005859 1.501158237457
90.347976684570 -73.649993896484 -216.347976684570 1.226222515106
-30.811126708984 -72.570068359375 -212.313018798828 2.153339385986
-83.310104370117 -69.838127136230 -218.807723999023 4.539775848389
-0.007350000087 -75.622550964355 -218.598999023438 2.707990646362
83.096450805664 -71.055404663086 -212.530899047852 4.336671352386
-150.879547119141 -75.711303710938 -222.747436523438 1.733458161354
-164.761566162109 -70.337051391602 -215.277481079102 2.396386384964
-160.922058105469 -74.325325012207 -223.217926025391 1.945816993713
-20.306848526001 -74.270805358887 -226.880004882813 2.239106178284
-152.840164184570 -74.833412170410 -223.662017822266 2.296794414520
-4.653288841248 -74.694351196289 -224.384017944336 3.464724779129
7.608739852905 -74.725341796875 -218.224914550781 2.246522426605
-166.057510375977 -71.685470581055 -226.548126220703 1.076429128647
-157.700149536133 -72.250564575195 -228.338088989258 2.051141262054
80.374519348145 -77.470664978027 -230.793457031250 1.910882830620
1.379179000854 -72.471473693848 -226.515289306641 0.844034910202
-156.397949218750 -67.339698791504 -227.104370117188 2.905239582062
-141.416503906250 -73.642509460449 -225.231399536133 1.276494264603
-18.096986770630 -72.463294982910 -223.917922973633 1.680350422859
0.650161027908 -77.748352050781 -222.336242675781 2.452897310257
81.183753967285 -72.010986328125 -224.963088989258 1.862669587135
-160.135437011719 -70.232170104980 -228.863281250000 3.322628974915
-142.842025756836 -69.769523620605 -231.740386962891 2.012590408325
-123.963973999023 -70.646499633789 -231.656005859375 1.653393387794
79.893096923828 -75.761955261230 -226.025619506836 1.655896067619
-114.504364013672 -72.230331420898 -229.858779907227 1.599680423737
-145.277633666992 -71.934379577637 -230.190475463867 2.188108682632
-149.357604980469 -70.633132934570 -232.353836059570 3.774976015091
-147.884719848633 -72.694442749023 -232.262771606445 2.172072887421
-154.703414916992 -72.415367126465 -230.074890136719 1.864868521690
-163.955062866211 -72.247886657715 -230.061523437500 1.050034761429
-132.536270141602 -72.261665344238 -236.167999267578 2.111475944519
-132.128677368164 -73.251197814941 -233.964294433594 0.897816419601
-152.060379028320 -75.524208068848 -233.861831665039 1.863175630569
-144.171386718750 -68.536918640137 -237.743057250977 1.257748484612
-150.444503784180 -72.392761230469 -236.275375366211 1.469761013985
76.084854125977 -76.267654418945 -231.801239013672 1.692171454430
68.595634460449 -69.464958190918 -235.394607543945 0.394162267447
-155.811553955078 -70.461074829102 -236.376174926758 1.712221741676
72.972229003906 -69.929992675781 -232.656829833984 1.929975032806
-18.547924041748 -71.919761657715 -236.673110961914 1.702934980392
12.631394386292 -74.827575683594 -236.896026611328 2.354345321655
8.144268035889 -74.361389160156 -235.858734130859 3.187623262405
-153.256118774414 -71.980415344238 -243.645889282227 3.541131973267
15.851479530334 -73.073341369629 -240.887252807617 1.832225918770
62.207698822021 -72.917343139648 -237.447525024414 2.036758422852
14.674576759338 -71.221221923828 -237.738967895508 1.565850138664
6.620329856873 -73.991226196289 -241.425888061523 1.784533143044
-5.232880115509 -71.373794555664 -240.290298461914 1.161117553711
-19.859252929688 -71.851646423340 -242.887893676758 1.337962388992
-0.452385991812 -73.376464843750 -241.878219604492 1.429781079292
5.093265056610 -76.130500793457 -244.869674682617 1.136312365532
58.683193206787 -75.034637451172 -241.077453613281 0.650637269020
-54.187229156494 -76.210868835449 -245.061035156250 1.716132164001
20.910673141479 -72.604248046875 -247.112136840820 1.719932675362
-58.301994323730 -73.808113098145 -242.140701293945 3.332885980606
-8.573271751404 -73.509872436523 -247.871414184570 0.812780618668
-64.750289916992 -69.456954956055 -250.666290283203 2.450232267380
-84.716430664063 -70.998062133789 -253.668716430664 1.977905631065
-81.312576293945 -73.527503967285 -252.642120361328 2.079969406128
-8.509295463562 -72.673789978027 -254.777832031250 2.798613309860
-122.532577514648 -71.987022399902 -259.859619140625 2.779938936234
-12.801059722900 -74.151893615723 -253.005996704102 2.556947708130
-115.669578552246 -72.273986816406 -256.471252441406 1.707391619682
-115.149871826172 -70.948272705078 -259.398834228516 2.086307287216
-102.232192993164 -72.202346801758 -257.210815429688 1.006622314453
-142.525726318359 -71.025863647461 -262.798614501953 0.988002896309
-143.642105102539 -71.410507202148 -268.209686279297 3.158391475677
-167.309951782227 -71.763557434082 -264.748931884766 1.928354740143
20.802169799805 -76.899604797363 -280.072418212891 3.830118656158
-56.548915863037 -70.842094421387 -285.739257812500 1.170233964920
-65.757728576660 -71.621086120605 -284.120056152344 2.126498937607
-40.693462371826 -74.556915283203 -284.121185302734 2.041496753693
-26.578714370728 -73.922264099121 -286.617462158203 0.960376024246
-94.852745056152 -74.181068420410 -289.861724853516 0.522334516048
-29.353607177734 -71.058937072754 -285.876434326172 2.227006673813
-2.640546083450 -73.245803833008 -286.148986816406 0.826287984848
-165.902816772461 -71.667190551758 -290.452301025391 2.455825090408
-14.426247596741 -75.164306640625 -285.944335937500 1.202842235565
7.820810794830 -74.477020263672 -287.841003417969 1.444079041481
15.537421226501 -77.711601257324 -283.456390380859 3.841845035553
-55.519493103027 -74.985549926758 -287.973480224609 2.670555591583
-31.746789932251 -73.343933105469 -291.658996582031 1.377173781395
15.707393646240 -71.502029418945 -292.912017822266 2.450059175491
-69.421974182129 -71.183593750000 -293.371429443359 1.844594120979
-38.774730682373 -70.360153198242 -289.375457763672 2.466281652451
-16.381135940552 -71.087387084961 -290.058166503906 1.157665848732
16.501152038574 -75.579475402832 -290.857727050781 1.019651651382
-10.093820571899 -74.750427246094 -294.243560791016 3.132811307907
5.437208175659 -72.099548339844 -293.715240478516 1.982543587685
15.704621315002 -75.311889648438 -290.434997558594 1.045410871506
-133.406570434570 -70.946670532227 -295.240631103516 1.035554409027
-143.475982666016 -74.124763488770 -300.117736816406 2.510667085648
-149.425704956055 -72.119857788086 -314.218109130859 1.672432899475
43.075107574463 -73.447166442871 -13.356926918030 1.986691355705
30.161571502686 -73.760208129883 -11.548847198486 2.822823762894
39.332138061523 -74.105918884277 -15.083458900452 2.812515974045
22.074550628662 -70.687126159668 -18.503370285034 1.859706282616
45.055534362793 -72.004203796387 -22.004795074463 2.089076280594
25.654041290283 -72.038360595703 -23.731956481934 2.011042594910
23.866712570190 -74.076339721680 -27.271146774292 2.514930486679
24.960645675659 -74.604965209961 -38.046058654785 3.624158859253
39.654960632324 -75.979797363281 -30.466634750366 5.203367233276
26.418235778809 -77.243331909180 -36.084861755371 5.547234058380
43.239685058594 -72.680892944336 -37.307464599609 1.961986780167
32.024818420410 -74.365653991699 -39.134002685547 2.289647340775
38.914955139160 -75.255783081055 -35.604038238525 3.893441677094
31.126987457275 -72.982620239258 -39.671245574951 0.816523671150
43.775779724121 -73.915176391602 -40.811374664307 3.178842067719
33.885791778564 -73.366142272949 -38.694519042969 1.591853141785
-40.749366760254 -71.396263122559 -48.444904327393 1.867202758789
-29.839073181152 -68.323898315430 -50.769264221191 0.971736907959
-89.151466369629 -71.088821411133 -55.264724731445 4.061775684357
-88.791519165039 -73.407508850098 -66.031394958496 2.773066759109
78.173500061035 -76.536643981934 -65.992660522461 5.739622116089
84.632591247559 -73.902717590332 -71.761718750000 1.508857250214
-19.322784423828 -71.225379943848 -73.566230773926 1.588062763214
-87.938720703125 -72.621238708496 -72.184020996094 2.278816461563
-24.845937728882 -72.410179138184 -76.780868530273 0.868055641651
-49.310485839844 -73.854499816895 -85.143814086914 1.637886166573
66.329811096191 -70.209106445313 -85.584991455078 2.575295209885
53.136768341064 -72.749916076660 -92.664054870605 1.893558025360
99.925537109375 -72.387382507324 -90.518516540527 2.580047369003
69.874290466309 -75.362167358398 -95.888015747070 1.773118138313
-67.835624694824 -73.982131958008 -91.338439941406 3.357427597046
-61.741958618164 -70.785499572754 -98.134834289551 4.696830272675
45.258964538574 -74.078773498535 -96.873298645020 0.953439712524
77.884963989258 -72.495025634766 -99.087463378906 1.967992544174
54.915004730225 -80.629486083984 -104.399719238281 3.543902635574
101.719207763672 -73.735206604004 -95.655914306641 2.386722803116
-94.734390258789 -73.853752136230 -107.717590332031 1.798889517784
40.368305206299 -73.776824951172 -110.143974304199 1.471089482307
107.543533325195 -74.925743103027 -107.693199157715 2.147189378738
49.016170501709 -73.460525512695 -110.655158996582 0.793371319771
101.989974975586 -74.979660034180 -108.729576110840 2.801280021667
-84.922668457031 -72.351745605469 -115.689361572266 3.273333787918
36.320545196533 -76.608985900879 -111.360305786133 2.679194450378
107.180999755859 -72.938484191895 -115.740364074707 1.473507046700
105.277816772461 -71.461112976074 -114.745605468750 1.513951420784
106.058082580566 -74.383781433105 -114.055603027344 0.514392793179
111.062522888184 -73.091094970703 -113.477294921875 1.834710597992
40.408535003662 -75.179763793945 -109.623168945313 1.494086265564
32.614997863770 -71.032600402832 -116.797210693359 2.958253622055
41.457431793213 -73.120971679688 -113.563629150391 2.269912004471
107.354057312012 -75.290298461914 -120.705047607422 1.305306553841
40.706165313721 -71.855377197266 -122.663299560547 1.649906635284
109.703750610352 -73.142860412598 -131.058761596680 0.429777383804
111.573966979980 -72.744117736816 -129.933670043945 1.862957835197
34.149940490723 -71.243560791016 -120.087181091309 2.930062770844
-77.422264099121 -72.212249755859 -125.660469055176 2.374421358109
114.518470764160 -71.552894592285 -133.099655151367 0.924740910530
-53.844379425049 -72.642387390137 -137.532669067383 1.274305105209
36.099666595459 -74.121719360352 -134.184982299805 2.945545434952
-72.735816955566 -72.718475341797 -135.610336303711 3.293828487396
27.475963592529 -75.404167175293 -131.178070068359 1.821752786636
-79.023162841797 -72.819801330566 -143.027145385742 2.166270017624
-44.772750854492 -75.515350341797 -141.909057617188 0.588574409485
-73.439109802246 -73.064926147461 -138.355529785156 0.921748101711
110.772125244141 -73.104949951172 -135.930633544922 1.774345040321
117.788146972656 -72.196983337402 -140.427490234375 2.448295831680
118.675239562988 -76.992889404297 -145.224548339844 4.980204582214
-76.757286071777 -71.399421691895 -143.834930419922 1.101795434952
8.620557785034 -69.287101745605 -150.405090332031 1.679517626762
-51.455574035645 -73.142700195313 -149.374176025391 1.284876227379
-50.210849761963 -73.429008483887 -155.276016235352 1.877885103226
107.553054809570 -74.158134460449 -160.569274902344 1.583333373070
-40.882530212402 -74.391807556152 -149.170883178711 1.993184924126
14.624702453613 -71.025238037109 -157.251480102539 0.960531055927
22.934598922729 -74.761169433594 -157.108474731445 2.685256719589
115.388351440430 -73.230682373047 -163.478317260742 1.751791238785
30.459918975830 -72.666839599609 -165.185195922852 2.200502872467
-0.256978988647 -74.251907348633 -163.149139404297 0.589970409870
32.464138031006 -74.017974853516 -160.239776611328 1.278844594955
-67.164436340332 -70.759681701660 -157.762832641602 0.842820227146
-65.165626525879 -72.032859802246 -159.192810058594 1.501718401909
-68.216751098633 -70.998908996582 -165.725555419922 1.905538916588
115.389595031738 -70.573272705078 -160.272552490234 3.019176006317
-43.937057495117 -72.711601257324 -162.910705566406 0.926471769810
18.401729583740 -73.262756347656 -165.034164428711 1.366587281227
-63.273574829102 -71.332099914551 -169.673095703125 2.422407388687
-62.377876281738 -70.626380920410 -171.421539306641 3.525112867355
-40.693161010742 -73.425605773926 -160.151977539063 1.777885079384
-32.908416748047 -74.709732055664 -168.460922241211 2.808319807053
115.663307189941 -75.910354614258 -170.131530761719 1.851124644279
-36.275104522705 -68.039970397949 -179.628143310547 3.902644157410
14.421241760254 -74.024078369141 -172.676757812500 3.099955081940
111.456604003906 -76.391403198242 -183.163970947266 1.448811888695
-146.926467895508 -73.235054016113 -176.567947387695 1.361988544464
-145.218215942383 -71.338867187500 -174.052963256836 1.644831061363
-147.909942626953 -69.767936706543 -180.441879272461 2.555693149567
-141.695739746094 -72.885154724121 -183.229705810547 2.267194032669
-31.079853057861 -71.265762329102 -185.304168701172 2.369559764862
-22.335044860840 -72.732994079590 -185.472335815430 1.353222608566
24.099269866943 -69.526069641113 -190.528030395508 2.235464811325
-140.654022216797 -70.712951660156 -187.170654296875 2.443895339966
-146.493209838867 -71.758270263672 -189.040679931641 2.137287139893
-20.505811691284 -70.136184692383 -186.190246582031 1.561488389969
11.862587928772 -73.261711120605 -182.079513549805 3.057690620422
-148.526611328125 -71.341598510742 -194.751342773438 1.840771436691
-30.792005538940 -73.220092773438 -187.766357421875 1.734979867935
100.918975830078 -73.744400024414 -187.286788940430 2.865085124969
107.084167480469 -72.792076110840 -188.712951660156 2.148600101471
25.031276702881 -68.739807128906 -192.878265380859 2.137968778610
-12.707524299622 -72.908836364746 -188.179656982422 5.408523559570
-26.928596496582 -74.430084228516 -193.138763427734 1.549014806747
-154.484222412109 -72.312194824219 -199.674453735352 1.296436786652
-131.780822753906 -72.413398742676 -197.257019042969 1.359766721725
-124.321937561035 -68.977005004883 -195.390930175781 0.900120496750
-123.825355529785 -69.956398010254 -197.974868774414 1.470727443695
-21.601720809937 -68.526504516602 -195.892883300781 1.502149343491
13.485681533813 -74.849426269531 -191.979446411133 2.307035684586
93.501937866211 -77.061798095703 -200.211532592773 3.687438011169
-149.185821533203 -67.750190734863 -195.933410644531 2.331146717072
-144.181411743164 -68.941307067871 -199.213211059570 2.867713689804
-150.018310546875 -70.689422607422 -200.661590576172 1.846361160278
-154.056793212891 -69.016830444336 -197.998992919922 0.878917038441
-23.891029357910 -72.030303955078 -199.397644042969 1.713552832603
-9.861069679260 -71.213134765625 -195.080490112305 4.188741683960
-145.452270507813 -67.496101379395 -202.622055053711 2.802326202393
-17.571437835693 -71.787864685059 -200.921325683594 1.986961722374
-160.530929565430 -70.417854309082 -201.231674194336 2.781234979630
-133.477798461914 -71.173690795898 -199.823547363281 1.972963571548
16.624263763428 -74.616310119629 -206.583557128906 1.977385163307
-160.371368408203 -67.945388793945 -204.680068969727 1.627518653870
-145.216400146484 -72.613006591797 -206.986358642578 1.015848755836
9.146312713623 -70.936904907227 -202.429473876953 2.468580961227
-153.208145141602 -68.664916992188 -203.198440551758 0.475615411997
-23.691843032837 -71.897720336914 -201.634307861328 2.098976135254
98.246795654297 -74.269912719727 -198.391571044922 0.515256166458
-157.519577026367 -71.958000183105 -213.061172485352 0.621335387230
-163.599639892578 -73.984298706055 -208.298110961914 2.770585060120
-75.928482055664 -69.910148620605 -208.429336547852 3.198626279831
90.220375061035 -72.851905822754 -208.174850463867 2.050879001617
-2.835701942444 -71.399169921875 -218.112762451172 1.347757816315
-153.573364257813 -69.927536010742 -213.451049804688 2.399280071259
-86.658004760742 -71.810592651367 -213.662887573242 1.930950760841
-8.399803161621 -75.089591979980 -211.057815551758 1.390486359596
16.559759140015 -72.544212341309 -219.518981933594 2.081304788589
-143.946685791016 -71.785758972168 -220.586441040039 0.830601215363
-2.641000986099 -76.367614746094 -220.631118774414 1.308380126953
-18.420791625977 -73.382087707520 -218.058502197266 1.859802842140
-13.623657226563 -69.387878417969 -220.241287231445 2.497948408127
91.225013732910 -73.493400573730 -218.295150756836 1.508932471275
-19.773830413818 -71.149902343750 -216.653213500977 2.596776962280
-30.774557113647 -71.735450744629 -217.035247802734 1.747738957405
-106.546180725098 -67.290122985840 -225.097152709961 1.187214493752
-15.128797531128 -70.839103698730 -223.046234130859 1.473029375076
93.413665771484 -71.553451538086 -218.179473876953 2.623411178589
78.473327636719 -74.138885498047 -219.769500732422 3.035478115082
8.161814689636 -73.848449707031 -219.031173706055 2.447645187378
-10.161334991455 -70.370948791504 -225.211334228516 1.631698608398
79.615821838379 -73.925849914551 -221.336578369141 1.525101184845
-121.407592773438 -74.424751281738 -225.624099731445 2.222580909729
-19.027227401733 -70.513778686523 -223.068984985352 2.001928567886
-96.151428222656 -70.912490844727 -223.927444458008 2.018490314484
-101.518089294434 -71.572067260742 -224.509353637695 1.412284970284
-130.576461791992 -73.098999023438 -229.189788818359 2.140059232712
82.314308166504 -73.476478576660 -222.951324462891 1.832571029663
-122.189025878906 -71.831092834473 -227.748138427734 1.758910059929
5.754311084747 -72.012420654297 -228.524047851563 2.172034502029
82.244476318359 -72.019561767578 -223.760650634766 2.110759258270
-14.704539299011 -73.403533935547 -230.422378540039 1.334719777107
-12.538702011108 -73.144676208496 -227.295669555664 1.145110845566
-0.880144000053 -77.417587280273 -229.726852416992 1.786214351654
11.285975456238 -74.474067687988 -227.160644531250 2.641895771027
89.890632629395 -74.673065185547 -225.782180786133 4.374427795410
11.010676383972 -71.206680297852 -231.159210205078 1.725191235542
6.582099914551 -72.323013305664 -229.219924926758 1.756770610809
-7.982954978943 -73.004928588867 -231.110641479492 1.735169053078
-5.726703166962 -73.317108154297 -229.984313964844 0.921513140202
19.800533294678 -71.546867370605 -232.454284667969 2.908251762390
-11.390507698059 -70.025634765625 -233.115646362305 0.839442014694
72.112426757813 -73.777786254883 -239.200256347656 2.413516998291
-8.036679267883 -70.976898193359 -238.697784423828 1.782303690910
20.066873550415 -73.738029479980 -235.470138549805 0.692341446877
-161.783111572266 -69.531738281250 -241.097946166992 2.011696577072
-4.488534927368 -70.407592773438 -236.940383911133 1.375673651695
