15.130777359009 -71.045211791992 -234.055450439453 0.878552377224
-19.143972396851 -68.410133361816 -230.002731323242 3.056222200394
-167.201675415039 -67.278350830078 -224.691421508789 1.872419714928
-4.361154079437 -70.126266479492 -234.205047607422 1.176175475121
80.551979064941 -68.141754150391 -231.026321411133 2.940445184708
10.702374458313 -72.029106140137 -234.254272460938 2.178613185883
-6.128733158112 -69.416191101074 -235.530853271484 1.485469937325
-157.064987182617 -66.597908020020 -238.805541992188 2.709278821945
-142.557266235352 -67.572090148926 -232.566665649414 1.053127527237
62.374401092529 -69.467262268066 -235.934829711914 1.217686176300
-5.908977985382 -71.058258056641 -234.885177612305 0.509740650654
9.013173103333 -72.312667846680 -231.346939086914 2.578612565994
69.128173828125 -72.983177185059 -230.281555175781 0.935423672199
76.712638854980 -71.260147094727 -234.214889526367 1.949012994766
70.862579345703 -71.858207702637 -241.349227905273 2.164238691330
-1.821192026138 -72.921997070313 -236.438446044922 0.727715134621
57.852790832520 -69.033843994141 -238.043853759766 2.754873514175
-19.219102859497 -72.486900329590 -240.646301269531 1.882359862328
-15.433753013611 -67.730476379395 -241.219757080078 2.527523279190
8.040103912354 -70.116912841797 -239.968032836914 1.592084646225
64.555503845215 -73.857887268066 -237.961166381836 0.950035750866
65.276603698730 -69.254737854004 -240.672180175781 1.832775115967
49.498641967773 -70.731414794922 -246.315872192383 2.529369354248
60.958572387695 -73.711425781250 -242.834869384766 1.845533609390
-15.639486312866 -74.285690307617 -250.555648803711 3.003574609756
-83.611938476563 -66.719764709473 -255.697250366211 3.044856309891
-76.881660461426 -67.358375549316 -254.394683837891 3.338506460190
44.143890380859 -73.204788208008 -248.051086425781 2.811380147934
-149.202774047852 -69.848571777344 -252.888549804688 2.595953702927
35.999134063721 -70.302131652832 -256.554382324219 2.349554300308
-92.122047424316 -72.655487060547 -253.564697265625 2.034204244614
-156.248718261719 -64.983055114746 -256.941436767578 0.857009828091
-140.323303222656 -62.752708435059 -255.374511718750 2.380642890930
45.131824493408 -70.247055053711 -253.745574951172 1.644845962524
-124.951400756836 -65.088409423828 -259.794006347656 0.601082921028
-116.900390625000 -69.208663940430 -257.229522705078 1.701979160309
-92.340789794922 -65.259826660156 -258.670410156250 3.108005285263
-13.747299194336 -66.782615661621 -251.185867309570 2.679601907730
31.877729415894 -69.950218200684 -257.567321777344 1.412909865379
24.989759445190 -67.649368286133 -259.873046875000 1.733676195145
-158.899459838867 -64.204856872559 -262.570404052734 3.353044748306
-114.712928771973 -71.488670349121 -264.551269531250 1.655592083931
-13.874924659729 -69.467193603516 -262.773284912109 1.050424098969
-132.709381103516 -68.473251342773 -267.412963867188 4.048213958740
-14.000382423401 -68.463500976563 -271.123046875000 1.876954793930
-164.738876342773 -67.548027038574 -274.867736816406 2.749589681625
-7.110118865967 -70.574096679688 -280.245086669922 2.503718376160
-160.597824096680 -68.476577758789 -290.114990234375 0.714857459068
-163.691650390625 -70.048591613770 -280.249664306641 1.584518551826
-142.360031127930 -68.564613342285 -287.337554931641 0.807920455933
-169.948486328125 -70.035530090332 -287.082641601563 2.262693643570
14.284391403198 -71.906745910645 -288.543701171875 0.898415327072
-102.921890258789 -69.685653686523 -288.287414550781 2.681214332581
-86.917579650879 -64.810821533203 -287.531585693359 4.054539203644
-167.527236938477 -65.396324157715 -286.932922363281 4.609730243683
-91.839172363281 -72.611999511719 -285.661193847656 2.969397306442
-153.454711914063 -68.664970397949 -290.722320556641 2.818995952606
-75.177711486816 -69.761047363281 -295.083587646484 4.998110771179
-70.377311706543 -68.283493041992 -290.120269775391 2.428996324539
-82.266120910645 -69.823402404785 -292.854827880859 2.335875988007
-3.438401937485 -66.999656677246 -289.646545410156 1.934133529663
-87.780082702637 -68.757690429688 -290.224731445313 1.614832520485
-98.747169494629 -70.057723999023 -292.640808105469 1.965655088425
-116.390182495117 -68.827239990234 -294.543273925781 2.749487876892
-116.287002563477 -65.870574951172 -294.650421142578 3.889845848083
-133.902664184570 -67.740455627441 -294.249298095703 2.854272365570
-142.464340209961 -68.422355651855 -302.941528320313 2.524212121964
-143.792495727539 -69.522964477539 -313.912750244141 3.274910211563
21.512506484985 -70.379989624023 -15.540980339050 3.920534372330
29.956394195557 -71.646072387695 -16.720153808594 1.144809126854
26.987972259521 -74.233993530273 -18.628856658936 2.322848796844
41.846725463867 -70.436630249023 -20.752296447754 1.253392934799
22.697448730469 -71.976707458496 -32.047096252441 0.661504030228
-76.931732177734 -69.173622131348 -48.442802429199 2.982584953308
87.874656677246 -68.024284362793 -65.159179687500 0.593015909195
-19.432180404663 -69.373207092285 -68.333435058594 3.252799749374
100.872367858887 -71.153175354004 -72.427200317383 2.611559629440
93.321044921875 -75.865173339844 -75.265945434570 1.744017720222
66.796218872070 -73.227973937988 -78.400917053223 2.984793186188
68.568710327148 -75.041084289551 -82.522132873535 2.494194030762
-46.364055633545 -73.977645874023 -83.550003051758 1.921325325966
59.470291137695 -75.023590087891 -82.396873474121 5.390071392059
-96.030921936035 -70.608528137207 -89.916656494141 1.563261866570
-50.833953857422 -68.472663879395 -86.353332519531 1.561544775963
-57.560852050781 -77.202919006348 -88.820899963379 3.713572740555
99.438667297363 -77.285202026367 -97.158454895020 3.275198459625
57.620109558105 -74.712997436523 -92.271820068359 1.631220102310
64.306381225586 -70.997467041016 -90.914260864258 2.299309968948
-97.193923950195 -64.847557067871 -98.471038818359 2.295751810074
106.284828186035 -73.471687316895 -92.553924560547 4.686373233795
42.609439849854 -70.139755249023 -99.065292358398 1.746007680893
99.908630371094 -71.684280395508 -97.629379272461 1.205121397972
105.343757629395 -69.865379333496 -105.431266784668 1.381456494331
99.834983825684 -72.205673217773 -104.059432983398 3.536134719849
72.372146606445 -73.865913391113 -100.539489746094 2.443791151047
85.868637084961 -73.770195007324 -106.226882934570 4.082705974579
48.646755218506 -71.132705688477 -111.255233764648 2.246752023697
109.208023071289 -69.841667175293 -102.988731384277 1.751681685448
44.757061004639 -73.913291931152 -105.550056457520 2.887965202332
39.108509063721 -69.519638061523 -101.710678100586 3.120190858841
111.374435424805 -72.308387756348 -109.745529174805 1.438588976860
-79.893630981445 -67.382865905762 -111.026123046875 1.546455383301
44.759613037109 -70.462181091309 -112.955902099609 1.164741516113
33.417045593262 -73.052253723145 -115.287277221680 2.067723751068
104.106796264648 -69.594161987305 -109.534896850586 3.066099643707
38.070907592773 -68.432548522949 -111.639381408691 2.085024595261
-89.401802062988 -69.430412292480 -114.345329284668 1.814136028290
-96.861183166504 -66.860008239746 -116.332695007324 2.655150413513
102.746688842773 -74.852600097656 -118.632530212402 4.426455020905
-96.063735961914 -70.985069274902 -120.183456420898 2.744106769562
37.698715209961 -73.084220886230 -121.445564270020 3.267588853836
35.710262298584 -70.754463195801 -120.937675476074 1.822627544403
-84.630035400391 -69.339591979980 -125.620254516602 1.762916445732
31.307416915894 -69.090171813965 -134.888519287109 1.389651894569
109.705413818359 -72.997436523438 -130.628097534180 0.192349568009
-53.713321685791 -69.593536376953 -137.127731323242 3.150252819061
-89.361671447754 -68.390380859375 -133.079666137695 2.120729684830
36.778999328613 -74.122909545898 -131.835968017578 2.026909589767
-90.137336730957 -65.296157836914 -137.295578002930 1.293574571609
-89.958564758301 -71.474761962891 -141.081726074219 4.038639068604
-50.742572784424 -71.046730041504 -137.855026245117 2.157839298248
-71.872154235840 -67.795715332031 -140.762252807617 1.222303867340
-51.794025421143 -68.944694519043 -134.504577636719 2.301406145096
114.377311706543 -69.047157287598 -136.877532958984 1.828172802925
-74.304725646973 -71.001777648926 -138.095397949219 1.865131974220
35.386623382568 -71.211975097656 -131.463256835938 1.293592095375
-79.707405090332 -68.420997619629 -141.464691162109 2.202591896057
-74.400871276855 -69.279205322266 -137.035140991211 1.606903910637
-92.390594482422 -67.345527648926 -141.585983276367 2.595302343369
-54.800884246826 -67.586853027344 -148.103942871094 1.137015581131
30.507429122925 -66.843406677246 -145.970886230469 1.921541929245
26.615467071533 -68.842277526855 -149.765762329102 0.947230994701
18.206907272339 -65.962959289551 -144.645416259766 1.266390919685
111.862747192383 -70.871765136719 -145.671417236328 2.339901447296
-94.375991821289 -67.648872375488 -153.953216552734 2.178079128265
12.095561027527 -71.804977416992 -152.816757202148 1.088750600815
-72.799224853516 -68.783103942871 -154.575729370117 2.329508304596
22.560403823853 -69.513038635254 -150.062606811523 2.060230970383
-50.003337860107 -68.529876708984 -156.445404052734 2.374220132828
8.701730728149 -68.901458740234 -153.681625366211 1.921176314354
14.261380195618 -72.545944213867 -158.805252075195 1.791223287582
16.993026733398 -74.336082458496 -164.287445068359 2.096943855286
-49.700870513916 -71.360534667969 -163.600952148438 2.856725931168
-40.030925750732 -68.684165954590 -155.770065307617 1.330310225487
-47.167888641357 -69.826614379883 -162.044998168945 0.211367636919
-104.358253479004 -69.230201721191 -173.525619506836 2.156708478928
21.075237274170 -71.109848022461 -174.377273559570 1.882286548615
-35.396656036377 -69.188316345215 -176.852294921875 1.178229093552
14.798060417175 -73.560279846191 -178.723922729492 2.198014736176
-144.266647338867 -68.262359619141 -177.727172851563 1.331284284592
-32.880435943604 -66.589027404785 -173.661239624023 1.842557430267
-155.669738769531 -72.535118103027 -179.957183837891 3.958922147751
22.885494232178 -65.881622314453 -182.089462280273 3.843632221222
-33.620113372803 -70.464744567871 -172.364044189453 1.517949700356
-108.278854370117 -66.990562438965 -179.300918579102 2.280230998993
-107.715873718262 -72.560943603516 -185.185333251953 3.805881500244
-30.507293701172 -65.102554321289 -186.032379150391 4.029031276703
-24.236995697021 -73.312011718750 -182.589096069336 2.187048435211
13.477609634399 -68.842185974121 -189.684677124023 2.974484443665
16.566232681274 -67.374328613281 -197.583999633789 1.957089781761
13.329735755920 -69.686050415039 -187.374481201172 2.626337528229
-143.374710083008 -67.130950927734 -189.445724487305 2.308903932571
21.098236083984 -66.508491516113 -190.254272460938 3.164650678635
7.118884086609 -69.462181091309 -197.225234985352 1.696445703506
-137.533462524414 -66.668067932129 -196.347625732422 3.590142250061
-114.777275085449 -68.001800537109 -197.113571166992 0.611837804317
14.520019531250 -68.055458068848 -201.587463378906 0.955563962460
-116.777603149414 -67.235855102539 -198.504608154297 2.991522789001
-108.205917358398 -63.843597412109 -193.768951416016 3.088079214096
-165.730285644531 -69.040275573730 -202.329223632813 0.199765235186
-24.699840545654 -68.216812133789 -200.816940307617 1.442342042923
12.519790649414 -68.146469116211 -200.670501708984 0.855426311493
-143.340316772461 -68.197631835938 -205.957763671875 1.769751667976
-136.132812500000 -69.819953918457 -208.305419921875 4.656211376190
-20.417707443237 -67.546234130859 -208.051528930664 1.831027030945
-12.270227432251 -70.342147827148 -205.246047973633 0.519096970558
-15.123912811279 -69.838325500488 -206.671951293945 1.960841655731
-141.192138671875 -71.141067504883 -206.454040527344 3.535545587540
-16.803071975708 -69.465629577637 -213.651123046875 1.075260877609
-10.757110595703 -72.765327453613 -215.001220703125 3.319138526917
17.288608551025 -67.058921813965 -211.382049560547 1.759352445602
-15.168638229370 -72.446556091309 -212.251098632813 0.877905368805
10.194669723511 -69.711456298828 -210.529037475586 1.424457192421
-10.627248764038 -70.066009521484 -216.294418334961 2.268399000168
-21.244689941406 -66.624641418457 -212.751998901367 4.983418464661
12.462478637695 -73.675239562988 -221.496490478516 2.441929340363
-1.799777030945 -73.974205017090 -220.430786132813 1.307426095009
11.068623542786 -66.049552917480 -221.638595581055 1.537134647369
-6.161565780640 -71.088424682617 -227.561004638672 0.613966822624
-158.907394409180 -68.222373962402 -227.534408569336 1.948536038399
80.634246826172 -72.292160034180 -219.909744262695 2.186565637589
-135.357894897461 -66.040344238281 -226.335327148438 1.743195652962
-135.171371459961 -69.503738403320 -225.152954101563 1.421966195107
-8.529169082642 -69.862258911133 -225.931900024414 2.451922655106
8.534261703491 -69.067840576172 -234.351745605469 2.108988523483
-156.954635620117 -67.272087097168 -231.768646240234 2.183947086334
87.878601074219 -68.863746643066 -219.710815429688 2.085565805435
-2.250416040421 -68.060371398926 -226.368713378906 1.517918109894
0.487592011690 -69.936164855957 -223.592453002930 1.831547141075
73.924537658691 -72.490547180176 -229.245605468750 1.133494615555
0.637907028198 -67.011039733887 -235.455184936523 1.277912259102
-14.824220657349 -70.921905517578 -227.933181762695 2.483802556992
-126.492141723633 -66.337234497070 -236.227188110352 2.278841018677
-4.245262145996 -68.821342468262 -237.552581787109 2.516674041748
2.450041055679 -67.079841613770 -232.548629760742 0.892337143421
66.079620361328 -67.949302673340 -238.214187622070 1.254924178123
-158.207153320313 -68.713989257813 -240.529907226563 2.107003688812
-12.385714530945 -68.398536682129 -245.451538085938 1.908871054649
-169.057754516602 -69.608581542969 -241.231353759766 2.535189390182
9.957315444946 -66.539413452148 -242.580383300781 2.221576452255
-164.529434204102 -68.163307189941 -241.344497680664 1.337857007980
-160.649505615234 -68.734375000000 -248.427932739258 1.410405039787
57.134014129639 -69.536300659180 -245.300903320313 1.063927888870
62.334232330322 -70.994262695313 -242.683761596680 1.321277141571
56.243206024170 -70.127944946289 -244.564453125000 1.499662518501
51.882457733154 -69.442092895508 -249.056686401367 0.658503055573
-155.346298217773 -68.212768554688 -246.315002441406 1.809274673462
-156.345443725586 -65.135810852051 -250.727722167969 4.024687767029
-13.229216575623 -71.641304016113 -250.229660034180 1.033804059029
-151.257629394531 -67.092887878418 -248.974349975586 2.180908679962
19.796150207520 -70.573547363281 -251.674911499023 2.171722173691
-169.604690551758 -71.761177062988 -253.564544677734 2.038118362427
-167.462432861328 -65.701347351074 -250.745880126953 2.743780851364
-82.012893676758 -69.568954467773 -250.441696166992 1.838476777077
-169.195404052734 -66.804611206055 -262.271179199219 2.573120355606
-85.181350708008 -67.672538757324 -258.292907714844 3.453766107559
42.705249786377 -68.561103820801 -253.450897216797 1.739582657814
22.427200317383 -72.405059814453 -256.754028320313 0.926690578461
-158.426391601563 -68.049110412598 -264.229522705078 1.481946110725
-100.550765991211 -62.533382415771 -261.319183349609 3.309190511703
39.436714172363 -69.552238464355 -256.037475585938 1.351645588875
-104.674499511719 -73.952857971191 -260.911895751953 2.162886381149
-153.782089233398 -63.143573760986 -267.209442138672 3.220846891403
-104.976921081543 -66.823242187500 -260.292877197266 3.027904510498
-167.638168334961 -69.097152709961 -262.130676269531 0.561042189598
-112.861396789551 -68.758140563965 -265.238464355469 4.521016120911
-153.021270751953 -69.358779907227 -268.093780517578 2.057537794113
-158.295196533203 -65.751258850098 -265.923583984375 3.385285377502
-165.783615112305 -66.584777832031 -266.216613769531 2.417773246765
-163.809814453125 -65.588165283203 -264.734954833984 3.284378767014
-165.434387207031 -67.212783813477 -268.180023193359 1.168900489807
-165.469375610352 -67.834930419922 -265.167205810547 2.351271629333
26.044170379639 -70.353218078613 -265.713317871094 1.095024466515
-149.607406616211 -70.588256835938 -265.996063232422 2.778812170029
-149.322799682617 -66.774993896484 -286.498168945313 1.174271583557
25.099351882935 -69.869407653809 -276.885528564453 3.246334552765
-11.322154045105 -70.316078186035 -275.316040039063 2.199378013611
-125.339431762695 -66.208930969238 -286.439270019531 0.892745614052
-135.886840820313 -68.290161132813 -288.256713867188 1.103567719460
-133.958038330078 -66.358741760254 -290.651214599609 1.012696981430
-126.391403198242 -68.007186889648 -287.977081298828 1.203264474869
-113.845893859863 -66.387786865234 -291.824035644531 1.586869716644
-104.836860656738 -64.347602844238 -287.367095947266 3.404619216919
9.796342849731 -71.499481201172 -293.097290039063 3.756372690201
-84.509216308594 -68.518318176270 -291.578521728516 2.440872430801
-148.636672973633 -67.837516784668 -290.649200439453 0.590046882629
-101.213783264160 -67.830497741699 -292.537994384766 2.522258043289
-128.722854614258 -64.953559875488 -293.960632324219 2.352025270462
10.051966667175 -71.243530273438 -288.811981201172 2.423895597458
-111.509170532227 -62.591972351074 -290.959655761719 5.117160797119
3.420744895935 -68.924591064453 -293.862487792969 1.579614043236
-142.717468261719 -66.818016052246 -291.034576416016 1.451162457466
-152.425964355469 -67.626144409180 -298.300384521484 2.487756013870
-157.287765502930 -66.486022949219 -316.531341552734 5.997456550598
-154.516860961914 -66.138481140137 -314.186676025391 2.779263257980
45.684146881104 -73.811637878418 -24.794311523438 2.278101444244
21.264028549194 -71.540290832520 -35.864665985107 1.601083993912
28.772592544556 -72.493583679199 -36.921012878418 1.589443206787
-46.842170715332 -72.475982666016 -48.571491241455 2.968194723129
-14.484074592590 -68.803329467773 -62.947231292725 1.341737508774
92.546646118164 -72.706413269043 -68.061225891113 2.239001035690
66.957420349121 -67.289390563965 -69.468757629395 2.492556810379
-25.898410797119 -70.257408142090 -75.260498046875 1.989588379860
-99.644241333008 -73.238265991211 -88.019599914551 4.557089805603
-44.129760742188 -70.087211608887 -83.595397949219 2.451693058014
59.901023864746 -70.343086242676 -81.417152404785 2.949254989624
60.591163635254 -73.352386474609 -85.953247070313 1.912467360497
51.901668548584 -68.697296142578 -87.610794067383 0.796548366547
-60.458442687988 -68.630722045898 -91.487586975098 1.404855132103
65.261993408203 -67.305923461914 -89.181449890137 1.639973998070
42.149753570557 -73.783966064453 -98.070945739746 2.791166543961
66.930976867676 -72.505081176758 -94.596572875977 4.381523132324
-63.761283874512 -67.811645507813 -97.222908020020 2.748948097229
48.583889007568 -72.571228027344 -93.286659240723 1.513251304626
44.177883148193 -72.239494323730 -98.534553527832 1.736556410789
101.877517700195 -68.479156494141 -100.051300048828 0.762661337852
-67.979469299316 -69.399147033691 -100.124725341797 0.450183182955
109.117080688477 -70.648590087891 -99.810455322266 2.046698808670
-80.503227233887 -71.321334838867 -102.502632141113 1.842796087265
53.047088623047 -73.153640747070 -105.032035827637 2.656833410263
46.542045593262 -68.879394531250 -100.780006408691 1.649738907814
90.399978637695 -69.242218017578 -103.433547973633 1.718969702721
83.089935302734 -69.388328552246 -106.333374023438 2.186307907104
53.368194580078 -70.497390747070 -104.561874389648 1.012679696083
-77.666755676270 -69.788307189941 -112.406707763672 0.665478169918
-78.133979797363 -68.368942260742 -116.252342224121 1.217063307762
-81.678337097168 -70.241554260254 -119.713142395020 1.782029986382
-94.507011413574 -73.526657104492 -119.995864868164 2.462518692017
103.617103576660 -65.995536804199 -115.937408447266 3.167876720428
-89.687095642090 -71.236305236816 -120.466430664063 2.653721332550
-77.907287597656 -65.532600402832 -122.528472900391 1.278368473053
108.234046936035 -69.734184265137 -115.454864501953 1.845389962196
-62.820732116699 -62.001014709473 -119.130905151367 0.332308590412
112.531669616699 -74.046363830566 -130.843383789063 1.051505923271
108.860931396484 -72.112335205078 -128.844345092773 2.162602901459
106.062156677246 -71.770278930664 -125.250335693359 3.068919897079
-94.527069091797 -69.119735717773 -139.242645263672 2.140873193741
-48.068099975586 -69.002944946289 -142.786590576172 1.419042944908
-80.133956909180 -66.747116088867 -145.778656005859 4.992911338806
-70.284240722656 -68.761291503906 -150.191101074219 0.650145590305
-71.219253540039 -67.403640747070 -149.145065307617 1.377436876297
-56.171749114990 -68.299560546875 -144.685256958008 0.623353064060
-47.962894439697 -72.618286132813 -147.015625000000 2.792306900024
15.401246070862 -69.676269531250 -146.732421875000 2.583555221558
-95.138847351074 -65.646545410156 -144.312576293945 0.465381592512
-46.674068450928 -67.616935729980 -148.224884033203 1.727674007416
-53.076595306396 -63.179454803467 -148.635391235352 5.109664440155
-42.978488922119 -67.190231323242 -155.757919311523 1.491177439690
26.685405731201 -71.611122131348 -162.122085571289 2.303864955902
-50.974063873291 -69.215644836426 -151.987045288086 1.582373380661
-101.344581604004 -64.511138916016 -150.944122314453 1.591388225555
-46.182548522949 -66.102233886719 -157.739486694336 3.814634561539
24.730978012085 -71.540229797363 -148.421051025391 1.459014177322
-99.383316040039 -73.004791259766 -164.574050903320 5.086322307587
21.833810806274 -71.491500854492 -157.944778442383 2.648567914963
-108.368125915527 -65.528564453125 -171.415924072266 3.207721233368
-101.872558593750 -68.528610229492 -165.204147338867 1.206905722618
21.410062789917 -69.258781433105 -165.205810546875 1.839305400848
25.445388793945 -67.780151367188 -168.062225341797 1.117646694183
-109.022415161133 -70.140563964844 -175.276779174805 2.404814481735
-142.751205444336 -65.762863159180 -176.547454833984 1.505504131317
-20.346782684326 -69.138282775879 -190.098876953125 2.202780008316
-28.010732650757 -67.973983764648 -182.462280273438 1.586074948311
-115.874870300293 -69.028404235840 -188.696014404297 2.505559206009
-144.280410766602 -63.324611663818 -188.986938476563 1.302025556564
-103.971809387207 -65.433685302734 -183.179000854492 2.227089405060
-158.505767822266 -67.557655334473 -192.690078735352 1.752563476563
-131.708450317383 -71.617980957031 -197.173202514648 1.823879599571
-133.656539916992 -69.433219909668 -198.124679565430 2.064448833466
-20.325037002563 -67.078147888184 -190.124710083008 2.259948492050
-120.734085083008 -68.226348876953 -199.788970947266 2.854522228241
-117.367042541504 -64.500267028809 -200.703659057617 0.497205346823
-27.385438919067 -70.501792907715 -195.388900756836 1.058928966522
-154.708038330078 -65.043434143066 -200.011611938477 1.906365275383
-132.567962646484 -69.256393432617 -206.786834716797 2.706536054611
-125.241996765137 -65.490219116211 -206.344863891602 2.023243427277
17.735322952271 -70.904243469238 -202.189987182617 1.394094228745
-162.329299926758 -66.645355224609 -205.420410156250 2.548768281937
11.003600120544 -67.827445983887 -215.684524536133 1.002025604248
13.689474105835 -69.818969726563 -215.087844848633 1.239042639732
-17.270820617676 -65.169532775879 -209.703536987305 4.137261390686
-5.252940177917 -68.746025085449 -216.975097656250 1.881125450134
-170.268905639648 -64.501213073730 -212.640258789063 6.423903465271
-159.297851562500 -63.824657440186 -215.141967773438 3.911080360413
-94.891571044922 -67.471923828125 -220.025939941406 2.505877733231
-98.776039123535 -69.084251403809 -224.402267456055 1.285675764084
-161.071487426758 -67.388473510742 -227.438415527344 2.067019701004
-106.652915954590 -65.782295227051 -220.985977172852 1.982722759247
-12.297040939331 -67.005119323730 -214.863433837891 0.632445394993
-127.603752136230 -68.876708984375 -224.267501831055 1.652004241943
-142.253082275391 -67.782348632813 -226.159011840820 1.209198355675
-3.301863908768 -69.975341796875 -221.919982910156 1.422883629799
-134.413238525391 -65.663719177246 -226.776565551758 1.517897486687
-123.923202514648 -71.135635375977 -225.149917602539 1.673582315445
-114.486778259277 -69.382347106934 -226.580566406250 0.833995759487
0.279177010059 -63.957267761230 -228.655181884766 3.938009023666
-107.314086914063 -65.967025756836 -232.406738281250 2.888774394989
-160.543731689453 -61.939239501953 -225.187088012695 3.449306488037
-146.762542724609 -66.165138244629 -228.928588867188 1.304516911507
-165.528472900391 -66.311820983887 -227.504699707031 1.571774482727
-8.051282882690 -67.951713562012 -227.347793579102 2.943538188934
-8.467190742493 -68.542167663574 -233.242858886719 1.937802910805
78.295364379883 -71.469047546387 -225.261352539063 0.733087599277
-0.224611997604 -70.369369506836 -230.100051879883 1.705097913742
-142.988159179688 -66.794258117676 -238.319320678711 2.823603153229
-14.317131996155 -66.840110778809 -229.897140502930 2.795325279236
73.965286254883 -69.574989318848 -227.852798461914 1.684670925140
74.616188049316 -69.635757446289 -232.898605346680 2.304271697998
-134.616271972656 -65.730789184570 -234.494750976563 0.572964012623
-157.502182006836 -69.319305419922 -230.737472534180 1.613124728203
-114.230094909668 -65.999404907227 -234.755737304688 2.371979713440
-124.698852539063 -63.106899261475 -237.554687500000 3.396589756012
-163.708908081055 -65.509857177734 -237.221954345703 1.912335515022
-160.115905761719 -67.146194458008 -238.035858154297 1.593133926392
-146.730117797852 -63.428176879883 -236.316619873047 0.474712431431
-12.775259017944 -67.342849731445 -236.049499511719 2.447091579437
-5.171953201294 -67.707702636719 -241.104858398438 2.906706094742
-160.675994873047 -65.257759094238 -243.003479003906 2.631945133209
5.459063053131 -69.313346862793 -238.720840454102 2.257436275482
2.821784973145 -69.167732238770 -237.208267211914 1.744938015938
-160.073654174805 -66.441970825195 -241.163116455078 1.453209757805
16.788400650024 -72.240997314453 -242.686401367188 2.350238323212
50.824245452881 -71.149688720703 -245.423751831055 1.763411641121
50.614814758301 -71.105621337891 -244.460205078125 0.848577976227
-15.915820121765 -69.206871032715 -247.707260131836 2.478191614151
48.304302215576 -67.693611145020 -249.223144531250 0.157725960016
-161.384475708008 -63.571315765381 -252.437118530273 5.733686923981
-159.078811645508 -66.867408752441 -249.798828125000 1.565867900848
-160.474441528320 -69.985542297363 -251.921295166016 1.241116762161
54.777412414551 -68.684837341309 -248.718978881836 2.077990055084
-92.141296386719 -66.189956665039 -254.371780395508 2.014116048813
-124.803970336914 -66.147583007813 -256.319061279297 1.274687767029
-105.845031738281 -71.053756713867 -255.433944702148 2.046450853348
26.619913101196 -72.133682250977 -257.778930664063 3.385275840759
41.338657379150 -66.840484619141 -251.295013427734 1.589393496513
-100.731292724609 -64.719848632813 -256.573822021484 2.605493307114
-93.608947753906 -63.368705749512 -253.187332153320 3.580062389374
45.428176879883 -72.412956237793 -254.632415771484 2.002641439438
42.276565551758 -67.165679931641 -256.826141357422 0.963748157024
-154.900848388672 -71.130912780762 -260.247924804688 1.945132017136
30.499654769897 -68.536483764648 -259.502075195313 1.767219185829
-142.836822509766 -69.471336364746 -266.452911376953 2.270306825638
-113.415519714355 -66.521697998047 -264.201965332031 2.788938999176
-136.971038818359 -65.668357849121 -264.570587158203 2.922364234924
31.299156188965 -68.217582702637 -263.004028320313 1.965634584427
-126.137039184570 -65.638137817383 -265.424530029297 0.768045902252
-11.261763572693 -66.930877685547 -258.798431396484 2.164439678192
21.623991012573 -71.385772705078 -271.399475097656 2.955695867538
-5.705585002899 -72.132064819336 -265.987854003906 4.883491992950
19.894556045532 -70.209922790527 -280.257202148438 2.245790243149
-153.118988037109 -68.173034667969 -284.661010742188 1.740171313286
-10.791486740112 -66.706611633301 -281.290008544922 2.079248189926
-152.986801147461 -69.770881652832 -284.738677978516 1.051863431931
-123.630439758301 -68.338142395020 -286.880920410156 0.736995995045
-160.349075317383 -71.947349548340 -288.581573486328 1.084710001945
-114.553306579590 -66.673774719238 -288.821716308594 1.884171843529
-104.244445800781 -67.135345458984 -291.188812255859 3.563416719437
-6.786025047302 -66.482131958008 -285.866851806641 2.106003999710
-108.125801086426 -68.091857910156 -290.890075683594 1.194767951965
-116.310020446777 -64.613998413086 -286.926391601563 3.701950073242
-120.023765563965 -63.768066406250 -293.370666503906 3.883906602859
-137.849365234375 -66.262092590332 -291.793365478516 1.566046595573
-125.993904113770 -64.342964172363 -293.330902099609 3.281554222107
-157.535186767578 -70.634407043457 -292.138244628906 1.468256473541
-146.602752685547 -64.586013793945 -294.834411621094 1.059992909431
-156.168289184570 -63.942211151123 -303.910003662109 5.191778182983
-153.749832153320 -64.538642883301 -313.159576416016 2.393290042877
-158.004882812500 -64.753593444824 -303.232635498047 5.513391494751
-141.368362426758 -67.229110717773 -312.606079101563 4.316022872925
-149.143173217773 -67.395011901855 -315.911834716797 3.807427167892
33.219120025635 -71.997390747070 -8.928537368774 4.286047458649
44.644752502441 -75.086456298828 -16.302801132202 3.372882843018
22.091688156128 -67.952575683594 -23.553234100342 3.561437368393
48.412693023682 -71.887802124023 -27.178176879883 0.703507602215
26.199201583862 -73.267173767090 -34.374015808105 2.087977647781
30.910360336304 -72.188575744629 -34.558628082275 1.666615605354
-59.470199584961 -65.895866394043 -48.273334503174 3.625715494156
78.241348266602 -67.439117431641 -60.618679046631 2.203923225403
79.537384033203 -71.952095031738 -66.321441650391 1.840771079063
-91.995697021484 -70.053688049316 -63.585720062256 2.267810583115
-14.242517471313 -67.536552429199 -61.856170654297 0.435749948025
-94.026153564453 -70.847526550293 -71.349624633789 1.573892474174
94.861381530762 -72.983291625977 -68.006309509277 2.763980627060
-15.267734527588 -66.988838195801 -68.370178222656 1.886628389359
66.155120849609 -73.150291442871 -78.393745422363 3.446001052856
-43.427986145020 -73.504882812500 -80.016921997070 2.542958021164
-28.717704772949 -73.142478942871 -76.377502441406 1.387059926987
54.864692687988 -67.226951599121 -85.858451843262 1.082942485809
-45.554092407227 -79.250488281250 -85.235626220703 2.598083734512
63.546989440918 -63.416763305664 -86.493576049805 0.984776437283
51.504058837891 -74.289741516113 -89.465820312500 2.111453771591
52.350410461426 -70.396759033203 -93.367004394531 1.283037900925
58.188808441162 -74.747535705566 -90.475852966309 2.406014442444
55.566677093506 -67.472663879395 -95.364685058594 2.770617246628
98.478157043457 -67.913993835449 -96.893157958984 1.006362915039
104.733688354492 -66.829284667969 -97.708328247070 0.708596408367
58.502235412598 -72.703857421875 -99.565528869629 2.684442043304
105.674964904785 -66.857284545898 -98.598251342773 1.352910876274
-78.186294555664 -68.359260559082 -100.251838684082 1.164554715157
-73.909706115723 -68.284843444824 -102.969879150391 2.107226610184
99.054504394531 -67.634552001953 -97.636245727539 0.526848256588
51.971130371094 -70.700569152832 -100.505569458008 2.887558221817
69.130447387695 -71.675384521484 -98.175773620605 1.473557233810
-73.676940917969 -68.767295837402 -108.315422058105 1.215548872948
-86.324943542480 -67.254623413086 -108.270912170410 2.312782287598
87.915672302246 -73.143417358398 -103.647239685059 2.413656711578
38.961544036865 -71.037223815918 -104.063423156738 1.543773293495
103.656890869141 -67.265144348145 -104.914939880371 0.792152285576
45.385299682617 -71.961135864258 -113.233352661133 2.233427047729
108.855804443359 -70.736312866211 -102.600456237793 1.949845790863
-79.858551025391 -68.027816772461 -112.057723999023 1.812621831894
103.363059997559 -66.444831848145 -107.638687133789 2.145784616470
-85.342208862305 -65.997482299805 -122.232254028320 1.942018270493
-59.596969604492 -70.707283020020 -129.321319580078 0.726830780506
-56.946498870850 -67.577751159668 -125.605979919434 1.249145746231
-73.499000549316 -69.630393981934 -130.876205444336 1.340643763542
-51.981403350830 -69.819801330566 -131.650238037109 1.304160475731
-85.044883728027 -69.698715209961 -133.965347290039 1.405508399010
-78.473754882813 -65.287544250488 -133.980773925781 1.542953014374
-81.609138488770 -68.284835815430 -131.963226318359 1.194389462471
-61.179779052734 -72.631225585938 -142.363662719727 3.313232898712
-72.547286987305 -67.946731567383 -141.572387695313 0.847833812237
-61.041099548340 -71.485099792480 -135.925521850586 2.565955877304
-59.530090332031 -68.593254089355 -142.630371093750 1.070067286491
15.844333648682 -65.706977844238 -143.787155151367 1.202729344368
-91.937904357910 -68.384994506836 -143.338317871094 2.254672288895
-48.613693237305 -71.948455810547 -147.382003784180 2.689520835876
-97.355552673340 -66.063430786133 -150.906509399414 2.828611373901
-101.770408630371 -65.575790405273 -150.456726074219 1.861953139305
18.252840042114 -70.769241333008 -153.770080566406 1.969223260880
13.200716018677 -70.111160278320 -158.185546875000 0.666143774986
-96.677963256836 -69.353118896484 -160.940734863281 2.293133497238
-104.373802185059 -67.847564697266 -155.482727050781 3.303706645966
-101.122879028320 -66.465270996094 -169.626358032227 1.454397559166
21.300638198853 -68.118171691895 -169.824340820313 1.519982933998
-111.243156433105 -67.190704345703 -174.115371704102 2.333508968353
21.887914657593 -68.941879272461 -166.402694702148 1.492774367332
-148.316101074219 -67.158485412598 -178.340438842773 2.710202455521
17.112096786499 -68.430152893066 -176.423461914063 1.046499133110
23.511301040649 -69.321899414063 -185.835159301758 1.641837000847
-152.940689086914 -65.608459472656 -188.469406127930 1.537716507912
20.681390762329 -69.439781188965 -176.370010375977 0.650326132774
18.473134994507 -63.284473419189 -180.361129760742 3.396885871887
-144.345489501953 -70.392265319824 -186.610656738281 1.890188217163
-152.457412719727 -64.578933715820 -191.107818603516 3.886940717697
19.293762207031 -68.598289489746 -188.323989868164 2.249741315842
17.846735000610 -70.159355163574 -189.843002319336 1.990588784218
-142.749816894531 -68.785621643066 -195.597747802734 1.558462858200
-109.573654174805 -67.598007202148 -199.151672363281 2.597152233124
23.338817596436 -69.002876281738 -198.460723876953 3.004153490067
-125.417076110840 -66.910575866699 -196.440826416016 2.549110174179
10.121202468872 -70.365356445313 -200.034439086914 1.738783955574
-130.719665527344 -62.314960479736 -196.033004760742 1.417559266090
-160.016815185547 -64.606674194336 -192.669692993164 4.564103126526
-162.048049926758 -66.081825256348 -198.803405761719 1.112055897713
-159.376052856445 -67.675735473633 -197.138763427734 2.293643712997
-20.690277099609 -67.952125549316 -205.055953979492 2.020450353622
-168.168457031250 -68.701515197754 -201.751754760742 1.816790342331
-27.059087753296 -65.051834106445 -193.198043823242 3.770542860031
-16.069782257080 -69.345016479492 -196.334182739258 0.639355957508
9.236310005188 -64.016555786133 -195.751220703125 5.120616436005
-158.316024780273 -66.620040893555 -205.934783935547 2.489398717880
-108.645149230957 -65.963348388672 -203.706314086914 2.631581783295
-18.015676498413 -65.133468627930 -202.076004028320 3.352507591248
-160.665130615234 -62.628162384033 -203.748367309570 3.778477191925
16.189104080200 -68.515174865723 -201.585998535156 0.968846917152
-169.311401367188 -64.532913208008 -207.204879760742 3.827566146851
-121.291297912598 -69.211914062500 -204.459350585938 1.950017690659
-115.878807067871 -64.437858581543 -208.853881835938 5.243531227112
-123.504241943359 -66.048553466797 -205.936111450195 0.861598432064
-15.346383094788 -67.171920776367 -204.031204223633 1.778244256973
-17.896675109863 -68.197113037109 -204.954544067383 1.993782401085
-164.769729614258 -65.771911621094 -212.910369873047 2.016502141953
-160.520233154297 -64.574699401855 -214.543670654297 3.846647024155
-165.228118896484 -66.711219787598 -221.737457275391 0.653563141823
-141.808929443359 -68.527427673340 -216.080841064453 2.560693025589
-145.123306274414 -66.607551574707 -225.852600097656 2.404305696487
-3.339411973953 -66.317237854004 -220.267456054688 2.774641513824
-10.001964569092 -71.227958679199 -217.356063842773 1.957518815994
-100.352607727051 -65.406852722168 -222.288467407227 2.227535009384
-7.047605037689 -66.346748352051 -232.508911132813 1.884097576141
-167.358062744141 -63.870864868164 -231.229797363281 4.544736862183
-107.027320861816 -64.723144531250 -233.841918945313 4.638227462769
1.096454024315 -67.878082275391 -226.911956787109 1.759909033775
2.555502891541 -66.799636840820 -230.118545532227 1.130385875702
-112.055831909180 -67.240684509277 -234.660827636719 3.165765762329
-1.770141959190 -68.477973937988 -229.092224121094 1.730183362961
-117.944107055664 -63.954792022705 -235.931976318359 2.946859359741
-7.961855888367 -64.945213317871 -233.490707397461 2.792160034180
-2.421176910400 -66.643470764160 -235.186477661133 1.522749781609
-1.774835944176 -67.290733337402 -237.969482421875 1.360675334930
71.473503112793 -65.659912109375 -235.850524902344 2.450790643692
-10.971305847168 -70.366981506348 -238.033935546875 1.837164402008
7.164752006531 -68.326202392578 -237.418472290039 2.326031446457
10.989253044128 -66.866615295410 -239.252075195313 1.595305800438
5.262431144714 -68.340087890625 -239.057006835938 1.951721072197
2.412177085876 -69.047103881836 -241.373474121094 1.151265978813
64.034835815430 -64.398811340332 -238.037185668945 2.151994466782
68.834503173828 -65.492958068848 -239.661758422852 3.468498229980
8.264557838440 -67.397453308105 -247.079513549805 2.502646446228
53.911029815674 -69.043655395508 -241.845870971680 2.874179840088
55.400199890137 -71.662879943848 -240.315505981445 2.025585412979
46.951168060303 -64.933982849121 -249.039489746094 0.957318186760
41.294063568115 -65.835838317871 -251.035827636719 1.747767686844
40.733039855957 -66.751708984375 -256.175170898438 1.940860152245
-131.832183837891 -62.469730377197 -259.638610839844 2.604944467545
-10.439914703369 -66.917938232422 -250.398605346680 1.902293324471
28.401826858521 -66.502601623535 -257.949981689453 1.860862255096
44.970481872559 -67.069618225098 -247.800033569336 2.393655538559
27.333972930908 -69.976493835449 -253.827453613281 2.806609392166
-102.901336669922 -67.923645019531 -260.237487792969 2.384872436523
31.234909057617 -68.474891662598 -256.138671875000 1.804240942001
-147.138580322266 -67.823394775391 -262.938323974609 2.731780767441
-116.416023254395 -67.653053283691 -258.478637695313 0.707103610039
-108.858024597168 -66.157562255859 -259.431823730469 2.145466089249
-3.568645954132 -69.244964599609 -259.334259033203 4.177372455597
-150.487030029297 -67.211929321289 -259.379821777344 2.066803693771
35.310535430908 -67.405113220215 -261.662597656250 2.094997644424
-109.788887023926 -65.086433410645 -258.188873291016 2.595115900040
26.140823364258 -70.786369323730 -259.170379638672 1.758760094643
-134.950836181641 -67.610321044922 -264.633789062500 0.519282102585
-116.477218627930 -65.260833740234 -265.650909423828 1.775473833084
-109.554916381836 -65.600288391113 -262.849700927734 2.218382358551
-115.039817810059 -70.214126586914 -263.125061035156 1.685121893883
-140.065963745117 -67.438293457031 -259.772949218750 2.055849552155
28.992938995361 -68.010437011719 -260.089660644531 1.764402031898
-117.363983154297 -64.886940002441 -264.635406494141 1.900299429893
-144.346481323242 -67.409492492676 -265.475982666016 1.426816701889
-4.981351852417 -65.216377258301 -271.032073974609 2.505528450012
-150.617462158203 -67.972908020020 -283.201324462891 2.216151475906
-8.131868362427 -67.584403991699 -286.591186523438 1.387662291527
-5.173803806305 -64.855003356934 -283.188507080078 1.851670384407
-134.104064941406 -65.496383666992 -289.559448242188 1.370884180069
-127.307815551758 -66.132049560547 -292.222015380859 1.344819664955
-135.402313232422 -65.612129211426 -295.842803955078 4.943514347076
-126.321769714355 -64.639434814453 -293.535339355469 2.911835432053
-154.577636718750 -66.009452819824 -296.567077636719 3.120367527008
-155.816024780273 -65.787384033203 -302.300994873047 2.967520713806
-147.542648315430 -68.591011047363 -303.021118164063 2.320566892624
-149.415969848633 -66.195411682129 -305.374328613281 2.760510444641
-144.770965576172 -65.485702514648 -301.083068847656 3.525026082993
-149.104293823242 -64.698326110840 -306.249328613281 3.468570947647
-145.749328613281 -63.290256500244 -316.796630859375 6.249258041382
17.269712448120 -73.013397216797 -27.530019760132 3.323031902313
47.259632110596 -73.104484558105 -35.581947326660 1.604836702347
23.366254806519 -75.531761169434 -37.753395080566 4.340937137604
30.458427429199 -71.140502929688 -42.444362640381 1.593443989754
-44.487499237061 -63.891078948975 -48.586250305176 2.483948230743
-78.453933715820 -66.563461303711 -51.630229949951 3.957854986191
78.580360412598 -69.001594543457 -60.857601165771 2.407348155975
72.756225585938 -70.375114440918 -61.745357513428 4.356485366821
69.794952392578 -71.349014282227 -65.745635986328 4.181851863861
-101.021163940430 -67.794509887695 -74.095611572266 5.063255310059
97.593231201172 -73.110900878906 -74.992332458496 1.669560790062
-32.129158020020 -69.549140930176 -83.223144531250 5.668563842773
61.404304504395 -68.086235046387 -76.073867797852 4.455267906189
-44.819606781006 -65.436668395996 -83.377532958984 0.946612358093
-55.587722778320 -66.088111877441 -83.475555419922 1.754584074020
49.230102539063 -70.247222900391 -90.186439514160 0.653738975525
100.755432128906 -69.211807250977 -89.581016540527 0.876050770283
62.554111480713 -67.211189270020 -93.305854797363 0.994332134724
55.229980468750 -67.805938720703 -92.541114807129 2.857344388962
47.221897125244 -66.658882141113 -101.144424438477 1.442480683327
55.160659790039 -65.780860900879 -100.003295898438 1.721072435379
101.617141723633 -67.741584777832 -96.976921081543 1.162407875061
68.359024047852 -68.515357971191 -105.797172546387 3.870038986206
48.734928131104 -68.717849731445 -105.467201232910 1.497592449188
75.155960083008 -73.626670837402 -106.444839477539 4.779343605042
94.243141174316 -66.094139099121 -107.062294006348 1.130636572838
-76.708641052246 -65.892318725586 -102.673934936523 1.474614739418
-88.211174011230 -68.119720458984 -111.445327758789 1.181127309799
-83.591903686523 -68.321479797363 -113.969825744629 0.851303875446
-61.476104736328 -66.764945983887 -119.573745727539 2.233889818192
-58.451324462891 -70.950355529785 -126.931976318359 1.741545557976
-95.914802551270 -66.897064208984 -123.065361022949 2.801889419556
-76.430053710938 -68.824478149414 -120.562721252441 2.314990520477
-77.931022644043 -70.662948608398 -133.485443115234 1.152054786682
-62.087276458740 -65.315292358398 -129.234100341797 0.339411556721
-89.760330200195 -63.902305603027 -131.617324829102 1.938210487366
-90.988853454590 -66.609008789063 -131.342926025391 1.800031065941
-49.357009887695 -71.056594848633 -136.153198242188 0.984732270241
-52.626731872559 -68.167793273926 -137.483993530273 1.401197075844
-78.422554016113 -68.849334716797 -139.619216918945 0.596896409988
-55.077583312988 -69.121757507324 -142.408950805664 2.025200366974
-75.492515563965 -70.074172973633 -144.940429687500 1.417897701263
20.023622512817 -66.069290161133 -138.758071899414 1.719005346298
-58.549423217773 -71.138641357422 -145.738952636719 1.748344659805
-56.054767608643 -64.651458740234 -146.425460815430 3.044732809067
8.201181411743 -70.896133422852 -155.313888549805 1.293647289276
15.737629890442 -66.452674865723 -151.132705688477 0.662924170494
-143.077865600586 -66.707542419434 -176.003448486328 1.370748162270
-111.049110412598 -65.795906066895 -179.598175048828 2.267057895660
-110.236015319824 -63.446086883545 -191.167877197266 1.843072414398
-153.130844116211 -67.721542358398 -193.423751831055 2.256848335266
-113.660346984863 -65.806976318359 -187.235855102539 1.256004929543
-152.552505493164 -62.426784515381 -198.148147583008 1.677333950996
-114.610588073730 -65.054870605469 -200.060501098633 1.891320586205
-150.739089965820 -63.702781677246 -202.273315429688 2.269895315170
-150.954101562500 -66.037948608398 -208.212753295898 1.417885065079
-153.335311889648 -69.476593017578 -209.944213867188 3.383201360703
-148.041992187500 -65.585723876953 -225.810806274414 3.327135562897
-150.522598266602 -68.441841125488 -227.246078491211 2.695303201675
-105.232994079590 -64.136192321777 -227.450241088867 2.776422977448
-102.123634338379 -66.037406921387 -223.847869873047 2.321598529816
-123.412254333496 -61.888549804688 -232.099502563477 3.491094350815
-108.252845764160 -65.550773620605 -227.593200683594 1.014806509018
-156.616577148438 -66.719848632813 -232.644638061523 2.508351564407
-3.118407964706 -66.641754150391 -226.305419921875 1.803403973579
-134.003509521484 -67.548110961914 -232.547439575195 0.679115593433
-153.508422851563 -66.845718383789 -237.140441894531 2.800692081451
-137.075942993164 -68.078918457031 -235.061447143555 2.782195568085
-11.329975128174 -66.111656188965 -236.430160522461 2.722450017929
8.834860801697 -67.236640930176 -243.198989868164 1.207523822784
62.862400054932 -63.612522125244 -240.237091064453 3.136910915375
18.270114898682 -69.916656494141 -248.663009643555 1.488025784492
55.987422943115 -66.920585632324 -243.258850097656 2.725532054901
41.273880004883 -68.754837036133 -249.423889160156 1.643126845360
58.926269531250 -65.034507751465 -251.133804321289 4.104643344879
-152.404937744141 -65.469306945801 -252.239578247070 2.219333887100
-149.380584716797 -68.953498840332 -256.354278564453 1.805376410484
42.916786193848 -65.920906066895 -256.526489257813 0.939074873924
29.508647918701 -66.652473449707 -255.606506347656 2.477000474930
47.816902160645 -64.994209289551 -252.379028320313 2.568388462067
-144.656585693359 -68.175819396973 -261.440612792969 1.869771122932
-136.273269653320 -64.048995971680 -257.076202392578 3.106650590897
-124.777595520020 -63.451953887939 -259.550109863281 1.612220525742
-133.903839111328 -65.810005187988 -257.805541992188 1.736457943916
-140.720291137695 -66.159500122070 -259.762237548828 2.190400123596
-123.534133911133 -64.902992248535 -261.097412109375 1.632180929184
-142.606948852539 -63.876289367676 -262.121765136719 0.775095045567
-126.151138305664 -67.245956420898 -261.172424316406 1.696308851242
-122.238632202148 -65.698417663574 -266.015930175781 3.472763538361
-127.400604248047 -66.052894592285 -266.499176025391 1.702226161957
-120.240364074707 -62.636161804199 -265.620788574219 4.225862503052
-5.072320938110 -66.978927612305 -266.304412841797 1.222525477409
28.136449813843 -64.470695495605 -261.998931884766 1.615265727043
-146.018096923828 -61.844635009766 -268.760009765625 3.559843063354
26.413604736328 -67.119415283203 -269.041503906250 2.967022657394
-4.595532894135 -62.348213195801 -274.631896972656 5.901055812836
17.360054016113 -71.806922912598 -283.642608642578 1.890686511993
-141.238082885742 -65.655754089355 -291.012786865234 2.572725534439
-125.097480773926 -66.423187255859 -288.954010009766 1.207112908363
-131.829421997070 -61.620048522949 -292.017822265625 5.213057518005
-158.079803466797 -61.087284088135 -293.929046630859 4.583351135254
-125.649345397949 -60.959461212158 -290.931793212891 4.409708976746
-117.716476440430 -63.312587738037 -290.777740478516 3.493896245956
-125.183418273926 -66.898056030273 -297.352264404297 4.837817668915
-150.490676879883 -67.547714233398 -295.576843261719 1.824365496635
