-152.344161987305 -68.425956726074 -185.792160034180 2.986876726151
-20.352252960205 -75.822052001953 -185.317489624023 1.434168577194
101.551139831543 -76.673263549805 -178.648223876953 3.809177160263
102.640510559082 -72.734062194824 -189.735626220703 1.719464063644
107.542671203613 -77.025909423828 -177.836563110352 2.366460561752
98.453483581543 -77.391769409180 -193.799835205078 3.617357730865
-151.877258300781 -71.686561584473 -197.428634643555 2.172101736069
99.459182739258 -76.505287170410 -205.552856445313 0.861443102360
-28.761692047119 -71.302314758301 -197.648727416992 2.923358917236
96.955436706543 -75.428596496582 -195.845153808594 2.099712133408
-121.988845825195 -74.783035278320 -200.914321899414 1.609950900078
-30.432395935059 -77.785247802734 -190.617324829102 1.947488069534
-142.419433593750 -67.370109558105 -199.169281005859 2.349872589111
94.750923156738 -75.739074707031 -198.680999755859 2.513606786728
8.053170204163 -74.796401977539 -199.430175781250 2.824478864670
23.292041778564 -73.083541870117 -192.878158569336 2.196989297867
-148.656311035156 -71.568428039551 -203.807418823242 1.540333628654
-139.488296508789 -70.578109741211 -202.919097900391 0.995888292789
-10.602573394775 -73.307495117188 -207.129669189453 2.039839029312
-124.940361022949 -71.395057678223 -204.576583862305 1.559862136841
-144.502883911133 -73.590065002441 -200.594696044922 1.231659412384
3.359622001648 -74.226814270020 -199.955871582031 5.518161773682
-24.856773376465 -75.575424194336 -201.554946899414 1.372512936592
20.047113418579 -77.020965576172 -202.619689941406 1.136660695076
6.053668975830 -75.265830993652 -212.180007934570 2.235047101974
84.903167724609 -73.013313293457 -208.648010253906 4.107137680054
-18.911886215210 -71.017433166504 -212.364730834961 1.588727235794
90.786582946777 -73.373268127441 -209.028945922852 1.450509667397
96.447471618652 -77.439506530762 -207.060272216797 0.993660986423
-149.506362915039 -72.087287902832 -215.442306518555 1.031783461571
94.898391723633 -77.253715515137 -211.631027221680 1.744786262512
4.440217018127 -73.057922363281 -207.660171508789 2.728074789047
2.994867086411 -76.008003234863 -214.774658203125 3.690707206726
-33.535430908203 -72.868263244629 -207.465972900391 1.585397958755
-89.963462829590 -71.598999023438 -213.811080932617 1.921137809753
-26.817504882813 -74.752586364746 -211.309219360352 1.224678397179
84.582717895508 -74.633666992188 -216.979614257813 1.155124902725
88.744552612305 -74.539047241211 -217.076049804688 1.499461412430
-32.390396118164 -72.475257873535 -212.711730957031 1.903032183647
-84.883163452148 -69.325576782227 -219.066055297852 3.577194213867
-1.629609942436 -75.783210754395 -219.078491210938 1.846021056175
81.524703979492 -71.881965637207 -213.241928100586 4.570802688599
-152.508422851563 -74.656227111816 -222.815231323242 1.776137113571
-166.326049804688 -69.162193298340 -215.313110351563 0.998337864876
-162.540649414063 -73.189582824707 -223.259796142578 2.003346443176
-21.940107345581 -74.275901794434 -227.305511474609 2.463451623917
-154.464355468750 -73.763458251953 -223.725387573242 2.059882640839
-6.283709049225 -74.823440551758 -224.851791381836 2.213654279709
5.994480133057 -74.947235107422 -218.726135253906 2.326036214828
-167.663681030273 -70.511718750000 -226.578750610352 1.694332003593
-159.316101074219 -71.146217346191 -228.390914916992 2.292811393738
78.701042175293 -78.293838500977 -231.490219116211 1.875876545906
-0.239320993423 -72.651611328125 -227.001846313477 1.349057316780
-157.970870971680 -66.244773864746 -227.165924072266 2.031780958176
-143.035781860352 -72.666587829590 -225.327194213867 1.930163264275
-19.707609176636 -72.483268737793 -224.351364135742 1.932865142822
-0.999534010887 -77.918113708496 -222.815277099609 2.256807565689
79.570335388184 -72.834869384766 -225.667846679688 1.579585671425
-161.736404418945 -69.108741760254 -228.911575317383 3.407681226730
-144.447769165039 -68.788917541504 -231.836349487305 3.151813745499
-125.577247619629 -69.818428039551 -231.802536010742 2.949423313141
78.246498107910 -76.576370239258 -226.722900390625 1.039080858231
-116.125869750977 -71.476852416992 -230.029449462891 0.199068501592
-146.896530151367 -70.932403564453 -230.277511596680 2.287166118622
-150.971771240234 -69.600448608398 -232.431106567383 3.410939693451
-149.515335083008 -71.673500061035 -232.341873168945 2.848651885986
-156.325546264648 -71.337036132813 -230.135711669922 1.653920769691
-165.575469970703 -71.094741821289 -230.097290039063 0.887433111668
-134.174652099609 -71.368873596191 -236.289413452148 2.068793535233
-133.769027709961 -72.359397888184 -234.085800170898 1.374882578850
-153.718109130859 -74.471061706543 -233.926559448242 2.486076354980
-145.783538818359 -67.551795959473 -237.836654663086 2.909415483475
-152.083572387695 -71.355270385742 -236.347808837891 1.160059571266
74.418502807617 -77.057220458984 -232.487564086914 2.574973821640
66.974708557129 -70.197898864746 -236.067657470703 1.193057656288
-157.435104370117 -69.380348205566 -236.436004638672 1.016679525375
71.354873657227 -70.695487976074 -233.341354370117 0.912945449352
-20.189039230347 -71.949256896973 -237.105850219727 2.088503360748
10.965033531189 -75.109336853027 -237.410751342773 0.750184237957
6.484676837921 -74.605812072754 -236.361709594727 2.338537931442
-154.911926269531 -70.927803039551 -243.711044311523 2.033299446106
14.188262939453 -73.385314941406 -241.412597656250 2.065712451935
60.553478240967 -73.600631713867 -238.099502563477 2.652157068253
13.034989356995 -71.520492553711 -238.263061523438 0.963303446770
4.948554039001 -74.229080200195 -241.925079345703 1.305434584618
-6.879961967468 -71.514717102051 -240.759918212891 0.662672638893
-21.516777038574 -71.876953125000 -243.317092895508 2.194579839706
-2.120174884796 -73.557617187500 -242.358749389648 1.388756871223
3.394826889038 -76.359481811523 -245.362426757813 1.871346831322
57.002052307129 -75.693092346191 -241.717575073242 1.765067577362
-55.884693145752 -75.960685729980 -245.391998291016 2.197989463806
19.234031677246 -72.963562011719 -247.651748657227 0.736401259899
-59.971897125244 -73.521720886230 -242.462966918945 2.510105133057
-10.258245468140 -73.631530761719 -248.329635620117 1.004449963570
-66.408119201660 -69.127365112305 -250.975509643555 3.432538509369
-86.394203186035 -70.510063171387 -253.921844482422 1.871383309364
-83.008117675781 -73.065879821777 -252.901870727539 2.391753435135
-10.206409454346 -72.803115844727 -255.237075805664 2.531473398209
-124.233917236328 -71.199577331543 -260.008514404297 2.041401863098
-14.505119323730 -74.244636535645 -253.451995849609 1.662461400032
-117.364219665527 -71.538536071777 -256.638580322266 1.502904057503
-116.841819763184 -70.220085144043 -259.568969726563 2.977237701416
-103.928764343262 -71.576316833496 -257.414886474609 1.978233575821
-144.226623535156 -70.079811096191 -262.893981933594 2.059428930283
-145.360870361328 -70.460998535156 -268.301574707031 2.816358327866
-169.021240234375 -70.619071960449 -264.775878906250 2.530029535294
19.000617980957 -77.291900634766 -280.607055664063 2.907686233521
-58.314208984375 -70.614944458008 -286.069244384766 1.389621973038
-67.524551391602 -71.317779541016 -284.424102783203 2.108254432678
-42.484928131104 -74.456192016602 -284.490509033203 2.485008239746
-28.372392654419 -73.938270568848 -287.025970458984 1.046485900879
-96.654922485352 -73.648323059082 -290.083679199219 2.310816764832
-31.122013092041 -71.051841735840 -286.280395507813 2.186685562134
-4.428340911865 -73.454925537109 -286.623504638672 0.425786584616
-167.683715820313 -70.560600280762 -290.483093261719 3.498989343643
-16.228565216064 -75.277847290039 -286.384704589844 2.500843763351
6.018054008484 -74.772445678711 -288.342773437500 0.762117326260
13.720236778259 -78.064788818359 -283.975799560547 2.434334993362
-57.324428558350 -74.768898010254 -288.301910400391 2.037719488144
-33.549404144287 -73.323371887207 -292.053985595703 1.311656117439
13.914523124695 -71.866546630859 -293.438385009766 1.502622127533
-71.210449218750 -70.860206604004 -293.665924072266 2.799496889114
-40.546722412109 -70.280502319336 -289.754425048828 1.974630832672
-18.161684036255 -71.189498901367 -290.497436523438 1.681136965752
14.680914878845 -75.948165893555 -291.381988525391 1.249875068665
-11.915658950806 -74.907577514648 -294.696136474609 2.783003568649
3.637681961060 -72.381828308105 -294.212951660156 1.383463144302
13.887733459473 -75.673713684082 -290.957366943359 1.794688463211
-135.195938110352 -70.107818603516 -295.360809326172 1.595485806465
-145.304016113281 -73.209419250488 -300.207061767578 0.896288335323
-151.275894165039 -71.171005249023 -314.293273925781 1.581488132477
42.030494689941 -73.744583129883 -13.957134246826 1.631419301033
29.119844436646 -73.951324462891 -12.113505363464 2.321696758270
38.277610778809 -74.374824523926 -15.672755241394 3.126808166504
21.038927078247 -70.820121765137 -19.049173355103 1.098369121552
43.998847961426 -72.326599121094 -22.611888885498 1.817241668701
24.593057632446 -72.205650329590 -24.286079406738 1.223808884621
22.779634475708 -74.232757568359 -27.818231582642 2.569010496140
23.839771270752 -74.781326293945 -38.595523834229 3.811372518539
38.543178558350 -76.267120361328 -31.054769515991 5.611827850342
25.281347274780 -77.429367065430 -36.635528564453 6.230837345123
42.135719299316 -73.004364013672 -37.908824920654 2.779859066010
30.902645111084 -74.600273132324 -39.702983856201 2.347357273102
37.794994354248 -75.542449951172 -36.190895080566 3.573363065720
30.014556884766 -73.210578918457 -40.239234924316 1.694566249847
42.652233123779 -74.246559143066 -41.412879943848 2.509167194366
32.772834777832 -73.615386962891 -39.269634246826 1.986530900002
-41.870380401611 -71.052101135254 -48.818450927734 2.835526227951
-30.942007064819 -68.070457458496 -51.175800323486 0.971663415432
-90.286903381348 -70.360305786133 -55.506526947021 4.917505741119
-89.975173950195 -72.692932128906 -66.271690368652 2.228336334229
76.958610534668 -77.172065734863 -66.685127258301 6.205761432648
83.422973632813 -74.596405029297 -72.474563598633 1.737358093262
-20.511934280396 -71.080398559570 -73.998298645020 1.486179113388
-89.132896423340 -71.919929504395 -72.427444458008 2.097634315491
-26.053262710571 -72.223815917969 -77.196601867676 2.079178810120
-50.551486968994 -73.478881835938 -85.491256713867 1.597651124001
65.112892150879 -70.769172668457 -86.251731872559 1.434606313705
51.880413055420 -73.210517883301 -93.292098999023 1.828042268753
98.676284790039 -73.224136352539 -91.274589538574 1.859831809998
68.587387084961 -75.961349487305 -96.558952331543 2.892343044281
-69.093933105469 -73.463096618652 -91.635185241699 4.359552383423
-62.993247985840 -70.322853088379 -98.451538085938 3.350093126297
43.980632781982 -74.479972839355 -97.478431701660 1.377361059189
76.612197875977 -73.162384033203 -99.783264160156 1.300177335739
53.562774658203 -81.116317749023 -105.024261474609 2.785548925400
100.444946289063 -74.591712951660 -96.415443420410 1.890695214272
-96.035507202148 -73.134101867676 -107.941017150879 1.311356425285
39.056278228760 -74.152175903320 -110.736030578613 1.969249367714
106.226493835449 -75.841728210449 -108.467300415039 1.300090312958
47.704990386963 -73.906341552734 -111.271133422852 1.182287096977
100.669860839844 -75.851806640625 -109.488471984863 4.169664859772
-86.233818054199 -71.719711303711 -115.941101074219 2.805521726608
34.982440948486 -76.952758789063 -111.938331604004 3.562711000443
105.858024597168 -73.859901428223 -116.515541076660 2.316310644150
103.969573974609 -72.366165161133 -115.517150878906 1.828006863594
104.728073120117 -75.294334411621 -114.826194763184 1.947943449020
109.744361877441 -74.041564941406 -114.262908935547 2.712232351303
39.086589813232 -75.554855346680 -110.213859558105 1.959905743599
31.307229995728 -71.352203369141 -117.370971679688 2.300868988037
40.141311645508 -73.508674621582 -114.159332275391 2.612467765808
105.998474121094 -76.218162536621 -121.478195190430 3.107683181763
39.375400543213 -72.246437072754 -123.258247375488 0.698899924755
108.337112426758 -74.100471496582 -131.840545654297 2.048072338104
110.213562011719 -73.715705871582 -130.720977783203 1.036232352257
32.831409454346 -71.578964233398 -120.664894104004 2.534760713577
-78.759841918945 -71.651153564453 -125.932769775391 2.180344104767
113.158927917480 -72.551605224609 -133.896240234375 2.289111852646
-55.218772888184 -72.284187316895 -137.868789672852 1.167536020279
34.719223022461 -74.487335205078 -134.764923095703 2.566000461578
-74.104881286621 -72.205528259277 -135.894851684570 2.896363019943
26.093690872192 -75.696907043457 -131.733154296875 3.284739971161
-80.413116455078 -72.263648986816 -143.294372558594 3.407560110092
-46.182670593262 -75.234924316406 -142.266876220703 1.426021933556
-74.818458557129 -72.549102783203 -138.637741088867 1.021196365356
109.392417907715 -74.076225280762 -136.715332031250 2.392253637314
116.403221130371 -73.229660034180 -141.232269287109 1.191001057625
117.238388061523 -78.037536621094 -146.026672363281 4.963399887085
-78.138053894043 -70.862480163574 -144.109832763672 1.940994024277
7.235803127289 -69.447402954102 -150.915084838867 2.397543668747
-52.866497039795 -72.816009521484 -149.716232299805 0.872645974159
-51.640285491943 -73.118461608887 -155.621139526367 2.039155244827
106.097526550293 -75.128761291504 -161.343978881836 2.809761047363
-42.303379058838 -74.150367736816 -149.540466308594 1.830671787262
13.206945419312 -71.241088867188 -157.775985717773 1.013573408127
21.486732482910 -75.043952941895 -157.651718139648 1.494778752327
113.932083129883 -74.267700195313 -164.275375366211 1.852112770081
29.006608963013 -73.018867492676 -165.751159667969 2.579660415649
-1.716418027878 -74.353401184082 -163.629638671875 1.060032129288
31.013366699219 -74.381072998047 -160.809799194336 1.607872605324
-68.578483581543 -70.314689636230 -158.064498901367 1.923834443092
-66.593955993652 -71.605468750000 -159.498596191406 2.138653516769
-69.654479980469 -70.553619384766 -166.024063110352 3.170625925064
113.963584899902 -71.607086181641 -161.072418212891 2.780643224716
-45.381813049316 -72.459686279297 -163.273666381836 1.053225159645
16.944452285767 -73.517112731934 -165.566604614258 2.022922754288
-64.724983215332 -70.930839538574 -169.984725952148 2.528192043304
-63.828395843506 -70.234191894531 -171.736358642578 3.414411544800
-42.136257171631 -73.197052001953 -160.523040771484 2.472744464874
-34.384910583496 -74.552658081055 -168.851837158203 3.088576555252
114.167160034180 -76.956367492676 -170.926467895508 2.483071327209
-37.728118896484 -67.867408752441 -180.016860961914 4.232017993927
12.937041282654 -74.254096984863 -173.197494506836 4.635531425476
109.921058654785 -77.416824340820 -183.946884155273 3.122977972031
-148.409103393555 -72.164398193359 -176.649353027344 1.747281312943
-146.678710937500 -70.279495239258 -174.141036987305 2.567519664764
-149.375106811523 -68.693435668945 -180.524230957031 2.783834695816
-143.193969726563 -71.863677978516 -183.325714111328 2.022638320923
-32.574665069580 -71.140960693359 -185.703643798828 1.058326005936
-23.842493057251 -72.679031372070 -185.894119262695 0.605346024036
22.602231979370 -69.852912902832 -191.079818725586 2.374553680420
-142.145492553711 -69.704040527344 -187.271774291992 1.401925563812
-147.998046875000 -70.704032897949 -189.124771118164 2.565007448196
-21.994297027588 -70.097839355469 -186.619735717773 1.463427662849
10.358913421631 -73.480766296387 -182.594039916992 3.861461877823
-150.043640136719 -70.276824951172 -194.830307006836 0.365865081549
-32.309360504150 -73.100090026855 -188.164535522461 2.192736387253
99.393920898438 -74.688949584961 -188.043731689453 2.251269578934
105.562690734863 -73.787986755371 -189.487701416016 2.230469942093
23.534130096436 -69.076637268066 -193.433425903320 1.217380523682
-14.224149703979 -72.935508728027 -188.627502441406 4.413065433502
-28.470575332642 -74.346824645996 -193.546188354492 1.876348257065
-156.022338867188 -71.204284667969 -199.736114501953 2.714279413223
-133.313980102539 -71.486579895020 -197.380523681641 0.721877098083
-125.822471618652 -68.108688354492 -195.538391113281 2.037164449692
-125.340896606445 -69.094734191895 -198.122650146484 3.213730335236
-23.103706359863 -68.489356994629 -196.321044921875 1.260043978691
11.942024230957 -75.091758728027 -192.496673583984 1.044464230537
91.914978027344 -77.959602355957 -200.944671630859 3.915236949921
-150.677017211914 -66.681419372559 -196.014343261719 1.644906163216
-145.691390991211 -67.916351318359 -199.306518554688 2.433202743530
-151.546188354492 -69.618698120117 -200.737136840820 2.867960453033
-155.563705444336 -67.910758972168 -198.065292358398 1.667927742004
-25.430845260620 -71.978149414063 -199.815841674805 1.949231624603
-11.382973670959 -71.270004272461 -195.537857055664 2.644036769867
-146.959854125977 -66.464424133301 -202.713409423828 2.770923137665
-19.113693237305 -71.788391113281 -201.357025146484 2.420323848724
-162.057785034180 -69.262718200684 -201.278823852539 2.756471157074
-135.007888793945 -70.235839843750 -199.943710327148 2.712200164795
15.042414665222 -74.899093627930 -207.109527587891 2.896981000900
-161.887680053711 -66.795181274414 -204.730239868164 1.986279964447
-146.777297973633 -71.587570190430 -207.072952270508 1.192715644836
7.605844020844 -71.155059814453 -202.938949584961 2.542728185654
-154.726486206055 -67.571083068848 -203.267410278320 1.814321398735
-25.236715316772 -71.849479675293 -202.053192138672 2.239857196808
96.687210083008 -75.204292297363 -199.140609741211 1.716054081917
-159.091354370117 -70.839370727539 -213.114852905273 1.918467044830
-165.174545288086 -72.811523437500 -208.333099365234 2.418209552765
-77.473991394043 -69.446578979492 -208.707778930664 3.064814090729
88.645767211914 -73.731521606445 -208.903442382813 1.956238508224
-4.422389984131 -71.536598205566 -218.588989257813 2.323371648788
-155.129943847656 -68.841278076172 -213.517639160156 2.713428974152
-88.232803344727 -71.265602111816 -213.910034179688 1.694689512253
-9.996816635132 -75.174629211426 -211.514999389648 2.617824792862
14.959265708923 -72.839897155762 -220.046920776367 2.125302314758
-145.538162231445 -70.784645080566 -220.677307128906 1.261626362801
-4.274748802185 -76.509048461914 -221.102630615234 0.991860866547
-20.022796630859 -73.393363952637 -218.490127563477 1.552921533585
-15.199520111084 -69.440330505371 -220.690200805664 1.407135128975
89.617492675781 -74.391563415527 -219.025772094727 1.668291330338
-21.353897094727 -71.148864746094 -217.083496093750 1.669212818146
-32.360004425049 -71.645828247070 -217.434921264648 2.528059482574
-108.115013122559 -66.596252441406 -225.294754028320 1.527598142624
-16.724012374878 -70.882232666016 -223.489501953125 1.179504275322
91.822067260742 -72.469253540039 -218.918106079102 1.849790096283
76.857017517090 -74.935424804688 -220.464645385742 3.397504806519
6.552416801453 -74.075675964355 -219.534820556641 2.062483549118
-11.758870124817 -70.456497192383 -225.668624877930 2.153876066208
77.996902465820 -74.733253479004 -222.035049438477 1.673804521561
-123.035003662109 -73.611015319824 -225.773635864258 0.782602071762
-20.619733810425 -70.525421142578 -223.501968383789 3.052217960358
-97.746711730957 -70.301345825195 -224.149597167969 1.116847634315
-103.120109558105 -70.918106079102 -224.716171264648 1.697393178940
-132.202590942383 -72.214836120605 -229.315704345703 1.972530961037
80.694503784180 -74.307380676270 -223.657638549805 1.736631155014
-123.801254272461 -71.013313293457 -227.898269653320 2.423854827881
4.133865833282 -72.230026245117 -229.023010253906 2.022447586060
80.634239196777 -72.850784301758 -224.468292236328 2.163579463959
-16.340682983398 -73.457611083984 -230.864059448242 1.286603569984
-14.164276123047 -73.213058471680 -227.743545532227 0.686751723289
-2.547333002090 -77.582611083984 -230.202026367188 2.002825021744
9.649162292480 -74.734916687012 -227.672119140625 2.583559751511
88.253143310547 -75.568115234375 -226.507873535156 3.785783767700
9.389344215393 -71.469535827637 -231.673370361328 2.037270784378
4.957211017609 -72.548027038574 -229.720809936523 1.146945714951
-9.618003845215 -73.114089965820 -231.571075439453 1.075890421867
-7.361275196075 -73.443336486816 -230.450576782227 2.125658988953
18.172588348389 -71.882125854492 -232.992050170898 1.414923667908
-13.006836891174 -70.109405517578 -233.569915771484 1.817627429962
70.446098327637 -74.542938232422 -239.878356933594 3.010234355927
-9.676094055176 -71.093513488770 -239.160186767578 2.211527824402
18.412954330444 -74.078475952148 -236.006301879883 1.245865225792
-163.411849975586 -68.407623291016 -241.142440795898 2.075683355331
-6.118667125702 -70.551109313965 -237.413055419922 2.236598968506
-8.679587364197 -73.342521667480 -240.545837402344 1.097666263580
-168.219787597656 -70.132781982422 -251.500640869141 1.764871478081
-11.382641792297 -70.965461730957 -244.765625000000 1.654209375381
15.045046806335 -70.473220825195 -245.789077758789 1.965979218483
-148.223999023438 -71.821006774902 -252.477142333984 2.938503026962
-73.832389831543 -70.721961975098 -250.905670166016 1.639952778816
-62.216663360596 -72.379920959473 -247.494049072266 1.722794055939
51.789951324463 -71.536117553711 -247.002883911133 1.786404371262
-75.247039794922 -70.895462036133 -247.317245483398 2.182181596756
16.291347503662 -73.645576477051 -249.809417724609 3.412204265594
-73.666015625000 -71.686477661133 -251.800094604492 1.732933044434
-15.917680740356 -70.808319091797 -246.306518554688 3.416126251221
-146.115066528320 -72.616455078125 -253.393630981445 0.941748261452
46.077503204346 -70.342414855957 -250.204666137695 1.619392752647
-80.655807495117 -73.298095703125 -256.229278564453 1.739115238190
-103.290382385254 -67.926216125488 -255.568740844727 2.349643230438
-99.959907531738 -72.377380371094 -255.133560180664 1.003359436989
-120.449951171875 -68.576759338379 -253.600204467773 3.917239665985
-106.385345458984 -68.326438903809 -257.693664550781 2.037894964218
-106.422935485840 -70.394363403320 -258.678588867188 2.501511812210
21.023742675781 -70.643562316895 -258.821411132813 3.738119125366
-129.914199829102 -67.957923889160 -265.682373046875 3.219218254089
-14.471487998962 -73.214553833008 -275.937072753906 3.252203464508
-148.255966186523 -67.484825134277 -283.955535888672 2.502977609634
-169.377487182617 -71.071876525879 -286.227203369141 1.867335796356
-125.630981445313 -71.225967407227 -284.721435546875 0.816503405571
-114.809722900391 -67.487686157227 -287.428619384766 1.890902996063
-76.202461242676 -67.091156005859 -285.007202148438 3.323532819748
-58.237625122070 -72.080490112305 -287.157897949219 2.005260944366
-42.614753723145 -70.698661804199 -286.503326416016 1.688559889793
-16.140998840332 -75.147293090820 -290.191833496094 2.032431602478
-14.528633117676 -69.899452209473 -292.114593505859 2.288498878479
-39.191528320313 -73.596496582031 -290.621948242188 2.085402727127
-35.163261413574 -71.644348144531 -289.204437255859 1.285717129707
-19.736766815186 -69.164520263672 -289.152282714844 3.797786951065
-72.593856811523 -70.176956176758 -293.510833740234 3.526230096817
-56.341342926025 -70.775550842285 -291.542205810547 2.399526834488
-18.403659820557 -68.759971618652 -291.889801025391 3.820615053177
-14.587353706360 -73.722503662109 -290.107879638672 1.814535856247
-4.528837203979 -71.571830749512 -292.752685546875 3.225425958633
1.693089962006 -69.266304016113 -292.560577392578 1.612532019615
-92.990158081055 -70.875320434570 -293.504180908203 3.185370206833
-140.635894775391 -71.551986694336 -295.644989013672 2.949769973755
-117.169670104980 -71.288352966309 -293.234771728516 2.042016983032
-154.390304565430 -68.547958374023 -295.589965820313 1.217800736427
-152.835937500000 -70.381889343262 -300.180664062500 1.448197841644
-147.564437866211 -68.247848510742 -300.689270019531 2.093175888062
43.482284545898 -71.001502990723 -21.262058258057 0.914590954781
18.827497482300 -75.429382324219 -23.575786590576 3.888452768326
48.531360626221 -70.564849853516 -25.071216583252 1.571699261665
46.062850952148 -74.024864196777 -35.098880767822 0.819892048836
86.621856689453 -73.586273193359 -70.093223571777 1.028489112854
94.560493469238 -75.501495361328 -73.808303833008 2.641008377075
100.242324829102 -73.560234069824 -77.997161865234 1.832353234291
97.319725036621 -74.421775817871 -83.359085083008 2.339925289154
55.718353271484 -74.119926452637 -89.412933349609 2.736010074615
44.511123657227 -78.019828796387 -91.231468200684 6.166024684906
62.366893768311 -72.219062805176 -90.768859863281 2.046357870102
-66.128662109375 -68.637290954590 -93.565284729004 2.857435226440
69.847076416016 -72.874710083008 -87.798843383789 0.428536057472
99.985054016113 -67.854919433594 -98.800689697266 1.517091035843
73.568893432617 -74.180541992188 -101.088066101074 2.562542676926
93.361938476563 -72.752517700195 -102.483428955078 1.905420660973
-85.517921447754 -71.578674316406 -103.961875915527 3.584598779678
44.198429107666 -71.963325500488 -98.203468322754 1.768463134766
-87.457138061523 -71.969276428223 -102.786285400391 5.516251564026
50.196353912354 -74.374542236328 -110.426765441895 1.810065746307
36.730094909668 -77.808441162109 -103.742568969727 3.956944227219
101.203254699707 -73.000717163086 -103.190849304199 2.479822874069
36.237724304199 -72.546066284180 -106.081092834473 3.928503274918
41.634048461914 -73.869575500488 -118.670600891113 2.856302738190
41.794807434082 -72.638160705566 -113.167488098145 1.884128451347
109.146080017090 -72.748558044434 -112.288719177246 1.109977364540
-82.322174072266 -74.552734375000 -122.055770874023 4.053291797638
111.222007751465 -77.119308471680 -123.915626525879 2.674092531204
39.125671386719 -69.375587463379 -124.884315490723 2.862337827682
39.590694427490 -72.070930480957 -120.369888305664 1.699829101563
34.025333404541 -73.076629638672 -121.040046691895 2.009151697159
-56.765758514404 -75.125961303711 -130.020172119141 2.606719970703
29.224588394165 -71.723335266113 -123.641944885254 1.470639944077
-78.333419799805 -69.070549011230 -138.333053588867 1.369372844696
-56.373287200928 -74.280204772949 -133.068283081055 1.646587133408
-80.448539733887 -68.664070129395 -135.406646728516 2.281507253647
34.616920471191 -70.853286743164 -130.916122436523 1.386755466461
-60.624477386475 -72.080390930176 -134.085998535156 2.967207431793
34.162017822266 -71.938095092773 -133.556671142578 2.726081848145
-72.937889099121 -69.013160705566 -140.138320922852 1.024116992950
-60.203971862793 -68.697311401367 -141.232177734375 1.573541045189
24.678497314453 -73.174110412598 -142.860092163086 1.173905491829
109.849899291992 -76.445045471191 -143.104797363281 2.255552291870
114.315940856934 -70.202125549316 -137.107955932617 2.294618844986
29.711870193481 -72.565490722656 -141.722640991211 2.295006513596
-49.226505279541 -72.488609313965 -140.675796508789 1.794162750244
105.824401855469 -71.781883239746 -152.231475830078 4.609692573547
-76.576835632324 -70.561904907227 -143.614486694336 1.627381563187
-59.648609161377 -71.035575866699 -142.804626464844 1.522054672241
30.638402938843 -68.742530822754 -147.658416748047 1.107189536095
-78.591796875000 -71.924682617188 -146.723190307617 3.071197509766
-71.660942077637 -70.691543579102 -150.794281005859 1.342812299728
113.814041137695 -77.463233947754 -149.581176757813 3.019264698029
-65.671081542969 -70.222167968750 -155.632797241211 1.670559644699
-40.339866638184 -68.708068847656 -152.681655883789 2.560796976089
24.681322097778 -70.918083190918 -146.231948852539 1.762035608292
-74.247581481934 -71.134727478027 -146.592605590820 1.640668272972
11.353747367859 -71.738952636719 -150.067840576172 2.572767734528
30.813491821289 -71.915634155273 -157.184814453125 1.360619664192
29.972576141357 -70.275566101074 -150.478927612305 0.865593194962
14.105587005615 -76.379966735840 -154.455856323242 4.148772239685
-50.983158111572 -72.510147094727 -153.741317749023 1.852915167809
23.684305191040 -73.645011901855 -153.440277099609 0.770189046860
-47.248142242432 -70.303771972656 -150.656005859375 1.673056483269
3.656536102295 -72.217704772949 -154.395080566406 3.496527671814
19.399761199951 -71.516983032227 -150.257247924805 2.822603940964
-69.957000732422 -70.109230041504 -157.957565307617 3.268388986588
-47.686973571777 -68.383369445801 -154.590057373047 2.905670166016
-69.258666992188 -70.269569396973 -154.310638427734 0.376774042845
17.067724227905 -71.076011657715 -158.781021118164 1.778859257698
23.141536712646 -71.527984619141 -150.382263183594 0.928313612938
1.436375021935 -71.936866760254 -164.874176025391 1.766402006149
20.234094619751 -72.087600708008 -153.877243041992 1.292969584465
29.655941009521 -72.082603454590 -167.443481445313 2.269340753555
-48.444946289063 -72.351425170898 -163.716690063477 1.345582962036
-38.010910034180 -77.206527709961 -163.703796386719 2.679093360901
-41.979278564453 -71.931198120117 -161.308822631836 1.567967057228
26.703493118286 -72.647766113281 -158.975677490234 2.583016633987
-45.378067016602 -69.489372253418 -167.269271850586 4.015526771545
-40.887657165527 -69.752838134766 -166.851806640625 2.074785947800
20.242897033691 -70.925399780273 -166.064208984375 2.128197669983
-41.001918792725 -71.659423828125 -175.672042846680 2.754414319992
26.834508895874 -68.923156738281 -170.380630493164 2.144253492355
110.580955505371 -70.679199218750 -164.976547241211 1.598128318787
-34.671566009521 -71.160911560059 -172.463821411133 1.279901742935
101.640457153320 -71.249572753906 -173.341125488281 4.082522392273
-35.718963623047 -70.828514099121 -177.862335205078 1.318501114845
-38.608470916748 -73.977668762207 -181.874893188477 3.136050462723
19.956468582153 -74.841110229492 -177.323806762695 2.026188373566
104.659484863281 -73.855316162109 -182.099273681641 1.671401381493
-32.621398925781 -69.716041564941 -183.337295532227 1.501478433609
-36.333572387695 -70.653709411621 -177.949264526367 1.342756867409
-24.406524658203 -74.703765869141 -187.252120971680 0.824685454369
-150.189926147461 -69.885353088379 -189.641220092773 1.805742144585
11.785653114319 -71.699920654297 -183.687286376953 2.478248119354
103.852317810059 -72.087471008301 -191.201965332031 0.330679982901
-160.090942382813 -68.751693725586 -193.814956665039 1.665706515312
-24.084180831909 -68.409767150879 -189.933151245117 1.310077428818
-116.792861938477 -71.418869018555 -197.998092651367 2.231225252151
-131.956558227539 -70.954765319824 -196.268997192383 1.312572002411
-109.020256042480 -70.438522338867 -200.430496215820 2.163643360138
-114.767112731934 -69.052581787109 -200.870056152344 2.486354112625
-13.478335380554 -72.265968322754 -196.752746582031 1.585682749748
18.984203338623 -70.849082946777 -196.419097900391 1.171013116837
-16.879369735718 -67.826148986816 -202.272644042969 2.713938474655
-127.835128784180 -69.628204345703 -206.239334106445 2.858478546143
-21.911710739136 -67.738594055176 -203.410949707031 2.395632743835
-130.457778930664 -68.462738037109 -203.611312866211 2.017837285995
-16.541368484497 -71.519393920898 -200.658935546875 1.476078271866
-147.174865722656 -68.158042907715 -203.543457031250 3.783518075943
90.764205932617 -69.428504943848 -206.587860107422 2.791829109192
-165.566329956055 -64.340568542480 -202.251235961914 2.287473201752
-3.852284908295 -73.135543823242 -218.228973388672 1.460770130157
10.360204696655 -72.908058166504 -210.225097656250 1.642276406288
9.225649833679 -73.807701110840 -217.360717773438 1.944103956223
81.586860656738 -72.834686279297 -216.859420776367 2.322314977646
7.431077957153 -72.679504394531 -213.408462524414 1.336317539215
11.572948455811 -70.885925292969 -215.090621948242 1.422453403473
-16.942045211792 -74.486183166504 -216.317657470703 2.082713603973
-91.526916503906 -70.476310729980 -215.058135986328 1.070049166679
-99.045600891113 -70.078430175781 -217.212387084961 1.020694732666
-1.020277976990 -70.505981445313 -219.502731323242 0.641119599342
-167.518402099609 -70.670837402344 -222.775268554688 2.505617380142
14.133808135986 -69.779579162598 -219.949645996094 0.535857439041
-145.644546508789 -68.555206298828 -221.999389648438 1.910946846008
11.939888000488 -72.025299072266 -225.290573120117 2.485613584518
-135.675872802734 -70.679809570313 -225.589721679688 1.345132470131
-116.942054748535 -70.589653015137 -227.866516113281 0.491320043802
15.750686645508 -71.032264709473 -221.212722778320 2.277752161026
77.370765686035 -72.792045593262 -221.531158447266 2.678596973419
5.727406978607 -71.603805541992 -223.829284667969 2.848276138306
-110.858245849609 -69.020713806152 -231.566650390625 0.586370944977
71.343147277832 -73.551063537598 -227.989364624023 2.608717918396
82.995368957520 -73.891571044922 -229.642395019531 1.523512840271
-126.179710388184 -69.243026733398 -235.787765502930 2.247395992279
-118.025131225586 -69.618438720703 -231.131484985352 1.854628086090
-10.988032341003 -68.210952758789 -228.214675903320 1.301324367523
70.984588623047 -73.335556030273 -231.584487915039 1.288138389587
63.655651092529 -73.102523803711 -233.412155151367 3.685729980469
72.297447204590 -72.170768737793 -229.681228637695 2.202960968018
-136.187652587891 -66.037544250488 -234.815750122070 1.964850187302
69.168235778809 -73.691513061523 -232.559646606445 0.502661585808
65.226219177246 -70.386581420898 -235.535278320313 1.643176913261
-167.100112915039 -67.422767639160 -231.346817016602 2.759700298309
0.374462991953 -77.770751953125 -241.356399536133 2.107514858246
18.375791549683 -72.996070861816 -239.840911865234 1.229161500931
-6.948204994202 -68.818557739258 -241.092727661133 2.104564189911
14.867778778076 -66.880737304688 -239.640518188477 3.646708488464
65.240234375000 -73.475433349609 -238.365051269531 0.767453014851
7.987485885620 -69.808593750000 -243.764953613281 1.771339774132
-11.808348655701 -65.401252746582 -241.219039916992 2.007959604263
-1.464594960213 -68.350265502930 -237.866333007813 1.509886622429
63.975814819336 -73.130462646484 -242.673950195313 1.168386101723
2.088331937790 -72.009132385254 -242.971755981445 1.380324482918
-7.965054035187 -72.070007324219 -243.573104858398 1.386177301407
13.279151916504 -74.022781372070 -243.278442382813 1.763903737068
-168.464370727539 -70.331024169922 -241.959686279297 2.929543256760
55.065509796143 -72.650695800781 -247.522064208984 1.939305186272
49.088371276855 -66.753211975098 -251.109466552734 1.909410476685
57.220577239990 -73.098419189453 -243.072311401367 1.063678383827
-13.090815544128 -69.539672851563 -248.355392456055 1.609708786011
56.230800628662 -72.172966003418 -245.949829101563 1.701726198196
-74.833816528320 -69.721054077148 -250.462417602539 1.502664566040
49.814701080322 -72.633644104004 -248.937973022461 0.394115507603
-89.691101074219 -69.746513366699 -253.125213623047 1.502937674522
-124.167564392090 -70.431442260742 -257.385803222656 1.990438222885
-133.347320556641 -69.175704956055 -253.670654296875 2.275136709213
45.142185211182 -73.685684204102 -252.162597656250 2.230499982834
-133.552246093750 -71.695358276367 -253.925476074219 0.794126927853
-110.117378234863 -67.825523376465 -255.762359619141 1.139291405678
-116.984657287598 -67.235191345215 -258.141571044922 0.522435307503
-84.706375122070 -70.398544311523 -255.294555664063 1.829700827599
-111.911727905273 -67.835006713867 -259.816436767578 1.637967824936
-125.063636779785 -72.489311218262 -263.144226074219 1.682495474815
-147.394744873047 -66.420570373535 -268.366760253906 2.486311674118
-16.222141265869 -69.720481872559 -266.071899414063 2.248689889908
-172.298431396484 -70.466423034668 -265.293731689453 5.598904609680
-15.507921218872 -70.452194213867 -274.231384277344 1.764683246613
-159.882247924805 -65.498451232910 -268.063262939453 3.887937307358
-153.626220703125 -68.969108581543 -274.208007812500 2.892817020416
-170.850357055664 -68.379920959473 -278.342346191406 4.578310489655
-15.165007591248 -71.027214050293 -279.792144775391 4.221180915833
-131.151245117188 -71.340934753418 -283.887817382813 2.706959486008
-158.955703735352 -68.298789978027 -287.006927490234 2.215353727341
-144.879608154297 -67.882965087891 -281.711761474609 0.995468437672
-135.861724853516 -71.746963500977 -281.243194580078 3.308926105499
-9.049545288086 -65.389755249023 -284.882598876953 3.790306091309
-126.857139587402 -72.517852783203 -284.143524169922 1.238729476929
-141.935989379883 -66.835777282715 -286.342681884766 1.544253110886
-116.714805603027 -72.092903137207 -286.420532226563 1.153054237366
-79.905067443848 -67.961250305176 -288.634887695313 2.053031206131
-61.661827087402 -70.766387939453 -287.616882324219 2.510635137558
-7.970940113068 -71.947845458984 -288.273315429688 2.390305042267
-54.857837677002 -69.067535400391 -286.248962402344 2.691556692123
-58.124744415283 -67.885437011719 -289.163177490234 2.160630464554
-71.325477600098 -68.217926025391 -290.889434814453 3.437056064606
-88.984642028809 -68.710166931152 -294.393676757813 2.814853668213
-95.955993652344 -67.310997009277 -289.609436035156 2.523821115494
-161.266494750977 -67.579162597656 -292.245239257813 2.538542985916
-162.049774169922 -69.350463867188 -294.500885009766 2.828263998032
-125.617332458496 -71.766029357910 -294.594848632813 1.931638598442
-145.608306884766 -68.880538940430 -295.730133056641 1.988188624382
-154.034027099609 -70.753501892090 -304.502593994141 2.300945043564
-151.446990966797 -70.827568054199 -312.906921386719 0.374745011330
46.552165985107 -71.427337646484 -14.918519020081 2.545841217041
15.354583740234 -73.944137573242 -30.140323638916 5.559923171997
40.635334014893 -69.340904235840 -34.946300506592 1.549904704094
-16.842901229858 -74.691337585449 -66.800056457520 2.781331539154
80.508827209473 -71.304008483887 -65.328872680664 2.654781103134
87.415328979492 -69.276535034180 -66.146598815918 1.112005352974
76.542411804199 -76.048088073730 -65.700759887695 5.802411079407
71.406379699707 -74.109619140625 -69.459899902344 3.586015701294
89.865226745605 -75.471191406250 -75.134376525879 2.302628278732
-97.383590698242 -67.256439208984 -70.838546752930 3.034090995789
66.509063720703 -73.387435913086 -75.638793945313 4.426485538483
-37.857997894287 -72.223098754883 -77.836784362793 2.132793903351
97.633529663086 -73.055999755859 -86.039665222168 0.968397140503
60.230094909668 -69.965515136719 -90.632064819336 1.384016156197
105.769195556641 -77.541221618652 -93.814636230469 5.791988849640
100.217819213867 -76.475364685059 -98.585624694824 2.223047018051
71.035186767578 -72.433471679688 -100.866798400879 2.801007747650
-81.444435119629 -69.185737609863 -102.065979003906 2.577373981476
53.070354461670 -72.204086303711 -104.495063781738 2.268440246582
105.862907409668 -70.447113037109 -106.167549133301 1.200828075409
45.776958465576 -72.739646911621 -112.675964355469 1.869496703148
78.627166748047 -71.517150878906 -105.616043090820 2.268475055695
40.345199584961 -71.655654907227 -107.732185363770 1.826383948326
102.952552795410 -72.581161499023 -103.385368347168 0.741498589516
46.265258789063 -71.530967712402 -108.057594299316 2.565445899963
105.880706787109 -77.610023498535 -110.071601867676 3.319510936737
108.799751281738 -75.779327392578 -111.479217529297 0.868356645107
-80.700912475586 -68.257110595703 -114.698760986328 2.286272048950
-84.234451293945 -68.364273071289 -119.900703430176 1.582969784737
42.583934783936 -74.841758728027 -120.336341857910 2.545005559921
112.478309631348 -74.423622131348 -121.434288024902 1.369320392609
112.387161254883 -72.548530578613 -123.713470458984 1.783493876457
-88.540855407715 -69.063537597656 -127.522247314453 0.504197359085
104.649688720703 -74.493286132813 -125.923843383789 5.053603172302
-60.710296630859 -74.448471069336 -132.304855346680 3.685815572739
-87.487594604492 -70.260757446289 -127.840782165527 1.594546675682
-73.859138488770 -70.307098388672 -127.663375854492 1.472056388855
-60.459598541260 -66.612869262695 -127.237625122070 1.901978850365
30.327926635742 -71.262115478516 -130.463409423828 1.047861933708
41.104042053223 -70.173454284668 -134.967468261719 3.124205589294
-74.428596496582 -69.712326049805 -137.120513916016 1.997458934784
27.458908081055 -69.653549194336 -131.231658935547 2.482748270035
110.407295227051 -72.608947753906 -143.031967163086 2.039617061615
-41.439300537109 -70.472160339355 -148.717971801758 1.995347619057
29.113368988037 -72.234382629395 -149.135864257813 2.025863409042
112.653846740723 -71.010551452637 -147.804122924805 2.794510602951
34.274520874023 -72.078796386719 -143.018646240234 1.438537001610
109.116638183594 -71.399925231934 -140.924667358398 1.306969881058
-53.593490600586 -70.471107482910 -149.851272583008 1.654860973358
-72.489715576172 -67.455505371094 -151.465560913086 1.481499671936
-56.369976043701 -70.642242431641 -153.017135620117 3.619204759598
-43.348537445068 -73.623611450195 -165.408935546875 1.858231306076
3.445472002029 -72.254135131836 -156.198150634766 2.032432317734
108.587387084961 -72.682479858398 -153.617477416992 3.441916942596
107.743431091309 -72.296020507813 -159.725753784180 2.500333786011
8.819067955017 -70.437698364258 -157.755050659180 2.188702583313
2.079993963242 -70.957138061523 -161.634445190430 1.251022219658
18.000329971313 -70.449218750000 -155.540374755859 2.873257398605
24.435602188110 -69.964874267578 -155.930694580078 1.515405416489
107.524711608887 -71.939575195313 -165.724227905273 2.653329849243
108.315467834473 -75.386322021484 -167.828689575195 1.477347970009
22.778928756714 -68.517814636230 -174.652954101563 2.423300981522
23.742706298828 -73.207061767578 -164.104553222656 3.046760797501
111.029174804688 -70.533119201660 -162.069122314453 1.055402636528
-30.277065277100 -69.190643310547 -177.567596435547 0.920372247696
108.999046325684 -72.572341918945 -167.852233886719 2.224760770798
16.320365905762 -71.535217285156 -167.890167236328 2.371136426926
20.423740386963 -70.985771179199 -168.002792358398 2.087627887726
107.342712402344 -72.472572326660 -172.949478149414 1.863745570183
25.558231353760 -70.307922363281 -170.639831542969 0.499268829823
111.136093139648 -71.593200683594 -183.786651611328 1.753746390343
-39.447257995605 -69.529411315918 -178.111404418945 3.815245628357
23.928310394287 -70.724334716797 -171.371383666992 1.368757247925
106.329605102539 -72.044868469238 -183.950393676758 1.618393778801
21.920413970947 -72.005271911621 -178.840423583984 0.683730423450
-152.982101440430 -67.027404785156 -187.127639770508 1.193962097168
-29.317626953125 -67.286979675293 -189.700317382813 1.430583715439
23.467145919800 -68.957305908203 -185.156341552734 1.531357884407
-114.908760070801 -70.341323852539 -192.447402954102 1.782673954964
-111.953399658203 -66.608215332031 -191.874969482422 2.491828680038
22.628332138062 -71.480842590332 -188.802230834961 0.970982968807
10.546046257019 -68.944175720215 -185.313156127930 4.523726940155
-27.993766784668 -67.664634704590 -190.586593627930 0.707077980042
-30.831211090088 -73.915000915527 -189.613601684570 0.992564320564
-29.156293869019 -70.530563354492 -187.569946289063 2.451147556305
13.671063423157 -68.892852783203 -180.260910034180 2.529282331467
-151.967529296875 -68.308776855469 -195.732238769531 2.153810501099
-146.469680786133 -68.090690612793 -193.490020751953 3.175869226456
-145.538558959961 -71.260971069336 -198.981002807617 1.060121655464
-24.038412094116 -69.290931701660 -191.755035400391 1.843845248222
12.561431884766 -68.548461914063 -199.850250244141 0.820309162140
97.733062744141 -71.139770507813 -193.463241577148 2.090312719345
-114.819770812988 -67.730743408203 -198.918228149414 2.414827823639
20.103109359741 -74.013664245605 -198.654876708984 1.800722599030
-16.427404403687 -69.247077941895 -195.908599853516 0.714634537697
-18.825473785400 -69.598556518555 -199.088943481445 2.499627113342
99.859855651855 -70.796577453613 -199.653045654297 2.060710668564
6.791048049927 -72.437934875488 -199.604476928711 2.822957277298
-23.064466476440 -68.483627319336 -196.858505249023 1.753794550896
-122.485435485840 -71.581314086914 -203.700454711914 1.428793668747
-135.279815673828 -68.627189636230 -203.922424316406 2.305530309677
-115.116630554199 -64.424018859863 -205.502426147461 2.398467540741
-143.308242797852 -71.102554321289 -204.044937133789 0.736594021320
16.397676467896 -70.360130310059 -198.051803588867 1.411341667175
92.682075500488 -73.036170959473 -202.010574340820 1.327717304230
-166.965332031250 -63.615444183350 -202.138916015625 2.805929422379
98.889984130859 -71.547164916992 -202.324111938477 1.607445120811
-22.785484313965 -73.667167663574 -206.468902587891 3.691279888153
93.535293579102 -69.748962402344 -210.702346801758 1.687179684639
86.955726623535 -73.058387756348 -211.714157104492 1.563336253166
11.011110305786 -72.249214172363 -206.316726684570 2.071532249451
18.689958572388 -70.089073181152 -212.318283081055 1.003628015518
11.778952598572 -67.800109863281 -208.179626464844 0.472746551037
-11.936388969421 -70.483421325684 -222.800674438477 2.501750230789
-95.519874572754 -70.850563049316 -219.177368164063 2.479485034943
-11.552247047424 -72.236373901367 -212.691848754883 2.480543851852
87.970695495605 -71.872383117676 -216.514312744141 0.899653136730
-94.645431518555 -71.072746276855 -218.254272460938 2.160650014877
-102.173774719238 -66.608085632324 -221.786239624023 1.180332303047
-95.523643493652 -69.568496704102 -220.073242187500 2.048258543015
87.137657165527 -73.187011718750 -222.192657470703 1.255008816719
-136.352767944336 -68.721366882324 -225.819686889648 1.590928912163
-133.552093505859 -72.177200317383 -227.391677856445 1.736979126930
-117.710754394531 -68.477706909180 -225.444442749023 1.932585239410
-114.136680603027 -66.057289123535 -223.793853759766 2.804694414139
-134.377838134766 -66.923500061035 -227.857345581055 2.496393442154
-112.847465515137 -75.175773620605 -228.152847290039 2.430349826813
-113.257064819336 -68.499069213867 -228.674743652344 2.141039371490
-7.973231792450 -73.397819519043 -225.066696166992 1.187360644341
-17.038614273071 -72.319381713867 -223.610260009766 1.908109307289
-1.996868014336 -68.364456176758 -230.844848632813 1.193263649940
-11.178770065308 -67.396789550781 -227.413009643555 1.030251622200
14.337102890015 -71.269317626953 -233.901214599609 0.430212289095
-19.884468078613 -68.397026062012 -229.569885253906 3.719576120377
-167.881240844727 -66.301467895508 -223.002456665039 2.265203714371
-5.149230003357 -70.227790832520 -233.889297485352 0.461147755384
79.798782348633 -68.764801025391 -231.444671630859 2.301848411560
9.901062965393 -72.226150512695 -234.057266235352 2.006762504578
-6.923591136932 -69.513214111328 -235.203582763672 1.803791403770
-157.861618041992 -65.756156921387 -237.205749511719 2.097236394882
-143.307464599609 -66.790763854980 -231.085906982422 1.042771339417
61.571895599365 -69.999885559082 -236.191238403320 1.567683577538
-6.708644866943 -71.153373718262 -234.551467895508 1.279764771461
8.235052108765 -72.484405517578 -231.134231567383 2.096538305283
68.351554870605 -73.530021667480 -230.577957153320 1.647457718849
75.912765502930 -71.874816894531 -234.584503173828 1.698083519936
69.998229980469 -72.471702575684 -241.665588378906 1.538962244987
-2.646096944809 -73.050735473633 -236.130035400391 1.026347279549
57.035217285156 -69.548469543457 -238.263809204102 2.558964490891
-20.076295852661 -72.526679992676 -240.191589355469 1.166324853897
-16.266164779663 -67.797248840332 -240.821456909180 2.241600513458
7.202074050903 -70.325889587402 -239.757766723633 2.312502384186
63.707935333252 -74.414367675781 -238.213775634766 1.410614848137
64.434730529785 -69.829551696777 -240.954177856445 2.452913761139
