# This PCD file was generated using the MATLAB® pcwrite function
# from Computer Vision Toolbox®.
# .PCD v.7 - Point Cloud Data file format
VERSION .7
FIELDS x y z
SIZE 8 8 8
TYPE F F F
COUNT 1 1 1
WIDTH 784
HEIGHT 1
VIEWPOINT 0 0 0 1 0 0 0
POINTS 784
DATA ascii
-49.975019135535604 -74.147223005937775 -195.889710633167397
102.631665820653623 -60.026766908706840 -201.243470130472303
-52.358394461279254 -70.735349697331458 -197.410453948364648
7.216914339996906 -67.377118134322245 -211.012960528675876
18.964291327293218 -66.205943651908839 -208.447352796518828
-49.460644499103580 -72.657622958082612 -198.977643867374070
-19.251500588794066 -71.282543247139785 -198.181778072287500
99.669976826119722 -60.192360029839953 -206.450101511439755
97.002249857520894 -63.188346520397111 -207.102312972088214
-49.329296950857326 -72.299694274962377 -195.903646670511534
-148.884551368828653 -85.876898918365683 -204.776578002498127
-46.696166214840147 -72.272633155068448 -205.162273826840078
-145.666565432481775 -81.864069295603954 -203.673398654822449
-136.776197146290684 -76.828749121443835 -205.039381737175518
-46.068007032741860 -73.962606758557214 -205.120269696307957
9.111421696120173 -68.234547715225531 -217.043544032706905
-17.791415899372115 -67.832628822100702 -213.049818728491005
14.327207989015790 -65.334254875340832 -210.851981471018235
90.238701062718079 -62.486650333518405 -222.312420743153723
-37.336258820206602 -70.101447863364257 -209.814282622601922
-14.020211315067490 -68.252177327354616 -214.112013557195894
-15.959272941782483 -67.367949864498357 -221.176886415308843
-37.554972186658588 -70.623160523594365 -213.965677206862949
6.654709556888349 -67.165113069732072 -215.039881347989478
-79.056813558455730 -73.971962411922917 -217.518935292187393
14.161810374680307 -66.813157139270629 -223.080033672743525
-36.647579432959603 -70.266041589539682 -214.355420092430791
-145.728106975395974 -82.197242704904113 -214.250539889139816
-144.574998024295667 -76.110800427722054 -216.432457918682928
-88.799171841909271 -75.111577162257632 -219.986041760749970
-36.803008558880904 -68.905999266188473 -218.105984388111779
-19.804840205298440 -72.556401448532199 -221.362656834667803
-33.110855720626866 -71.065695100318763 -216.827808948818586
-92.680351015810984 -75.893816807755002 -223.968910860358278
-88.866322162615361 -75.681970271262699 -221.701157340535474
5.904406937868945 -69.961411428539193 -229.956567611491948
-151.317936026234264 -76.268684665699737 -219.677122697227333
-15.126430641611387 -71.133812558637047 -221.723539485227434
7.290103545774519 -71.243213266977037 -227.842160064686766
-146.036429560197121 -78.047561094601392 -224.807732115947431
-23.485217669543566 -70.413136290615611 -225.924781308130150
-2.824088453065460 -64.804625673142041 -229.465421362290385
-8.094654266496818 -68.808311315089867 -228.130838988766072
-154.176912129568791 -76.976108379656296 -229.179185102794690
-141.048679036143852 -71.832756172072465 -231.838897459483633
-7.216418728232556 -67.606515659467632 -233.072532112408624
-149.870313728067629 -83.722933390455339 -233.330286321641665
-1.140236121583839 -63.268162387752355 -238.581741167914402
14.850897043544812 -64.459619831870000 -243.517022900756388
-3.505450092606771 -67.968678868913187 -240.096545502064942
-3.247800318721926 -62.463813913654100 -242.635569610766822
5.752683529066897 -65.319009217337594 -240.783696815787891
-153.449600492791888 -78.774331948117521 -243.339853945609036
-22.026282181364273 -66.100703925498550 -243.722746688959035
-36.946499976799302 -70.418307270770228 -247.131488955055204
0.961468895437571 -64.512872883665622 -242.420222050480731
-0.557674568451632 -68.904000786275162 -249.578302897117169
0.222672944879525 -65.208946255888407 -242.821328117373525
-58.990531026312709 -69.439748029342411 -250.014202383539498
-151.309739132638782 -75.142782833644063 -253.197877607089879
-154.499592355686445 -78.243294845743179 -253.176887486668534
8.221088309128890 -65.981787080382219 -255.979865040057689
21.097277252367363 -64.681749865271158 -256.443034195281768
-63.353009683702673 -68.270411654291252 -255.124284741841620
-145.529574855729805 -79.989864171313855 -258.343641386759430
-155.379971401931755 -79.992924725777740 -260.072075722325565
-154.360371804418207 -81.728558572063534 -263.013281865907743
-145.288730314234385 -73.928879329570250 -267.096880786757140
-142.253790182621742 -76.390982740935499 -262.315733570842156
-11.775313770616203 -66.555149135399930 -265.084753278312235
-147.281275473054080 -77.474624611911864 -268.380991267469255
-16.258182925260442 -66.120438816263672 -274.707705319449019
-150.376151214811443 -74.803626335963941 -279.109018856535840
-150.745694591191750 -74.901113834106198 -287.808628299907355
-152.360172734839892 -74.076182715316534 -288.705353979672509
-7.511924679440515 -59.433944544369567 -293.297823554858496
-149.527094520479892 -70.976818769169043 -289.645437247343409
-31.577004508602631 -65.612747849561572 -294.627501179727119
-32.350578426626463 -63.229344290085578 -294.257017915832648
-19.109661630188505 -61.810378158653080 -299.893652798110452
-16.388422376368077 -61.321097286947371 -299.184841994401495
9.319484610882700 -63.146107896711897 -300.416693447803652
-128.495054488502944 -73.542899507519891 -295.716032048452121
-63.125223819751113 -67.378841178551539 -295.170766398265016
-44.341129679823098 -63.747737990873077 -297.448953613963965
-36.223244294707051 -65.718265607009599 -296.424200660129713
-12.975673320178446 -61.592248336500759 -300.688944614445461
1.505988767550726 -62.611220589941432 -297.117449539937127
-145.888252050686759 -74.963789056193448 -301.506451137915917
6.018543578307333 -61.677033921198969 -302.718992790072150
-156.478356040917390 -72.383760867986325 -307.093120870879488
-155.505812447156785 -76.972026013104298 -306.731816004202130
-157.088141920457218 -70.948005064770413 -316.786087646075259
-148.234362978952589 -72.192246543217621 -315.568353327291220
-47.749279918942065 -80.988381421893536 -60.614384403643484
-52.187768405342162 -83.846712182691888 -64.453152436195850
-63.303910209260316 -81.107395510100105 -62.967324745014679
-39.074236518182182 -78.910513823495407 -69.132764666908074
-33.841454310119559 -79.766509595391497 -67.710303094137529
-18.306224385889603 -77.051749969811524 -77.868846320799307
-79.707538713121139 -81.138997688757030 -76.062136552680684
85.547623353785724 -69.385340433993619 -89.354439350702407
-88.029836054175689 -81.876880009906657 -84.288040478404469
83.194784761081550 -68.136155259985969 -89.965084359789643
88.311056149837682 -65.598458306612926 -94.772748764347853
97.046725323661647 -65.296070870792391 -99.261841828055339
-58.201469461179300 -82.722427528098294 -103.753513449681463
83.943384819056462 -68.372644568028917 -106.533129422239696
79.253971790087746 -71.305873310439239 -102.699419414936528
88.108751599077067 -68.294762480733908 -101.331166382651219
-58.998383287326043 -80.830543412930311 -105.284284358991101
51.699610484512007 -69.036242440951213 -107.747746406796196
46.872123145297714 -69.970976525676036 -116.616386262879175
41.699577772441586 -71.466757470521003 -114.158637259756347
38.206569743044625 -71.304662833039870 -114.401394973675906
-90.234513410724432 -78.614923615897794 -114.147309351487905
36.608100049687074 -69.319120455514124 -127.088561628806204
-83.276137883056307 -81.148240318681459 -115.865789100533490
42.170151948810940 -70.752209161379852 -135.457420046158745
34.266754298679935 -71.073461687919263 -131.266560358830418
34.240094905354439 -65.017241524582289 -131.081380538277926
44.461478808335528 -68.499332821920120 -128.386800349800581
41.309436869577603 -71.213916002402485 -137.661215102924814
-51.900583411962373 -71.506056268512026 -142.868861354278749
37.583764662468866 -71.778723588033827 -144.759758285281407
36.104034394877992 -68.130745522416120 -152.917044756463554
-53.810246612538151 -73.525042944998376 -149.657353372009993
-45.663237250484386 -75.324292850350545 -148.374266227921396
35.048723813281249 -68.155230326260153 -152.697436871796015
110.602156779332375 -59.382257479827388 -152.477659032171232
112.635788929396639 -59.720229450048826 -155.725878430777527
26.881789638849803 -70.338447622123851 -152.302526927404017
-40.527166008825176 -76.053535716999264 -157.407064673403795
114.735480848756268 -65.608887857750773 -165.123121493651524
-38.685420206068443 -72.389126831760947 -160.998354701078654
-67.890999217358967 -75.416173827473486 -167.905873503478347
110.393048931047218 -64.236685681819992 -169.852836092953794
22.423261352491561 -68.567486461804450 -174.202345514859076
0.437836753906278 -70.964934555188933 -171.850405257736497
111.508786639126029 -61.677747405688706 -165.821744798299790
-64.286217607788913 -74.606463334340006 -172.754666617853331
-38.040981945594496 -73.314411327425674 -171.380218137589452
111.569665612245032 -61.067113091805062 -176.083657319953147
27.999154667894924 -64.771938795795876 -167.851605167851687
-62.989930144450213 -70.338363799073761 -172.539803352168349
111.401308709558123 -61.136463624927366 -177.740210984970588
-65.167470442352780 -76.433276838088887 -176.199541921508512
-50.466509227786865 -74.922661961599729 -188.385915607271500
105.396175705184604 -59.975165556034874 -182.672353316914609
-60.093247352465951 -72.774305981959600 -178.428203327382391
110.914746796601179 -59.458312149901538 -187.648688144599248
-61.027876717637362 -73.655465019026593 -182.735767036211882
-15.646452776555682 -68.490386044943321 -185.844561372401472
-11.512454121370290 -73.333031954690370 -189.790911836259681
107.203844885401338 -62.168066574882403 -180.315737601783383
20.706982311063275 -68.398529757890188 -181.123240931638236
28.981554304591779 -64.235305701180465 -179.280197194744119
-57.574653770784472 -72.782849394002994 -184.650342601793682
17.416984661095686 -65.991202192611894 -191.147009153567581
-57.988465881479151 -73.820320778359388 -183.213019429109181
-52.634268305392823 -71.092408256720589 -198.313694119801255
11.611232838605497 -65.889640652856727 -193.002125576363369
-57.734817990690935 -70.455862411450397 -187.570918203738302
105.529639788889099 -58.203791174380456 -198.053729411007225
24.095013836900890 -68.354427304096603 -190.936587277850776
-34.603122669665737 -69.195529338045915 -196.356223728576879
-43.371633497902323 -72.784426951819128 -198.883327211925007
10.259658451584613 -68.052449525892669 -201.902720943977044
-19.746889431251908 -70.716478159705929 -197.946411193773997
-49.523742215722301 -72.859034048319131 -202.427187127484103
101.794908575342120 -62.897761279410446 -194.917992938017903
11.558783760242108 -69.192873601173986 -199.809000644010268
-133.993977190143738 -81.943961925558725 -205.065727618845244
-46.523377064063538 -73.326630447193338 -202.390415397219328
94.205306879068985 -59.391764917612555 -209.778683853752057
-149.039780490260853 -84.719351652405251 -207.936953116755831
17.168186891544487 -66.398142620373477 -206.886438521430705
-44.035228177191748 -68.388294022553907 -213.190807794864668
-32.113421198549752 -71.708447297008917 -213.963350393776125
-38.249860401247858 -70.780194530490192 -211.095139197399590
-45.307344555798387 -74.925036818911565 -205.484259895845923
98.609262046526894 -59.257128837277101 -214.371641773330055
-21.431325388981151 -71.416795727438114 -209.829793056879907
-150.958664871957126 -79.557433117197348 -208.198249384380631
14.794911692449542 -67.422917586671929 -212.657786540275140
-77.523272664904354 -76.933540145360269 -214.245705566812603
-147.625293702517297 -77.221748514624736 -217.605824891743509
93.243433992390081 -60.046252110230654 -222.911768604916631
-34.168208202502925 -68.582096203826765 -215.105511225493331
-30.281854738465654 -69.260836099470794 -220.631761968749686
7.496761918907149 -66.858859618856584 -219.543010846995230
-72.422547385147567 -75.460015391062086 -217.093633928897077
-29.018293522709453 -74.195596238036927 -216.175033821655632
-8.270116334352137 -67.783405440108169 -224.573316757846669
-73.334612086014900 -73.876218594672039 -221.441837015155670
-15.871663141507552 -67.824435444828310 -225.841615388451999
5.963876968819075 -60.694011886200826 -220.958408392631782
12.863244375375885 -67.065652010516274 -229.651078769056141
-151.009612998184849 -79.677332474203126 -222.553714766027213
-9.880758801384962 -67.096383910816485 -223.034239070077604
-100.447454779561099 -70.881368631995954 -226.610252374238996
-23.496237289505114 -67.426597020281790 -227.967868198182884
88.490010533079243 -63.105772991609825 -222.943312371291768
5.891698594336596 -64.145553624112580 -234.516937610750347
17.439887108903942 -64.248026465908083 -225.662541321732022
78.941901530596084 -60.606535170250851 -227.595346966436466
-0.580649960923558 -67.852419038823399 -237.443651146126172
83.842742898469837 -59.776314667883675 -227.759381358192172
-21.199175705714907 -65.059135041127007 -231.554100172077085
13.951452937840244 -63.334022856320750 -228.082568020517272
-148.392534651355277 -79.508928669501202 -226.292059763941268
-24.810503740573616 -69.022364901602316 -233.703233274613353
-0.269840365678944 -64.518119640817545 -237.945904845540383
-156.755779308482090 -82.417948313617970 -232.063391667905421
-138.283768655609492 -78.213429585521951 -233.898834831209740
3.238358635755786 -65.336947294471059 -233.358909058621180
-5.986161074621132 -64.018987256226751 -236.550072612687131
-138.337887557993668 -74.242746251195086 -235.630202066203765
-148.175072917909375 -77.517702178601127 -244.751424099983865
-149.548539505977629 -77.419677949518359 -241.404075910061067
-34.262530366887219 -68.519038816761523 -245.551040605259573
-145.605885059728962 -78.187308072014631 -248.359797048282815
15.291653221986166 -64.117685238613234 -250.672568133339837
2.921758027910400 -64.090395002347023 -252.703983590904102
-152.375047351691194 -73.706203347811240 -242.340973853419143
-151.118479323831252 -76.734322389680614 -249.381248815887488
-48.460277334327323 -69.750828415316235 -251.840589637670462
-33.674236151914457 -67.936070423172481 -253.747268255358506
2.347810325375776 -65.106335737162183 -252.957283419574708
-39.494733580407704 -68.904969505331238 -253.285686615713416
19.910155075791614 -63.113512442284275 -256.031539456974997
-7.864329332120530 -66.949290987554463 -259.800164688885729
-148.745526135361501 -76.624574622972347 -258.274762425787401
-11.078577768599555 -68.754087757385207 -260.911273158601603
-149.871608420917909 -75.061242453422821 -254.343643873567316
-68.506189244275120 -71.040089564397221 -257.104909433093496
-149.790583775218636 -82.460980935652998 -265.305900067252878
-129.136655520167466 -73.707448555551196 -264.384587578922492
-153.699217676378964 -74.564141126365726 -263.914015895990076
-14.650907541169566 -62.058280898066698 -274.778600459100630
-148.144578297680710 -79.213846425993211 -275.268670573271322
-152.096710257106707 -75.700592773980787 -273.220583956150961
-13.972841452975183 -64.899220997911755 -278.849370866660536
-147.927205049435344 -75.199037309491501 -276.008619457728457
-8.539473495347931 -62.443552986389150 -286.121873285255731
-49.257344761286930 -65.315962498861040 -292.650887794898097
-137.617297500305114 -71.106061353798410 -293.953735763478676
-137.558050613983795 -72.052460179858315 -291.522017639707087
-127.601803679463814 -69.901477642644522 -289.451111167979718
-55.787875916316835 -65.424767927343879 -293.807808756442171
-116.515221170445471 -69.300493249498686 -291.599337877223661
12.437621107758652 -59.920544455699108 -300.135054128796526
-61.622201366115533 -65.062484378916224 -295.868616501005363
-144.398073275127132 -72.404899459603513 -297.558562353512855
-66.205160849101574 -65.618856426499136 -297.405332940746916
-146.705636209989734 -76.900309277774852 -298.252282645317223
-120.210456817731384 -69.308383462119266 -296.483830941027861
-49.762005410131252 -66.762291450941291 -298.007035142054576
-37.634466667433344 -64.456417932483689 -299.037964841723010
-139.582478545234551 -69.667716901868218 -299.542633296286454
-16.410945197827107 -59.712854665118130 -293.758274925186811
-0.274937878372003 -61.243977538304890 -297.408589334744306
2.934213000550906 -60.043136032865306 -299.569193336436285
11.565160228680465 -60.832392641712474 -303.589645144895940
-152.674065036906768 -75.897082328953971 -302.669513579183331
-149.477375457505332 -71.463007437772390 -300.988522943246153
-65.049747338621330 -80.889763766801906 -68.841437726345603
90.197351142347699 -68.841756641421838 -84.341404940455917
80.624337562481074 -69.378505555459213 -87.527919667705021
-24.935305629231721 -79.077846302075713 -85.177698406781914
85.815858599632790 -66.993675026814131 -86.106794927491819
-34.650450182742958 -79.504809193853490 -88.317225698268032
86.316621930970072 -65.900950219524177 -91.249783742383741
96.340036677646992 -64.822115632378313 -91.550961253110799
-63.411626616938008 -73.335190642405209 -101.962692842121470
75.313148557725128 -68.211220398239860 -104.430207582307389
81.472692742618307 -65.857289877819269 -107.866512393951169
96.211455324464708 -67.959205834168316 -105.754021878138900
56.728066526335226 -70.273069207221909 -107.662439324984348
-68.871202055105613 -78.798066271757804 -108.817721736812331
-73.006219734539798 -75.476149572649334 -108.430340028315499
51.278662234185873 -70.713990395186983 -114.381878885885101
-87.246854155116225 -81.958073606366881 -110.644230404361466
47.008145535430323 -66.910702419363432 -127.301180313224549
111.184280978060713 -62.554571578840395 -130.256159578696270
113.040459544489394 -63.707958065589089 -142.265555164570003
23.527885737135463 -67.716811410017627 -146.871967486332721
110.806616185370515 -63.736881186395919 -137.897537467632844
28.322432917982521 -67.596491445033280 -143.190105904127222
113.261399691203721 -58.477060501292826 -141.879563975442466
38.116302516545900 -66.922429629730885 -144.112342701614807
-53.617044868467737 -75.414566850824670 -149.547549211909143
36.032846419094867 -69.422250453785082 -153.503244546112285
109.238838312602311 -60.578931988819058 -147.114272375707628
-47.401871002978297 -73.385484111917862 -151.928822458414118
32.171818285908699 -67.011937717319356 -158.692899224135374
-56.072983679247393 -71.615669911453949 -147.822478847347270
-56.154671526074623 -75.289975589614826 -153.494167643697608
-51.130297897445956 -76.428116583763469 -157.717140474046801
-64.174284284456178 -77.035662334897566 -163.564801356979331
113.259672301571953 -63.722398840456428 -159.127260771630915
-49.539070542582607 -77.956804649129140 -163.335740365629476
22.722208796528435 -71.148713876428985 -165.165204711862771
108.269942278745390 -61.265591234241839 -171.146266081795261
-65.735286990316851 -74.710089637659308 -162.875437658874716
-44.928588394100828 -74.304636632264845 -164.598571316736297
8.568364663467138 -67.030575915461483 -163.495197691964393
-67.591736509088520 -75.059288749350827 -164.285411460145895
-62.568881758344837 -76.171058773961775 -167.330905308613637
-0.405052334879388 -69.497805781446360 -170.999089813273940
-43.151066075392571 -70.344139434445282 -175.267756293693253
29.324868591377665 -64.896197402589777 -175.354205156228829
-62.911972498414492 -71.694615017546440 -174.442907028883099
-56.504644460725288 -74.850399477764270 -175.000200454068761
16.895789720508436 -70.066094865558924 -169.670406991342645
-30.891745177987513 -70.866142329178714 -176.937694506176285
-29.326259398139282 -73.444559286883134 -175.152359686227157
15.446857617485438 -68.185271082885791 -183.731143708481056
-42.303352307036391 -74.074818744121572 -180.897043326158212
-11.438942340938137 -70.326289743772577 -181.170169362391334
-63.703546378732398 -71.504212916314344 -179.242333095907441
-7.055452345776115 -67.058394925571747 -181.324416155634196
-22.780627419651658 -70.350983116605462 -187.987574696044078
22.102771545600071 -64.252745741736902 -191.818187750203208
-39.099579484133741 -72.591117956404148 -180.183223635479294
19.087116732369491 -64.067964461533279 -185.724414163559061
-23.728654291055516 -66.565076791957225 -192.583429252578298
-32.531491286575907 -72.551468537833557 -187.667217512422212
-148.232999869520768 -77.870434945710187 -195.262582840076675
-19.988502182316470 -72.318499683394833 -193.308310481053923
-142.582920152349033 -78.041266791125580 -194.577843424010723
-152.413780495408531 -79.735508505111426 -192.731625039564506
-49.427986251070074 -70.180047250899563 -195.402892908206752
96.999292693034889 -58.746854691334470 -205.379600390319411
-145.098318130440219 -79.902880685130299 -197.309766372688216
-149.558679197051418 -78.354064716133877 -201.615194398022652
20.779749582271872 -64.193125735891002 -206.037244435501179
-137.892483654325503 -77.842448871597853 -202.662626009495682
14.440324320321171 -63.097294901274857 -207.532878696669741
-139.719007595774400 -79.338597911276807 -204.676627351475645
11.836173428386184 -63.431026593669174 -205.899363169229616
-134.754217972083666 -75.292362488036574 -203.748781006166780
4.789311932506073 -64.102573637307472 -212.864207250949278
-151.530463194523946 -78.514973616261400 -209.488835932571931
92.899377108899401 -58.709009197727390 -215.941339083480273
-17.053999082646932 -69.617419839778151 -214.250148857462023
-31.666046477149777 -67.875390366484851 -215.889267348994167
-12.583258818378301 -64.550702200137408 -213.707368190622731
-147.712999595856616 -80.622391816361102 -216.909192442536551
-36.542667414551644 -69.339105519322672 -212.292651064002143
-83.829266804870258 -74.863902164836190 -213.378183014384945
-27.958666994813715 -69.495107304755379 -217.161074015986514
14.785001316341486 -64.911821539302622 -220.850480758828098
-148.068492209889513 -76.633244519614991 -219.628303705653423
-91.114482477768107 -73.989999092295193 -223.850306310799908
-31.075969318329104 -66.954954581235185 -224.683378559853736
-28.168721883412122 -67.014509858138993 -227.634348780481560
-12.115076008201637 -68.047451278221132 -219.511440576708424
-28.730007778494443 -67.613019955669600 -217.927020466991621
-84.135071913014542 -72.175869034210749 -226.353282100434228
-89.371696661584281 -76.075464053738344 -225.812654688432588
-24.959407196289241 -66.900048068893113 -228.681721504714005
-3.350813437060400 -70.248656541098299 -232.325074179231535
-154.341632874894827 -79.109890464086888 -222.622330755485052
-3.905128349244504 -67.049741882818822 -228.833080105268607
84.482013746066784 -60.821305249412234 -236.385461549078741
-141.778264182408833 -78.690495028131920 -229.635571089137500
-7.929399208906453 -66.601283515073689 -230.813330978299746
-141.464689379906304 -77.643238162035786 -231.820989037633694
-147.790560931407128 -84.268795855986312 -231.933891223578257
-8.153035233547461 -64.203764619503943 -237.303599334914225
17.690961127331605 -64.503899673506595 -226.503165742960277
-141.308343208285407 -74.899510366247625 -234.925886409460929
-18.559127533688848 -67.168762290761407 -236.694360267308070
72.630196392642517 -59.675187964205392 -236.440400621352694
73.509432403036527 -58.457696715171103 -242.904616613644407
7.710750716371930 -65.249628011709419 -239.378262956577487
-32.850236512661176 -68.175780578173146 -244.687364024049032
-23.237620791011789 -71.003174142593522 -249.867705209339590
1.655282624992098 -62.149840949566304 -251.668747377094917
-49.521775872232233 -64.788240250436942 -250.185279269172781
-24.142375061654235 -64.527957392952473 -250.867140850523583
6.988042676371197 -61.450573073172848 -249.408537178099664
-65.355748209624636 -69.198858229668147 -252.646935097400558
-35.914808707505188 -69.471663317622841 -251.761772279142747
-42.628637054489694 -65.555416994551919 -252.817579814635394
-150.728000759348163 -74.458671943138725 -251.340918538949893
-47.747872496559260 -69.481664335071912 -255.494556991733816
-55.512861216508917 -63.569672987625630 -254.798856970349448
-68.351835223330326 -68.863889466987573 -256.714336871517617
-12.763279272349019 -67.044056778128009 -256.470028188309982
-82.019007017273296 -70.312898703177822 -260.896808376483250
-157.473551019431767 -80.623160161495008 -260.285665311803768
-143.161454237538806 -74.340620548913122 -260.365451095253604
-125.213578891334436 -73.759440659203904 -265.632752872492119
-158.865714137621950 -72.346053703322724 -265.664223336178964
17.442313306080898 -65.213378658450480 -274.299734595808559
-16.381517635635667 -65.112263411073030 -276.799934419767624
-155.376779055551367 -76.676575245314226 -278.397613110740338
-154.068078559872987 -78.815958474588555 -283.668225625688706
-147.686545726754417 -75.918097615515521 -290.748870148647370
-61.512213127077210 -62.700158273302748 -289.182762878844244
-41.988086582564115 -61.064900319640792 -293.231716559073277
-24.796488826467218 -60.555693902852504 -296.038793813704558
-13.951425359795417 -59.861628988615536 -290.071087035052130
-68.718467256643507 -68.386625268914727 -293.111644474625507
-83.043135861564124 -69.757444817013479 -293.316089546257899
-5.925206201457339 -62.236491306453196 -292.977700817151458
1.867548893644573 -61.283391886629509 -299.072608154127124
-141.073836816547100 -71.109137196191924 -293.215548400247826
-82.638239990092160 -65.354096131430239 -293.807525728093538
-150.095286676071140 -72.236842245726365 -293.243557647197179
-96.902002817648864 -73.590102508243433 -293.511994617739674
-81.615131228870951 -66.828490329002818 -293.894898068721773
-88.348177971104050 -65.305822526259675 -300.177299019669420
-64.947997614888820 -65.251001876171770 -298.342885559693570
-32.514280214115800 -58.597556840160955 -301.307462839174434
-9.899942416188052 -60.778857224095269 -299.385709964147395
-155.477385609539766 -67.915437828190335 -302.139024408594480
-153.220262283405276 -70.807980593061458 -305.520085513602396
-147.974156143867816 -71.233520698891468 -308.827886764439256
-159.840333741401366 -72.141409231683440 -310.844666942839581
-54.223191495564812 -78.040585024516616 -63.190128792405659
-44.299340973737230 -78.578649258596158 -60.863771649788475
-36.386827963076712 -79.395083517534147 -62.573704602636383
-73.758677450864056 -83.038640237519701 -68.327962904551242
-26.553614271300791 -76.382260864823081 -71.898597326986945
-30.866736112125928 -76.324473332963265 -87.630852757057241
76.843035178200225 -70.409466729539815 -92.286138946149265
77.103076803638146 -68.688179994947106 -90.836800682018989
75.155250710415373 -66.684249487861393 -93.991603788636553
99.779912560917950 -63.079860582750328 -100.678976150906109
72.051448111990254 -69.444860197840967 -99.678422585562060
51.949538061413080 -70.896250092445896 -100.440908704660288
51.772374727759768 -72.736551336040705 -110.579066419372708
-65.280352885235388 -77.187035507133217 -108.447645381075461
-71.942036151227043 -73.239238055426597 -108.945176140832217
46.300766853195185 -69.908028125957259 -112.952882260319257
-80.362810642752393 -83.048248463849006 -116.764547137793173
-91.831351213768144 -77.843027569574772 -117.990934389061948
52.155384464999983 -67.844725373409020 -117.047301572007399
108.158529231338164 -62.161983822088530 -124.212623647507215
33.696779166672762 -70.279465075261541 -132.681759845913234
44.891385946611713 -68.950725394797729 -128.390629966893016
41.793836031289672 -67.441404007714354 -133.645578450190158
30.750713074640682 -69.983406145546738 -132.871477078740611
109.650611192342680 -62.506659029660433 -131.079558016773717
40.049326926971489 -69.357060441731946 -139.812969244703027
33.073974674873810 -65.052186622169799 -140.781126612863886
-45.015907020076462 -72.896241207689059 -150.716146593732901
-70.360788909386073 -77.314527569713050 -151.657881702372038
-53.375305139034346 -72.701576268603219 -154.360725861613730
-72.294860043687521 -78.137967680737276 -153.332259721536730
-39.528394798056105 -71.878580283996669 -155.194898841222368
106.913459368217573 -60.026610084630434 -164.705692769679501
-71.400134303634147 -76.259692021292850 -163.038859319226219
24.132876645495436 -70.562236357289876 -156.983064827362739
30.675941798790621 -68.830094647011876 -160.449734226326257
112.347548548497855 -61.744607260738753 -172.111096241255950
9.406755935490986 -69.798001098273915 -168.175605042193013
32.226943418104888 -64.749212065916907 -164.551357878536635
-63.644405565825288 -75.123475531287454 -166.537270642905412
-41.887830012231390 -72.775892668202772 -179.303624213600983
20.072110031732613 -66.166516050582629 -172.204560801486821
-64.591437806317842 -72.938607947076264 -166.828701665974563
-69.272878585202022 -74.197295669351604 -172.571331808289926
110.912450737103129 -60.723711481658469 -176.989078289729321
-8.032458031626939 -69.667028014502421 -175.025750659051539
-64.268657608949965 -72.248221330492925 -181.018654799370381
-32.216420329263492 -71.990183364199709 -176.457281328156057
-55.182651865057657 -71.208581498139097 -179.976350790974266
28.845707084299789 -65.174607942398836 -181.681577594690793
109.839437727379718 -57.238065270985715 -183.467100501451341
101.351808498386049 -58.150188692224475 -194.004574395795942
104.581623910159578 -58.245790685426449 -199.894764374178692
105.880304456913237 -57.245364620076266 -187.518660603187129
-53.047282647485972 -70.141652246192777 -197.624485967533360
-50.077238274113711 -68.638090451499863 -190.203493664875907
25.863130854302899 -65.382448878245214 -192.407537718872277
-49.587499426736500 -69.512780223354895 -194.379363767970290
-21.100418022176342 -69.315763894500648 -192.338293397628377
-51.538777643684064 -72.625347713137998 -199.072616261567475
-151.682129818561293 -78.286270995724266 -198.269419549646386
100.090066409316265 -59.669539528346519 -203.461698259415300
-45.747589954632602 -67.859280695034485 -201.312262404695673
-15.373076648189139 -68.816089898544988 -206.637615951518171
-140.596612225454237 -78.126225346193237 -200.148129239080788
-44.336544901727173 -67.694755207193893 -205.104760836821015
100.570589020653287 -57.422151886791795 -207.519629704921556
105.677949741756393 -56.970229681305575 -196.176796156038336
-45.392360495086109 -69.793437485157398 -203.914522330480168
-23.806808107703681 -73.127470150105111 -206.273437121603706
-148.307606741062671 -82.124133226894969 -205.562337036167889
-26.023221001974481 -68.792330847998130 -204.807075745880240
-157.956079173902168 -79.946472712659187 -203.239033861047403
-153.092420021705834 -83.721805301683247 -209.737895642047192
-143.809678918070858 -79.588239167555585 -207.504442843055699
-39.447366938415016 -69.768672931384344 -207.497709322150115
99.656817923363135 -58.379157018763600 -212.166647703418107
-42.190577605651875 -67.675175960892687 -207.168108742345339
-143.837310444376925 -80.809644904900466 -210.688127973818894
-39.303907441333401 -65.757106303445767 -213.173286547369230
-21.819052471799576 -71.028169037727665 -218.142337967184289
95.492192770308890 -59.526511772385838 -215.676031940748487
89.514387963335921 -58.717068412985626 -223.542519555894046
-36.068017594978990 -66.386171309555834 -224.711654249975311
-88.584791886187546 -73.486479770450643 -217.667711070290352
-76.892367848491389 -72.071088420550339 -218.601609183565358
-20.157876018391821 -66.867323530762434 -221.755674905346950
-150.609713302644224 -78.886917697129249 -211.313865085731095
88.330974582920120 -57.883735260985105 -223.654358105369113
86.800400427317626 -55.949309792101865 -228.250611950935252
88.149804913669811 -57.454923129903520 -230.259613246507797
-103.668212111225543 -73.099618651382428 -226.534824550350265
-154.111576905504364 -79.553839775319773 -227.452412066399518
-21.838854851225079 -65.104151317363673 -230.503892807289787
77.564326447862754 -55.655974353381900 -235.830815770070330
-150.685609763480699 -80.061149915541748 -229.556003801491954
-29.563439185582610 -68.236773266961549 -226.847952372470445
-135.176155650531911 -73.562861172872147 -236.861321764748652
-13.616073652878800 -67.374601434310122 -238.242770598119307
15.457016412743457 -62.355120624903670 -234.694933983170188
17.591911745887938 -63.225615436374298 -241.498696144357666
-156.152805504504215 -79.577515667934662 -239.681374203822543
-127.781689940914760 -71.208741983113228 -238.368429953798397
-10.394693502692299 -63.795559948549403 -243.330963307138347
-2.200560489817102 -62.985936010667665 -245.497540259926211
66.833510717443104 -58.020958160640419 -242.611281021775596
67.964150240403839 -55.279964332121786 -247.530881049710672
-2.785437973849620 -62.152144220791101 -248.479036442210145
13.787558124937334 -58.876840109740883 -248.127820475358533
-32.845641315129271 -60.317794166531925 -247.927211617106821
-35.476665769455792 -71.553761181029898 -249.480781083141494
-49.023454143186079 -66.796529515942055 -246.043024251369218
-41.609177132734139 -64.712554065923811 -248.343944202585192
-19.677565072433175 -65.883521998776175 -250.769527175382564
-54.790816609027985 -65.865579910556491 -250.988715079140263
-0.563803383192705 -63.204710323238686 -253.447311018517439
-70.320145421395736 -69.341573293971919 -251.146174856910818
18.191362887713041 -62.016224155306062 -255.864524454156992
-145.898350686670227 -77.008347851957950 -250.645682503939554
-74.855067484431203 -70.802746308634042 -258.650032196098323
12.834789015341489 -63.056015082374017 -257.866107699072188
-163.434136878499203 -74.937870860376933 -254.442613700842173
12.622155889939901 -64.485423347145769 -261.573212994460960
-82.602217558918596 -65.524328736608069 -257.199500210439055
-77.488718804001053 -69.409942598861932 -257.666606472488922
16.957494711921377 -62.196615140713071 -263.795487817027777
-91.587415496398364 -69.195153795467235 -258.679784884798153
-128.195642765725751 -70.189493772603910 -260.735030502234395
-135.760650255140490 -75.196397251177558 -265.277913063789867
-137.146188272694616 -75.673483110460339 -260.500421263391900
-149.438436817392812 -74.626487233946690 -266.280112872429868
-146.769874310005122 -71.916315254879208 -260.351844967435056
-137.422981003560523 -71.413770604879304 -267.219904268837297
-164.217511350144179 -72.723113522921082 -265.650468897888402
-129.706183082500758 -71.142541383489217 -271.846769001269422
-138.098285040275556 -69.549404943705653 -267.931710289305840
-166.420341481427386 -72.472545288753395 -272.207678698006248
-159.366537663113263 -72.274791175854617 -269.121734774010122
-151.979364738003341 -72.308357702092977 -270.699064661490638
-150.536211264995757 -74.075769258624547 -270.963553288051287
13.463274687037551 -61.881246176395464 -287.242683144348405
-168.642336325304314 -74.900626614394255 -272.001726455314895
-154.567207958358949 -74.226517829257986 -278.706273857946258
-8.415480737116120 -68.388239748248040 -281.604069143417689
-160.114593814326554 -72.046532208340864 -277.527877329046760
8.969038366339936 -63.125533153356173 -290.610676084146576
-155.259962804264035 -72.551254328931904 -286.990803727946400
-167.513180868235054 -74.318576344171333 -292.708995081193223
-157.646849306472916 -74.945697632694916 -285.510383914635270
-168.301887444757512 -72.038859169167040 -292.535668020824801
-2.075099965190302 -62.493293244928189 -295.796560750460969
4.136596180514064 -64.036295872815089 -291.623642259047870
-105.499384166842304 -66.766359366879882 -296.877734928412110
-156.734291970613782 -76.601126915956030 -293.067726974525669
-151.520910740435653 -70.558054518525282 -291.037456917737643
-110.753159762367133 -67.678613233873634 -296.640542610819637
-155.292104922497714 -74.185605167295364 -297.133850003737734
-151.430959319907629 -74.733620720018990 -294.755300665974971
-75.480875449077942 -67.893784524860465 -299.386584378623525
-168.779271487268687 -75.082714034192563 -294.450349415321966
-126.660840790806617 -67.251729998285427 -296.955960637539533
-46.418029600648076 -66.864968244110997 -295.424068380318886
-156.547940193199992 -72.268467783947074 -293.591673442823037
-136.824586202965151 -66.566149427952226 -298.712303152855270
-22.519037169700855 -59.355864587987838 -301.473045898260864
-131.583036992427253 -67.619328293335784 -298.858556524757887
2.060741385744189 -60.097427483350302 -302.678602616508783
11.384448853954373 -56.731162585619160 -300.890035659998887
-137.087027757088237 -68.150939334682221 -297.103025675164588
-148.972777181693715 -72.531714265829706 -302.500276964035265
-159.823834627815387 -72.936317984208969 -318.984193619716507
-69.576936999090989 -76.839023598135157 -59.480392942436580
-20.254483637168182 -71.401830260553169 -71.886453255059962
-17.777242318294334 -77.604280237937147 -73.576844474487203
74.145626683186293 -65.634174065570178 -87.086063683357153
92.644293874471202 -65.791018725451721 -86.278568458272431
-35.030880709859822 -75.822313994449630 -86.972174602792379
76.848073713605714 -66.555775801475747 -89.694660478204895
91.242887642746183 -68.964631278441061 -92.954773777261636
69.466959880285998 -67.357122396037809 -93.573041758731705
73.989833964778342 -65.965014087176698 -98.882857254542174
-47.821118689958418 -78.072829401548560 -94.155601775263420
-89.721513990408212 -82.039549881407709 -95.452995096609882
60.146282765003875 -69.332707758946938 -103.839168908142170
51.385247397290193 -69.260603341835534 -108.793184842425333
94.586782192770372 -61.979394193250890 -109.606153486240984
-90.929199404890966 -75.359261799416984 -108.395006621874984
82.734727080573947 -62.279473950907132 -109.338956580754967
74.176013389104270 -66.278727828766833 -110.224543366185657
92.852834440071618 -66.102879863442254 -108.948994890732322
84.252460955818691 -64.862384287734756 -108.354515711577520
84.271824311217443 -67.745551529054893 -109.094022559103607
-83.684798503923886 -80.194054858612333 -109.580859650629947
43.358488969189999 -66.644901150094768 -116.257250571424805
106.194976150031707 -63.414673336517907 -121.643228913639263
108.776323188295805 -62.823474794548900 -121.684412170638794
48.965897892336123 -68.965535455448830 -128.574185302349804
111.700191696243934 -63.553949351574914 -132.152187193820453
116.840429916385716 -62.638688741646611 -146.116865417205133
-50.931438531579737 -71.996608716682886 -138.824698234512539
27.621851260520469 -66.927692717339653 -143.705553318463160
41.082961384920218 -68.694056994520480 -143.229462956603300
24.995125003226299 -64.530631101566399 -151.757294177882557
113.077336581650457 -62.628621038390023 -149.514241281070554
111.917199935735667 -61.426106001983300 -142.817571099485917
-73.337704472733350 -74.524517317568453 -155.476369894458969
-43.688662496008057 -71.893987644319068 -150.653730523642764
-71.186073002826959 -72.419143768790789 -158.482365147003122
19.517985793530588 -65.647646643129903 -158.666600327154413
111.988941314350257 -57.561783632724776 -160.284583181547475
-53.416980117564592 -73.858831996645222 -158.638199747309045
-71.172067886061399 -72.891378673705404 -158.218459729020310
-38.642138291652913 -74.421255528998486 -160.577929927920366
31.782064634522410 -61.216085464001374 -162.256710564254092
109.376190642110558 -56.892919418432186 -161.965400458723366
114.602440092576558 -57.552443974404831 -171.551709303256530
-68.411000378874434 -70.740832672845741 -162.221198536179884
-72.617304644870046 -75.066753316609038 -168.485538125611299
21.537825275705025 -68.974517720943453 -172.620107814320306
-60.530140205955490 -70.179870681288619 -174.199406509625533
-33.155245072040593 -68.958055375269552 -170.426033675229121
7.546314869113504 -68.018181043633930 -172.346344160419790
107.902274870545341 -57.117089309904223 -172.490204489050484
7.554901606031235 -69.331412546018512 -175.956394054637599
-33.144671549376810 -70.337711300526266 -173.709632946000170
-2.668321110595528 -63.841328638505928 -174.161598926945544
106.517056083951090 -55.867697153502654 -178.796741320697947
-41.891586969888728 -68.327760945365327 -173.286797592440450
28.281697949015054 -62.049515083817035 -181.292594604303986
112.222432192371429 -60.592701931977700 -183.601184421939308
-57.988576486542740 -68.525291007047358 -183.540769325365488
-28.596378472288148 -71.343997690158417 -182.897465077775621
101.976742332148831 -58.598689390847824 -184.924248939151482
28.335018102696804 -63.031549806243952 -178.849898378690966
106.690578388455748 -59.757402675000407 -186.170946953727878
-37.785617988779464 -66.566920393558092 -185.896400237875866
107.366706631556255 -59.993697618848017 -191.735314199859033
-62.612008310448495 -69.281814674176047 -184.890038024236446
-25.932987368315764 -72.071781249489177 -187.234224523527075
-147.178324955900194 -73.503625911741253 -189.014244639739559
-54.874207028732116 -69.830964846176613 -188.241154255420497
-147.568008472546097 -78.078817099740689 -191.983817767523476
-35.053498001997319 -66.848723956331199 -192.871946992202766
26.214890736851459 -67.542084415671837 -191.190192740186092
105.271872795553207 -58.153579668938335 -194.181780910939835
-34.808969309433444 -69.018870839567654 -191.870521319928741
9.922055712745736 -65.349566460815822 -199.698258646890508
15.819675745021890 -63.035467213575743 -212.495970314268845
-148.673102263202082 -78.153772215041229 -195.442339536602617
103.668180042787910 -58.835688126773448 -206.474474118365947
-22.570929482649582 -64.979756413563322 -201.247852430735861
100.060300301306654 -58.504513857163822 -199.048119420976263
11.623896996503593 -62.457341122853613 -198.219527776209020
-137.861637155969476 -75.422960006155080 -209.544596920262165
-139.662079975907204 -75.840419845441232 -205.697810753810245
98.793434688169881 -59.275741979753882 -212.179218380339364
-12.889874697546306 -69.454389899018480 -209.034022550835573
-17.598352105624723 -67.001929837602191 -211.311024696609309
9.193467131775176 -65.563535649859062 -216.310277936685509
-151.082738124927801 -75.067341513801722 -211.387402913027813
-147.146790426922422 -77.465414102404182 -213.812899287092648
98.023860115171757 -52.730160755411454 -215.030528055287618
-83.439837628462499 -70.619244492932992 -215.087593494970918
-37.207010646630430 -68.355010112669873 -209.582166242009293
17.327973414834123 -65.093304278133445 -222.481623915091973
-26.640466736028362 -66.751272640374054 -219.238726934917509
-77.884945407042977 -69.047834190081275 -214.821835152279448
89.172826484898096 -57.105017295621117 -220.168277248811705
-81.924746979426999 -68.352287109038642 -219.189960957969902
-148.580832871664853 -75.916583830137256 -224.256816846958998
-81.409136754471049 -69.310913582598218 -220.141623171765957
-15.080505625511579 -61.001731217355662 -217.919864939483659
-22.534845835259610 -63.061561353174717 -226.909886646949644
16.814846908751061 -62.534784865114688 -222.254184550031084
-7.132999581973909 -65.486405962544282 -228.071995978192206
-89.481651985011709 -73.865279377528154 -225.837740950389900
90.625787038746111 -55.916202504727352 -224.056775407612633
-99.805950846573197 -70.912746671973778 -222.191408916258013
-153.668183304491436 -74.856685244549169 -229.523429213229349
-27.053019643161033 -64.473983699073273 -231.650750661338179
16.058033646668520 -62.972418210106973 -225.010442312369889
-103.461095738889867 -71.931897407858997 -226.516294517586800
5.385679396195586 -60.220063084290359 -227.388104944758538
-27.249622339929889 -66.065762208328593 -223.675494838545035
80.571269044494542 -55.178920473779961 -234.354955619098121
-146.645166619324584 -74.625527239877101 -224.752804061387735
8.260843753216340 -61.162727309662841 -234.465983515380913
-11.152968762164965 -66.899935888689996 -234.260277750391879
15.145332250160045 -56.479679496480387 -231.049982397323788
81.562384645387226 -57.591065402969271 -232.615913821147387
-15.384091579903671 -66.321132195707577 -236.943367820625895
-131.981808362695034 -74.737522388987998 -232.536011453542869
-15.683168793188480 -64.624049257428197 -232.751045845019689
14.653458967639828 -61.957678678823868 -240.035918430206607
-128.105119344247328 -75.261342129283065 -233.352712860197585
-153.369961728677879 -72.094526727268175 -234.840355351311700
-144.014941746126908 -73.424689315480919 -234.501761103081492
-132.590477338361950 -71.771629489699606 -233.681674962321608
-15.181275950223089 -62.372408701812041 -233.382302424750037
69.576529689394135 -56.980242595894929 -238.175309360258382
-145.289368719086497 -70.642338691182928 -241.690042431560471
68.613329463121033 -58.405323291318190 -238.817921649398954
-22.180469626903093 -67.692967922784746 -237.967857468660270
-143.573141434007795 -77.497904038368205 -235.203024718460767
75.405221114660336 -61.420732321420743 -239.279470805913206
7.821042667323683 -65.608233350161171 -242.439885956569185
-143.008976114622357 -77.905013590097141 -241.199071027020125
-151.791290712947216 -73.723300497053955 -239.317677563953794
14.448029407432454 -58.375424664073471 -240.141240029750804
-4.766783478518757 -64.913284485215328 -246.296832370321795
-29.888810623944366 -64.115068349470803 -245.119185902820561
-4.198773221717309 -58.734834719975801 -245.838166428920431
-162.354715509844027 -77.213894958534794 -243.112112069304203
5.421104009094361 -60.312784097161405 -252.131155354853490
-166.423701242335227 -75.963221161188244 -243.974208518347154
-14.934286832765233 -64.528424051364496 -246.009293014506568
59.078868360877252 -58.132039003542452 -249.007391573792972
-15.391584961035425 -62.512426977479620 -246.303759269177647
-27.310678496452386 -63.169629260441717 -252.312220713113163
-27.343587208507543 -63.604499306973636 -249.733597437924743
-14.990358100893973 -65.321095959201926 -249.251956761830513
-147.907538641360333 -74.785316967275705 -236.604450728450161
5.612752019883155 -60.749366090303248 -250.947819887889636
61.566998271267238 -56.373681865628335 -253.447618127116641
12.026152388740735 -58.645511638753604 -253.786841662306699
-167.924880521961001 -73.753903940392263 -246.632484819181286
-52.759884636633153 -65.145538233701089 -248.212794420883597
1.920307502302500 -67.911292489043745 -257.123401536186861
14.503152813370590 -60.603248620522571 -253.081998514439647
-56.605240988987134 -65.307980820586224 -254.548275031317928
-5.670439341419095 -58.084498343314735 -256.463810439176200
18.697145252521686 -64.655270884911545 -257.153875678362567
-171.274020478765323 -73.297711548406355 -253.735630816177945
-69.645581520220148 -70.095375838743593 -255.482119931927002
-54.016954717104070 -64.648778428895525 -254.781982767370664
-83.541982065955210 -66.908448379173493 -258.118242660158160
-162.927604519973841 -75.331909147291356 -252.272758984075381
-153.291060537519087 -67.820617816491477 -254.642281849178858
-62.357568641836892 -67.971157059644938 -257.051984727707406
-71.144455656737691 -66.748923868652454 -257.048791430942458
-155.928917774882905 -71.617945166154968 -257.985414332084474
-154.124214780539887 -74.072168398558645 -257.786077620158437
-78.562147518216094 -64.147887838261894 -261.174089655512205
-96.054079100413873 -66.118605676685917 -261.699077884908945
-166.861322500776765 -69.890617400638263 -257.153899006161737
-159.145613369241289 -73.412763314801282 -265.078805514927410
-137.066083082871131 -72.965695471902862 -264.144442969575891
-85.505858343261821 -67.875716849107988 -258.195376912318750
-164.528995280123524 -71.375794353442998 -258.021829848106108
-144.301038748478248 -70.480788907835446 -262.430870670222191
-87.749715709195257 -67.214303760388972 -258.011474691632770
-99.426167460275138 -66.229889188227673 -266.772529130096302
-147.283958786704545 -73.319922464331398 -261.639528263983550
-95.976497998158990 -68.058390751034082 -262.731077035458497
-154.979621361412541 -71.537400933470423 -261.376389700552863
-104.779493906818388 -68.624838584385159 -262.024551726182551
-171.016193113027242 -73.479340437038957 -263.937603371226828
-163.802443972369076 -74.633291027212195 -268.766486741977133
-128.567609609322091 -73.655541443141274 -262.747667405856873
-154.031395921280534 -72.881338856010430 -264.920717805497077
-114.611346720644903 -66.795918781570421 -268.047701418921292
-17.307742483781759 -60.556847978644143 -270.057664840204552
