# This PCD file was generated using the MATLAB® pcwrite function
# from Computer Vision Toolbox®.
# .PCD v.7 - Point Cloud Data file format
VERSION .7
FIELDS x y z
SIZE 8 8 8
TYPE F F F
COUNT 1 1 1
WIDTH 785
HEIGHT 1
VIEWPOINT 0 0 0 1 0 0 0
POINTS 785
DATA ascii
-64.070180794649772 -83.854360291876105 -95.754547571419664
-69.138987133906909 -88.437189459503500 -104.356792305085932
-77.464009955657431 -84.189255671030821 -103.687633049962670
-80.805897772271734 -80.277801968253357 -109.453760461598307
-20.187795296119749 -84.369834265274463 -178.113045946011937
-29.416005853385730 -82.485203952339930 -190.539690362119757
-34.856490399652039 -82.615621942954490 -195.413591637987025
-27.581754470632571 -75.091462263865253 -187.785428183031371
-35.819788692213756 -83.363905724792005 -189.653468854846778
-45.233471969727951 -76.654302184259038 -204.999218240216834
-143.233473014262245 -84.177561677160512 -211.673837080344896
-59.736711236478151 -81.138937505189219 -209.337080223923380
-151.825237788777031 -91.020401928208770 -229.368544050638690
-146.736435569657004 -76.474702844149348 -234.560033516587509
-158.803095232930701 -85.014911344785176 -230.625226639445913
-148.065016820400984 -85.297688807174424 -228.021960523650051
-143.375175305771307 -80.943484928137337 -234.751764979114483
-150.775595208694625 -85.869407565928611 -236.500952380065030
-153.310223778346682 -84.526285593158761 -252.272225028330013
9.918667344425312 -75.032768688559216 -245.422042926980140
-8.873177258730122 -76.635201225949302 -252.864894352232227
-151.022288597729812 -87.752709854783447 -264.676944922117798
-5.822962348698963 -69.545003434965651 -273.414812642374216
5.492565741581243 -76.622029251485316 -263.778058017919193
-4.424712937797870 -81.550858043094763 -269.735834514016176
-152.078570204909909 -88.873552682982762 -274.933875240956638
-148.213519484134935 -81.445669607602383 -295.538863538322460
-145.595862979314433 -77.016790673407925 -307.631637288988827
-147.274288223722237 -82.228594508087937 -296.719646192554762
-153.528110703336154 -77.769632476941254 -301.256239529853588
-76.826096718712122 -75.891043948067903 -72.746677872970849
-73.432347428170274 -81.441490737835338 -75.730432629870208
-43.406132478944727 -80.499778309684800 -84.555107309570445
-43.921393520452185 -79.719531378014011 -77.078521158558672
-80.642580318858151 -77.840423258982753 -89.326034107896035
-56.216597924036954 -80.387882801662457 -85.491203370590952
-60.063829186858946 -79.088645563637513 -96.641008687619134
-68.953078563651786 -84.090202302227340 -97.370413315014417
-15.610462044349624 -82.194796174415586 -174.143437005385408
-19.392610817464320 -75.907026620653696 -186.255307119763728
-53.347803983955508 -85.169090300343498 -185.706577501119966
-143.980326211716715 -84.277720007755150 -199.176689377459439
-42.600818909941069 -74.886384417867802 -194.886438101021270
-149.069704218014692 -80.804990853988173 -202.159552059392752
-142.486230485334261 -73.825392116577007 -200.510530253829444
-41.352981590676237 -79.560064626759598 -186.524033131916127
-148.647077630153433 -74.448662465077916 -207.323544019260083
-143.935440211669231 -81.042816485946503 -206.701000578650962
-54.367346654110790 -79.176353850146199 -202.267551217256710
-150.397403786325469 -76.927244978978692 -201.579062126168566
-61.461575618103240 -80.980174575596976 -210.627660324672377
-143.990648763444142 -87.327367325803991 -200.833662322198990
-65.373291808367753 -68.102932615161535 -212.478330631631906
15.238543624550257 -68.880868584659751 -243.533305685753675
6.948201395712212 -72.414312311581540 -235.625233402136871
-145.162081855586450 -78.604571897967119 -237.323609611145315
18.270185083102700 -79.999364715026516 -248.929252134293165
13.674911637208439 -75.980743227248254 -251.822319817549840
6.637622013086841 -74.853566086495505 -251.785900060804806
8.840161955665188 -78.342395603250139 -259.620898575322940
-149.921379312826645 -78.160044875874547 -254.136689780485426
-141.984015713652184 -86.116291398491882 -267.734087982886876
15.271382722815584 -73.945954029117615 -267.728996429249833
-154.146548645056640 -80.288688833994314 -276.249957792709552
-155.792171018135775 -74.700260530208013 -274.396000679911481
-3.990614599725350 -72.061548348514165 -280.546914955757302
-144.495121844587402 -78.890626649248091 -281.292758163090355
-137.026750972149785 -84.233211331902709 -290.035614117378088
-149.444936218659990 -78.955390714574577 -286.515884731951587
-150.985407169568759 -80.928665320532048 -299.396366078636220
-157.359778157190419 -76.756073854891454 -297.631309806367767
-132.127699166947508 -82.870373410707714 -298.340395364063909
-152.310188382517737 -77.099221067463688 -300.511669511457853
-59.264356670400510 -75.860803831146910 -65.129219136263359
-63.672997602672474 -79.735406809976581 -71.757552957773925
-43.105247680178238 -70.800458541880147 -79.221548441985618
-89.517325995661096 -83.853768435530327 -93.739837705118546
-38.484167410332567 -79.360356273506923 -86.527576812202796
-43.408473964386857 -83.806280561467517 -87.927530119822762
-88.158589262453006 -87.684297944382550 -107.531083802068395
-74.879482081687868 -81.425263201696893 -102.843123073854230
26.568168785709169 -82.520490275351349 -128.040889731642267
32.429367318963237 -77.734635381674096 -141.958980174654471
-20.149606072923550 -80.349127079431852 -181.473356842659854
-19.308053071492044 -79.130307731161551 -184.804225112151244
-36.917021181725133 -77.422051277706373 -190.931097725933768
-38.316396234946012 -76.828705245976451 -198.410922260259127
-56.966938355428766 -78.693175003129156 -187.418981200543698
-32.717234474145229 -81.317528771738267 -192.406174839349006
-140.286715323291304 -77.265650291272181 -191.407068468240880
-151.070140172668431 -75.087606043702053 -198.946153081961029
-162.415507413165528 -84.682602330407605 -200.323984445217746
-155.993496523555734 -76.093120451482761 -205.442112118632991
-74.979813470060648 -79.702682290010173 -211.799006838222112
-67.342897171659203 -71.622054818155945 -211.631446337170416
-149.606524595505306 -76.119954492543755 -215.467653405284494
-71.567644912119178 -75.942353614799174 -205.290345535169251
-69.714021479478376 -80.873504600502429 -214.976210545359550
-81.670746385423314 -79.603003635964640 -214.971837353311287
-153.094348624664264 -80.417914326934351 -228.854109970015742
-145.702951221832905 -76.676732240592827 -234.558918963795833
-154.449034425738688 -84.596579069514178 -250.279866118974667
16.797232518013040 -75.216408523366297 -250.667964910543105
5.538688170699126 -70.762529302759802 -254.186597604279484
-141.336289473731483 -79.920028586712320 -259.292449986619317
13.859237677905586 -76.191119222996704 -257.905397472443099
6.330373530949159 -71.466317975391803 -257.387502274225483
-147.958597181473408 -79.797799740982356 -267.748539494805982
-149.730907387637046 -81.723973994356342 -276.203390696890665
-1.167214678481256 -63.852686414250293 -273.472647063704812
8.008773432421687 -70.639234300954442 -279.105417955320036
-155.003604731152762 -75.651162548561828 -286.550303572827602
-155.427370676532632 -81.312372593833530 -291.760751258705113
-152.405895093728390 -80.671351884566022 -305.774175161105006
-47.787491454826601 -81.967875230340582 -76.217607115583547
-74.723637950828248 -78.611378695968455 -72.398705854027725
-50.950584669777811 -81.780542682368122 -72.244329062146406
-35.535790274516714 -82.633497446629903 -78.048561514450583
-78.208915655039277 -82.773136527771825 -71.694830556292928
-40.082918392587068 -80.328465784047722 -86.994999089745860
-47.398460829514470 -83.740709761883835 -93.143658606501390
-61.563152611833921 -78.745916217440708 -98.157872844850047
-61.193068792439576 -80.010729040503236 -98.090797513930909
-67.131928490098687 -77.984868714595152 -99.705307595837596
-89.978320652837311 -80.022431180909237 -103.960098410359933
40.287983784728603 -76.909953985301172 -123.760508863387088
37.059835992719499 -74.309722007262124 -127.492328737572677
-46.808065647062008 -76.333868612276362 -168.343192572925886
-39.565123200098810 -74.773223855258308 -170.586959614840424
-13.966915166060080 -74.444544640009440 -167.712405698864472
-68.955435147054970 -77.770490637576401 -170.496945263608552
-62.333697245034038 -72.782935853930837 -179.773333839267309
-61.325956291939661 -79.160302851504426 -174.702031430754857
-31.198829962672715 -74.052479796517446 -170.705306399270398
-51.954898857948699 -78.265053230990958 -184.473462890131117
-28.372746146682136 -71.820116156286787 -182.717665142578682
-155.648670579355695 -86.425801910332780 -188.064450917060896
-51.489713094245353 -77.992212444960785 -185.989851654058725
-44.307547974099890 -72.404753261306212 -197.435797391993049
-38.527510517512802 -77.267756759323902 -186.235712058372599
-36.572018580513586 -78.188322761242745 -191.966798511194497
-35.139844580266754 -79.594346986581513 -191.162958315092339
-28.434008472908037 -78.584716659225080 -190.363684809001001
-52.036148198219621 -74.023489731588086 -199.908907340781923
-146.198545596092686 -75.481794230797135 -198.030601400133861
-39.948154788864329 -73.367558542762239 -196.738383736248466
-44.704989860684520 -73.045738534797550 -194.652801525441561
-43.734207482719675 -74.325480632341367 -202.708250293520024
-50.493937908080675 -76.820348679833458 -200.212286219133091
-137.231993238259548 -74.687768067678945 -204.056140597001132
-123.235047998243573 -81.087481948023111 -208.491496296349140
-41.710561243056198 -77.199049374135555 -206.605544407913584
-63.520309815710242 -77.862954186988546 -202.387036552290340
-37.745667399010131 -76.067722330910385 -204.162459368539061
-145.643843401644432 -75.760414388065243 -209.445059791341350
-74.939571555041908 -76.236409627905005 -207.085416339004468
-35.129063677603327 -81.091097706457163 -210.408091898192140
12.301692779053496 -74.324702799172229 -204.277406301366568
-78.946274711725650 -70.674147184749103 -218.347323406854628
-32.038737973162718 -66.217503677819153 -214.007494112489127
6.807123862078423 -80.361402897771669 -217.995697894163101
-142.253120814519775 -76.481031130654998 -214.059518848097724
12.205071284230318 -72.710813462971302 -227.704425090751215
11.181544253869792 -68.014210973517294 -224.625038838052802
11.701077120374947 -71.503249807723748 -230.132503679701216
-131.969786485606846 -84.095591021827971 -231.824997833934901
-151.451797305821145 -75.905819796112041 -240.562407701869944
13.405028117609543 -80.354323589627512 -233.734347064322691
13.884991468724966 -72.181635587056576 -237.362736638724186
12.673742891135714 -73.485128512155583 -245.333011021503495
-154.612353703056755 -71.569466538119869 -246.642490629951055
-149.570765611969023 -78.933903254602484 -247.671273915312952
12.509227759977826 -70.088526836920224 -242.397069941119412
-40.851354472705054 -71.812486739013579 -249.412154153687254
16.114946795188409 -73.901789331237453 -248.763013660305717
-43.655052493093542 -76.650674322724655 -250.201798155899155
-145.916436154937941 -80.301499313394302 -251.606028949299684
18.370489123814814 -71.096904764916630 -256.568349780039682
-146.440352551584795 -75.431743936076572 -264.055607450614048
-149.757376896841180 -82.217534952099641 -259.749413109081786
16.040103768468285 -74.231302121259631 -260.447659877262709
-15.083927431359076 -76.089506779501363 -259.048271895205801
-9.972566379579472 -75.775199349941971 -263.527105775776477
-153.704425778907961 -75.815651397663729 -260.890811802353539
-153.280190577612473 -75.103212824396564 -267.965807346620181
-153.828897903797809 -83.243288040680454 -259.558293588599497
-152.760151074633114 -72.417700509344670 -267.116968771922586
-153.606674633238356 -83.863337850735434 -278.482809805425745
-12.331142066094237 -73.499846384854607 -267.774255140603998
-0.962822668810005 -75.052923280659328 -275.966469519445354
12.551591277664148 -74.951342690875094 -275.666862742749345
10.916611912925593 -74.706600557971370 -286.064471287632671
4.040857422941607 -76.485855498074557 -282.924291575675909
-141.588587658460000 -74.149376192931484 -285.276307822470699
-150.386649086023738 -71.930380564321084 -295.990292691459842
-64.450296639219147 -84.250018825043071 -68.888095690854087
-49.685488456346690 -69.221874130326682 -60.920914094904390
-56.234049246039788 -77.694979450540629 -72.091052380459516
-53.620610288753532 -82.744166609928016 -65.136211067309915
-70.671840782003500 -85.740939534514425 -73.663359499463766
-86.070420322492240 -78.727726355279273 -73.892374248961076
-28.497033972971693 -87.901230477756940 -86.533231903272068
-39.311448346238159 -78.791115344444975 -84.109074400303371
-52.313132486022930 -79.211091655696009 -95.446937636958182
-90.966759680175912 -77.529992278627930 -89.807180446876700
-80.752599574039891 -79.295971613461717 -107.584854754053410
41.185683248487130 -78.162194942351945 -104.543800646188473
-86.281017755690186 -81.095472681784827 -114.959598881922162
33.958918288372779 -80.873035213609683 -122.439462349852931
39.985812627866203 -70.479011266138585 -128.301213872939996
30.219536205639095 -78.554343756668928 -123.882568969430594
26.038997407427630 -72.387411639953129 -131.855072178639773
33.491979324319495 -72.917887552040838 -143.577611775310913
22.906875744710963 -67.600403701516598 -147.957672392172896
-49.116973925325468 -75.355648123881082 -162.182206519881959
27.419213647038930 -77.078679649773832 -146.906742615136324
25.315908133178453 -78.647270604557065 -160.781870431971157
-49.244056876588004 -73.956553398627932 -163.007706166936828
21.138205629559067 -69.568207737721053 -159.618907033118830
-51.921364864277166 -81.533628187766496 -168.284808882576357
15.620989186566373 -72.510035534922693 -167.660917775973161
-60.674438551427144 -72.862068858986603 -167.738171171464472
-9.067518247313080 -79.436164337128275 -182.277355656405376
-44.694275374335653 -76.752997109690114 -170.448418721609357
-22.398018083419014 -76.371454373429955 -180.860578910104834
-54.402041319344711 -81.050758027865882 -182.248126700343590
17.778275835772032 -75.299825452006772 -175.773485601019928
-19.242346509757216 -75.289450421497051 -176.452920650043040
-18.547085069058674 -75.489841918126146 -185.782535180671147
-54.332773763450319 -75.731097804786984 -191.272667221426275
-32.723916122945369 -74.394388979425486 -184.295566210017455
14.881620487103156 -73.470765481347129 -195.279989457842760
-157.189866407290964 -75.718522323038542 -194.567100046475957
-31.548055733821815 -79.486687805328827 -190.720008601440583
-50.147668669412603 -70.995478458123657 -189.897302873721600
-151.570426257633585 -79.582319077909290 -200.233198338554843
-147.000063234249751 -80.850896590200676 -201.048817666076786
-18.728426282250457 -72.540242812868385 -199.305543379988649
-24.226817150594648 -75.657989095392253 -203.566405290846859
-49.192345904154415 -69.249171885914848 -201.907611252822960
-27.542688943684510 -76.653635627627949 -207.552757128207531
-48.807677430304686 -78.669401911638644 -199.962854180896812
-45.359269183182427 -72.155954415955804 -199.402448610994497
-65.903723290070445 -76.806992611436087 -209.656101157820842
-16.590660319603863 -67.541515047559002 -202.850031564658224
-148.943296025122720 -77.897747216249599 -211.280407416531034
-60.447412505005012 -75.985611659024542 -205.848883830913877
-63.933760165582086 -78.212144104669733 -210.286094381606063
-31.487484266696967 -81.456961458877259 -207.636377416648600
-22.828179863609151 -77.423915970743636 -211.715419462283165
-46.095252253145560 -79.291186107945094 -212.950485128149580
-81.791488969951104 -79.964511927784116 -216.702303101609004
-149.860143287377042 -79.157591566538073 -211.109614268510995
-30.261005499723030 -84.947877330887195 -207.365046007194991
11.036945091339241 -77.317960894565260 -211.483019229710436
-65.800316289698017 -75.504410358762030 -209.589854045477125
-66.123426899388420 -72.889237961824819 -210.570993288474341
-25.961087005532150 -76.912892010259966 -214.190793637760777
-13.703500248991904 -73.917254072259851 -210.438113340294848
-29.456816812733340 -72.983222028905033 -224.538726064811897
13.176159640712022 -66.610395121129116 -221.093653898458570
-159.010898107515317 -74.166030449909485 -225.785316857532194
-8.390323040200014 -76.902523767904881 -217.850355848690356
-151.766767096717416 -81.664999795843144 -231.511920886907205
6.110826941917533 -74.571172790556446 -231.049372003360389
10.780803926499406 -80.042271609295526 -227.253391967242976
-9.586782819367011 -75.435670603371321 -224.826446803678579
8.971885484575534 -60.926536536384248 -232.223078280517115
-134.778886844183916 -81.069417653456952 -232.925554048557728
10.620265317323675 -77.053468023843322 -233.543533432659444
-153.409580852615250 -85.859144372854558 -238.206123803983957
-152.304647405694965 -79.562373711888114 -239.551922110146904
-3.937706482713928 -67.578587721321497 -226.021965865505621
17.181025816021631 -68.069851274026675 -231.878768960442812
-40.786390431158267 -72.486024954137221 -239.791733025204366
-141.171495280937108 -76.217406570181012 -244.163057065081944
-32.294192368325142 -79.277895652291519 -247.550205867579905
-44.979971577386443 -79.142531216299176 -247.451711535571292
-29.659713257373419 -72.743124505418905 -246.275986940195992
17.671688725216292 -71.274360313892373 -242.063855541947561
-55.376834611438923 -80.094023182368559 -243.714766629191615
12.876597022642986 -71.656438972251124 -249.679680143663461
1.472776134282861 -71.694216037696634 -241.311726573092926
8.116406341267918 -75.851967604021553 -246.363871325729349
-50.603367350960056 -70.642048030410493 -246.418035900293347
14.837160635388184 -67.413659442251159 -253.988353127847006
-146.577462042910071 -70.507999780493975 -255.122762524484472
16.403366278938563 -68.843845720646456 -250.043380641767612
-2.045534038895041 -74.791915958412616 -253.163176470328892
6.355605549000839 -72.942204234447757 -253.585168979173545
-146.808997268796674 -75.414661528860407 -257.477633917368962
-146.909943721206417 -80.291792811879276 -261.161812118143928
-147.412636640553870 -72.346461146584019 -261.769603214841595
-148.759068020947893 -81.790061969197694 -265.791430646609115
15.420849171628362 -77.430915014607336 -275.447756059525375
-156.066085189642962 -80.096394703736138 -274.116759844809792
-8.135780723477609 -72.389419150651790 -279.765730410941501
-147.654082829454183 -78.637462660883060 -278.098095373218428
-147.871218423267777 -77.824779141014133 -283.772610236538242
-152.302222970973077 -78.759146789742573 -282.179640256222683
-152.122797505429304 -76.044555955278184 -290.787835807976990
-139.368359465811608 -72.488545207290613 -286.923477861127253
-155.120733109265217 -74.624573877301671 -293.561630721699203
-143.241893542092299 -79.283667515099822 -291.587013989763932
-144.053986782541898 -70.015211044366751 -302.679469765059366
-157.649225779662117 -72.809003692202992 -298.681646850194909
-146.817216791812712 -78.532026951654402 -299.134718366733239
-151.613986906647995 -87.491845408162206 -301.657752157367725
-144.373272040770360 -76.554032763462331 -306.566415437408239
-152.828485125419803 -76.771096895440479 -302.774090460263096
-60.224556378269419 -76.711695148445983 -67.887513704334395
-55.181556566757337 -84.755129553138829 -69.867913717550394
-46.682138754142066 -72.335415284504535 -71.747376738110290
-32.044730397023017 -83.134274699145479 -71.528136448654465
-56.827694244937859 -79.753779522591387 -94.875153532022580
-91.763602888273823 -84.757645383111097 -100.211688216486024
44.934979580234803 -78.430357533775080 -111.128709320486180
-87.777266487648205 -76.458979312341512 -107.920632346039852
31.351259532037275 -73.877701389149038 -113.930696739992257
37.659539984024811 -72.237655691685816 -121.021628565009934
29.756027746119436 -74.327885822635210 -130.523419556554074
30.597226835427563 -73.017519518816883 -135.120521802448110
30.844443023086718 -77.448207124764309 -134.088484431547812
28.464612011665778 -74.417088354619239 -144.176745669346730
28.914916577826396 -65.867525330038532 -159.370555805396151
-46.236476592944669 -70.839066776409723 -155.351894205609455
17.571912680581121 -75.192160623284551 -143.245009416415002
-67.458176163494983 -70.968435187741690 -155.337490503422742
-40.056006779949605 -76.987333223926342 -158.499314998958852
-61.688984082408233 -74.900357701902408 -162.118529714268647
-38.666959747156390 -73.792680459898008 -163.776508609705871
24.465581560240668 -72.610240782295591 -152.251892688268271
-38.729470704592416 -72.451999032237040 -167.302788719688920
-10.178341094756602 -76.203821789204611 -175.228885638018170
23.419909883677054 -72.565904958900788 -163.044268159882620
-10.746226049625093 -72.529467123771283 -174.354495001787058
-67.825644953544369 -72.627393451751630 -165.911775086730273
-38.727943061604321 -76.506875587283972 -175.430643665063940
-33.867950250787217 -70.278133387867754 -177.960741584384834
22.641414172275606 -75.530180273478521 -182.247785933555036
-55.559508326780140 -66.737044770431893 -178.533963350287593
-44.951026138793154 -78.267928934111112 -176.363937192125007
22.289761019954010 -77.169625999958228 -182.393734898665542
-50.025075662005293 -71.539286201961261 -188.235497148248811
-30.862896382032133 -70.847532697910111 -181.294905948774016
-50.392193021442402 -79.220760377419964 -182.685355418893579
-49.274602480652938 -68.508755208256915 -201.660939420520378
-33.987055380673048 -73.753150033273201 -190.532818475170671
-49.075765663612195 -68.513132458236512 -200.091384372091227
-23.773181091062945 -73.938794143859397 -194.719740656433203
-140.198812086296471 -75.429609486001837 -201.414264455384966
6.995323900935337 -75.170285627202730 -208.993168090796132
-138.990175318617247 -78.856331083558629 -201.297465723735087
-21.663893286879244 -70.664680103705436 -203.016509526307885
-18.786662440022205 -73.395902262945356 -195.083489368067802
-40.418184735405454 -72.546523696728968 -205.196749027358607
10.925649807039886 -80.618510903387772 -189.132060990585444
-16.704546601008271 -80.905832556026553 -198.548922073907221
-67.337032367030801 -75.932607724020613 -212.337855642525483
-37.331660156147414 -75.490932916568212 -207.550014384463879
-60.014796382709577 -78.707587191356680 -214.192325065002166
-74.404671207297582 -75.560283434400745 -210.320549403696873
19.950098210039034 -67.773097194447772 -214.964058304360776
-83.445302383882122 -76.457373194354545 -218.167556580646021
-35.815785963168373 -73.115386608325636 -217.364403593819105
-87.647484776452643 -76.094738314246854 -221.346261261701756
-143.115637880215814 -84.137496346307842 -219.426959330599544
-13.160471576483975 -77.753386726971200 -219.814691512817234
-12.972054560313524 -78.053811802019482 -218.305034400427672
12.450737412425280 -73.263984853268909 -218.819185758710859
10.696971795722153 -69.881577595709203 -224.053299661435972
-5.963384626194713 -70.655631209701880 -235.137285788584904
-136.488706360055232 -70.785729959340230 -229.180645428031426
-152.377032021509905 -74.624080888132852 -231.679519133290938
-148.353492564759108 -80.785225232942523 -235.324770609093378
13.591603542943890 -71.926328172781623 -236.922937882586751
3.936923998376215 -74.591605337537032 -236.620185465576327
-23.429495105605831 -71.483812022396606 -242.179543288369985
-152.440071728245272 -71.521676547810145 -246.184481013609002
9.880793580276670 -77.710033005677417 -249.327713944879747
-24.793994702197125 -71.087542920537032 -248.739735018959323
14.284877540315250 -64.837357366526334 -246.211257743639635
-57.111852894343805 -66.772791331343257 -245.010918345603216
-57.476051674915254 -74.343462321797347 -243.929497765520409
-150.176516145547993 -72.664169480845132 -244.529962221837479
-67.899182064628818 -69.116465614515022 -247.168436995901004
-2.534791074365645 -70.237021716345708 -251.048757700802469
-15.448436077304557 -67.944185239324895 -256.181453618973535
-153.544777689553655 -78.609413334611517 -262.508704519687910
-133.540718505804250 -79.976811113965553 -259.609150008297718
-139.708172959692547 -74.498337257306929 -269.608635897811723
20.008054192182737 -68.891466537154187 -260.695719288877228
-147.516402822681272 -77.202896072346931 -277.697427672260119
15.919412627560689 -72.132798303210777 -270.548334100151806
-148.662994389474022 -70.809805862835162 -277.244872792477793
-1.688559777845400 -76.573847213185971 -278.408968317721587
-144.027149420802601 -80.756239135568919 -289.253274118609625
0.210965082897891 -69.569185484756588 -284.006707303770497
-151.435912092329943 -71.847948429882280 -289.909947020108405
-139.956469197778972 -73.527507039060126 -295.472912956737218
-136.239321894064773 -76.454176597625874 -284.730962638283131
-150.782330046540551 -77.679139298549615 -296.228918765605272
-23.521207087537906 -69.357935167144362 -294.257751739174751
-156.010350161649882 -81.316687761156700 -295.233472027701055
-151.015874650927231 -70.833776930245975 -293.444037521137716
-150.484129675381837 -78.450213827530561 -318.593510606003179
-57.425809889361283 -82.000277323942413 -53.080841329604674
-38.366306056019404 -77.660889895413220 -63.824906980085217
-85.097827313061543 -85.150992195328541 -73.104523951640374
-29.819394335145137 -73.616615002332679 -72.550883560890767
-34.012244211438905 -79.226099994909475 -76.197901211583272
-84.036023596050001 -70.736574702749294 -82.891773174176549
80.845559782196332 -77.246448160704631 -84.151913672278368
-37.773455910560713 -76.076932465497919 -86.241398168021462
85.232785482861146 -73.985182728474228 -91.817895814587345
75.678491190087570 -72.111475032728663 -98.877039226637294
78.783892427879593 -75.024411705640262 -91.458584223034350
84.702619320442054 -82.542095886483253 -96.993551616876275
92.170293762603876 -73.959118335657891 -93.202796622640179
-95.280560657779162 -83.424755670026400 -101.049800737017904
45.713709480734799 -72.963713536232461 -110.865138320607329
-95.697861524294410 -75.070923524009913 -113.390832129248182
39.132069371427704 -79.202165318653229 -116.456748979584319
50.804267968776045 -63.977009306624822 -113.312583688305622
41.765113632610429 -75.254867235700289 -119.684150472527506
25.525585868219345 -75.709042312071887 -137.732645208617583
21.322280318418130 -74.403791068540727 -136.550420852695282
28.666856015369206 -71.685075149744208 -143.860772057512435
24.933554639692648 -72.044143148938105 -144.102431227881652
-54.840451195961336 -71.237469990474267 -157.416130241695043
-44.794083010764083 -78.314664726060414 -154.740325268960106
-45.535073554148582 -73.291724619386514 -159.671209591873804
28.166860924608876 -69.854727871572678 -154.575789965712801
17.227652185275161 -68.974851951295420 -175.097593301675374
-41.050620836392227 -75.276711821112727 -168.793247960309571
-42.991066425551935 -72.563251826677970 -163.418968572686140
-54.447790393806038 -78.933221747797532 -159.622102166570500
0.267610039507387 -71.387625976217507 -167.962954879808734
17.299841639942663 -74.303513021560747 -154.426137721462766
36.005637137695004 -71.455361566898716 -161.497206340102622
16.692373576169633 -80.782072488508703 -172.556756357720644
-11.328057311774071 -76.657240139545692 -172.767962578084791
-2.034347934263325 -72.169420133588218 -167.297437519544303
-57.016986775955189 -74.538701651892765 -177.654368198715019
-64.046235409734265 -73.902277399971169 -171.873431348039645
-42.170722202492719 -77.541667074251478 -172.135226939231103
-43.532298431612674 -74.472014235374758 -167.122960068685103
18.285642244911291 -68.211325168260856 -176.688814552635677
-21.558417935562019 -75.162128791714906 -179.741660819284817
-39.578596109530999 -73.906476669377000 -182.628973862738690
-63.551537431341352 -79.252678440841208 -181.948602989904543
103.786488766974628 -74.827594906923480 -181.473699772447844
20.303282968209757 -70.610297965164662 -170.085600488524506
-30.206917308790107 -79.379539522206855 -181.159470051114994
-54.992441107764719 -71.308650433073950 -179.736298564037924
-19.454000413581898 -68.855888924589053 -175.835969574995687
105.459422914333615 -70.963315418228618 -178.760136495473802
-54.110442356521276 -79.756088636892088 -180.913971806885854
11.025019896881322 -74.534497503286573 -193.160074044555529
18.071054406464889 -71.846089840634775 -173.907797224490906
-61.615589294333226 -74.493713806958908 -188.328773782202916
-27.808104436663086 -69.540256585810397 -188.085349054018110
-60.178072626877388 -78.259306535431975 -178.359139107227463
-33.815463390663261 -68.786804771321314 -181.293215244626850
-34.997913975946794 -67.973265901016802 -183.147334846329613
20.516256101470937 -66.382344256436568 -191.545743107016563
-52.666120647397143 -71.923055708098630 -188.992112458893956
99.969371840329984 -71.663897716509609 -190.185768452478300
-60.199967737896692 -69.897918624815958 -198.070330005327151
13.576827142765165 -70.006755333294691 -207.469572582740000
19.601259723476549 -78.112413745795635 -204.590806931724899
-47.705944204751589 -73.720188092546238 -185.671401538254372
-26.722505642626384 -72.011792129508990 -194.605534244620571
105.225050495961924 -69.185112532409363 -200.788017754710467
99.711215666334468 -66.426612953543000 -194.550738222552326
-53.210620836975423 -77.876930638624245 -188.402810286811615
-152.740655570910036 -81.849397286168127 -201.913547996788822
-45.012823367141998 -78.241144121458987 -195.124677666799755
-155.186227532956963 -83.253079140803919 -203.252890356794552
-141.338019453922868 -76.115458844933059 -201.725197444542744
-41.831196703604910 -73.592289911042258 -204.366430884771972
6.817610361932503 -68.466109606249219 -206.764273152396697
-25.153450143537167 -70.513102060711077 -209.922523734273597
10.847732644963102 -69.923848214059234 -200.955134155562803
91.875345897880393 -65.921591714968429 -213.546355889191545
-39.207590542601302 -69.574903516620509 -198.846205876485982
-13.636335170612078 -76.932620778205035 -204.916136754184947
-15.635433309159890 -65.436923720215432 -212.730010031151551
-32.534662329563112 -62.721941535129588 -211.337957989970221
10.864450842779039 -68.695547662116667 -211.792355824837159
-80.961925462728630 -72.512729196510008 -214.623406166456903
11.679803066834790 -72.429558188914783 -213.655043161380632
-36.992011903899979 -72.531147435087377 -207.135444568686410
-154.420341116304456 -80.145882157057969 -215.506978661968816
-149.290330508138396 -68.963804694037805 -208.854706847159235
-90.997494649109711 -75.598687266201736 -212.715845084489530
-38.162455271468446 -68.884566149337061 -214.987703649443716
-28.655805328002316 -72.153970629864233 -214.906818793902829
-23.003350585325919 -66.981260793632316 -218.532475055842781
-92.331156934834894 -72.391207064485613 -224.573802153370281
-90.386777476558777 -75.236888099768763 -219.400138270184812
10.946422499955208 -74.601454044556561 -229.686433109478287
-149.471768079751484 -74.871268555293284 -215.705600893366096
-13.534483941526787 -69.291382532411333 -210.785750000319780
4.163574252970112 -71.678518644475048 -225.968219498535149
-154.624559877471285 -74.629746046835052 -215.294825580815257
-17.543076076700679 -64.017680980313671 -218.489045725642939
-10.628840137351666 -70.326005509038481 -222.071592016928406
-12.513584163408844 -69.911819693202261 -222.212071161242363
-156.297057240680232 -78.057290445698797 -228.732784161867244
-148.535276256931212 -68.688439940713025 -236.540216780264956
-15.943911722218218 -73.178243746047229 -222.641846957552531
-158.421544562538884 -81.538095517565452 -234.154740725455611
0.026827168482165 -70.818573545035079 -234.155471904133293
11.325967508351358 -68.830922451600060 -235.657463160731538
-2.854882933942444 -70.383297620550977 -239.666039331683464
-0.405669432753752 -76.566760166066317 -238.297112912553558
2.184581684456222 -70.713595937359329 -237.848044868491911
-156.388951093171698 -75.505883539314212 -241.302601297300782
-13.267172657096364 -72.603227963172344 -234.764557641844021
-35.273946201511727 -70.698409553248368 -245.226009003360645
8.345671675157821 -74.399866707216432 -230.903436356142123
-2.093435342247734 -75.023363263028827 -237.776243735080755
1.470367879988681 -70.588081214153476 -245.327945413887250
-57.669613630171639 -66.381418142140149 -243.176989262374178
-160.147487209658465 -76.410693494161080 -247.047035485034655
-154.505920621089444 -79.499788403559918 -255.316383027963923
8.207383083416914 -75.793933732348592 -247.690924739798106
14.211497494427856 -72.550506247017481 -249.479962647197624
-62.129298834459114 -73.798835755518667 -248.061473736036135
-146.398751343591726 -75.283892502436643 -258.015580745536397
-155.520392040179217 -81.964983170103537 -258.485085468610237
-155.258103640017112 -76.791763949595065 -257.659070484675055
-142.133749762099825 -73.574212126384026 -262.329292107906724
-144.304813705719567 -76.516057759766184 -256.923059303663592
-11.374468916780526 -68.909838010468320 -255.812501204634259
-143.250309103921722 -75.621872338325161 -267.402550687192502
-15.234109854091059 -69.138479894998454 -267.774980201579183
-158.027698852168811 -81.592345216987610 -286.346119223057713
-147.966338697473589 -75.777327673686074 -289.059129958713129
-147.619120492275727 -69.023136371404476 -285.769970580665643
-8.802584904726745 -67.019432548076423 -285.185853719383886
-138.846994547360282 -74.393589727737861 -282.839872790766833
-32.363711768928759 -69.240756675762384 -279.808617180441445
-41.370155475310909 -66.239472857335230 -290.313443859604433
-16.135222072492880 -70.236651048639473 -293.598138414065716
-8.407312849772968 -72.674945787609204 -296.334741284912582
12.034376756940382 -69.978469330251414 -293.413589769069290
-133.370857612348715 -73.789756467658719 -289.007495108982255
-61.745053459513223 -69.267869582313267 -288.400070154377261
-36.349098869208511 -70.579833056403984 -292.742798636385146
-39.254284390746037 -63.663138069958769 -299.593157960357416
-14.728243225216875 -66.227593992476656 -292.041086123759442
5.500057657790095 -68.426194126903582 -286.314482894523508
-148.986909059977592 -78.543879587179873 -291.036230910920892
11.277904753998175 -75.859131346997401 -298.028439088083644
-153.145445132647922 -79.754274248820025 -304.449028479279207
-142.700546195347499 -75.074134438948207 -303.784952016481611
-153.857376792013554 -74.322523423306379 -312.850200264150146
-145.400236941369741 -70.924708278922836 -315.221864660500273
-52.648474514017309 -70.709082665571472 -57.342606348308962
-58.146215569394187 -79.956423576112954 -56.574724992484491
-66.066093940969324 -71.978367253162617 -59.310558033027050
-45.782002315846874 -76.795455597624084 -59.725227307472693
-38.631469417986850 -66.953976037182102 -65.914808596303359
-26.811361968528523 -70.697891806913319 -72.506994791687845
-86.330713850972757 -77.408016597915775 -75.785220245474775
80.169673740039272 -74.830907407160851 -79.091188328902561
-92.240543212733684 -77.031757751213007 -84.349082704771604
82.605108135933932 -72.561429927702846 -85.880349006469800
83.085214709443633 -67.969837859444382 -81.883025018310661
91.899890597773592 -65.076315526290628 -91.076497716304303
-60.291388731115802 -72.612496153529051 -99.892424241319162
80.421007457124347 -71.862053880296799 -95.565074776131468
76.764446580852891 -68.986928139365830 -92.844878110390994
85.744615243011708 -73.093531725589727 -85.813084917465716
-64.081166864500332 -78.558069547585703 -94.920694772913251
46.142567487266376 -73.106888538639012 -96.331642296204492
41.505992824394916 -73.813883203280810 -112.208067190775836
39.114403642796127 -76.959685759495443 -110.006431729248320
34.385173905017567 -74.392697022679528 -113.045854804999450
-92.816061432334692 -77.331785025896565 -113.017402650407917
29.194266909514283 -75.722348588167506 -119.810200592369739
-93.631573376954066 -77.776984258980789 -118.283842072842276
44.912472972389544 -76.562540922346884 -125.155401983542959
26.127892681633035 -67.239151941468819 -121.879594214260464
29.738846453135999 -69.593310986159196 -116.474441567590574
36.586121983070122 -78.684944672280551 -124.217771668710384
32.222918964858778 -72.101438157288129 -128.037112403013481
-51.333585531186863 -79.453790576611340 -137.023329400608361
29.165329619684137 -74.039573238665042 -130.030978145895347
33.185363628968517 -71.987472381798440 -143.643402791436273
-52.815261579013509 -70.714923825316944 -142.371011566269829
-52.042459751866041 -78.029745054558973 -148.326002719005146
35.664821573448940 -69.559116481343452 -150.741985373057361
108.968627458037773 -68.438323876156616 -144.311456302816424
117.340392978420226 -68.181801097098926 -142.255835896109346
24.270829705461285 -77.816665830765146 -149.390786353686536
-47.690929854153438 -74.751810192497032 -150.835450691079075
108.425680541018650 -71.271399621738581 -158.709174851160583
-48.042082010841931 -69.112702771972451 -159.216599943420221
-73.915764969295836 -70.428726222447850 -157.300198641816877
109.828480034318034 -69.903796541209786 -164.337918446042522
16.206574616729192 -71.462104792311393 -166.257732044343669
-9.638288906961582 -78.887321890576700 -163.980186974879359
104.774722474995286 -67.129395436810427 -151.880124023679883
-66.426446649572441 -73.326025584445162 -169.466161685481978
-35.684602753594056 -64.292765427764124 -154.787604955576342
108.608779329307509 -69.781507527936341 -170.974671056105620
25.094702508401198 -77.511078823198901 -163.272873054254404
-63.531664991160696 -73.429605818705113 -177.455182519795159
108.161585809066437 -65.968902590414402 -172.435076162698380
-71.411025004203083 -82.701876281415920 -171.199114937597585
-56.823147448441560 -68.997720832467536 -177.020863573401385
97.315312726634019 -69.150796391684167 -177.016428050493545
-65.379342305944164 -73.864613826711391 -166.198022735946637
111.755080751110896 -75.292215093160763 -176.348693919665607
-61.527873446391162 -73.776893664983206 -175.809871284984325
-23.424959514009814 -76.004437111611097 -177.046654149775435
-19.873111160439766 -70.856310661193334 -185.962737088196207
101.134689349725264 -57.203775828043199 -175.627315020674843
17.883337346283923 -68.688045377498369 -174.952655469284707
20.526188249846118 -70.914394538942986 -170.389086294929626
-56.243011745481809 -70.885892401035321 -186.638431227706064
18.238733617830292 -70.563772835622871 -182.525313601832437
-62.303927013647787 -73.050452686448040 -180.707288106988528
-57.146742105394608 -73.300229865328546 -183.948246978048076
9.377103575730089 -68.800879789984492 -182.625447160549356
-63.992087401398372 -81.096179091912674 -180.325021593269355
103.727613846663189 -71.961264988584915 -183.945765561514406
19.995697110591955 -75.470360797276129 -178.562687902333892
-29.808643915452194 -69.315759383648015 -195.658612481732916
-40.983695789235526 -74.196016946294719 -199.472919213000296
9.621521337816905 -74.732220406278344 -196.211552375869388
-22.391137356581943 -66.754408494892616 -201.255695302694448
-47.012706799684608 -78.429479297979412 -189.519368480732538
102.384821691561825 -66.431757094248084 -187.358676140325542
17.174630675529372 -66.194747183638725 -194.418164619428353
-133.418481467544268 -79.085972796401336 -203.438432391699990
-41.939078890569888 -72.899414972515785 -196.356107308570017
90.655318247082064 -67.797335749029358 -197.734615156118338
-150.442537410132871 -76.692079981551444 -205.393223209202915
16.135723059999862 -69.499355045093182 -203.860788723123562
-44.302841907679209 -66.636676689206666 -204.919019915760060
-34.982359519045595 -69.871465771429172 -205.192560884197576
-37.394332106976705 -71.047457245661278 -203.066355001566762
-50.578282174917014 -70.290330768600469 -198.548199494578313
91.225410314805401 -65.654619572261836 -206.215393135373631
-20.012428974253002 -73.573875967508883 -212.997722297209691
-153.938637534962851 -80.957318440968834 -203.857379390928372
20.949542197862279 -70.387513650166923 -211.298206038634419
-83.629844586968474 -79.591683893360553 -213.976159522294182
-157.512375423186541 -76.068963624047726 -213.576708515013848
93.840459308170026 -65.438448172677980 -212.596073293080906
-40.356631098532425 -69.791439993840797 -211.259079480493426
-29.334498893544726 -71.146380567059893 -219.944824586695006
2.567373276740574 -66.961797549621494 -205.581221299718834
-73.808107807203839 -75.008930221124501 -212.667565945352635
-36.602135467434330 -74.605921941633369 -211.220331760044189
-1.358382262897408 -66.945640811979715 -220.027246747857447
-75.477691372099528 -78.356286800283740 -212.915815699618804
-28.691595382766497 -72.131141720742349 -218.501509477670425
6.014061477121460 -70.054210974760338 -215.810443020040992
13.226415261833878 -69.565156123051182 -230.676142894324727
-148.010395604250022 -74.938238565485989 -221.819377296770739
-13.628627235624707 -72.469862520676060 -215.920031767420483
-92.488000954996082 -69.460105917261984 -221.327099331475893
-22.671981775163783 -72.700919098722821 -221.769552341566225
91.235447373977252 -71.968769137894554 -210.089091708047050
-2.201074604259978 -71.103039395580353 -231.162814115457309
15.189790170816302 -65.029647138995998 -220.599436514231371
86.826258175691564 -69.231785599946889 -221.228439114473616
3.339964590503535 -61.701827256138905 -232.875702466936104
84.187041921322376 -69.364679009170530 -223.641131052183596
-18.300813195793879 -75.264219521987798 -222.937024429600996
11.999019597959887 -71.630146192989159 -219.663446531921636
-144.357103114084367 -74.382614465517818 -230.768837800308802
-15.429023576685609 -79.511447412179820 -225.712753034957672
2.409336972292171 -74.621698460119845 -228.233153571275381
-159.836812491180154 -70.410755729382544 -238.462873663173013
-134.816742642698756 -73.840987099638411 -231.611329781827465
9.466505241676522 -72.444022559534048 -228.904531678623584
-9.787932515631615 -69.043357274726986 -231.079111923390116
-133.229923766217780 -71.357961109008045 -233.173344446207523
-150.167246525755047 -71.845601941168155 -230.401592081036767
-143.114785693041313 -73.151139956172884 -230.723015069486451
-35.913353374728281 -71.376654583671709 -237.967855145060440
-149.936131713315774 -77.154279958179572 -241.305675798971919
13.248738984406781 -75.024416049890704 -242.487587275517740
-4.411518852295694 -75.142139495234275 -248.894534532406794
-150.099685502775486 -69.984340560101344 -236.069710138941019
-151.872307013209053 -72.995569223999539 -249.252113448287560
-54.849609733907911 -71.503191793341571 -241.318309204007079
-28.548498733725456 -69.901197857630862 -248.762682445583437
5.650949802716959 -75.662163222792884 -242.062721154620363
-45.966604550337522 -69.251925426581479 -249.158454690342580
20.395922092790506 -69.557127607994744 -247.524372937149508
-12.538300125971894 -72.078949649971335 -248.792085109466882
-153.485207374931662 -81.052650729348912 -250.474213357433769
-8.450908265449476 -66.495607746277727 -258.696293221312601
-137.779386296750829 -74.677700484605992 -256.381907392359096
-66.113733348186173 -77.753539577820789 -253.681218229327158
-151.576754105120500 -78.992886692219798 -266.658409730127516
-124.677841367135883 -74.292019303667388 -261.475614500125516
-148.795765387738356 -73.578679829514272 -260.332107821797820
-16.798467284858994 -72.990420743378365 -271.803484220490247
-152.390989305152061 -70.411135198493497 -267.681229485428105
-161.102690059305331 -70.771808553808086 -268.334766145931212
-10.789112547901009 -67.340640688736983 -277.267855391763362
-149.620600091987257 -74.081731898414873 -271.128769196252733
-0.295101286272867 -67.798746716902073 -281.202436018165884
-53.712625037527651 -71.060643104332314 -288.416386676026946
-140.715128786045398 -69.586234495140673 -285.750934966721957
-136.691896402176013 -68.234814475112941 -293.002795292329210
-133.217938828302636 -69.692618762537194 -290.648799004011948
-58.027908002452726 -70.030383142727132 -287.676523487804332
-126.507773544972238 -70.234369527094373 -289.659655275473995
17.262557495198966 -78.222117614237774 -294.227607679791390
-62.964550374551564 -75.260476414012075 -298.167438504606878
-144.682731958981691 -76.117567701780359 -286.891747051332800
-67.316735932620603 -67.601986177026149 -295.659138239614151
-144.957256235458260 -71.950529125244501 -298.340763786050957
-116.807495426706211 -74.395746630652269 -296.401823577449193
-52.895997213982859 -76.345833327050414 -298.330153606197143
-37.471377125041499 -69.082125208424472 -301.857212113969126
-131.024088396928647 -70.576736602842303 -290.717240261825282
-15.050696662896897 -63.645109066649233 -295.761349342936342
-3.410044263384534 -78.156996738659757 -295.016590158222868
1.388181211928180 -73.165086380332696 -293.022333318465598
9.779181018938367 -63.327957328734755 -295.899248998104270
-152.479360464052718 -65.236880081005495 -303.483210632890973
-149.955942684049006 -69.362857311201680 -302.103451264767330
-77.806192677058434 -78.636376943693747 -69.235784079163309
85.751022035361160 -66.030549460476550 -78.825353874964975
75.517274207083389 -72.776118395449231 -78.829747431276019
-35.416471588887056 -79.820242631075573 -79.323411577481892
84.243308065572108 -74.651416447603779 -79.685216999891892
-36.395997869252803 -68.634419120170335 -81.012806093179989
85.871285712730000 -75.336349969794853 -87.320985261179700
91.364347911015699 -70.093471772775217 -82.713990224952795
-72.237433117471454 -74.704019916434930 -94.249634920296387
71.025403314884500 -70.698384053288095 -101.291117218169120
76.082169253908319 -71.298950109125471 -94.820306848832985
91.556109318184852 -71.989359815975959 -93.946881914338363
53.270328930571701 -74.719210869009274 -101.856302865390361
-81.557274758416810 -75.575551239411013 -97.716337936687495
-79.694235617321553 -72.658807724472140 -105.028665984405507
47.384617591054216 -77.910893398847719 -108.530341001101561
-103.423334867643888 -76.919842000189931 -105.828929873633754
43.155725310087895 -74.291736111984250 -120.652320975629777
108.526010375323892 -70.596623345579758 -118.062335502581874
111.652705745019219 -69.490517641176666 -131.501371852516201
32.296770889335157 -67.914341616536916 -141.167635752893517
107.677078104073857 -64.640216033498717 -127.689307359433712
21.023193995055127 -65.298306429549385 -141.594029546065627
112.736701362551358 -73.395247682752469 -127.298290466713894
38.134367236065664 -74.054498226765986 -135.413600164283878
-55.702167665892922 -81.526144571532399 -135.755037873417791
38.582544289160850 -71.019714826094926 -145.104724845468724
99.374918303419150 -71.110963699045797 -137.623037495367782
-56.919171663827257 -78.647131685743432 -147.681560420854140
26.816591489497718 -71.137064483282032 -154.562853222430277
-59.636310429481298 -72.716694942532087 -144.415882563437350
-53.036704739625442 -77.125675878492999 -148.001450504482023
-46.366871053938205 -76.777683042959140 -152.487271507808771
-63.906031618949193 -75.384536096631294 -162.187812064237960
112.877255564161700 -74.339861206343386 -148.506787051719357
-43.426551459688021 -74.141320426800817 -160.797877064309887
15.120751539492638 -71.136721192636116 -165.488183733174452
107.747075263123278 -73.110441263231138 -152.415959872375481
-68.318157687788315 -67.884528095209646 -166.633253824999230
-48.769988764723323 -74.940480817885572 -158.107968873363603
6.845651404394364 -66.367120472825818 -154.061866659992518
-73.404528657214072 -69.806628161511483 -153.952441092186234
-67.684019364942685 -74.430462909784680 -165.481529839695952
-10.314474910182494 -75.737017458138070 -166.670887066811559
-43.121711959936761 -68.980000589638806 -172.077853272141994
28.798316684682042 -68.385492089792479 -168.418667641724284
-61.074470370358775 -77.934279256765024 -164.869685069322742
-62.745584074225206 -75.380599228954367 -172.226935494676496
14.579128442664274 -80.498261556302296 -163.414930265149707
-32.209983392451996 -75.744458746379550 -173.812383516558498
-36.753097101580003 -77.433143621906240 -170.831937085159041
18.720402451557749 -62.890836239547845 -179.159681303216360
-44.808026927133660 -75.467234755549143 -176.889948269454607
