# This PCD file was generated using the MATLAB® pcwrite function
# from Computer Vision Toolbox®.
# .PCD v.7 - Point Cloud Data file format
VERSION .7
FIELDS x y z
SIZE 8 8 8
TYPE F F F
COUNT 1 1 1
WIDTH 785
HEIGHT 1
VIEWPOINT 0 0 0 1 0 0 0
POINTS 785
DATA ascii
-27.301368327055293 -76.913606660348961 -185.833547077227905
-39.104546413309642 -79.487634894437917 -192.391632654168177
-55.939513439543497 -79.734145576116973 -187.908145465471364
-34.457616652402486 -80.859722034937391 -193.320944285838067
-145.408493312263204 -76.429207823119853 -184.684910640362205
-152.357196896800730 -81.812659208044209 -193.231720379753710
-154.326959891615758 -80.376280761575742 -198.305411028358719
-149.308197081725922 -79.064791715743951 -202.520387169046444
-71.881754427738684 -82.038535650058705 -210.475048628285663
-60.004563423847706 -76.571893948951654 -209.444178072200401
-151.122236251653163 -82.762620580801240 -209.075079706276824
-76.399873855126657 -79.233232551567511 -211.105654712523574
-73.893520495413071 -80.172683175335237 -213.187997910578076
-78.558005168926996 -76.905803755202029 -212.218281472040616
-144.000281689319166 -79.170138559429134 -226.561948873702789
-145.082034239883313 -82.283989904337020 -230.414601507679521
-156.356926637739093 -81.037106047575719 -246.484296196343166
14.128963734509213 -78.286451353142454 -246.257414929472844
6.626607998073275 -75.675134562656538 -248.775875255405708
-140.472894491876730 -79.680461774461875 -256.528575637095742
14.642921192066105 -79.394796972065976 -260.036143912968896
12.867880150845750 -81.507115712837390 -260.888027920200102
-154.203956927741615 -81.011576464033851 -262.727617734638955
-153.251134747954495 -82.704538273461182 -273.091815867108664
-2.633047214434988 -82.687958043314453 -273.256053806544458
5.945955811164517 -75.891430035784808 -279.908648434887652
-154.342804978924050 -82.022191684848195 -287.097668848206126
-143.771821056903320 -76.743439263764813 -284.635156374484382
-153.889814741365427 -77.988681379458455 -298.887279085305011
-47.138183085110889 -79.410418206121264 -73.354873207570208
-69.609191900830268 -82.018975318476024 -67.495487323360464
-43.800343092807019 -80.823660728401663 -70.922322003112825
-33.849987971175047 -79.444560332606514 -78.190872314789630
-74.532338072584565 -78.661188497376941 -69.343700635196370
-28.654898416141116 -82.333356667966200 -81.126313544542882
-45.809828168984019 -78.429298220914490 -83.891582607125954
-53.811189309732548 -78.981453974922800 -91.836705107349573
-58.904058792658184 -85.807819074759820 -97.349745659727049
-66.008960614566661 -78.779691975294199 -100.007208137641442
-90.811529803649989 -84.656919590556100 -106.103745438709808
41.768936643223213 -81.375453877142377 -118.044880805285473
41.238699617720499 -80.268225582646366 -129.821321100898473
-46.342842716418197 -78.514240912422395 -165.519114557067240
-38.225111731530184 -81.353684419481624 -162.885802634897431
-9.651938531414707 -77.501104955869039 -171.126186102368905
-61.064956022089056 -79.010871655437569 -174.659408585717159
-60.573393136146471 -80.602681170533515 -178.724967009856357
-58.881160597268654 -79.024908139870035 -174.538760782662848
-32.533034637056581 -79.506342814943537 -173.555307145996295
-53.090812949714341 -82.896001881727798 -180.905025965613106
-25.973407342617811 -81.910541303866893 -181.904393559769915
-147.000224125230204 -80.240287788483059 -183.823185507525324
-50.737479526472690 -80.344402265776722 -183.172026596902867
-44.317415384170538 -81.604490862498352 -193.096496383086105
-30.478347913002260 -77.525295074992954 -187.875052245068701
-34.427438920674426 -76.928999969912397 -192.921402633621483
-33.108681983853536 -79.736746644307871 -190.641141518918317
-26.409696668756730 -76.441098887814164 -190.665372015035018
-50.331913024825433 -80.420366428301591 -195.675014021530757
-144.472439638219413 -79.565744398839527 -190.101217737117850
-39.496941679609314 -78.374489882839285 -193.249720532007984
-44.370249806225154 -78.642912972205224 -196.390271154836114
-46.419083548604611 -76.656748427794099 -201.585589664845401
-48.095735810092968 -76.918946693805623 -198.046677752650851
-131.968637693330948 -78.478003083147399 -198.579935233086161
-136.957583446585716 -79.116387104586593 -199.325101202275135
-49.379545907703225 -81.470151504529426 -201.529014850298893
-62.498676171112614 -79.376784905222465 -205.926191010597336
-38.535638563828009 -80.971296894177797 -205.072868923620916
-146.549888393589299 -78.069975108099555 -204.440801492407843
-71.093237728438226 -78.128709034653610 -203.592640923284790
-36.506737046237951 -80.815803408173821 -209.859334709845399
12.134290509401183 -76.089139233399536 -208.016287850633745
-75.269892907732157 -78.155321477174098 -214.391205187777672
-32.682165387603142 -76.580340324933317 -212.364682118675717
8.762685356162535 -77.794940502829590 -217.475775548712420
-151.594227469497952 -81.342250967938881 -216.709466732039090
9.208176323960224 -81.387073860285980 -226.756512300700564
10.580084021581655 -78.920442798267089 -223.629963576859609
15.712468054335986 -76.130768366159515 -227.588280801016623
-136.383706948934474 -82.120971873946061 -228.137067631766570
-147.708968982704306 -77.185694778705852 -227.822502134458034
8.694119755132782 -77.170379346135576 -238.725381593321686
14.825440464976076 -75.826647524321700 -237.668148205950587
10.093372679674722 -75.473455268265127 -236.954376037953011
-153.083223600577270 -78.802739378261847 -240.262679975106607
-146.395231490167959 -80.691163731828425 -243.935712966060152
15.500460063233767 -79.487862815814694 -240.641130589742176
-37.615063858494857 -80.862254637831526 -245.165073379022857
16.088414903995606 -77.341814934692934 -248.514104320206400
-41.973448052320414 -79.186433000462358 -245.936698280049285
-150.551130810536705 -79.323960637206184 -254.164753578178619
12.922686342331296 -74.700308568818102 -254.967950251297992
-145.525654924719419 -80.415307679640421 -255.556717280418837
-156.142136874468008 -82.037156678104964 -252.485854753217723
17.232152365640630 -79.017535403339963 -258.389797740093115
-9.955611090011551 -75.865267730940204 -252.124186323443212
-11.829701423715591 -79.198895320535115 -260.190462214716149
-149.930968413974455 -78.119330856887032 -260.177678886304648
-158.604666723736045 -76.620847015475888 -256.831868298699703
-148.632266365669381 -79.105768013063610 -262.654513633840395
-157.983318284846689 -75.343100210075619 -262.607709637851599
-152.043626008137949 -77.940962656739956 -269.083191503044532
-13.128719539965246 -75.495880607398107 -269.715992288271764
-4.549030768621463 -79.843540748123559 -273.144419993836436
12.573260919014523 -78.547749669020376 -268.941050579177102
7.576306754634274 -78.942293991972178 -283.348524371114593
-0.708223336531169 -78.307213640074139 -280.158675623550437
-139.085641226939913 -75.996147515017000 -289.945985661208852
-147.748201745179841 -79.393772631281990 -289.787812781285425
-59.280407977046131 -80.122026239466919 -64.686841493351494
-42.492301481016320 -81.431509602206518 -63.742039046925051
-51.846119226865419 -76.630003633861378 -62.439409983196342
-47.270344289898979 -78.453842005621723 -63.091102596190922
-69.688127497888303 -78.347251742523483 -68.514855378327795
-77.640198760180340 -78.190741777309583 -71.739315180914858
-29.269780818800079 -84.578527285552809 -80.684670403634996
-41.076946349915310 -80.668973816974386 -87.586121920167571
-48.688518512526564 -80.428931370523898 -91.418409040130570
-87.274068527370531 -78.942116402301764 -85.368367558412842
-80.758856463226266 -77.258731050045455 -105.597447014015628
43.425414485498450 -78.559402131188406 -109.372403510754111
-85.199353990205509 -79.919796886152895 -108.895094749134984
37.972097712173166 -77.797626503311761 -118.922446751293165
41.027190490263628 -78.736132583769944 -125.689442883782533
33.603105557874578 -79.488425371401590 -120.592267468083747
30.535226861025620 -80.347077296458053 -129.475213885468975
37.113029968516898 -82.096904262770849 -137.075265000657055
24.197795428148986 -78.650026819892076 -144.230876283857526
-50.475861267280116 -79.768290227944718 -153.985711367433169
34.296224935129430 -79.639097075602052 -147.844107934380560
25.019413503954361 -78.143746120661220 -161.611858300155461
-44.073109514775005 -76.758444139137495 -156.548357169969876
28.072545507645017 -80.008904141775048 -156.943801575853826
-43.031334752647844 -79.490959534610440 -162.978516494133061
24.966363562360772 -78.413214026938235 -167.529102044526326
-60.601138845333203 -80.021833174270242 -170.309225171021325
-9.280304431591368 -76.856371455007263 -175.575430871146665
-36.901557401646293 -76.499775747567227 -173.138434731329482
-15.125878778706301 -75.321773717136068 -175.803255492556389
-56.619402806637659 -80.051446200345140 -174.815193196373968
21.392786802233385 -76.599026221351721 -176.102620855434992
-18.400913825731969 -77.447650948382758 -180.110230001052230
-24.327461704938962 -78.973692002393349 -183.222483920390630
-54.503489752660947 -75.930128349932602 -183.816179633975139
-31.954325625115409 -78.696633538641436 -185.366844095749741
16.151800258316619 -78.377188670942743 -192.005759453582414
-151.174306561115003 -78.910996287371376 -188.063141761090719
-28.751361958131348 -79.609848342810110 -189.826470846178637
-48.433797200122406 -78.436583615370040 -188.882874189167552
-148.007662128030091 -80.918492486702135 -195.748142420623424
-143.394409308136375 -80.399192523624208 -195.656885655596852
-24.433947169731788 -79.212386595208713 -196.913873777025486
-19.510283554487209 -80.604725180135858 -197.302333127665833
-46.455689626787567 -77.127964842507296 -196.740956503953498
-21.982098343387499 -74.165743188003290 -201.283085867218858
-48.131465551178515 -76.987905421206904 -202.436357449783998
-43.725436345847477 -78.917679956511975 -201.544761441868673
-56.462568667696736 -75.511408957973160 -204.688208178501952
-20.970006797968232 -76.715483016577195 -204.556764532352844
-154.762221417179319 -77.461543466695446 -208.390733987444662
-63.619174959847491 -75.693307409219557 -205.744343851687063
-59.586714771033321 -79.930047712884289 -204.338242384681621
-35.309301255089345 -77.776416901233944 -201.601238097086053
-18.892976232155853 -74.933882499018324 -203.198813659047545
-41.753966955897191 -75.485709014489913 -205.242119174760660
-79.452295488268589 -79.079185315712508 -210.433321629330294
-145.744549955457245 -79.392890630380990 -212.664855260694395
-35.283176680651771 -78.866299668332644 -207.689264862061776
9.107030801483475 -79.412387378446581 -213.553562408060657
-65.516066996841857 -81.127269170553319 -211.660326461220620
-72.697881481762465 -75.100835540204642 -211.517452336378369
-27.395020470446660 -76.715085598892301 -212.612561191912789
-14.475268831615757 -76.197480336579261 -216.150003334900958
-24.372512263339566 -77.803936969653236 -222.620648486405003
15.187204120175636 -74.824358269202918 -218.126744472267831
-148.743225073255758 -80.201946531631108 -219.066607557301779
-11.296601588068739 -78.899080804567873 -223.445576344043189
-154.074781008668594 -82.672254195429545 -227.106665070916392
6.181355258673818 -78.763039638622544 -230.493363489111061
11.865933216961665 -76.740834955484914 -226.216703956782624
-5.835221340735679 -75.365757678936902 -223.929336200617598
14.288038993731341 -76.901537359929208 -229.055617995780807
-139.395437705238891 -81.802005308378924 -232.954491725467022
6.741009602653861 -74.808323308568177 -227.488735261663976
-153.619526133885046 -79.757941539149414 -227.547977971688510
-147.908773720496100 -80.361316015810047 -231.202694309654987
-3.900219036000074 -75.969277750620577 -224.233308942770009
17.932529155090329 -75.926480848207035 -239.133329342045897
-32.945244361252414 -76.382217424335252 -238.282989804168693
-146.573204008690738 -76.416497483065953 -240.497972339269154
-43.754721102299619 -75.325122294228819 -240.467701384789791
-46.641662830745481 -77.401669181987216 -241.517282585870873
-29.686298122578386 -82.094865116224554 -240.513098397248768
16.604906049184542 -77.192670032263948 -243.112971926934051
-52.609002440950881 -77.213667986159209 -240.918962856440515
10.689320268409581 -73.842276664504212 -247.212450822847984
6.770207513558340 -73.229299852035865 -240.515217649000647
6.667815702671653 -78.992735336917988 -247.676105457929594
-47.389901503637368 -73.071194627880857 -248.765259612816294
19.969236749368463 -75.151433514506778 -250.039941410803777
-146.855971121525101 -74.809745316348355 -248.386587388034258
16.010407492228033 -75.367843193039647 -247.652906166652741
-0.079873418158321 -79.249019695258582 -253.255357172453643
13.942804519387934 -76.936469132500747 -250.015968635961826
-154.474202082357380 -75.073880031598094 -249.719275611157599
-148.900757651198290 -79.051444047052101 -260.606557827030883
-142.778107432585585 -76.406518846978415 -260.866127461672704
-154.112438472464817 -75.539965049368618 -262.053512054247278
18.354751451888028 -76.898421872765070 -265.949218327866049
-155.032702276295339 -78.321530312372602 -266.784688408198178
-6.923169301036289 -77.151373483920722 -276.485041064357119
-147.202646175089939 -76.531573836941845 -276.863798710816354
-151.909024455111165 -75.040943701159804 -274.495706156957965
-153.197172470958066 -77.614274328991115 -273.992006942619867
-156.935984536102865 -75.238946417589631 -287.002525749310848
-138.970533999322498 -72.971768772265435 -289.444903370313682
-154.463446495923421 -79.057224907388388 -286.738126323739039
-151.139741671335287 -79.017515844552122 -289.012804788291930
-146.598511627519059 -77.460338598621945 -293.360883845520107
-156.187093897760576 -76.782179949033079 -295.300104833318187
-148.739670227332738 -73.177255733308883 -293.268585035270689
-156.240076771379222 -76.012559029778629 -299.105841489347370
-151.681338208503178 -76.679390489583156 -300.370478035976021
-155.514590287199781 -74.326589702719929 -298.147019790766421
-57.082158124710766 -79.134955076536897 -55.044705697705091
-63.870751511526258 -80.695281586288971 -61.090406089733776
-48.142876146608096 -78.262157277705654 -61.856177200362652
-30.995055337236586 -76.715702438818511 -73.520836111010297
-50.424092956717310 -79.943165953977555 -93.524249290130072
-85.275821783156943 -82.659021689779493 -104.353050252332011
47.021777730497654 -82.568019856041033 -107.682590893723116
-76.785234422922571 -78.755023684208084 -105.544943676659500
38.493053843503972 -76.266163050396258 -115.722516091782154
35.622027815330178 -76.262911814607847 -120.330668172891095
38.488206970142450 -75.968398783071294 -127.768303845091665
37.241742302812476 -78.623620246687210 -137.082699955740566
31.343790242234213 -77.531796652028746 -135.992086297356479
34.127640666858483 -77.702337418439669 -142.810223088863381
27.215352687077530 -75.399020418840536 -148.809100411218481
-46.135034097702693 -78.571370145904979 -146.551525390737424
27.774880254416871 -77.595649798614971 -143.776157335839287
-67.392202134003099 -75.892273490463253 -152.553649467286562
-39.438769002542664 -75.802764080851532 -157.393748573499749
-63.390060497433872 -76.872049169869783 -165.963983929578802
-42.594828183440988 -75.489264776517459 -160.673583793294313
27.232224464416319 -75.039656141377179 -158.259698173857998
-32.859442832021621 -78.757664220330355 -167.715486839808051
-9.118528820681014 -76.562949151878470 -169.364526237681815
26.124882966021698 -74.632360399110951 -158.107496124174901
-11.186207428595260 -78.687111423356143 -169.996635350926937
-61.155215241459111 -76.075815422252617 -164.757912696399870
-37.168141804718992 -78.302321585401430 -167.455041881383977
-31.720842508932570 -79.079882048914371 -170.589796916883216
21.956379702555420 -78.099783286680491 -176.282475558295687
-55.769391361161631 -75.547119281759365 -179.272597111093233
-32.610183236712793 -74.272525204113350 -173.807736554567157
17.911737186636117 -77.378675637418112 -180.477416653593110
-52.033159096930028 -77.730167254910938 -186.054207603682926
-24.489273331524778 -75.346758621717285 -183.513440252190122
-55.602376931979158 -77.635480528337197 -181.630073748580060
-43.100409968164989 -77.953374126296183 -193.432881970929941
-32.674267659846457 -76.001283657718332 -187.717012376929858
-45.308055458790285 -74.869831485672179 -198.047581074923357
-26.819199925097656 -75.759219146749302 -190.986805251489301
-136.860641511715244 -80.936096607613294 -196.037901878999577
13.730175934789564 -74.388945591001473 -199.067210218493102
-135.722783317963319 -74.576585244814694 -198.466880533485323
-24.509064227245254 -74.405364015734776 -195.424605475039982
-20.689667965991369 -76.481049208093211 -196.602649342746645
-40.865254348209000 -77.258095924065316 -198.189815571763148
11.324623724250912 -79.615762379691049 -191.296244924172015
-17.564522547351551 -76.915573279980862 -200.719439849115787
-63.734994295280821 -73.064833317828970 -205.664293503303725
-36.333910051592476 -75.569412701020781 -206.085449944033059
-68.604955326411698 -71.286885386778565 -206.530398882444814
-72.092635904460991 -73.576870054940628 -210.340870398424329
14.711845080966164 -76.148722945098214 -208.722500883502477
-84.732391588090366 -77.660101909199398 -213.556590843280730
-31.735282244670394 -74.842107935884059 -216.734720856593952
-78.325824338440043 -77.548237806699390 -215.275599222949353
-144.801904754482365 -82.605997730524194 -215.554185845764408
-9.137459882271713 -74.590995377683569 -217.733095246386597
-14.309397222758399 -72.654113183431789 -217.280198433783823
9.201017911774713 -75.466065677862019 -217.083491217377201
7.880344324637491 -76.384661753305778 -217.875658871713654
-3.674654828861485 -74.688307678158452 -232.820058472486693
-131.747690550962602 -79.645107055406768 -227.407199595751706
-152.917711532561754 -80.586321996449769 -230.845813316209217
-150.852773208418768 -80.412857059769692 -228.437516886653640
5.540715606595150 -80.065489976120304 -236.938872983367162
-2.623014988680687 -74.760456484805516 -235.072191740639738
-27.603444924171676 -75.907822720590005 -243.383181421230688
-151.689777105039809 -75.197047760519865 -238.903283761431993
9.821336436586435 -75.560075527005978 -247.424795477251166
-25.806190958632222 -74.459879699290909 -239.816784458503577
18.158100013901048 -73.586486380488950 -241.165309910414010
-56.933122880368067 -73.772070895065127 -244.229589926465792
-55.118281026889370 -75.012593637821212 -247.428471589160750
-147.898113254083569 -80.667102796137385 -246.702305678429184
-67.245886685614551 -73.044912142521497 -248.634251389759044
-6.282500697736168 -72.009920757968786 -249.008452298009729
-10.416290275832097 -75.784211269243883 -256.998113888788907
-151.932171580092557 -79.308443676698431 -256.357682455833526
-136.172517822678373 -73.872443639763290 -256.501081789042928
-136.835068126737639 -73.623105673073439 -260.232810828261847
19.141449906152015 -76.439222835201193 -262.341802725414652
-149.156625793240892 -76.294697020062586 -270.849429702978171
16.978674092432534 -75.477439758741895 -271.149317396166737
-154.074525528717317 -71.690029811306260 -270.373304449438251
-0.528560559297013 -76.636468193501273 -278.754235114122309
-148.493351920844503 -73.915513457262549 -281.794805932953295
1.669765636801394 -77.363426491883388 -286.640296066201529
-155.539887675288298 -77.023110461476236 -279.677723513558306
-143.527750208934179 -75.491197155242475 -284.143631826615774
-140.840946449109339 -73.221630289311406 -289.171252648243467
-153.716508886949697 -81.737624630441204 -288.119219214819054
-22.504450024120707 -74.655234035135734 -289.531513784110359
-157.270554937134420 -74.607737202962554 -290.089992280707349
-153.398380714257200 -72.434826336519734 -296.998180949638140
-150.025162319945849 -75.673059363325777 -310.443005070454149
-57.017108818147356 -77.053550283170040 -56.697671032925413
-40.166014382199613 -77.921060966732270 -65.324546022491504
-79.105716121020322 -77.527214946068625 -65.912082065200281
-26.269530611817338 -79.897240745853892 -68.357064550452378
-23.688513250826567 -79.376368157400009 -74.640775993022459
-83.219498417411586 -81.216224502224165 -81.307490731552861
88.529698236892884 -79.121702535977931 -88.547253349077664
-39.287228465508129 -76.474277604754178 -81.740374940394759
80.868433324611431 -77.102433396440745 -89.787319962489690
74.799291352831759 -74.666994040461589 -90.151762171442087
87.332431343638888 -76.941480452162722 -92.406519740763954
80.976560297372529 -74.054859786941066 -92.556980137750500
89.781800208448487 -77.725156302794204 -93.392753403192387
-91.238443864614339 -75.422132714643951 -94.510977545758564
50.628747578202457 -74.100178429969247 -107.082040670895438
-88.766823521375784 -79.681883336291023 -109.670079808983971
43.250577302440391 -73.690588114843507 -114.842581153049295
48.193199017255075 -75.001219610217476 -116.129286169876679
43.306206290250884 -80.350874630350788 -116.257573313707610
26.924249903759254 -74.446685997409844 -134.470513381336673
24.686087925621422 -76.516015983207154 -140.319297351276276
22.983605902231513 -74.003190868275226 -143.569683222189155
32.789846311401980 -76.218712216356323 -143.814966729227962
-50.425542764129197 -75.397224843896367 -155.049558253490062
-46.738700468373274 -78.533455319710171 -152.206882918846759
-45.023895365325309 -75.834764965848663 -154.219874538745955
23.478128698138736 -78.831060190630382 -149.842131989279210
22.258196486538793 -72.195480557335614 -167.644984044962456
-37.503857419981735 -75.200950958548788 -164.315331702605960
-35.119541040371253 -76.808854451522265 -157.575243335902286
-47.669963267467885 -76.691801608168390 -158.706184253474163
2.423022479051653 -76.627934594841747 -163.423198365619299
24.909464624494934 -75.907439295556244 -156.709671988020574
31.145570482506134 -74.517265146526455 -160.475869392546201
24.423761439610299 -73.839788833225910 -168.444564149000968
-13.273804211190871 -73.200515174224421 -170.484787446955721
-2.280930657319658 -77.569168093156549 -171.267575877593885
-56.175477385104706 -77.565641779655550 -168.385586129399911
-63.038900819710356 -76.001384353156382 -168.876392550672819
-39.959210065270192 -79.372567101123863 -171.741851573870093
-40.724626407132071 -75.208098541021158 -166.409987461356508
23.749800872113749 -76.597041670460328 -172.137360505184205
-21.815804047620112 -79.539138289651277 -179.429123823315450
-36.695553368650373 -74.274477054732614 -177.580450161425176
-61.506386451097178 -77.946749099681654 -180.663284864789659
103.642163019288773 -79.337398190595124 -184.598182903752871
16.643368721656856 -76.171326634150589 -173.743748115148918
-28.035993370441524 -75.133754478529937 -180.439362173865874
-48.700660067969828 -76.094189054793844 -182.446910031396527
-19.891084382480535 -77.389772137421943 -178.337990912898249
104.933423542252399 -72.749175660433593 -179.741128282672292
-52.896189610766577 -80.827124532910233 -182.349522603653611
12.268661208472970 -78.686363103564204 -186.555023098797363
25.105669677836772 -80.250288580924874 -181.255552454391619
-55.472794634606508 -75.687946087285511 -183.451721771363424
-24.331077224886336 -76.861241400785815 -181.284652429903872
-58.131636369636148 -75.741327761812357 -177.841519676160402
-33.714579738075010 -74.502085122462105 -184.481577161706866
-30.505923856326184 -75.644537098192643 -187.052044717500195
20.291146379155041 -77.363706584680870 -188.070310433805304
-53.455740429595842 -73.479937307573351 -188.310377461637046
102.822191155808952 -75.579043954893180 -191.055635508377065
-53.248857232163694 -73.691903220550529 -188.708619288137299
8.069748526532877 -77.974115242674486 -200.786642997523330
18.645658231757711 -74.250457543016992 -200.153071626131890
-49.466922507707089 -75.902879852134433 -191.164411876603651
-22.537498987515953 -72.558333486704242 -190.858734768993259
102.333379734518900 -76.499382859695871 -197.989925285022935
100.661189837383290 -77.842225105240161 -201.169423444548386
-46.042624560649081 -77.471804788754810 -189.394270143466429
-150.132820657304279 -80.580503130190920 -198.270122311828317
-45.902325712373433 -75.310304111791993 -198.725271600538690
-145.668629385826932 -77.356018981395863 -197.703355100124497
-135.700664473843943 -73.853790341751164 -199.132622538926967
-43.024644867288011 -77.119376355056502 -200.890954814713240
10.941984198894630 -76.030499557793590 -210.857694301294657
-19.145052981544829 -74.534516077952119 -202.903949328860818
14.674404740904016 -74.401193747259967 -201.996119538835700
88.068701315175304 -74.608326224182761 -213.108385410778340
-40.322992458536341 -73.384106825216776 -200.069766447108606
-8.995395322673389 -78.579469501862221 -207.089199586660783
-15.068994621699794 -78.115701576922589 -209.726443271023754
-37.059540680357536 -74.306095096520224 -207.444151037676193
8.966195205992321 -77.101968202803832 -207.004246010213478
-77.458110372988017 -75.570378710233555 -211.703818000286134
11.751649727041794 -73.928819346583992 -213.820618913492268
-36.272001074094810 -74.805794345059198 -206.945078411712643
-144.243007213842162 -75.761160987958576 -212.001118141345472
-146.287965756039910 -70.597135425104199 -210.091385266205833
-87.735649653518635 -76.382242793046572 -213.454767306244008
-35.954707793611924 -73.747925606656111 -210.957169631056360
-26.040422701821534 -69.695793547591578 -215.911560222339375
-26.837031775280984 -77.370896665140393 -213.909785419981773
-93.898531309109273 -73.233574021325893 -218.889697714747825
-88.618437001375497 -73.920683019709799 -217.367700348289134
7.567093881914779 -76.567527661017920 -225.045562612255992
-149.763353794684832 -74.690350454566229 -212.463818052914547
-13.347121135926628 -76.443740666055703 -216.602434936810255
5.598278806092068 -75.716344160760755 -221.707115318429146
-148.125731981325174 -74.688160819443041 -216.250358220160280
-19.347465231222877 -77.521012473064914 -221.006385664597360
-4.016413514506418 -72.567828076664910 -219.884195683994704
-5.688409732114472 -79.058518093513840 -219.447919154800672
-153.511111469770015 -75.647081125602256 -221.004615331988390
-138.898391299657959 -76.395229376673399 -220.216176932664126
-11.142602777348607 -73.352922062156679 -222.644752564864262
-150.293769243010587 -78.787449297080457 -228.161431763512780
0.545527960755514 -74.331366793557720 -229.047372225617181
12.545496442366172 -74.212111733794686 -232.491678792344686
-0.136914496340076 -75.068102724817606 -236.108376992721162
1.689259082214186 -75.468682974426969 -234.441808030896595
5.235347458725272 -74.931243268235932 -231.028094967797557
-155.040013342153401 -76.216909902212620 -234.691394570285098
-18.719983704936887 -74.249374233067428 -237.559789812296657
-36.859381685095066 -74.883704298482073 -240.621934009785718
2.346079002401858 -75.799393071074789 -232.667504606815356
-6.395167314518609 -72.248596112222998 -240.600858456770538
3.272200568691574 -76.584863888227744 -234.625514997572168
-55.523411351845901 -76.253324244338089 -243.273467165579433
-153.247555982205398 -74.629661952065419 -242.600831830866582
-152.824557362247361 -77.473728021411034 -246.305878178774208
6.489956288126713 -73.491880867222051 -247.751790326817172
20.206659277692872 -71.389695616458468 -250.625981256585078
-61.259460659003331 -75.191268817885884 -246.781168522460348
-147.152124569134543 -74.157838134283352 -253.889185235850704
-155.452924411261620 -76.250924181649438 -254.570972298654027
-151.426175555438505 -82.672570731145925 -256.174580610856992
-144.998040020488816 -74.640788902664198 -258.359733308502030
-139.066840574424049 -76.872630321973659 -256.778168301722360
-14.098243797099180 -70.899788401282933 -258.401594816736178
-145.173949499145692 -76.886605223498833 -262.725346041094099
-16.717565371753501 -76.635611028729258 -263.933869274039466
-146.750491666926365 -74.598248540067516 -274.698551538028767
-149.554359015838855 -75.281354199667945 -280.685196714122469
-154.367716547853263 -73.127757034737385 -279.591569942740421
-6.385129516323026 -71.571528345844285 -283.548867193908166
-142.917763782826455 -74.719901909032060 -284.694027296110448
-33.851251838032958 -69.129556240438575 -288.537839909656611
-33.217867555013321 -69.697412029725186 -286.582208164585836
-23.319934112727957 -70.951297406590086 -287.291924757238462
-15.379361714720837 -75.852342565885820 -286.688868258041680
12.309186715987366 -75.693074776998358 -293.533909406612679
-128.790650017337498 -72.955886447069020 -289.693835779300002
-57.889091603861466 -76.087162187902678 -289.596748804246772
-41.938105753779205 -75.418331533559638 -287.351634434501761
-33.082737574278575 -74.767807038640328 -290.133020512681185
-14.720853506801852 -72.547509014980349 -289.192532507174633
2.643351492875460 -72.369541800341850 -290.472028071141494
-149.527494669088384 -75.127346189805522 -290.563648875142405
2.667331741190949 -71.974335181077080 -291.534574340003701
-155.352142937262329 -75.132811720950286 -297.844266104742246
-152.094091115387471 -77.327558451448041 -302.250117721658626
-156.240354461247222 -74.413537678928805 -306.823232200787857
-148.501356821086375 -71.272555463702204 -309.298376816649977
-46.030704341177987 -77.297554777262889 -56.798745671615670
-56.361720295328091 -75.429805545416329 -59.278953838524593
-62.051898324648739 -79.533900427317121 -55.734424561811920
-45.112771057142872 -75.823594722416175 -57.793703415366977
-37.178334815024222 -75.665431309218064 -60.349756563510773
-23.894020729560019 -74.318003017223120 -68.202048560082972
-83.199100268504026 -76.603355359883309 -66.392668844840614
81.783318639990455 -74.652045885539479 -80.507576132571444
-83.954887816693372 -77.971760132997574 -81.319887528193291
86.531438517238144 -79.268591715502097 -82.341556457821767
84.785575723059509 -74.996201409501609 -82.419734973833116
90.358388889707143 -72.829101874625422 -86.266435677862759
-59.650152640628058 -82.347573780617154 -94.440999514612145
82.198043992428083 -76.114251151565128 -97.761641266176653
80.523830020076815 -77.756600434872027 -97.831100779793786
87.107144534558984 -77.900287194140404 -91.574780361733673
-63.455365002968939 -77.624026746715430 -95.674220752159073
52.612426306323300 -79.025713890655766 -97.464098759655769
45.846902186463041 -77.014953261709209 -107.284220172057601
42.615286115139995 -78.190238742831895 -106.697785369529569
42.672357408610466 -77.889120169702338 -110.394230296235349
-85.753709684171042 -77.583194199659076 -109.601858666065937
36.360748052949688 -77.258492000883976 -117.357877486144176
-82.574022914744518 -77.924792324376625 -110.248431679321655
40.065038516867510 -79.557763048654181 -123.714799392458247
35.499699463952361 -78.034201810274737 -124.001455592579561
33.702749147746701 -74.762699371429733 -119.185178684751492
44.011563359756892 -75.634936694790753 -119.753666913059604
38.000379209890305 -75.433522764464399 -129.200421424172134
-53.571864774842986 -72.821042894122456 -133.148642880441230
36.548826674747332 -75.117325937030927 -139.442379079907596
34.523402359912801 -75.754075684855607 -142.992971270544530
-54.716860313030061 -76.201724047472325 -139.544873982110602
-48.150834341962643 -73.849508114182399 -141.231328978221114
35.079548571724438 -76.838527926119738 -143.276721004105383
112.217784580726544 -75.650860293399973 -141.819013586938127
110.499409863346443 -76.022845948271566 -141.547061618722239
28.096126777291566 -76.208313587048394 -146.316178786598613
-43.247709034208704 -74.954037989906666 -150.323858612846607
112.283216690764718 -71.920368272259367 -160.930479996292917
-40.810456591510835 -73.152238138240691 -152.845894760964654
-71.505334674912064 -76.490235680722066 -156.439721418371619
113.938052859295482 -75.265445188446506 -166.911044965967221
19.886426446771001 -75.053601089146639 -164.309470786529829
-0.443470408505689 -76.084717743866292 -163.522927520153331
115.162722468844692 -76.294696736738743 -159.372974910756483
-66.240365398890930 -75.347794039872468 -163.638570633461910
-40.792504439878734 -75.630890491097304 -161.520801324528861
112.420687505821661 -75.289161897288096 -167.568131509980390
29.212897989083483 -76.549946930544110 -156.595922352000514
-63.048904118691986 -72.947286874159971 -163.462285240292204
111.097776486377597 -74.297775117568037 -169.151805335651062
-65.746546382056380 -77.627238270428123 -168.125245962498582
-55.604515993623558 -74.132680183050041 -179.005463919095945
106.081846637943841 -73.738245948874919 -174.245395609986673
-62.716316433727975 -74.017930149601625 -168.571494246508905
107.847277989397128 -73.844117216790991 -175.387051576500170
-62.084680023350323 -76.936456190229862 -172.575981471754289
-14.377798676264440 -76.219407633177369 -176.528571136600988
-16.177037904916979 -74.267080006811511 -181.680184178503140
110.864640025845787 -75.171290986222715 -175.679423725402557
20.550638049473779 -74.368031351640383 -174.227987246639913
28.738686263962332 -73.908938164324326 -169.056824000813805
-57.107820162017127 -76.094314660170284 -176.239912039594941
19.111673892130064 -76.163204373625703 -182.094377591627676
-57.298012058934596 -74.187986195286626 -177.831553169495322
-56.565318895111950 -75.578973751718380 -185.123038462471357
13.025752668399633 -76.986181416525483 -182.468085049801658
-58.319538045843693 -73.733036443327293 -178.175822182761380
104.670902222162738 -75.648214441846406 -185.011237117252108
21.343448733524795 -72.828091035626883 -183.458883228101485
-32.227758577822179 -76.513625760453522 -187.723378278552048
-41.414174083470392 -74.861235705032499 -194.544060492899547
11.964560769935375 -73.644969311667396 -197.273876599310285
-16.511251012623838 -76.716339097493147 -192.483101222041853
-52.942101196383568 -73.642870132983035 -193.722959717370060
104.562849401187862 -75.941356693576623 -189.534279732638680
15.985163722459554 -78.560122057116956 -194.270055652346940
-138.102207416569343 -73.183916427066350 -199.917803311211173
-44.009551748885279 -80.315484499406935 -193.777907800421787
96.720271523577964 -76.254911503240720 -200.379547281644193
-149.222398498884928 -80.846660864087340 -201.179961101601634
13.417567180024896 -74.557702189091302 -194.900167566595684
-43.451044315224856 -75.212513839099657 -203.216094870218711
-35.635457938700561 -73.817716070240465 -205.339314768095505
-35.672858119289195 -74.227768615711028 -206.736125031477115
-44.992116480976726 -75.887111413358539 -200.752145665088221
96.582110694968833 -73.932996722062398 -203.003347060346158
-18.818239422571317 -75.313966073647279 -206.107420913822295
-148.843193607798071 -75.236353256540511 -203.916544931781061
17.950183998194269 -74.310800388185697 -208.858556999827471
-75.240951547425169 -77.914358443194246 -209.772374425007740
-154.342834945750525 -71.136853716806257 -206.711280414760239
93.001050051984748 -74.544838743977479 -213.469001099130736
-33.506334457686343 -74.380019015310467 -206.898540058723057
-27.901949320536538 -73.984969256226179 -215.631463073032364
7.169338830572265 -73.842714808947250 -211.943371472850146
-69.191907234937361 -75.553957421707409 -214.806840754799708
-28.017899133909204 -73.159177151580380 -215.443089213617412
-7.340232710306019 -76.106937116015359 -216.127556351037470
-76.100653469320633 -73.625392343702245 -213.567681082896428
-16.184948488945174 -73.779589810999340 -218.018521669700760
8.679622094307767 -73.688984133959565 -210.349953388690892
14.754263563858359 -77.498742947394419 -221.609618916929094
-150.192698377073214 -77.075299371119243 -215.806940612712964
-8.011621099240990 -75.088117349347584 -215.672607981789128
-95.484521300194331 -76.220925559683323 -219.397356143496381
-22.435535190210338 -73.618787362466819 -220.864031280355363
90.645324940666455 -76.363226696169704 -216.873128289157677
6.140891045484686 -72.203465302270260 -226.793702734445276
15.009747935839158 -69.769540095895977 -218.157968337059145
85.322343294217148 -74.357292921143198 -224.745627504798591
-2.558888258237481 -72.842236835652173 -230.266531836341130
85.772222850417535 -74.480242114929837 -219.846203917747999
-19.450069997026254 -77.125164979388828 -219.646508643960090
14.725213841768053 -73.883259329282012 -218.732180390370360
-143.986132633625488 -77.711424634150234 -222.630094528523500
-21.462988624081099 -79.276996082894215 -225.094264411261946
-2.336251033858694 -75.316111166808284 -224.997805356634501
-154.663387072565797 -77.202695330170712 -229.157934739863521
-137.436560147835166 -74.055483421463094 -229.848730752121895
8.451380343430692 -76.917941490811486 -226.986532789534238
-1.168764141335018 -73.954895173109946 -230.871007589664003
-136.017530727965323 -74.686812099431236 -228.536326594236328
-151.356628841960230 -76.537996080874635 -233.337504295496728
-147.885824915844182 -75.291184987819051 -235.723804887618996
-33.651720770180809 -72.915377128061763 -239.695215507424479
-149.324325550112974 -70.825421277591005 -242.904751162635563
19.544550060646486 -76.254016149785500 -244.132969062551382
1.755855260499466 -73.092263913223377 -243.094256921596724
-153.161834859528170 -74.269377116297719 -231.366776263112968
-151.914392335150723 -75.295071008759578 -240.741879448859322
-51.977930909014283 -72.724356005420219 -242.604389388564840
-34.931850495576235 -74.778895174974522 -243.962825053864748
6.165871797390167 -76.408162342914920 -246.080167041097354
-40.961088520455739 -71.956987219851015 -246.610906585358038
21.971947050550725 -74.688731923878578 -248.304392458239619
-9.133216009211722 -76.154479615281801 -249.528721396484883
-152.674705988700481 -70.171080407318627 -251.831356426387657
-10.263617696097860 -76.758412627654948 -253.762331640003140
-145.658212300110364 -75.065655881578266 -249.499282145469749
-70.453856131087321 -72.217249875240867 -250.122173829590736
-151.490391808978387 -77.741241358178058 -259.731706155589620
-127.304670817013346 -73.797732570860219 -258.707282055053213
-148.786554676664366 -72.797596808964073 -261.558488320253275
-16.454339150654597 -70.050572818194041 -265.109771187598540
-153.098328584093053 -74.428033117065596 -266.880174428889234
-154.987556127562840 -73.221041569314366 -264.237025584863375
-12.591806870886352 -76.019227755484167 -269.577222667961223
-148.748010801266560 -72.269764470397988 -269.869509505880899
-3.999706001935557 -75.234334313200691 -278.905294265765747
-46.977460756555367 -72.202202299589700 -286.635295386630617
-136.256416288521109 -73.653171976121314 -285.840210514692103
-135.169458427437633 -73.513102410533818 -285.430354881206313
-125.874648178162772 -70.399363771833762 -284.135854451285809
-55.622037432401619 -71.101862454241783 -286.489074947710719
-115.124613963504942 -68.221043050789447 -288.237902121363504
11.224125248178161 -71.880521916288330 -289.737885148457565
-62.492887544141276 -70.199105556042298 -287.734331523028573
-146.425220640891553 -71.149477181205114 -289.487962016613153
-64.799302782259588 -72.603003959179190 -289.524579290255247
-146.885315600508875 -75.409678696916458 -292.246136931850060
-120.834756844940074 -71.592843743403336 -287.788638064025122
-49.884212849529128 -70.912020446844267 -292.443769292109209
-38.397489901967440 -71.585633455279250 -290.688952249490626
-139.413020423446739 -75.406221695511348 -287.178408049918289
-7.846391121980069 -74.710280745516471 -288.104040923544630
0.682052218224996 -70.021178358103967 -291.396358815199335
4.795013466155090 -72.183200375692010 -291.441876544824595
11.196329196946394 -72.355680996765216 -294.545207870432591
-153.888734455847128 -72.450608203843387 -297.277737636019822
-146.919854643290449 -70.094162372378804 -297.366310934878982
-70.613825676405298 -76.002201350435485 -58.120398797157684
89.257541693414211 -74.105048824862536 -78.417640227221625
78.301223457030659 -75.831764722388101 -78.591211902896845
-25.546308200324994 -78.011871619982813 -78.736500886811527
86.658467281801691 -75.748744968494094 -78.307292124029019
-34.558489232865817 -78.245812680083304 -82.268491578113725
86.464382866201618 -80.054879349294396 -77.703177930890973
94.637103262255152 -73.973629558597992 -81.628011290308336
-66.838303253993047 -70.752408146730829 -92.182808921047027
75.536871504958214 -77.261915586965799 -95.727740802114511
80.636433043889795 -76.060381141180528 -97.436970830442107
91.288399016703579 -72.532909684273321 -97.627789106503883
56.273499916781191 -75.344564954279235 -101.133684231242796
-75.938666447588332 -73.645070651420951 -97.939356583813094
-74.579556398616148 -71.317698006226038 -101.697012920072353
50.298305297062690 -75.000889715299266 -107.989142482161341
-89.214433984306396 -75.555351560475671 -105.041101838124519
44.038842655095969 -74.231710801612294 -116.060857356795978
109.467533204718791 -74.218448041147482 -120.097647418751791
112.984294023135845 -74.253597027428867 -135.407387410263624
27.972821561083663 -78.545473283014189 -138.825898020987665
110.130155198034103 -74.369271218620355 -130.046252714475514
27.271413736009663 -74.273607805488695 -133.869273273128130
111.796968944908457 -74.764815687097908 -127.913441973247515
38.536407911601358 -76.537959790485772 -134.040626058354690
-49.206653671840108 -80.051557655532960 -142.887700986295016
32.097258807599488 -72.325546381345049 -145.860644341472039
111.826427161192825 -74.003619226870114 -139.941700211954668
-50.529256074333311 -72.465132859344749 -143.572699820563912
30.398433973910414 -75.446194187902478 -147.711630312740482
-57.519040606816681 -75.004814072978206 -136.225162347019989
-51.217175683315780 -80.140099383060615 -147.124988053657972
-51.020057585992724 -76.920500203823551 -151.259571181076751
-65.173028472173968 -75.394601445932977 -157.464447298998039
115.867400956221246 -76.246458958591234 -153.599662035488933
-51.088616756257558 -74.883683684341435 -159.017441478340942
19.935342927595155 -74.082700004777720 -158.242992721842967
106.330186140843253 -75.723245787916710 -159.249042079109614
-66.289024197326484 -73.038872697114670 -157.063793728854051
-49.263166378155880 -72.833851736998838 -156.191668037689510
8.109080762847171 -72.472913464508380 -155.397528511100234
-64.620594871089452 -74.642500033733356 -160.708327838914641
-59.784929614844408 -76.474615732598110 -163.320854759740229
-2.071124870788999 -73.626275805416583 -162.730028756477253
-42.315327886055492 -76.710664933327791 -164.786356504428738
28.479015374765375 -74.582379684399726 -164.421774920877738
-64.210451321912274 -75.720968484573234 -162.862706796178571
-56.983978341655906 -73.769350956851994 -169.696165139310523
20.215477066829163 -77.511537724621732 -164.213524818639343
-31.371844868874781 -74.258689990939516 -168.876390777949808
-30.637184495303963 -74.461909024815014 -168.672225334200988
16.356882658313836 -75.566594796136243 -176.280533274752372
-40.967093269210459 -77.082419431954392 -174.517450077896001
-12.402237179396792 -72.997403325576755 -174.689243569046226
-59.880350431492964 -77.262366672922724 -171.194165547771973
-7.546709339367759 -74.308220057753530 -171.069993159006430
-24.212615360521802 -73.891835807352479 -179.715080330011347
21.280930298507187 -74.672655437432979 -180.292526979639774
-39.960587665332376 -73.575054242341821 -173.716595873775560
19.063176601014355 -71.672519838956404 -177.317712083530125
-25.380240253653220 -71.871311608136807 -182.379199805814380
-30.756125493532771 -74.416940574033248 -183.643960388283944
-151.873822220700816 -75.551640088085037 -182.987924305491788
-21.594922725713367 -71.930526786497168 -189.083959037195740
-146.508903755343624 -71.980697282809260 -185.985851028462548
-150.754316666655257 -75.829451889259090 -186.972335003433415
-49.399693403218244 -74.804395101368101 -186.100226534529583
97.192082683706587 -72.985029093531793 -196.221160716947850
-144.145395523605401 -74.583248553334528 -192.842564220646977
-153.939651780305354 -71.078440636557602 -193.558218535076236
21.014960545670320 -72.648946206224664 -197.874371157310378
-135.612119886756631 -74.531841536241245 -198.155395094825337
17.439388003671752 -76.299403181961281 -197.141843382232793
-143.161268436862599 -71.180067497861216 -199.164584075582809
11.235021065714953 -73.124153425566220 -195.113235670175072
-133.414528177909858 -71.558567063008724 -198.883857828134211
9.357547193057172 -75.286660134354833 -205.593001143363750
-148.356000684223858 -74.950688603078675 -205.508850008200767
90.595707923350830 -71.607421790152159 -205.699912660131730
-19.521356355746654 -75.670675762589639 -203.759113706519059
-32.667561328443647 -73.210790833923113 -206.640854019966156
-10.529596295242648 -75.371522342332327 -203.226322620486513
-150.112554503836634 -71.299969200315360 -213.514594122939769
-34.859877095073422 -73.547728917315951 -206.416355682348097
-78.544118162145537 -76.426929797066265 -210.847670163370594
-26.993801799625381 -74.041919389364367 -210.956745471294852
14.870912240791199 -75.361641599785244 -210.756184999598787
-150.727415520577296 -73.517267707891946 -209.923114607941017
-95.372228047704880 -71.474683396888224 -215.648145334198517
-35.197522114681739 -72.042996527541206 -212.883970257228412
-28.343247472446429 -72.891688651703873 -219.287938609938664
-13.096158519800767 -69.870708752974352 -215.055119674479585
-25.899076708837832 -72.664814852711672 -213.019581790980595
-85.496156370732677 -74.798676536035515 -216.533376216369163
-88.815981570414237 -75.957789909353110 -220.312178158270967
-26.980386605167844 -72.542586371862100 -218.959976723983999
-5.786009159730838 -72.544956584950967 -227.016159626648829
-151.018812991051959 -77.006750044708269 -217.664219032993515
-5.590241111290048 -74.196893033547099 -219.327392782247415
80.530235850079265 -70.770803082165386 -227.590981303541611
-143.151669977367106 -72.783544569119385 -224.714396934344506
-9.606243095674984 -70.512622535412817 -224.255757300264804
-142.712129450791139 -72.580448841532288 -226.274330734526416
-147.468540588085943 -79.256777774216516 -227.679412969996008
-7.383608509397021 -70.846621491463196 -230.680209406116262
19.003070658345479 -68.920123493858952 -223.849087576833540
-142.723527843778186 -71.700901199186859 -227.449169060703468
-15.886638949886184 -73.989544675830288 -231.192738246079330
78.342839918849208 -76.293600534828386 -230.026262629126308
73.920570750926174 -73.070652795006637 -233.401807863112623
7.390960352763507 -71.151702489755806 -233.490777117378599
-26.955706554950588 -78.334791560733066 -238.556041867338820
-21.225816028101242 -77.088507003184333 -244.680891081805015
4.201533344351631 -73.183677521611827 -243.618751661473425
-50.715595256521944 -71.251765133312290 -239.624186480245470
-25.118450468983177 -71.165062620382756 -241.976259038625415
9.197848802155882 -70.994300443539601 -242.709290139926509
-65.500294617964215 -72.282839745877382 -245.607851414840553
-32.755020213017410 -75.339186111916874 -247.152820754708841
-45.214010469780114 -67.973592363592545 -245.340413619794248
-151.930039421440028 -71.632031109632308 -243.674837326210167
-49.799021739713901 -71.904452550156222 -248.416996607090653
-54.816853417674999 -72.214487509221016 -243.752883925302484
-67.688307479888778 -72.050730220527100 -250.322335703058144
-9.599861689163156 -71.724904274287013 -254.578045597970117
-84.841020757093190 -70.468014879307191 -253.291513446453905
-154.980841046796201 -76.353298584602385 -257.743225119812962
-142.159488224468902 -72.955518230538033 -254.283286483802783
-125.974932992974459 -69.681580221349989 -261.707146309663187
-152.061361169562133 -72.964797904723497 -262.554850534183856
17.234562336498122 -73.884117865903463 -267.658339680081212
-14.949755427595754 -73.818500883219770 -269.701559523354490
-154.484696617865154 -76.379850692793099 -271.061772214489054
-153.672996834844128 -75.450694690011659 -279.134013598228421
-147.158512767344007 -76.726310701312215 -282.871476356949927
-56.360320778746576 -70.876571522779571 -283.812885278413773
-40.043236468355907 -71.726963597773690 -283.588743023976861
-29.674253033352791 -65.595830849304164 -286.223292508541874
