# This PCD file was generated using the MATLAB® pcwrite function
# from Computer Vision Toolbox®.
# .PCD v.7 - Point Cloud Data file format
VERSION .7
FIELDS x y z
SIZE 8 8 8
TYPE F F F
COUNT 1 1 1
WIDTH 799
HEIGHT 1
VIEWPOINT 0 0 0 1 0 0 0
POINTS 799
DATA ascii
-293.098426101029247 -61.514514996338995 -2.427064174737114
-292.022197911286355 -60.435515902790222 -3.017416288969265
-292.529712355394167 -61.797358025472903 -3.640779275925983
-293.089458527399245 -61.231145133017705 -4.553508619427295
-292.843049931295639 -62.039953213656020 -5.424220675317174
-292.043548916062832 -60.777922626295030 -5.733028844574249
-294.216058615438158 -61.461394900868640 152.740331054209548
-294.370840079451284 -61.717661167583238 151.758123700099418
-295.815491661626368 -61.620037979412871 152.759195072532606
-294.899301144231288 -61.443943879321814 152.232076440626315
-296.366744988779658 -61.592858021675816 151.162648383201116
-294.520719086858207 -61.807082464049451 151.842845890353459
-13.094183345880984 -60.670834816648217 -37.339255787628851
-12.859906068625735 -61.372731301437284 -36.711426176827132
-12.409010933392855 -60.381999072817365 -37.830400005813843
-12.922231920136092 -59.707058951287877 -28.820684813013894
-13.352326110865137 -60.454204144896821 -28.530603548763739
-14.465125777327419 -60.603184789506116 -41.631083871466529
-14.252001945767159 -59.532534790416783 -40.676761957404437
-14.827928018129178 -60.090112410999801 -25.631535074542221
-14.419702292169868 -60.308597540602442 -24.477200945262027
-14.991128310210271 -60.489000651610027 -42.904516191134341
-15.313155050682914 -60.551204490026478 -24.134822627041277
-16.032960858399317 -61.121493987842335 -24.004955258183390
-16.782866059210054 -60.151650667412909 -44.120033123223315
-15.934886066012524 -60.390316712385250 -24.199867387457832
-17.947274336684519 -60.766101122660842 -23.178832889388161
-17.696556046653189 -60.760702394650366 -34.549467133686427
-17.858492074300514 -60.305496700836549 -32.752599297469708
-17.243731322296416 -60.059166969297813 -33.446428301363518
-17.692512441922741 -59.545699746841905 -35.333437674113611
-17.517882272136681 -60.411881739063460 -36.157735286876537
-17.956635390242095 -60.132400895768029 -44.652877837859521
-17.669873193694158 -60.377611161448371 -30.587884271982354
-17.562396768311810 -60.197352751974748 -37.126851493415664
-18.110014386696413 -60.077070759720868 -37.722174308958479
-17.843017087341604 -59.921122106084404 -21.446597120752688
-17.627555265456788 -60.833911455676613 -29.677575405432343
-17.348828254217722 -61.295091292925505 -46.727520539933067
-18.061080514364750 -60.575067356259034 -39.134413455986504
-19.094088545046155 -61.216284783607833 -46.109147460270073
-18.841611175377984 -59.885752694147556 -29.404373106478612
-19.713191692031792 -59.562713662278185 -28.440644893806155
-19.084690166568443 -60.522926707562206 -38.931955300581819
-19.485481395180937 -60.941121827069587 -46.766629679935264
-19.154817774039422 -60.453084521143801 -20.322005646501690
-19.492588629546955 -60.362388568641023 -40.096549385575379
-19.104954362921166 -60.177408328216266 -27.969251559439577
-21.026072020206641 -60.205068129489128 -27.516490095037476
-19.494835745030493 -60.658170569372238 -40.492888639663313
-20.218999531882051 -60.196366817214532 -46.987084671862604
-20.013213312215665 -59.746342149380631 -40.099540923586254
-20.335778570875103 -59.932863914612554 -40.644256978111777
-19.386465354176785 -60.184207373909437 -47.234328400189142
-19.989646257811188 -60.393959260472435 -20.059701715268986
-20.498499817635693 -60.567103126866996 -48.053322278259174
-21.240569113599559 -59.892469911736960 -26.948552290323541
-20.308047930864458 -60.453833653496964 -40.966691463127063
-21.574610039626791 -59.775842059860615 -48.107296349155227
-22.218945126904444 -60.057665008671457 -25.976081355468484
-20.717588018908359 -61.196761086320556 -49.231387851687927
-22.392411913165041 -59.087593394593846 -19.163613133288401
-22.560998625956920 -60.922498949479248 -26.165225448566328
-21.587393493162473 -60.326602493015578 -40.978812235385121
-21.468221698593517 -60.243124629119620 -48.221759769356154
-22.180932466417016 -60.290357788225137 -26.060625787986673
-22.344207173144383 -60.578070797976409 -41.886667725578803
-22.203961237721789 -60.423238110687933 -48.850777147820075
-23.543488026246170 -60.516960975277534 -25.854821603279877
-22.046084857474032 -59.852424697772747 -41.588570174721241
-22.306893100078394 -60.118938259216478 -48.309498899157539
-23.089117578906574 -60.596087792744392 -19.608940896046949
-23.080923064665072 -60.084340532271085 -19.176543856043715
-23.815378976052830 -60.545721794106804 -42.127401131335979
-23.610903189797966 -60.037215135626504 -25.997284295286967
-23.151630715239058 -60.243284262750905 -42.452867947880506
-24.241595123043741 -59.783819956888884 -48.829140814741812
-23.166455453112071 -60.294773202693939 -47.912756030087650
-25.029322185609626 -60.696447245660238 -42.836123894713737
-24.485130269998152 -61.036161045031292 -48.366505933700708
-24.319730872672860 -60.546017998521002 -26.000886774684968
-25.515259215769738 -60.416503549455527 -25.743251000600356
-25.857744911297228 -60.046918916386467 -47.870506172502040
-26.120631392085066 -60.714423680530608 -42.465627632222287
-26.866417051954937 -60.694413663524315 -48.366048098966573
-26.117281574901369 -60.746696199960716 -49.258889567597237
-26.504665843160314 -60.299356747443667 -24.838983212620533
-28.491022716707722 -60.541706392245693 -42.202338578104595
-26.403988929797659 -59.311260163519705 -48.850567282245898
-27.542340256585955 -59.821268612950092 -43.091355531751688
-28.408887894618402 -60.432679535342693 -24.574781538003087
-28.523829582919770 -60.422231458649215 -18.977267363473032
-28.988625754571238 -59.876291415365493 -48.823114093263030
-28.802569927552323 -60.308086321808062 -19.375855327536947
-28.984483791826051 -60.242122769726663 -48.686069295512489
-29.445261210481661 -60.544826143900856 -42.878985625328390
-30.289780335107800 -60.082163840317065 -18.891500783877152
-28.862579385489020 -60.475957328073662 -42.927366858517075
-30.167407652628128 -60.551338207279635 -19.655094192709829
-29.595141765040214 -61.671381343606804 -48.597782996421152
-30.071430707374219 -61.619726197415815 -42.512404889765442
-31.465256917854717 -59.996036605700610 -19.658116734473577
-30.073911822500847 -59.977830211280690 -25.330983205418818
-31.478279271438879 -60.518511389248090 -26.213779306142179
-31.556048654518808 -60.906835824471429 -25.593819268040530
-31.365995722990228 -59.757183695732181 -26.564698280302323
-32.355795084578304 -60.240794186724891 -46.665264540920468
-33.071471779736825 -60.301657631727494 -26.846502707277814
-33.471986234473967 -60.000429861247014 -20.451617998175553
-34.099695084266592 -59.828892670289122 -40.777280668722952
-33.847635710325591 -60.797695153869995 -39.900048526678695
-35.261045434299604 -60.988134579949012 -20.626700642829434
-35.108349703121881 -60.110504317652875 -39.176715048002940
-34.411841389325119 -60.743741119090060 -28.788896485405775
-34.759411892378125 -60.294361676950984 -45.913982921368806
-36.161900409095409 -61.047014004964375 -29.157388987466646
-34.828874368222067 -60.296259898785785 -38.037653335398161
-35.867299541360609 -60.263930667907474 -46.595166784601105
-35.577542029000114 -60.012196071445096 -46.474338950170960
-36.182101599195171 -60.757873073555160 -21.541179185423228
-35.523856040738920 -59.541753785736603 -30.627102999294937
-36.565736232679100 -60.271038386976002 -31.705822377281464
-36.019685112714079 -60.091282523714135 -45.484899984868981
-37.132627626444375 -60.796187138926612 -32.264564302915062
-36.547638538176059 -61.075439522184041 -44.693700476915986
-36.981857823352648 -60.664048172847984 -44.711543345838685
-37.312647960690498 -59.990717786175161 -22.652817751680487
-36.821887818628682 -59.974637394682233 -32.580831747186707
-36.922761750680628 -61.352743516454815 -33.989331202604681
-38.216455443044332 -60.703066830276526 -22.492079204034347
-38.067997092448564 -60.493226360290237 -33.966133466271138
-36.998871930942300 -61.507650469641966 -43.953854749585403
-37.623375517573507 -60.186585727949421 -32.819681975570710
-37.154200341591768 -59.933602148090735 -43.961515380922428
-38.245928656505669 -59.884077885793815 -33.820581040288744
-38.205169846683852 -60.611897330141872 -32.564544853397493
-39.371858481917556 -60.529608984202561 -34.196855760360442
-39.547153408091141 -60.041603368418997 -26.066887616054423
-39.295717714661393 -59.906999248568169 -33.081495770160593
-39.321411891751865 -60.721991031443430 -27.137550160176119
-39.583918067088845 -60.680793798171429 -33.365384071237784
-39.984148983578663 -60.345068701379169 -32.920007054318702
-39.860921760750891 -60.598793110093133 -33.444785567769479
-39.973320445768593 -61.007298959978577 -40.493655994010467
-39.910387362734760 -60.700035781995922 -32.391879467659862
-39.768184847198853 -60.150596558271779 -40.460135479099669
-40.014407208332187 -60.519335190293447 -39.534157017739240
-40.431521643422613 -59.944058692918624 -29.881039571471156
-41.870089290263877 -60.453436797284731 -31.216028589246406
-41.969347720982739 -60.647698861687935 -32.480026365180166
-41.740262915693904 -60.497704605237949 -31.680167953194868
-40.944259249935968 -60.635918435903363 -33.944912111816500
-41.865829721931902 -60.221973963894442 -37.471962045192157
-40.895942941974134 -60.456469469193308 -34.383382597053682
-40.949442317721555 -60.310001174314330 -36.288256030415830
-43.720547758979080 -60.426953739955373 64.770838256394143
-43.376840014430201 -60.716669350350507 64.722223038348005
-42.891427258061590 -59.589336849726543 64.547736740144671
-42.566498975274008 -60.368750748873552 64.694319687442089
-43.337351485002877 -59.616366989800788 63.354096654535191
-43.582961306667450 -61.006248843823720 61.083345211071418
-42.580465337354894 -60.898521657602409 61.027043985022559
-42.560204969451618 -60.782297436708731 60.308006754470007
-42.680248353004750 -60.083390343228203 59.319752281117019
-42.465401939946098 -60.637845541400601 59.024213779439229
-43.128566334840215 -60.214375196394940 56.543563147371152
-43.119114258650661 -59.693801354176394 57.196399105855399
-43.192731369130016 -60.384538479917651 56.544899412483190
-43.086229978561200 -60.378363884364418 55.098376598496657
-43.139661089230984 -59.745945175918209 68.528425333082822
-43.541466701379129 -60.240695157250414 66.607461688839052
-43.569408380124194 -60.153363949585646 67.992965653926262
-42.722475752983186 -60.223063276577328 66.300329276520927
-44.011219913410102 -60.192809380360636 52.135703745964676
-42.985903243286273 -58.802057041627634 71.396698836550613
-44.531166221829558 -60.077108392087432 70.934605468830512
-44.247632645288093 -59.537839739329883 69.147194648145913
-43.630585580241707 -60.573464013110126 51.074396051352316
-43.541773127070762 -59.855965650720925 50.011825223600496
-43.638772903659962 -60.576865612089918 49.884364423601390
-43.808361782096647 -60.071611280953299 50.013460162942280
-44.031306677511623 -59.945003996210595 74.160926742802431
-44.427662734671998 -58.815330416781052 74.619830193896945
-44.162697646017428 -60.184583757869859 73.394987457200216
-43.827945686760536 -60.651240390133566 71.729390151360619
-43.880096539748052 -60.671064663528057 48.694546157511830
-44.527318602485202 -60.180001414770160 49.309727758764502
-45.169183862357443 -59.574256868118155 76.277365396533312
-45.042380329889092 -59.742289453160922 75.715111013630178
-44.884837148356006 -60.680074273055077 47.658374086931879
-44.871510592269352 -59.706284513758092 48.286027470898937
-45.535991027554608 -59.724353565753574 77.771238509126107
-44.710790806084262 -60.323392536716469 76.370592090627326
-45.190236628485735 -60.947101536472019 46.833311348629735
-45.585800395905274 -60.482854738991939 77.419073623056420
-45.307268087638107 -60.563152647460818 78.710759654401912
-45.666947288083051 -60.258361217777576 78.398030466014461
-45.391577277817220 -60.336549166040733 45.876787897864709
-46.239190702849100 -60.079331808498139 79.125116636309329
-45.926611010966724 -60.479764685318450 44.653429776849357
-46.069265232934519 -60.076789240432227 44.277521611084168
-45.703055465501912 -60.319863341497268 43.146492358840163
-44.989536212124257 -60.339400652125555 42.117438916246350
-45.738574558319378 -60.727419670815799 40.443163087077139
-45.500270649301427 -60.577310388174183 39.273751179649153
-46.868731797544768 -60.202314695312985 38.084911726351848
-46.437944477384470 -60.325358859122851 35.828983345992611
-47.050914819043541 -60.186994655597580 82.010238787662246
-47.301637820982151 -60.605967743618940 34.946743207299129
-46.590748306939766 -60.171304938603711 34.669830301057864
-47.642463646234063 -60.258410844498364 33.572590746887748
-48.511149005853731 -59.426455291762096 32.516534659556314
-47.360964500328848 -60.423117142766841 31.911358396766403
-47.459902725924614 -59.812431329663333 83.508359929000108
-47.847588234280849 -61.008762488190385 30.846650883802340
-48.259038327040990 -60.719097568191124 29.228424849375678
-48.383915322712980 -59.428638166395238 84.629558906971809
-48.298182134426504 -61.166181752200764 28.651052338166210
-49.852251764318950 -60.506717112459583 84.250165270358679
-49.428188419759103 -60.121784881213941 27.096349636137131
-49.374684080662838 -60.508572628821810 26.787661846675007
-49.085322255069066 -60.556005467527889 85.346353060413620
-49.882333505468253 -60.577333780144478 24.947269956975063
-49.614346279042657 -59.844438950787513 24.659140941132488
-50.467457710238278 -60.235997542629278 23.388356796718373
-50.734899029397042 -60.910164329254350 87.096477120220129
-50.928698100584754 -60.493703888346140 87.184726338482292
-51.931306809430779 -60.800236116208396 87.531891571525350
-51.219955833818638 -60.269337980770359 20.954726178428867
-52.461391485441524 -60.589867505820763 89.096629245358699
-52.651748889024006 -59.774432172036946 17.411257969522733
-52.829548444494336 -60.452013058864907 88.942435490885899
-52.626918237678360 -60.651062223979409 17.079651003223510
-52.269039223119968 -60.411863107968365 15.609533310922528
-53.422020503086451 -61.497683643485736 90.246137445426967
-52.799650941064932 -60.640369175119062 15.962561091287967
-54.521596267368778 -59.656193613917971 90.572784710700560
-53.127248238694165 -60.464940407146088 14.486686751903752
-53.911124511099366 -60.286032399274099 90.729177942897863
-54.182912580659625 -60.615602629385975 15.529993973928287
-54.153875565083872 -59.844141910979566 14.776598756418068
-54.511213043238406 -60.169665377741481 91.041628031135019
-54.505367202010433 -60.110548686787901 14.771758478040477
-55.388351979522604 -59.164780654638783 13.186040656956635
-55.607973317095478 -60.414432375360704 91.751156496454357
-54.614126967713233 -60.633911190272940 13.695249168091195
-55.621004982934551 -59.938675126874301 92.542248455652484
-55.465563805251286 -60.088587661058632 92.651421911853902
-55.231866009063275 -60.470275658933566 13.238802960131741
-55.516107046683203 -59.338282423412991 12.421031819630509
-55.956399472720541 -61.244469476095837 91.523772082131160
-56.928146222522415 -60.195244449267321 92.506170809302446
-56.573839500593500 -59.683916471195708 13.080216448044260
-56.833487605719142 -60.491780384167868 92.288208308121000
-57.128465381482172 -60.004618470745484 12.372290916505362
-58.180905654397854 -61.498260227261369 92.607322018733939
-57.056110960785134 -60.606244299569042 11.768277085239683
-57.854005740199767 -61.028433151994733 93.682905896116353
-57.552899301041087 -60.816363046439399 12.376919814297423
-58.544724046444777 -59.833491444416083 93.458317167859818
-58.125316617266584 -60.260624024088081 11.542471202516946
-58.582298827459304 -59.878600209668569 94.225965680528574
-58.231411010266136 -59.404288655627987 10.542970400347137
-59.087844094984220 -59.996757835533224 10.269504536380726
-59.137385388475245 -60.336524347000115 93.836766081030049
-58.734624188786078 -60.300541911004963 10.087185382091478
-59.102575855744242 -60.606325527695795 94.789450154711830
-59.770943806493790 -59.973190195669098 10.771621078172524
-59.462037543851856 -60.264882447232345 -75.728744028781307
-59.700822792864990 -59.911134700278247 -78.439009243153706
-59.380421153791019 -60.484590209144734 -77.693500658620792
-58.807691211780380 -60.132017161563127 -77.962711998669050
-58.827346386261553 -60.355131009579800 -79.649359292867246
-59.322834523985733 -60.912261529231927 -79.141361017782074
-59.320267105049382 -61.479204883798609 -81.246652688900923
-59.772409286967601 -59.729231012427036 94.477882181571758
-59.644001527243276 -59.877168585624020 -75.271861672008711
-60.268517977160712 -59.829929817824329 -81.374232198767956
-59.760864424145282 -61.165056975629724 94.469658539579612
-60.660519446888721 -60.387492523971815 10.650396655370358
-60.678841236655970 -60.071690673983646 -82.460491848693650
-59.240103829550726 -59.514587828286864 -86.593179626027336
-60.371879561438782 -60.329580905799951 9.357742256212632
-60.076951731163724 -60.271269577069461 -73.022093197799578
-61.074089512256322 -60.361630333950735 -85.116564476689149
-60.605698192563970 -60.686218755388140 -85.332364018016435
-59.578564365635842 -60.149296823116515 -85.963541785842580
-60.263992212009470 -60.094059192066396 -87.287413252703743
-60.429920277846023 -60.048244588947043 -87.957174041256962
-61.050605458552980 -61.129007592590234 -87.926043972745433
-60.293081670405684 -60.389870099434106 -89.303987052530616
-61.068393381709654 -60.874125013791982 10.024786584062801
-60.925925864504144 -59.709091377006445 -73.671065382290195
-60.381614636256813 -60.108842521790301 -83.946418309511500
-61.354148400491304 -61.238888973053513 -90.911676366746519
-62.375835367244683 -60.540034633026515 95.571857361119143
-60.777880199077188 -60.190404412181977 11.027416002591083
-60.741974891962698 -60.243853354857990 -71.818394315969599
-61.875244294326137 -60.451141238915348 96.140268642247960
-61.992945344962514 -60.345024308284167 10.377431917965753
-61.009219550071066 -59.705567806730777 -71.473919761314590
-62.085525090035546 -60.819479094092337 -92.171534812631279
-61.963887631541546 -59.718157199759681 96.885730478124060
-62.482960679063552 -60.512464137377066 -92.668088859004726
-61.463093151070517 -59.607136474543367 -93.404105261033081
-63.477938012308130 -60.327670201788486 96.748026619058578
-62.224011807757144 -60.305652272726100 10.892251190893502
-63.100941184656293 -59.938372446931147 -71.352492100622428
-63.199037234962361 -59.968641469858980 96.211924393765329
-62.777750364851357 -60.521164881313013 10.459842427174312
-63.165982841587343 -59.910713279214669 -70.712134423413886
-62.951358556347664 -60.352442627711682 -93.790846609920465
-63.993590184820725 -60.186088696959899 95.871099873948978
-62.659930466453353 -60.239561260679523 11.058207555632736
-63.150940288635809 -60.334214212041076 11.284338366049573
-62.700663574670877 -59.492416201352732 -69.530675734604230
-63.591939271042150 -60.116487216365549 -95.387267048304096
-63.748025576628898 -59.651753945395875 -70.359016019287026
-63.744729937421354 -60.383511889496745 -95.638593482021918
-64.321776139083426 -61.547032394683150 97.027545527821403
-64.220357259933252 -60.815969968002271 10.855424770510886
-63.576107727825772 -59.939087579054856 -69.084715996812704
-64.302248039242443 -60.597933211645227 -95.995683490731992
-65.127072990749724 -60.358221080183959 97.143181280790301
-63.973184751395891 -59.813681551327150 13.316729392948471
-65.206330851645390 -61.235004414282706 -68.959082937106359
-64.110498936141738 -60.280985727887355 -96.049350248586023
-64.873403543803661 -60.291961383676913 12.517170002256560
-66.229378356263879 -59.828109257208915 13.822591714960174
-64.920262564761799 -60.357205251788770 -69.367117825790459
-64.877896008741061 -59.961480333462724 -96.730072001181171
-65.026422560879070 -61.228365963083220 97.294934341405323
-64.940403925853161 -59.097461521674589 19.930468674541135
-65.064502742138899 -59.947002032206818 17.508959157869398
-65.165826614076778 -60.230914720279827 13.801047443825507
-64.969778966354497 -60.749399604303498 -68.842762596361752
-64.530417460441612 -59.461994191424353 -67.555172240501378
-65.051855341164000 -59.870021537549505 -97.190507045753691
-66.829291016939962 -60.764740915522957 98.749943086229294
-65.929771241465815 -59.376349607395625 20.373292827310930
-65.958393929684149 -60.928604688730267 19.822880696079100
-65.460802777981485 -59.806527981534131 17.045248601882715
-64.865325821232261 -60.097369323949430 16.739844179628214
-65.380636968252475 -59.991737227633472 16.027297250101071
-65.056676686067703 -60.743309417784836 15.289771358606693
-65.820418977345227 -60.953322990407727 -67.874288081115395
-65.574836553934617 -60.256978468623885 -98.211615289575519
-65.683083146199152 -60.215230856926290 21.567023982374387
-66.570567537446195 -59.980096482411327 20.743968441450562
-66.224460736856997 -60.761407474721111 -67.419941940998044
-66.020972656238058 -60.346505711846049 -98.186124432999819
-66.634719306736258 -60.477927272858253 98.179813878263374
-66.273984402735167 -59.599043686677582 24.270622890288177
-66.314095090970696 -59.717775856367361 22.286502079588445
-65.910280026225735 -60.588344226871676 -66.701152655884059
-66.823116960471950 -59.981304722206929 -98.475167308809105
-67.181668708497170 -60.618892436575365 98.394804222971487
-66.143045354694380 -59.598438770945542 25.864551219652164
-66.867030870335043 -60.533944037480545 25.412701007040656
-66.931014519943702 -60.298298235460635 24.742785808537253
-67.227178936344529 -59.061759155687781 -66.309493754792044
-67.004205797009291 -61.079129345106608 -98.363686586985722
-66.934503333492245 -59.729877099719388 -98.709637856649252
-67.631988320779854 -59.187836937167383 26.540671003253639
-67.811468495230159 -59.893429817454560 25.839682479577821
-67.291768684151876 -60.654610503908998 -65.454183191027795
-66.364485055908816 -59.273198436736763 -99.225855393892999
-67.480394162602707 -59.791366491431980 98.403531145365960
-67.598417736700213 -60.650789171878145 -66.013980749071337
-67.774768390494629 -59.991560409302878 27.207101687472562
-67.856718792976110 -59.750621920832884 27.927840969792125
-68.479808847293882 -60.182235168641405 -98.802470377619414
-68.411081957922519 -60.144686332008035 28.215257190431235
-68.240136326604215 -60.015513411491057 26.950189132178210
-67.813281885963974 -60.135320453233014 -100.224295789247194
-69.079856694432095 -60.583484376953727 98.595952409852217
-68.903836410310348 -59.923921950942024 -65.541844881049883
-68.821204649755757 -59.776333567296668 97.981922010144871
-69.434593644557182 -60.485567675565164 28.447112308919301
-69.216893896144313 -60.396015369936521 -64.627653158453839
-69.605146909339211 -60.301302245381230 -100.271610371312434
-70.048126756538593 -60.171906877633774 29.952668472330807
-69.662662407343845 -59.769584185304218 31.431707986223124
-70.053702950007903 -60.339803540539002 -100.951194920736995
-70.445559960307534 -61.324172109362515 98.552219701975943
-70.320722568133718 -60.553972179848238 30.292093269456299
-70.447262835774424 -59.720446203576977 -65.173631550169546
-70.381934641063111 -60.379199909924331 99.094559359241345
-70.290509680408832 -61.607876371940158 31.413531650314781
-70.657579076907609 -59.819046643951445 32.140696849920602
-69.624991582542776 -60.257354970228370 -65.492868388844940
-70.904072813581323 -60.614931479929730 -101.501489411851537
-71.166239179240776 -60.577057639090533 31.128592619140203
-70.914297812663662 -60.265054201830907 -65.520351264229149
-71.857305844813908 -60.891449565880173 -102.220604951439569
-72.242635717609232 -60.636648010783745 31.967763333184767
-71.678461952975113 -60.331444030384425 -63.772743154675055
-70.374738812588845 -60.277315163998757 -101.768222961722273
-72.140624994182446 -60.403525610877551 32.460159823993529
-71.774182431031804 -60.829835627455495 -63.637144209083843
-71.910087834578590 -59.935150426144546 98.955359620848753
-72.496008801474858 -60.737511429108999 -101.686809945533469
-73.202815963756976 -59.654185924032831 100.139659961439634
-72.183628256024349 -60.466675629056937 -102.443530813130678
-73.804492651097959 -60.401419187945528 99.857391991327304
-72.758403772112445 -60.392037341125778 -102.240758343673249
-73.708301982852049 -61.018487918840819 -102.763274718081632
-74.271526227957750 -61.366583731297844 34.118158857332475
-74.546761015221563 -60.079971385739654 -63.525631802267597
-73.578456397371951 -60.043572177118961 99.058088456637364
-73.636900589173990 -59.647983124398444 -102.350507843922244
-74.184208381790469 -60.091721917024479 -64.244215686116632
-74.579803137589479 -60.618667256870062 -102.550341337608216
-74.835804286434268 -59.967351994282538 98.583749831266573
-74.709175709954806 -60.143339596444029 32.991054286501381
-74.641136629016941 -61.005801474154936 -63.516333797480868
-75.307021427108694 -60.480537317961932 99.209829786910547
-75.141976299313058 -59.977619224137712 32.895200727911465
-75.746476679592575 -60.214311675259765 -63.213534451254560
-75.823388770787531 -60.151707075587730 -103.214606431151012
-76.232218986057447 -60.892269670994139 33.116957214550752
-75.764172646940963 -60.796805394157751 -63.497679559482805
-76.116181757359087 -60.382682942417809 98.917541677185412
-77.745487882654771 -59.669490227094833 34.299238267536751
-76.946419914493319 -60.635232354319243 -103.068035065205081
-77.244892651237734 -60.483811742168314 99.279896776295885
-76.594414186571072 -61.285756509003818 -62.464400744908957
-78.137237851937797 -59.864066679486008 99.330708923272823
-78.165343999766506 -60.295257418031937 34.855628292557704
-77.953940696744141 -60.262121734045174 34.937717241215239
-78.075210465577626 -60.338884191763647 -62.610737041423171
-77.695915784776517 -59.758389112356646 -102.160161911614523
-78.092778387253205 -61.053115036411981 99.809723049795181
-78.288273807540037 -60.879957620567822 35.526039432894287
-78.133221782406196 -60.767991507119348 -103.771216734535201
-79.202843710861004 -59.029397260179806 55.066055634577332
-79.070071106553698 -60.189014453231273 54.715575386692521
-77.800193300428035 -59.953973272551963 35.237369468655366
-78.105249635433523 -60.280179603115201 36.169082005705050
-78.776072567635808 -60.182417984406818 -63.238764685719744
-79.437171886052695 -60.492230740215653 99.248835035753018
-78.518976754192650 -59.196584136870705 55.388283504325834
-79.043432797673645 -60.244209385288038 53.951266762148983
-79.074274693283257 -60.521409554702700 55.175406353632447
-78.438985113488513 -59.764912019882068 52.644862538413648
-79.414611285701596 -59.869813011074115 52.894968382462906
-78.748140987747632 -61.020072793275958 38.919737973535163
-79.485316601684886 -60.567123349525815 38.631671457612242
-78.572186557293506 -60.642395911850230 36.874956068142104
-79.385110496935070 -59.563699580361920 38.270338436065970
-78.239980889167867 -60.722066224321026 -104.440826345877682
-78.320913280805428 -58.411788849147435 -104.221531570176978
-80.104218003991733 -60.610694832434923 99.479612229994899
-79.262610212003366 -59.572014172210707 57.452551667089040
-78.764159158462036 -59.820909151749547 55.535773290709400
-79.427141383336334 -60.007928246571808 55.373614007076782
-79.554394061130935 -60.330800857256598 54.075434654481477
-79.415325124427000 -60.007789902300317 54.126386969074524
-79.194019592801084 -60.160199700917602 53.652790233201387
-78.989377269631603 -60.612702141367407 53.765928784395712
-79.409770597583673 -59.959974029058571 52.863032307414819
-79.230497144784010 -59.261374757598453 43.546336536378377
-78.267741975732548 -60.486297555682370 41.674554884684092
-80.684531743291544 -60.934094461335576 39.225529106481048
-79.637919295352276 -60.806763428753186 -62.842667899651268
-80.333586889597541 -59.008673579727279 57.760821666853957
-80.081037415803209 -60.353522120802552 56.583971757468269
-80.335227687584023 -60.702363020234117 52.029935562146214
-79.304969530468597 -60.333552347294791 43.083751428394976
-79.596449866756529 -60.548322606044792 43.254364774030144
-80.635207848014048 -60.918006970579597 99.589473113928207
-80.221260124107914 -60.374123195259017 57.733488690524318
-79.960917754163845 -59.747497236259804 51.598631538907895
-79.108174109906969 -59.488931636640991 44.491394101868259
-80.044824121014372 -60.222965440956301 45.166755638387542
-79.809669470721985 -60.614099244571250 -63.165379045484585
-80.131651128553713 -60.380789455940103 -103.520134479541795
-80.657444882013493 -60.482632802310341 98.979215321448436
-80.795628027098786 -59.928186161786414 58.960493030787745
-81.155278074120105 -59.737654373191184 50.978603148340504
-80.784136576223503 -60.149824751885639 45.575095345543282
-81.900206448387792 -60.886741051568976 45.631244033743073
-80.232657876047540 -61.496448344031542 -63.669898227193201
-81.466511977299390 -60.136469175643832 58.804312106776898
-80.908101337015466 -60.291499454406463 51.480489482576068
-81.477928680997948 -60.419440138479139 -60.928981711619173
-81.622506230091687 -59.572855563562484 -62.968613482996631
-80.583681552307127 -61.142085346308740 -62.402384506526026
-81.067038481111865 -60.498731483551815 99.348054735785468
-81.175257623849134 -60.357446867307900 51.172478021885802
-81.462404176648405 -60.109860184902900 50.972054681320259
-81.257179434339307 -59.679636357598646 45.943439334867215
-81.183083455392605 -60.621282074553399 -103.758638719019402
-82.292577274926785 -60.068576726513143 60.691668263836668
-81.827551320404012 -60.412060995711229 51.276466957554156
-81.783920804244644 -59.684063189741053 50.394548755279779
-82.536957664989828 -59.709257581511629 48.312272669718212
-81.428551066278033 -60.048918552767205 47.780673290856015
-82.297629043824543 -60.696408022891944 48.444341715328683
-81.479091967427252 -60.260053748067918 47.833505804886940
-83.225026884168699 -60.730145227031109 100.282602390161728
-82.205256213273131 -60.194442041936185 50.500789283076784
-82.421729658961709 -60.374726444600789 50.532868933427991
-82.369467999623140 -60.674886694917468 48.567811168533012
-82.106640366013309 -60.056212529297184 48.110469388173591
-82.261184467871189 -60.221619599471047 -59.897810227820059
-82.183703178459709 -59.908214455479197 -62.956333822410372
-81.613364781361838 -60.609893801789646 -104.349119895120396
-82.917211539776389 -59.797976893356591 60.435065498912614
-82.750864893166337 -59.443430241604716 60.816583309211168
-82.351075536271424 -60.067272333431077 -58.691636501295420
-82.910210486471101 -59.890732724949771 -57.855794949487155
-82.403084797118751 -60.156446433104094 -63.513341650223936
-82.094856356258376 -60.651900995680812 -63.201691109818725
-82.579184152471527 -60.932977618458814 -103.798913182509580
-82.832453649846087 -59.634738469496654 61.195282675748288
-83.320329807674128 -60.199202862798217 -62.508236237333314
-83.255110059557367 -60.959277179596285 -63.407155984884085
-83.544051448401177 -60.920588539260699 61.288126293710640
-82.909000264734715 -60.123869270523478 -62.599335255663327
-83.807482803046085 -60.505517984840964 -63.844351805810433
-84.503502720830880 -60.115454978635626 99.621164767610267
-83.337584617696209 -59.826148243381823 -57.500287203681438
-83.937420165194098 -59.986599093698210 -60.833263519624602
-82.271770782126396 -60.304521833651336 -63.624871507828232
-84.747810566628587 -61.411115103489891 99.892564880642041
-84.798551110883537 -60.297337885220543 62.406652891396327
-84.200838874156048 -61.037470024818184 -56.145928329462201
-83.408211673151939 -59.178847953962588 -59.593757348391009
-84.106806660418300 -59.869941509573160 -63.481147749410923
-84.012128053998097 -60.528720233337523 98.989044656034594
-84.828054134120435 -60.168592252872017 62.291234855445225
-84.664627155554143 -59.542338556587758 61.750307586865425
-84.384167901133679 -60.493258166773082 -59.078172849259488
-84.517090405600143 -60.234155184504758 -63.097369362739173
-84.353044461940826 -60.747939352539653 -103.837408930883100
-84.203886478452333 -60.160724324654915 -55.291205692586104
-84.611992498463849 -60.086059071616425 -58.853585009226670
-84.255475097623105 -59.044242030375543 -59.663246769416517
-85.174184656768688 -61.073158770312816 -104.686293260370590
-85.502275603961621 -59.737145246703953 -104.641345893307786
-85.010664207047768 -60.794824767161202 99.519417184055314
-85.415531759619768 -60.671435800775804 62.924447214835972
-85.026999330301138 -60.883400676342539 63.022942964384939
-85.077154354758861 -61.030356548408967 -55.566925176630377
-85.695267158308852 -59.742385213448657 -57.543675726413774
-84.884195673749659 -60.842218358543271 62.650351472092190
-85.452420688569646 -60.670710697045287 -54.748016918870142
-85.865287418508856 -59.828414759175899 -55.063114653724107
-85.936918529504268 -59.698048486015118 -63.125152348089316
-85.253242487158658 -60.436994652094278 -103.517902638715015
-86.031161265546743 -60.073689917000813 -57.345085806719609
-86.267601017300606 -61.832123345828478 -62.902722850790020
-86.227152313781232 -59.450618927194576 -62.619608091939874
-85.349613529839004 -60.084168234953133 -103.086148110530402
-86.708801100833256 -60.082618487240929 99.315081047499078
-86.236020795535026 -60.481568689213105 63.929170319670440
-86.980049649210713 -60.599027631657108 -54.480413997604423
-85.926936903882776 -60.135197534132864 -57.036676501793444
-86.922827954498175 -60.316802071273443 100.163839747436640
-86.638307738296604 -60.155368904724234 63.271318067175521
-87.052507685556805 -60.536645855983885 63.371288366337964
-86.971627204293668 -60.370095789665768 -53.548758795614333
-86.910155130927862 -59.917620267473225 -55.321967767450090
-85.774702687402282 -59.885215995247087 -57.515358524762448
-86.721223179154151 -60.196304809719962 -63.145523952981364
-87.786001850282886 -61.321568946345892 -56.240031921389715
-87.452491151849458 -60.416980727934465 -63.559738289399320
-87.625040960054946 -60.346406177893947 -103.581584635651438
-87.676582119121861 -59.760347104758459 -52.174770270678913
-87.038872073915883 -60.311446036609830 -56.126852033985102
-88.343309708667803 -61.145188254204712 -64.735170592145394
-87.698212488270713 -61.028153226298009 -103.896873210957963
-88.120190370359992 -60.147213091281493 99.838396645373209
-87.835095061546113 -60.793288177085017 64.806949300635750
-88.220019448343194 -59.533519688653840 -53.730963922199749
-87.615618229219223 -61.679625356953672 -56.066124284546760
-87.766977779096592 -60.093467715737866 -64.015813887059679
-87.994172166051598 -60.723281172402537 63.918521478842337
-89.002988030047334 -61.525500688992608 -55.297164096809020
-88.864279918018653 -59.984923421440570 -65.892680423013701
-89.273200357660514 -59.866561744059574 99.935912586450414
-88.805368749757577 -60.425799928598579 64.430910045709339
-89.849498668235043 -60.761616722358688 -52.143844845023963
-87.673171092578755 -59.726477266308187 -63.995850941457803
-89.856882426884610 -59.776238197261939 99.987462512485763
-89.451248333939461 -60.410727951835270 63.621941108224732
-89.436649915330491 -59.846612796214949 -52.079666628160247
-88.983860700303566 -60.674198538035100 -55.217121870862833
-89.928979919931635 -61.325388633491784 -64.940728814418193
-89.034837187644627 -59.958906370009757 -103.173357713947340
-89.603720567930793 -61.138498824543909 65.488788880020152
-89.744639340355263 -60.211422164876588 -63.717805530146592
-90.782266303658815 -60.037876943175178 66.063041845558018
-89.801737252142942 -60.744810150269394 -51.297951882795481
-90.769758658480669 -59.824571219268314 -52.621338294198409
-90.370035771702760 -59.771994927515017 -56.265182885079874
-91.193477297996395 -59.618893198299354 -64.421762052435355
-90.747629949652080 -60.252893182567966 100.021581142536505
-91.302522863839513 -60.633605630612188 67.123042955355686
-90.305820365872563 -60.835908285237444 -51.197874457972972
-90.115229012582660 -59.623517068873241 -55.896019378917259
-90.104852567304917 -60.558131351802722 -62.210466317920257
-91.000612047267950 -60.515729278635447 -64.034708423429663
-90.170093789464246 -60.693586097849639 -104.195665394723989
-91.355404337939930 -61.336640186652708 -61.293456536936390
-91.175215419685188 -59.900541781863623 100.475086393633006
-91.530661536516988 -59.941041997140907 66.929274459538561
-91.616507021384265 -59.783526785355832 -51.896201108410231
-91.222990744260457 -59.312563161095866 -54.802414518144971
-91.456315164879854 -60.211149019848236 -61.165000412519859
-91.233621024037134 -59.410605764876735 -60.471965161192131
-91.073100565749257 -60.479238491089248 -104.177575522273131
-92.197642424892081 -60.737854718843536 66.746117958408391
-91.317070615577123 -60.605473366951855 -50.716206385390073
-91.725159804882040 -59.480018547210832 -55.368901669911232
-92.368326972095787 -60.196015327876076 -56.253272627560470
-92.467152309522533 -60.697679204853230 -58.411906472305105
-91.239282981005942 -60.115126356554221 -58.977507012588788
-92.144635272840446 -59.328490660793442 67.212217120447718
-91.769478022742021 -60.286278632958542 -56.195354324651582
-91.901905916724587 -59.759239044914310 -56.593111607557276
-91.782671448759800 -58.974686553591056 -57.711527870270004
-92.252604287923177 -60.490542506884530 -63.933607903890447
-92.623803968779313 -60.463034034167741 67.578958085689067
-92.774835566772822 -60.538719693505811 -51.562134259178578
-92.384699274280720 -60.418865223967060 -56.279489599842265
-93.087887737284902 -59.905610249975553 -57.374493420054392
-92.606990285812032 -60.099357397350275 -57.973527459760867
-91.736556642643379 -59.766185889281331 -61.749317630861256
-92.130540002760085 -59.399418476818340 -62.880393494778176
-92.995107798692814 -61.222205566166011 -64.833601069337931
-92.656600161870813 -60.893884458383198 -103.442478677453977
-93.176274425734661 -59.936640414655102 99.660663553288984
-93.666893943190715 -60.597670978116895 66.834168041682261
-93.586570474946342 -60.409475356702337 -51.568318531209435
-92.860785848772707 -59.941602973647463 -61.186490162000119
-92.172816889424539 -59.642340787890781 -60.970783096657264
-93.586865015996523 -59.908480536377148 -65.149436566681345
-92.668930392865093 -60.595567680087036 -103.829351455699353
-93.852523718475709 -60.094472473781188 99.936254829422069
-93.062386095655867 -60.626376578504562 67.884271869815635
-93.230389862733162 -59.317270387022198 68.256796727181552
-93.910180967435025 -60.387264700669121 -60.039859707571892
-94.069712454989883 -59.776929221663053 -59.988573652341188
-93.043162503790541 -59.833585621179715 -64.477876623548070
-93.052030528823096 -60.131523688094632 -103.531351291201631
-94.416871553586901 -60.195725040988314 -51.797578045146906
-93.605032016147632 -59.931267769298330 -60.649910117462724
-93.659113722086062 -60.209479750042291 -59.926533221417550
-93.232087072319644 -61.159217674344170 -65.642370931445171
-93.512018273139304 -60.300683347299191 -103.544084481250593
-93.729063934119182 -60.195876740160109 100.073353810025580
-95.243070545132241 -59.950535539935622 69.609011140118625
-93.891930435899098 -60.155054577403085 -52.560796630973783
-94.286784266321476 -59.767300644772263 -59.647240455569602
-95.338643056716322 -60.278452344308512 -65.610616293371834
-94.725742643736353 -59.276249108794836 100.706175594227375
-94.823553683253181 -61.384743800348275 68.811637146445037
-94.901958053532837 -59.893338080330246 69.952075797413045
-94.297929420038727 -61.038050961369628 -51.486081773626239
-94.607293081074204 -60.380698441961719 -51.438289282195669
-93.849440435473639 -60.003185484280685 -52.189934039057242
-94.587214126524913 -59.228051606715027 -57.557079396300601
-94.280004647833465 -59.933585151574505 -58.231055523730817
-95.422473313821627 -59.488131969479568 69.942892404787131
-94.496595274841951 -60.523927662250266 68.684119045008913
-95.018252646897764 -59.371914502331862 -55.338078653295682
-95.130251887429566 -60.808412889715939 -56.032962003067077
-94.200996370706619 -59.792834118824764 -56.914737458961980
-95.301457637285608 -60.094518244504137 -58.716773452052692
-94.878949323017423 -61.013914408760371 -64.631122900396534
-94.509026645038048 -60.345654043164991 -102.422596711651821
-95.264558046933473 -60.004641780682135 99.928755643277754
-94.861807316477936 -59.294935943635984 68.826206830441464
-95.042551955996402 -60.615157037342641 66.499176919661267
-95.854724516367227 -60.408121536401872 68.070833398287874
-95.555685152643292 -60.220092099022111 66.651393287256724
-95.958679493946633 -60.994236963541418 -51.464662482797202
-95.215086673493644 -60.312900894206251 -53.144068365204902
-95.157514004630130 -59.831733859760043 -52.849456871093253
-94.900114551222998 -60.038109637770845 -54.874289024407659
-96.083898228186726 -60.191571123369776 -55.089678357147008
-96.178573697618063 -59.358186820271214 -56.604288228284261
-95.547103575249594 -59.681022715163870 100.100194150082231
-96.243020716943818 -59.764538322780567 68.545353556669113
-96.418841403107947 -60.081488407619929 66.559197453129769
-94.985886802790105 -60.880391669500384 -52.865008089649201
-95.203540387441066 -60.097856332837871 -53.239011208876647
-96.209122299292929 -61.219560883702783 -54.784630144363284
-97.106144953758545 -60.511757896650266 -54.730447187290451
-96.153142693267029 -60.079644889248364 -64.186550800543316
-96.677185232291308 -60.634085569092846 65.998043209299169
-96.079418247477705 -60.222856759430734 -64.987916688643637
-96.102729834661901 -59.645118383458509 -102.415241163365451
-96.276367379510020 -59.965165658979558 100.570117591545099
-96.135552544423248 -60.014265540779860 65.805788977438198
-97.098395042973337 -59.392280344870187 100.895078278954557
-97.320957225377086 -60.245985327676962 66.888504330567812
-97.300787531286574 -61.233269419265021 -102.086673801000700
-97.403238786695098 -60.434025394555505 67.348757818705465
-97.328330169964090 -60.218728886614642 66.619097606891671
-97.112580080018716 -60.110242907674092 -65.339593996243281
-97.492946793552022 -60.383359207307379 -64.943183916962752
-97.765183503025085 -59.505893999317458 -102.409503230998922
-98.317451625789602 -60.452266223742505 99.640784438476217
-97.954897911097959 -60.118528876534334 -65.532087664323527
-98.476303468502465 -59.709751428465879 -102.783610495936458
-98.727927882402625 -60.706039263620177 65.972785287532432
-97.749730394788045 -60.919964968070154 -66.058595404494113
-98.029784732280376 -60.371169453119272 67.136214637350236
-99.050099333933304 -60.369172828118259 67.786557659651450
-98.688004580679205 -60.011870863807303 -66.488650620838698
-99.559692027136109 -59.611245989168339 -102.454647575552926
-99.752852045741690 -59.922768518709645 -102.147696321089612
-99.641686760582346 -59.636360271900642 67.673370052755786
-99.485734866688830 -60.183080753669827 67.917435132198293
-99.678261570159066 -60.063451329081872 -67.101346528065960
-99.776834117664237 -61.208446602547532 -102.529415261201279
-99.821926822912573 -60.547131837688234 67.984334465826151
-100.003797690239495 -59.774394450287708 68.807318596110207
-101.400375941913211 -60.392436505896725 -100.532097661127139
-102.276954962838786 -60.791779388443139 69.484268499295723
-101.911424166132022 -59.991980127136934 69.857739292441352
-101.130941057756417 -61.441591921030195 -67.285604269204470
-101.784589455684568 -60.484994661791255 -100.998475444771870
-102.393680105064917 -60.273125421120483 69.183969224898277
-102.369174848113119 -60.917486075459969 -66.655384601275458
-101.877295664039607 -60.361424847381407 -100.914477402167577
-101.635128146712702 -60.568225264148445 69.734696822895373
-101.985582909793209 -59.975176135575140 70.915769388174880
-101.212134125972824 -60.221897432459947 -68.028048693556613
-102.493260465055158 -60.591800865946169 99.705076674009163
-101.862433410636513 -59.720355115329390 70.574785695317445
-102.535898397134744 -59.501019418683953 69.787611586987893
-103.187720427578810 -60.234875231013760 -67.749343442018954
-103.269606295008032 -60.834266852650025 -68.464836629157432
-102.885541339819554 -60.672573723397896 -100.296329627643672
-102.828406092499804 -60.704192973498031 -100.390787402843429
-103.625341106957578 -59.498629105244490 71.169773256317072
-102.997312143819926 -60.566213432726173 70.085846844153778
-102.794994310929937 -61.166785481931420 70.570287645252264
-103.881432971052647 -60.831421143248207 70.891187430640713
-103.110446196780430 -60.023687202992633 74.252235759846144
-104.190674999680667 -59.787611674774176 70.779691092050030
-103.840822235652624 -60.809287099268424 -68.980425990360644
-104.995426116060145 -61.149958469592129 99.891241472234242
-104.378664207926036 -60.241798924691061 75.874297493796746
-103.634018312117988 -58.744799092155432 73.182506520166868
-103.979008979439797 -59.190795418485706 72.024662674336369
-104.193789392905742 -60.678592342739805 70.628663521896826
-103.630056131738641 -59.807726823386695 71.478449903366695
-103.245794723665142 -60.481358448659805 -69.387283755124955
-103.787129281837437 -60.037154438211296 -99.876270693866473
-104.199946139902210 -60.379326643189650 -99.116581338583558
-104.380527384687255 -60.138012168489148 99.501410710884358
-104.662178001596047 -60.178284952423823 77.557770481777339
-104.247198912831308 -60.669181586386486 75.756097020083942
-103.826587709585155 -59.601422338636340 74.185860476616426
-103.909671804101521 -58.045567347775098 74.221720439380746
-104.176046452419641 -59.596047013896367 73.697019643699306
-104.077773442514442 -60.559673112686198 72.279639111444681
-104.053033449958676 -61.524037008221349 71.889470007826290
-104.017581207338878 -60.762972113733639 -70.373718470128011
-104.990980408014934 -60.581983183252056 77.858400067992179
-104.639539122925527 -59.941124558314698 77.208875830757435
-104.853383630738122 -59.489696598532220 75.706528720483419
-104.641809029296766 -58.929918452683275 74.122114719063575
-103.988432296126348 -59.832976203746163 74.128588709372892
-104.996516119172895 -60.696715625449428 72.413444658947455
-105.011054556397212 -59.800192189813743 72.177126056239274
-104.459576270106865 -60.870705293672984 -70.252416764678188
-104.617155214285376 -60.432897368361488 -99.850669427499255
-105.382001509258217 -61.108261191745790 99.495920464797337
-105.663948940093235 -60.344132993835487 78.153993490248439
-104.902896623195602 -60.104057625677306 77.467368740650855
-105.200593795252473 -60.153908900346821 75.203616723291390
-105.040824983669694 -60.975315027390202 72.121152564824527
-105.110099621365578 -60.327289051131999 -70.703275040494347
-104.929133627927939 -59.845552929661835 -98.175089510963574
-104.727096987103550 -60.253546368018789 99.033145934772492
-105.547586464614369 -60.794788875412998 79.013270473630683
-104.935779801556990 -59.990922625574171 78.801067438665086
-105.019051055376451 -59.752536395149285 78.181596085919352
-105.504934893286361 -60.440329384079185 75.515955445903217
-104.500987763809832 -59.367489183838209 74.670083374015107
-105.267155650037154 -59.440908448803938 74.259759508757455
-105.843505119665707 -60.040182193541689 -71.082539813254002
-106.439093410195994 -60.178706669044239 -71.205923469834588
-104.856689073505962 -59.690095471427490 -98.312945173155640
-105.115923104788422 -59.555840505702250 -97.775407461335746
-106.322597898102941 -60.697862006478182 99.017310337193834
-105.738684769548058 -59.160082134542264 79.108862489240295
-105.729417359072983 -59.567153630371081 78.439125376344677
-106.120427680449453 -61.090565141023440 73.312136389770558
-105.189763786544049 -61.131961521484634 98.866784341835398
-105.963567439802063 -60.018812140237245 74.102333439999555
-105.985451257461548 -60.691214412816407 -71.862353852837202
-106.240513197389106 -60.775644611650272 -71.600001998515779
