# This PCD file was generated using the MATLAB® pcwrite function
# from Computer Vision Toolbox®.
# .PCD v.7 - Point Cloud Data file format
VERSION .7
FIELDS x y z
SIZE 8 8 8
TYPE F F F
COUNT 1 1 1
WIDTH 805
HEIGHT 1
VIEWPOINT 0 0 0 1 0 0 0
POINTS 805
DATA ascii
-101.446227923261930 -32.023962902918377 69.194537782780898
-102.016277159362474 -30.768815562408832 94.709361451705689
-101.605657784982014 -31.329443253320271 69.680045032436823
-103.340959489909409 -32.258473903851694 94.485007591009250
-102.779574440252972 -29.548615003678563 94.476777104837424
-103.516113461508667 -33.246771640687655 70.449937981387308
-103.337704508036396 -33.045930985863073 70.736835458247356
-103.383729195663349 -31.386253901097064 71.158171767470620
-104.470847361685571 -31.571202770325172 94.841559682164387
-103.032278770467414 -33.066679629681573 72.890753485385275
-104.424922519149391 -32.714112826266479 74.153355702091432
-104.126707812260392 -31.295681379025822 93.777578040147233
-105.021328681161563 -31.338043222637381 94.006932459735893
-104.698600362714600 -31.291423304821990 75.257006292999861
-104.140286253926348 -31.674724175409843 75.215074836498729
-106.636312390712504 -32.024279124698722 75.495139311515032
-105.295137385124960 -31.161868331677958 77.261075445195033
-104.726608567215067 -31.732524742477203 77.373559236449353
-107.304064007241706 -31.706035033736541 92.091477627745135
-105.836167348942098 -31.725405177374974 79.882977533739250
-106.548939961448838 -31.749514773459133 91.781776802045627
-106.263094227164402 -32.221393516625398 80.628551274856548
-106.887989024668940 -32.359065523235500 80.567902678672368
-106.502204757643781 -31.390233841822180 90.573404672036659
-107.782900279803172 -31.813594719883277 82.011058823635807
-108.028603984876838 -31.480845283932432 91.492272193757060
-108.571249072480384 -31.606202329578110 82.788660209990411
-107.730134574428675 -31.983969446714170 84.850699377224757
-108.765491128288559 -32.203223632652538 90.957451538295430
-107.552567480087419 -30.653643322680630 91.331042166201442
-108.221160883653766 -30.271523832457660 90.250240518206311
-108.624546663302581 -32.104845853508451 84.587422677806515
-107.701623505028323 -31.593024481529120 85.379281877237091
-108.748560357945905 -31.248226152018205 88.597923601818664
-109.135813323643646 -30.442110246664093 86.656288291076166
-109.333263386490913 -31.828603276242795 87.015051567978617
-108.922893056289851 -30.448814212542445 86.357181967217059
-109.187778680068831 -32.102472019737128 85.002698056565819
-108.773046425479293 -32.032752585238775 85.641000968214215
-108.419353532804294 -30.915925771875756 89.487911931157981
-108.978299292549551 -32.372638227901213 87.722480332244757
-108.612878273499419 -30.702019945448704 87.206478030909011
-108.156030643378216 -31.754896896500100 86.501560358045097
-51.560767271076344 -30.184098657647517 79.056716846614037
-52.300839077154862 -30.495305178124354 78.719858962793509
-52.201118241173099 -30.431151787420696 76.068412974869659
-51.657239719020957 -29.645349838237749 74.785492485050227
-52.450336021239593 -29.486134806357278 74.173608569049691
-53.594990886775882 -29.238475295078388 74.328631220167324
-53.062168778549527 -31.038854117950052 71.584132772653803
-52.575152368809903 -30.535197599747285 81.134582242904543
-51.860440986220922 -31.496481037954666 81.271475733227362
-52.298297308267834 -28.588922762193203 79.828773145285297
-53.660128480754615 -28.800347774917469 72.346505503784343
-53.574277989653524 -30.182972509516702 70.119225070266069
-53.810796179822525 -30.932758514622584 82.961235217394062
-53.578192182478624 -30.014068941309986 70.793316621267962
-53.379105575795116 -32.351224616361129 69.566142841847906
-52.862605004404656 -30.641408653978942 83.865860215719948
-52.649735571587229 -29.264645520556588 67.653046395699718
-53.415250820528975 -30.205955438545644 67.043664372108921
-54.282667504879889 -30.170742112079040 87.293298347836597
-53.551926806851952 -28.529961956925046 67.918959315225507
-56.114957944931291 -30.849175528995616 88.022732250717013
-54.539165179617186 -31.833983591595512 87.655012385941419
-53.547608526480914 -29.815219052938534 85.580529465479941
-55.204888610933644 -29.407774556551935 65.806011891189954
-55.075906611667733 -30.377419590459745 63.043302872872530
-55.990281943247439 -31.310335005408390 89.003960039699521
-56.302889981935643 -30.027138830666203 62.908449406045825
-55.672596952210299 -31.429832074711364 88.929275271582966
-55.892863506555990 -30.471634234643638 90.647151706494512
-56.506733413092810 -30.578320769584209 61.888327903473630
-57.360024226957734 -30.834164902141033 92.173362420407443
-56.508206474917593 -31.835957877155138 60.720921710999036
-57.134944257896514 -31.060299641740905 60.908928028809861
-57.401056681983540 -30.635790241529513 92.277990983198094
-57.878163722291177 -31.561853136277421 59.824317946329757
-59.363035195626637 -30.613266958306227 92.789080411283052
-57.605719936008597 -30.092887819929167 60.327102406663030
-58.491907642754718 -30.820435511901032 60.417605191197651
-59.414932309472967 -30.401941500676884 93.944307509394761
-59.558715950930583 -31.056213295724646 93.915592638940183
-58.256409439957935 -31.416656096710668 93.165126460320636
-58.616878686133440 -29.935235924678985 59.412228774637875
-58.915793297901509 -30.103365273533370 60.423334231774398
-59.606152394441203 -30.589525204203639 93.001359984584937
-60.254669703683852 -30.755085514139758 92.959509678630639
-59.376235469398658 -30.658395732260871 59.116548335668526
-59.771931661583039 -30.968351925788262 94.481152814653612
-60.380626471268556 -29.952346579365248 58.348060684637360
-60.640726855810861 -31.357082176013833 94.130571970767960
-60.944332222557328 -31.332549955010393 94.113573698045329
-61.968373247186683 -30.169858567763058 94.768142461464862
-62.358450316433839 -30.528046397803188 95.538594956573689
-62.164303357497268 -30.840409044157717 94.991679479960055
-62.010676011174859 -31.985899871779168 59.320453281471458
-62.008699737446697 -30.192769599225379 58.808536010748988
-63.207723453884917 -30.925557630986056 97.181683430815582
-64.638643913887805 -31.707061110608315 97.344663339161841
-63.824202783365621 -30.681375115516467 95.813480858127491
-63.164246876817224 -31.512401530847306 57.975833468775797
-62.600353911958322 -30.152594919110761 60.651650479334954
-64.472148589504371 -31.139719453878520 96.830346188957151
-66.141833811589819 -30.867465268230561 97.392478052480257
-64.884133301201487 -30.155783512137084 97.007257207773193
-66.230157625659800 -31.093028719286082 58.235268907292777
-66.504883630989298 -30.630016232179926 97.250247184171997
-67.070465311614484 -30.700541343540898 60.219025318012079
-66.441997392029890 -30.206863399447080 98.430124994179877
-68.700619376832620 -33.018453452805389 59.387009684316268
-68.208882787403439 -32.137112596766912 58.032870125716698
-67.180159985167890 -30.815817098954682 98.284475442231596
-68.972505097211211 -31.069451871773843 58.095027282374559
-68.216605613262701 -29.945578378253430 57.903263344911345
-68.149196055739267 -30.606809656609997 57.713674242403762
-69.249507303306032 -30.798398531698453 99.507522369318423
-69.471251005189998 -31.687132560234836 98.019113632382044
-69.957052431442435 -30.809171788255469 58.229716767649414
-70.163074277342403 -30.239275403279898 58.740740995105192
-70.398548119854425 -31.556341561274522 97.627277589561928
-70.186170610052287 -30.282157396250859 96.824001139939980
-72.830490196308659 -30.704511346716068 99.362145414312593
-71.163551320616449 -32.244145311100894 99.639352381718808
-72.053350073480374 -30.770128773258698 58.124911944540507
-72.643764373049180 -29.716517517387796 99.296020910755956
-72.615220365590361 -30.581893332298613 100.164778679665631
-72.689852601780544 -30.896819474660170 57.665964978802101
-72.234880887293954 -30.742021686797642 98.922758813468903
-73.644250609662848 -31.080396800704683 60.049983890131628
-73.890759651457401 -31.229257111851815 58.163967521146830
-76.144237394391823 -30.294788901490143 59.979106109965116
-76.706203736191526 -32.045605687027802 58.046719711329914
-76.494857035404721 -32.091577336459288 59.443355863080384
-77.459340708207080 -30.565003760237957 98.049519340904311
-77.485648675950600 -30.431593915280523 57.060397267717157
-77.662118933369086 -31.294857918782114 99.855875825607612
-78.718971859961385 -30.130496051279877 97.835129964954703
-79.864651290666927 -31.356138526192737 58.621518006698025
-80.183837615663890 -31.434284968345104 58.297668122345804
-81.845104354621213 -30.735778162974903 57.996968301230545
-81.674680816248852 -30.509101906867954 58.880710602505175
-83.322363079863138 -30.524410100774347 58.495740917784907
-82.618089178558478 -30.607893807064563 58.026941227836019
-82.799542673221552 -31.321071903784500 99.750107606967248
-84.972806631693942 -30.381479329801927 58.661909778275678
-83.482067448800905 -30.801003555325750 99.477637503766076
-85.079183943563649 -30.584021323181311 58.564841285192720
-85.956835121179068 -30.741407378116094 58.510578284059569
-84.911282958552917 -31.758580559481352 60.586608391357139
-87.107745691029777 -31.802863119251263 98.117716620096260
-88.012677778080757 -28.253041814800529 97.942776137589576
-85.032588405050618 -30.946757955218189 59.960670510690058
-86.851624542452882 -30.612828226313582 59.653451827100639
-85.732324690162471 -30.671173727302282 57.836453162895246
-86.995552124878728 -30.482012940092297 99.106282423762323
-87.838953049694240 -29.293352625094034 98.300115391160361
-88.867793462256927 -31.648571500473921 97.772331796501945
-87.436011128498322 -30.788228604877411 97.962388930752979
-88.674516268971928 -30.749409425683496 97.975512595033990
-88.823196500040368 -30.444735543996430 60.966804639746208
-88.209972025686895 -31.724726223385879 59.859252905797419
-89.855503253299403 -30.272741147661016 60.625778346997464
-90.037767637605555 -30.152105166879849 61.409021196769224
-89.103982236728399 -31.259796468238498 60.672260558400190
-93.046031923349105 -31.403856491121040 98.352767560807436
-91.911940662981408 -31.134758416927376 61.757123195947862
-90.979650133299188 -30.744435643681882 61.766517618240755
-92.575533485922747 -31.240368975213578 99.553530980452237
-91.778154182164016 -30.647704214945080 61.056271742250885
-92.537436556772263 -30.468899869527000 97.791596804507122
-92.974573919858813 -30.725502657405251 96.224432462224357
-92.624444872872914 -30.319724351673123 62.530339757291920
-93.319192436939829 -30.647494342586576 97.207224346318313
-93.775973372161388 -30.247647752227579 97.727985656717877
-94.121052990479271 -30.199506375918254 63.182007051925268
-95.229349913141320 -30.436496382653793 62.565725837178157
-94.425627656266883 -31.536941218595466 97.943227601787285
-95.398582905166293 -30.411640945086589 97.629246473814945
-93.933357781734813 -31.477771488669504 64.197593294133640
-96.841747492306013 -30.975621049087579 63.354338532299607
-97.169846410519156 -29.919469102165390 96.547084227886685
-97.358079352722243 -30.883132982219649 64.626035968531454
-96.964903982725303 -31.247569665669531 96.859024238559414
-97.185931447992971 -31.001606637422249 97.699588282842626
-97.774467097782562 -29.814384882573105 96.508765541090256
-98.081397539814304 -30.887378653003395 64.903904456359811
-98.104283234948170 -30.805678398775761 95.781141693755032
-98.633402831687178 -32.676595047977450 65.479304272049617
-99.221054861346516 -32.006922364170251 66.059142288793424
-99.580773988584298 -30.071459119261654 96.351221077109784
-97.759260803473197 -31.544772198355552 65.424854249862406
-99.814684813465192 -31.452069660922945 95.205681558689434
-99.802261751642888 -31.063314975901292 95.105298926428958
-99.662757990649609 -29.726293174543262 95.762033124603960
-100.383991759600619 -30.762268314173902 65.794218259093668
-100.025464357192959 -30.553661505764374 67.547349669769929
-100.719122745069271 -31.129273940808211 95.529397167042021
-100.050683961490776 -30.109201268104442 96.067773097455444
-100.412214425930955 -30.477111076036898 94.562013293375301
-100.753289569145196 -31.596692422665221 67.614708116956038
-101.303666458678222 -31.354935693870814 67.011247714799381
-101.266937609379141 -30.544853345874913 95.208304619148791
-100.828759078670842 -28.952809115710885 94.824079148940910
-100.111791801156286 -31.170968989028118 67.851593610785145
-102.457927960732690 -30.988373305322995 67.516076495976009
-102.336660000065052 -30.954755609454260 93.817434185428738
-102.055409907072757 -30.577865714775847 69.564941745675213
-102.159218047675878 -31.645330191546336 70.022899790164402
-103.265167936091203 -31.022414847113360 93.296377970995351
-102.041180582008792 -32.193540824010284 70.773379936149553
-104.039737490227211 -29.378621473483815 93.471317235425161
-102.637663548514297 -30.574015129165062 70.522440856468322
-104.523461213999198 -31.155082223584628 94.265289206120869
-105.331735467554154 -29.826524137473218 92.656920975976234
-104.461740109327764 -32.075446813905174 72.552748370110777
-104.160807107724168 -31.174633191844642 91.638209044916678
-103.919611337204699 -32.117901164072627 72.828981253095932
-104.930544027351829 -31.857379978529671 93.499257460162042
-103.494270781015246 -30.530954716225693 91.528744366716339
-103.940899546930879 -29.918779758293091 75.050668532478582
-105.155760160742602 -30.578872219691782 93.088419778612447
-106.317174249377160 -30.041540808368580 75.381522494331207
-104.696130105941506 -30.921910979281733 76.121201186066159
-105.519642609904295 -31.129211589211543 92.402936555895124
-105.826493335596950 -28.690846162081808 91.995943974843229
-104.778459660816068 -30.999882433519943 77.232326122207226
-105.151928767070359 -29.112074622505943 91.434491563793671
-106.125454890307680 -31.613894025414545 91.157118797760376
-105.644997591921779 -29.896261248211509 92.141492562239407
-107.112136997677155 -31.754949899616946 79.330521968925893
-106.847867471931920 -31.567199469160840 80.906955398998221
-107.655703239267865 -31.466002355483617 80.466191875281069
-107.604937448683174 -30.116074487256974 89.920777973508876
-106.724506700189067 -31.280917451191399 82.550606153319663
-107.867982117765706 -31.296560208941749 90.890665860421706
-107.409977897426529 -30.126725247931759 91.237825401887406
-108.440227375738445 -30.977610806598875 81.853280692751483
-107.435444225526979 -30.516852035650395 89.981954530830123
-107.408594351731239 -29.787647756229536 87.618468882567456
-107.662413829087910 -29.362139068462909 86.099089426080582
-108.344863343835186 -30.574801852243844 82.493619992157591
-108.180685515328435 -31.722685901743148 88.575464414702608
-109.442509956039416 -30.386942391938909 87.901401751498810
-109.549438315744283 -29.202747918756764 87.749731578075910
-109.509217929290770 -30.310969108260494 86.402584746373208
-107.755444971110805 -30.116118784543538 85.886875740259825
-108.351032139362474 -30.060972937082468 85.197252941567726
-108.360702462843520 -30.644503400452436 85.131409462365752
-51.016796976661034 -30.439168602240336 79.032576055278156
-52.022531508992586 -28.928303673295488 77.693899188529755
-52.210446678489859 -29.131209798380169 79.418294844100856
-52.327326996426095 -28.795922656981606 78.491634116143089
-52.984318893572322 -28.420488820588233 77.150481064382888
-53.553806821740778 -27.912866173588149 76.059962835994099
-52.929431473972691 -28.603871917341486 74.261467093783665
-51.771105321640647 -29.568307677560309 71.513978715321230
-52.574218410566459 -30.112096230706300 73.664982682447231
-53.335452871358470 -30.100466508018265 81.583121706278604
-53.061491488297023 -29.130464209769421 81.259943600077818
-52.476001792379712 -28.521489081342061 76.286987641015557
-51.706301227021498 -29.190638509367183 73.230227336197387
-52.570820229988080 -30.896175079107124 74.121009018426165
-53.684854484527357 -29.075213256583364 72.813145961821391
-53.396756937186233 -31.278462112207841 83.719373700252461
-53.858155820190682 -29.294629318818917 81.733964893394855
-52.775592635377954 -29.177199066195850 70.337898121434762
-54.801566719355158 -30.480828702645560 83.556103510615543
-53.215469934222504 -29.935772590586517 83.152550573026005
-53.651022986144611 -28.973821480815051 68.752680818481053
-54.654772638191623 -29.880418930730158 85.278374469952496
-54.833471173163133 -28.080033699138067 83.001080064458620
-55.674877366653917 -30.204221722416285 84.662948529244687
-54.530785491297294 -30.366872449154393 66.373493481911638
-54.254613045450682 -29.712642757901119 85.291054317387449
-55.618349528545728 -29.247444445464112 65.064329065428879
-56.892778813745267 -29.765701005026109 65.409386286821231
-55.800853383038152 -30.549812197659627 87.991589428020120
-53.298994982959073 -29.869139104269898 85.950720421048615
-55.405592447992163 -29.486850730128815 89.595181312094056
-56.895021173005269 -30.647227497869594 88.565795259507496
-55.677811123370752 -30.182762406851019 61.889634369088107
-57.255180448527007 -30.695960247797899 89.118631040908269
-55.762983353335528 -29.667763401297428 63.351175938184198
-57.536653856793500 -30.109517763406672 62.090744664206682
-56.906713836382302 -29.550779657035555 91.051517823892951
-57.815906526577443 -28.714996163663329 89.730926628409421
-57.467092265130326 -29.329782893662788 61.217828867225457
-57.632936923929371 -29.970616562715136 90.693650094307557
-58.142094046184781 -29.479512998089501 61.812535392046470
-58.005895598047026 -29.536295504942640 90.755579508986600
-58.322757888817243 -29.393844164407348 60.442314824867708
-57.782838144109093 -29.739752798274093 92.259341488964282
-58.563311631358609 -29.572803513906184 92.411129901162099
-59.828672297926232 -31.123912662700000 60.284068231910602
-58.428594789324137 -29.980347668008466 61.499173031637859
-59.564205958463894 -28.495396281564243 93.009733589922462
-58.724793385731054 -29.754359746249918 59.989155269110597
-58.965543291219596 -28.764061960088721 62.527517598679616
-59.495275404685806 -29.712703513994629 93.520235962813175
-60.772335829131478 -29.671258925765457 63.246461978282483
-60.526976800327098 -29.722094665517552 59.699800468608537
-60.632994208941007 -30.301343004669633 61.139048320677453
-59.494990640473340 -28.698552063056042 61.651345077554119
-60.473259293015360 -29.846726709144711 62.279837579360397
-60.539391981803988 -29.891059596793362 59.371167581564485
-60.639792077313679 -29.787824234757689 60.412955527263080
-60.507268022348875 -28.694858392197194 94.296322278763839
-60.706450795651357 -29.723392986387417 93.603139442127869
-59.653393189252391 -28.859785507599234 61.502561430251149
-60.117955528697692 -29.693100300056184 60.422782812873869
-60.480246884196823 -29.865727201464559 93.241354821007832
-60.861572565375226 -30.179994962507870 60.553637948340416
-61.701095572237975 -29.885930635271304 93.516352140835025
-61.561118741398182 -29.481977769673168 60.033199540218995
-62.383998094515150 -30.380479546138140 93.638779200111841
-60.851794656873146 -27.778876431714867 93.804914957186938
-62.078708058727130 -28.695386899246035 57.773702610697036
-62.659425798624895 -30.053117221302308 95.221079308092868
-60.728047569297480 -28.918718348772614 58.869873565350900
-62.260496583602247 -31.202639358214029 95.283486224608964
-62.297101451365933 -28.575690751674692 95.473971193426109
-62.012739184439774 -29.948639064743073 93.820550849439044
-65.106000998167531 -28.989876873756685 95.720133393535718
-64.668751393077088 -29.398717679965063 97.259689851557766
-65.262861874926912 -30.176455319837409 58.957649191668985
-65.772284125701688 -30.926241991317895 96.102436351645849
-65.514526183710998 -29.140395901673486 95.989301579797640
-65.491007706465425 -28.626966783491596 59.702744223921925
-65.158602761241397 -30.005953645658352 96.265925346216193
-66.522315943256615 -30.215665378842132 95.845342393934715
-63.330753133074424 -29.776127155068018 58.857961975695495
-65.754669662591070 -29.418412708188274 59.056316500794935
-67.365896579533199 -29.714894217960850 97.109682045707473
-65.962127768935844 -29.682367416581435 59.916014041711868
-67.040413705013989 -29.013494347690287 97.118220758660499
-66.585782530957815 -29.252737522114497 59.477305567123736
-66.801236744885188 -29.654337429171427 96.954161209596961
-68.476227978072188 -30.390340509276363 98.019857455071389
-68.515481755456165 -28.499968448803521 97.966567666771326
-67.727151462236591 -28.006720101126174 58.368377309066432
-69.139626045014140 -29.890182547146907 60.471218586275448
-68.318820756949492 -30.771365406010148 98.177245795671510
-68.397614432196349 -30.287350979560593 98.214989983566596
-69.771824215946793 -29.981491299153497 97.247432451768844
-70.159831175328307 -29.665927788131569 58.554213669610704
-69.296476308671444 -29.768671518170748 98.805670302864783
-70.323300924244180 -28.827489053920022 97.728757129487306
-71.463796562301653 -29.454126398785728 58.131306681308779
-72.194523848458999 -30.117365357962484 99.145224594252880
-70.991676039509898 -29.393559073342107 99.169018091861503
-71.551448269500582 -29.781841931887953 59.595244903607593
-72.042057994106415 -29.930619837833394 99.206542046087534
-72.506247688861464 -29.224934940283024 98.878569334772550
-71.353592344568938 -29.229177332503220 59.442490505585887
-73.704837131868473 -29.965330103342314 98.447791186810250
-73.126983051255479 -30.219995165160334 58.542218056666222
-75.446275802215126 -29.130249122991152 97.822879477302081
-74.170019628687527 -30.259923648538461 57.292516402179018
-74.666946103485799 -29.313635520392051 99.451711114564588
-75.848576625531521 -28.897597677915314 57.634430480433231
-76.640661049551568 -29.207312915306051 98.151824249239510
-76.589228057207151 -29.853097782968632 57.911354314205212
-77.171415517387615 -30.118931614246719 99.152008332348871
-78.033084976172901 -29.599554499632276 99.285682829659464
-77.965435994567670 -30.326162172175351 58.707248460736587
-79.549758130333586 -28.829165490298333 99.626942416712311
-78.675241946905771 -30.916938274983671 58.540927691855195
-79.942624660047102 -30.428234825926381 98.975347008936438
-79.459460776616723 -30.178584003452656 58.975208053569986
-80.576738375646869 -30.344657347498583 97.856480934765997
-79.776218347296719 -30.264140314883953 59.342371122447709
-80.856916241524544 -28.825557031718670 99.559519492337046
-82.501810996811159 -29.918783164998903 58.825988301641281
-81.849203659490527 -28.855357113322619 98.654770391524536
-81.447307488154507 -30.266084529625431 59.879196350315532
-82.516172053209260 -29.315772518746627 59.097801314933207
-83.775198460394890 -30.623304342888900 98.347368829382162
-84.272201506022569 -29.675949533180990 98.282314358411980
-83.525905208986075 -29.952235457992977 58.758995227364473
-84.199561859461753 -29.559011868942271 97.147689760600770
-82.628330928872359 -28.531618798000192 98.500829067871237
-83.655165495877512 -31.017804955654263 59.479982299454782
-84.672533916250401 -29.560970433159472 61.020919514142740
-83.757348272988878 -29.728777809401542 97.733351053112770
-85.519967473728428 -28.053910784226520 99.175090872527647
-85.878290925894646 -29.821896211143041 99.335263906647072
-84.788302158646317 -29.386658862631680 97.402966325559419
-86.305719837554861 -29.375739681269362 60.826615500499926
-86.075429955443497 -30.321191664109705 60.216698461221469
-85.345300237620449 -29.224198088121952 59.730007020557480
-87.641269619158322 -30.489287381040278 61.684333143319783
-89.628685507159062 -29.968008484464704 61.849654416071111
-88.661187073266092 -30.266731902128917 96.891626530564750
-90.261646943022456 -29.697219062785308 60.911732493243441
-90.538988831606474 -30.373480513916171 60.305763324123767
-89.219708474949400 -30.623447465388132 96.856075299540066
-89.337046235251606 -28.404729998238530 98.893503212941852
-90.268423492247905 -29.668195840493144 96.922300496979176
-90.502843892778699 -28.514718705110369 62.077951589005714
-91.241660607530093 -29.354946980906767 97.417093119022837
-90.398702422505266 -29.811744986614872 96.880591565012580
-91.830766231506971 -29.913687784162409 96.897486176498191
-91.486894864479780 -29.995176218957194 96.245950240298882
-92.176243669053775 -30.380884054482756 60.101121955929379
-92.303507249511938 -30.878414342020406 97.233461879315044
-91.931253503703800 -28.487398323232529 97.126741939396226
-91.810559022385775 -29.841841207533694 61.010127526663702
-92.173481189494183 -30.516047964247328 61.504679157483494
-91.583576628444334 -30.936788443395812 97.385262864399891
-93.209470458066463 -30.113521329696852 61.511338813632165
-93.807843254383229 -30.584531853821247 63.020237625441972
-93.895746435982844 -27.814643012324545 95.922420239598409
-92.079210727743160 -29.840003903155086 63.634231513796756
-94.822025999499928 -30.127961681598485 96.908330371591362
-95.088296515225267 -29.957849178339632 62.568584701398585
-95.516874100446813 -28.851384285503713 95.821105384874457
-96.868150310452549 -29.965480688760767 96.060182985515695
-95.543297910436834 -28.384131405179048 95.934333238878992
-96.071329109949602 -30.370433663517872 63.078193068377040
-96.835099566049948 -31.263602493596778 97.665838415655159
-96.240452435038463 -30.144909504225055 63.756934864068953
-96.729025339879655 -30.208068827929509 96.606519114570006
-98.025275047698472 -30.166742440064617 64.799607337510196
-97.807811220856394 -29.129591238612619 63.770688170595363
-96.803478762389858 -29.394680614655972 95.500243888273260
-97.966395778111689 -30.812982693653609 65.297893007967403
-99.155767672089056 -30.353549770783324 95.736523078519625
-99.032099261612416 -29.510468800083625 65.819477822008707
-99.514472734230154 -29.142208146059179 95.322342222445315
-98.909782767708734 -30.707735131161414 65.823251202760375
-99.142292818382288 -29.462175796354757 65.413756605118238
-100.160730259829279 -30.820893133033522 66.666480393551751
-99.766684010270623 -30.075242470227892 95.090800993947667
-101.500626438975871 -29.921168675964747 94.996437199931549
-99.342422569346851 -30.359053482785768 66.414530874453320
-101.057826957286537 -29.830380098810714 94.411862280440829
-101.226070606588010 -31.643862542098681 67.781606600523048
-101.627740799794097 -30.868240563115428 67.979980679455821
-101.167436559154254 -28.682893219542152 67.485557266533050
-103.127608879277886 -30.945742210959224 94.214780387805021
-102.224009982630548 -29.315406883255253 67.621617994650151
-102.933774305702684 -30.182250767294605 68.668897265383634
-103.151678939255746 -29.209285203959134 94.210342601920019
-103.377815540186660 -31.011355169388978 92.823958703506364
-103.832120321893044 -30.656556217684269 70.522300937640921
-103.679819610339550 -31.450808622347679 90.885252089053864
-103.751225945254390 -29.389483223430851 93.310836398936118
-103.080867839105267 -29.504231090415995 71.352900424688599
-103.768251230942056 -29.271218484263642 91.805041871354490
-104.020831235827472 -29.653186091401743 72.413375089750716
-104.223542843738684 -29.904178671162580 71.530923601360726
-104.657409140103098 -30.177480646387856 73.294374410331031
-104.967128704954419 -28.652151043370029 91.076718912004878
-103.205612167785532 -30.522698182731901 72.981369560402428
-104.933530329617156 -29.366729002449400 90.302205334658623
-105.047660841146197 -28.605015775684489 90.448022374097420
-104.553433808919351 -30.698791446356950 74.976249302430091
-104.310386980272099 -30.300942801731480 76.177828890732414
-105.934434118587021 -28.688791493723365 91.418307997373802
-105.563761323325764 -29.517280052491078 77.526857135031221
-106.526129487991909 -29.703889690545626 89.863578261609774
-105.846560945585011 -29.901977446671399 79.737710567415334
-106.269788026782976 -31.132010545075495 90.800191810440424
-105.960000689777090 -28.591436248530229 89.550398203390600
-107.065101962397108 -29.476336713136224 79.400736452892616
-108.481754881654993 -30.274319189003151 78.955620295640585
-104.569153672248802 -30.371444215223754 80.833454625273973
-106.462762865864022 -29.553460956026420 90.261715108333050
-106.738528362578350 -29.518412946626267 88.933203350548851
-107.176333146438211 -28.120131313476953 86.814144284535857
-107.327250058855142 -29.298330471393829 83.947760094619198
-106.654502817838534 -29.248015995554706 81.354570401843475
-107.627542408757790 -30.190102428470404 80.738041092642234
-105.967704649932571 -29.245304192430439 80.207216348232393
-107.325584643193807 -29.191766945168425 88.020384091245248
-107.400996068787052 -29.633567911310475 87.602122150399722
-107.115492539818263 -30.316658938919112 86.425096662700724
-105.998104854116704 -29.003650932839019 85.622307787923077
-107.858749363711638 -30.270608614780748 85.105106579018297
-108.876518755129979 -29.603868493801176 85.550395142720177
-107.481051190203729 -30.244769597807633 82.924986167303842
-107.720052797275898 -31.053886489316177 88.977393756343815
-108.874295522536286 -29.349516491811613 88.109663244539647
-53.765813216657470 -29.400359904205889 80.158727644137542
-51.953041019338130 -28.997624450094897 78.107794726395014
-52.704659358196864 -28.129165589418214 77.822338050276898
-54.185524524023030 -28.951949861192730 76.135400827890621
-53.147209274645995 -30.013449189145028 73.553972965925425
-53.115389002453369 -28.462608150951038 70.065580128444637
-53.035059362160624 -29.636401596302139 79.357410277644277
-54.467156713956413 -28.313920521344642 79.326170413406146
-53.826064440007897 -27.270887257356335 77.790171796582655
-53.174277503707934 -26.911619364146670 76.016117972143491
-53.560742461908092 -28.026920818009412 74.457715454048667
-54.352763658555425 -29.160610526372842 72.672355892027440
-54.146012028265872 -27.907075999347590 69.867719707405087
-52.518137157339858 -28.123972698459703 82.466171977460817
-52.828582845989025 -28.953641569741752 70.240190910379695
-55.300743933870443 -28.267099922615728 69.089193820081888
-56.187133144107840 -27.714502186166250 84.174491908669665
-54.360178149180484 -28.961387687506505 68.814210990492995
-55.092068460899412 -28.803765669497743 84.513567626982180
-54.142415057806346 -27.361319894508700 82.704574768425459
-55.205833162777395 -28.301054014059329 69.468128427793516
-53.995360991702668 -27.766560572816321 67.737510879482144
-54.758332629558353 -27.456741963308978 86.020278116429552
-55.953043507078853 -28.360375231815258 65.056311185124486
-55.120329913717690 -29.477657050464860 65.481651542147915
-55.460118964471135 -27.603242471390839 86.518695913153877
-55.988466642132650 -28.995596086692171 86.243944473690831
-55.773504451766890 -27.718535813378150 66.069064962247069
-56.649262811482508 -28.622826843576753 87.201337454127582
-54.720507003276005 -28.340994584340059 65.112272974090033
-55.850820352879552 -28.391621864823957 64.314918601556101
-57.038074577320579 -28.563809107140600 89.466206786192060
-57.207670962502831 -27.757169689390878 63.118092376791097
-57.748771522096135 -29.076391818685156 88.965030263513725
-56.317408970521925 -27.625852463511663 62.950619626909500
-56.479044533289986 -27.749685367419151 62.241419483066714
-58.116118737921141 -29.644493611615221 91.566179096269892
-59.528861170091645 -28.340821175038052 91.552379745553722
-59.301693421495337 -27.756218680775842 90.455876743321085
-59.114773625018351 -28.216038363191558 60.392816263555218
-57.915339519136104 -28.734648132290111 91.342876227077610
-60.321853572832708 -27.194967438817450 92.477254821233132
-59.296595276294397 -28.263304239908862 91.878876609182910
-59.148700378272821 -29.286274775599200 61.382700866533490
-61.212315449838322 -29.096551171386395 93.181365819059053
-58.969373382911762 -27.470615224137507 61.591669951278782
-60.849111792997036 -28.744727842525062 62.404445643562035
-60.042085702786636 -29.748826322831203 93.235393263918311
-60.404235154111355 -29.360601075276303 61.224978144427219
-61.566542064978286 -28.315627643831260 61.139301932013133
-59.796468971344225 -29.336616138135639 59.945760939045115
-60.633059199332791 -29.060863867273092 93.965147585496055
-61.804292471767880 -29.374972777588255 94.325720703943077
-59.991183063842207 -29.585539500899991 94.150087711743240
-62.904795130131461 -30.030830410531046 59.003160615691279
-62.159472646742721 -29.544752368542845 58.968423940067346
-61.405024433706927 -29.322827319140018 59.857989118852075
-62.793202355081348 -29.611985663418146 94.403638415303206
-62.665464271772272 -29.476441297277876 59.277163280116326
-61.569655548492889 -27.528708119166517 58.980335671712972
-62.915338764720971 -29.106003472204172 94.435208588452397
-63.109970311377737 -28.409564059129725 59.871922010963402
-63.284069598827898 -30.295525106627480 59.139408459456362
-64.699882735522223 -28.685200459416006 95.781487413857391
-64.563973513014005 -29.386501623661275 96.023327182122998
-65.244387067669635 -27.301837456457076 96.394730014935021
-65.610181732153507 -28.994155388449247 59.173537906894630
-62.995681832625124 -28.523405098499435 59.444350113267234
-64.716076437968269 -28.783200656038172 59.573801826076036
-65.130307217023031 -29.609741792383943 95.607992009838753
-66.014841726950209 -30.617321683487624 59.946624179021448
-65.698069599960135 -28.508990455954450 95.779775872823251
-66.269579021959089 -28.327299205208064 96.706032613230519
-65.917177557897148 -28.252834934478443 59.496530529716786
-65.582129300641739 -28.378894780895056 57.910799198863366
-66.022435410614477 -29.898548208786611 96.538771104290376
-66.300133980321661 -29.227397191047764 60.114562027391756
-67.910660708444098 -28.671443591225529 59.707133177975464
-67.405266173016543 -28.487531916658863 58.246500001478474
-67.663913533813854 -29.158904729141256 97.577908987735483
-68.753588328128643 -29.908059310912602 59.303810799391272
-68.971889296461953 -29.775125028534461 58.161462638702751
-67.928614135692627 -29.308905556428307 97.007730670067389
-69.509682477657492 -28.347787300186514 97.529040680017786
-70.599180318069230 -28.828051707374616 96.861982545417291
-69.700796387763717 -27.389667071965281 98.033422403119417
-69.854345190277229 -29.350310575619933 57.937684403584548
-71.024729454080614 -28.653268217059725 59.498982012286071
-69.727239959201285 -28.162566540101125 97.543347235940132
-70.415136332295688 -29.883722785960586 98.081957061204037
-72.202787640744333 -30.597181669326638 58.183562241820425
-72.888559454559086 -29.628269937692416 98.312399141770413
-72.662822166670750 -30.004005405694677 58.453592805957285
-73.421173524165766 -28.914115281675830 98.145703369428318
-73.609996057302666 -28.780031226448806 99.385122016253533
-74.235863597559018 -27.052198003487931 57.649877025540974
-72.865118273201006 -28.982381698577267 59.332609044807420
-74.535366480077826 -27.831336416959761 98.676408523535173
-73.083315874305512 -29.921385298654286 96.914178384247180
-75.042623353363041 -28.463402291145258 59.192361643167487
-75.140320001191128 -28.519954084048102 98.927964092943029
-74.962021591205669 -28.484428449661447 59.136117108388895
-75.335307507943028 -28.565050358549289 99.608242987157837
-75.637245456143773 -28.474970728550595 98.088031508411078
-74.182814367793341 -28.774075481699626 98.632989704632408
-76.262428750243600 -28.835231017042112 100.047871832431454
-74.806779105024333 -29.714528342753784 59.393545987278038
-76.863946906155491 -29.430774119338128 58.840095797549843
-76.686842545686488 -28.772792535701925 98.731110834058370
-77.155407313338500 -28.029360635334768 58.817742143630788
-77.715160422672355 -29.546345446946560 98.660170397835344
-76.679970900175306 -27.369422896080472 99.204105967438153
-78.701942188641667 -28.869021613860752 57.187478218005118
-78.579425779605728 -29.264950210186431 99.028303898662131
-78.763058586281389 -29.335031768656293 58.951021770414918
-79.050371083527295 -28.194191659864920 99.719267689764180
-79.828552235957190 -26.877038468661738 98.296881954555516
-78.593590833080782 -29.348256754998868 59.686910630588500
-80.230278917016420 -28.485070816357741 98.907126217950591
-78.420369630282323 -28.129398147070983 98.820495619247254
-79.363530276905550 -29.269082026504218 57.605967372999132
-80.410591468089137 -29.147648638582929 97.425885779139861
-80.441597471074815 -27.722828384073264 98.936303554084262
-79.832001020899227 -29.535442500773225 58.060469692614248
-81.215468970784528 -27.981760120631456 98.779713660779137
-80.494995209211694 -28.126244608271783 97.508232341891286
-81.470010797358455 -28.423358391036377 59.805661477685270
-81.490192152902495 -28.406364981103415 97.183157505618922
-81.403433131553044 -27.217779604901818 98.650575587746289
-82.881926647271683 -29.410348805838307 98.361774046511528
-81.503239748119327 -29.658502725054269 60.182971507879884
-82.104944984481875 -30.148055759674165 98.331805863433047
-81.766355833810110 -29.281369848331735 60.171804279230905
-83.274197363335873 -29.128987659340282 96.890722659459954
-83.363249519711530 -29.510160843073141 59.289352443132181
-84.710987068516687 -28.953523158553246 58.622048784746767
-85.592011252797974 -29.347855271586340 61.301415437089922
-85.196092957058070 -29.463163168891615 98.519909641219158
-84.984793473373941 -28.643955608464015 59.799260194680457
-85.058799224348434 -27.873104989007984 60.883838158802483
-87.326084360811421 -29.287672611766716 98.599302701461198
-86.911946584634578 -28.497157047518744 60.251493351230003
-86.852045020037338 -29.411062552742241 59.548140504467703
-88.330066939869255 -29.455145479221400 98.459930990905761
-87.140297582866097 -27.654650021877558 97.309199897914041
-87.364915691660485 -29.093685526933726 60.321656490560493
-88.727036607663734 -28.456270239842421 97.105974306818140
-87.560537932461301 -29.674589629273800 96.603267790652126
-88.717442966005621 -29.304682920797948 61.541335455350129
-88.111078349986798 -28.605276319289562 61.540157171169412
-88.207881732982088 -28.070843612863282 97.089242563874336
-88.347713985751525 -29.222301004809989 60.284110333109965
-89.828385931755463 -28.351568716566977 97.578969064625866
-88.951968377490630 -28.796346383399403 96.297648876407521
-89.143452676672737 -29.667052864421681 60.331880012596855
-90.555809501724127 -27.725259753835044 62.501885511857630
-89.994144870128011 -29.743374059205056 62.466391121015917
-91.139769583924632 -29.406548509530271 61.787655848633733
-91.811538124295822 -29.050570843418026 96.700680159503932
-92.296515271438679 -26.502756063130864 96.814380505371133
-92.698196229940848 -29.392514849692351 60.996654017786589
-93.056159308695641 -29.741624386741329 97.201868207322917
-93.421356794212073 -27.890211754023433 94.716416978570791
-94.097942495388878 -29.485350714165449 63.317660806411105
-93.232841564194288 -28.278245402608242 63.510432070696559
-94.444004059612212 -28.346205710603098 62.439994534424464
-95.031774866243680 -28.798741474103306 96.279509407318784
-93.960218158007550 -28.377874464025105 96.699112713118083
-95.291190442463673 -28.225374015585100 96.768772809418905
-93.801371992859188 -29.247989083155034 63.357576537833452
-95.265093432023789 -29.128108116981274 64.272987452891783
-95.509247997511892 -29.109241300220532 64.189780253401494
-96.172726067058619 -28.427224678230079 64.438588735326135
-96.730398788773385 -28.559908104805213 96.442822098794920
-97.328760367520374 -27.881361830077534 94.665923031947727
-96.933251531496623 -30.364214990458692 63.637337068890041
-96.919895685933767 -29.749940615365379 95.025949096513102
-96.200737613706281 -29.068029122732263 64.684393482955045
-96.730319702350414 -27.805778967651783 64.525290629991048
-97.379034872560183 -28.207789156111055 94.807494569609872
-96.792264412444453 -29.446132083031909 66.169856574261843
-98.222701946967689 -29.424363530410396 94.528616667704725
-98.657022063843542 -30.851857891424629 65.450229229336728
-98.036827785711154 -29.701398199935639 95.666055831070437
-98.786933121880040 -28.353032813129229 94.419270491326017
-98.793727315105386 -29.375957287938345 66.158916848148124
-98.512326338554558 -28.131062807868386 95.330699385458203
-99.324469648695128 -28.968275982118040 94.156506090544525
-99.754106715909231 -29.418439420315870 66.228484281370029
-99.810899254367072 -28.649611850749213 93.720618542889412
-100.193082786148665 -28.979780228747845 67.662342003539322
-100.117647168222121 -29.846681820023662 95.618352309346832
-100.897260984895723 -29.332527805764094 66.982927952498201
-101.053616029015771 -28.363479439260061 66.079952670622887
-99.977370930364941 -29.749924153428772 67.103124553897189
-101.415728431625354 -28.948969990087125 93.859518506871339
-101.326125331561769 -29.908038840539152 93.603336684730536
-100.322171793519260 -28.735610241759428 94.109676265416596
-100.690096491905891 -28.299563349975514 67.828236040935579
-100.941398134111751 -28.812124191576107 69.453921044061403
-102.114686240503445 -29.042763974414108 92.627365110891930
-103.303505670353275 -27.679364848778160 93.105663177861146
-102.424699148463816 -29.521871054374078 68.856180774114947
-101.920851432916379 -29.361647887919077 70.040640690069054
-101.989641331044680 -29.155250208633579 69.275554994434813
-103.529211620922638 -30.223282618536530 93.187164643754670
-102.248750939507474 -26.966167502119454 91.021072444232772
-103.158544669820230 -29.773340950344004 70.436361179296313
-104.044820366145402 -28.965824531927382 91.653366537607369
-103.071380603814646 -28.409592583934419 69.618492782676057
-103.902184938084304 -29.004498463948892 91.712306524149426
-104.330406380021955 -30.250629819100155 91.132196950530641
-102.435342079749645 -28.739447715675162 71.204015334843859
-104.168529399344010 -27.428209282993016 91.218697235611529
-103.221902855042472 -29.033549211651440 73.080768657974360
-104.437303913089053 -27.847122462670111 74.051416818248697
-104.280134726868710 -27.068448195493911 91.267266352590497
-105.291726165169607 -27.768780470555299 74.064962325098364
-105.334754588210174 -29.450426066046806 88.919411579437195
-106.600767762709808 -28.630105932204341 75.642308381413599
-105.812993600145447 -27.917661435287403 75.707933086568929
-104.443096874752513 -28.279918791587786 76.653603420063220
-106.413043422352217 -28.507859332129989 78.064516033768655
-105.935869767198440 -28.613397464438055 77.099285222000219
-105.860896813213742 -28.716236186871321 90.359422878253937
-105.854393487222652 -26.746024104771617 88.236954070563584
-105.851041484616488 -29.090577390822865 77.682958852953661
-107.195690591487335 -27.953677292371797 89.365706701545804
-107.721144157463257 -28.754141116066126 88.198512988421825
-106.173012490641995 -30.083547313428966 87.415676489765730
-106.119457480868178 -28.127736446621586 81.513282849953200
-106.978626713898379 -28.972797766436575 78.623691554322434
-107.070440855460006 -28.342753606704168 88.396405176032673
-106.714340224600861 -27.707682282464013 85.687014098748818
-107.699089006253615 -28.522249194294762 85.407271809455963
-106.556814018696883 -28.632102221376933 84.884564941076690
-106.678323899995348 -28.002203486736384 84.636736093196745
-106.523240884131155 -28.563177677098651 81.969184585237628
-107.037392378174829 -28.243640257722266 83.803640008076457
-106.820808562083741 -28.946492129969609 86.383395410761992
-108.010920865663508 -28.808317325857871 87.320066488323903
-107.924375503542194 -29.385976222218247 83.290966301658784
-106.279578320016455 -29.466625391505072 83.681500612168222
-107.279821210443885 -28.445056512534471 83.295162473327579
-107.681181683077497 -30.301933562223127 83.733220261540268
-53.805482758315335 -28.646820814388033 78.283554714092176
-52.594004646938046 -27.688744355317755 73.836219683368938
-54.255554814798245 -27.136187562076561 81.858159584782911
-53.992895331696943 -28.924118597866524 80.278550748791673
-55.634396095528722 -27.328028909297025 78.703256230289171
-53.531046406887654 -26.524030340507082 78.663390909146159
-53.606495462442147 -26.785366800296572 78.415728353501407
-53.657796986551666 -26.748723765521799 76.906232341368792
-52.494311684448050 -27.182811257700141 73.981935314310135
-53.434166560743321 -26.395991517426175 73.202610205175205
-54.131906299112835 -28.029698492737069 72.886559496479009
-53.689515214591687 -28.489248243810380 72.041462911353861
-53.663543183212852 -27.882625731883049 71.855274258291473
-55.136786688740507 -27.926529637415108 81.355569829153666
-53.611553077996405 -27.678349797432098 70.736433977315471
-54.244842529478795 -27.935478830083724 69.213050255265017
-56.067188524961054 -26.406113670662457 80.915110139583874
-56.003650648401290 -26.849796191609865 69.252061863343130
-56.085802363058242 -26.532162356320569 68.181173135456987
-55.090946665959677 -28.184248143498777 67.595884926296321
-54.014153826682680 -29.394228083963046 84.798946870923885
-54.103671175503536 -26.552753719391358 68.088607758588182
-54.310913268170040 -28.283726172577449 66.273163912841653
-56.376132694748243 -28.929781362400060 85.736867779028714
-55.069909953815717 -27.848064741024213 84.270680802090212
-55.871647747936720 -26.789286382643684 83.553164509838936
-56.212359565934861 -26.286287384342234 67.921423095304135
-56.636163133827040 -26.230714036015737 84.428398246255526
-56.314718553931172 -26.637164400374214 65.429575019225851
-57.247166214332651 -28.817780510973133 86.975979858529541
-56.242565753240065 -27.580983906556838 86.017277241250184
-55.070166220613423 -27.665169248246531 65.707100784034580
-54.984208878516903 -27.904813482798939 87.315353583302723
-57.107190784554319 -26.828327679241660 87.617736490490842
-55.180589194990070 -29.070161257752115 64.421128490325771
-55.975123812885393 -27.896096892110364 89.172557394071362
-56.306321961568685 -27.245828653131934 87.275905020825590
-58.312884429980848 -27.890428977446941 64.504705876948634
-58.309391078333398 -27.993861316963862 88.696574372235773
-58.276354183782068 -27.244835312390425 62.554800424834227
-57.816988392784062 -26.347645402194264 87.447479130409889
-57.818534701954832 -28.473725515080030 89.353110524958808
-59.260523266364892 -26.555354090585773 89.373977647536449
-58.957458316291437 -27.874093885922946 59.794437773856671
-58.705131572697169 -27.157071549256553 91.473833404195204
-59.126132601898661 -28.130488317236189 62.318217532457268
-59.015497106226384 -27.091080152596962 61.448096038659564
-60.494938037290694 -27.495589897894082 62.033522794760323
-59.504782849506597 -27.140200470921314 62.809121041608435
-59.941855264736269 -27.038678339329561 91.112819301877991
-60.510944865170742 -28.415716276861637 91.205167751872182
-60.547568371771128 -27.993597399014572 61.413056012911049
-60.709845797874195 -27.464095610506856 92.961894436536213
-60.823055388276345 -28.596750940541455 61.850978379044989
-61.280715991666277 -27.489909199535290 92.848265939804989
-60.881276769239925 -28.845015429164672 61.936908595501784
-60.436366559606689 -28.198930214849288 60.853090130022679
-62.210934654249336 -28.577609926051807 93.693838923433972
-61.314847311033240 -27.738924929754241 94.355938705743625
-61.729063065259083 -26.878756333149695 92.649131447117227
-61.093025356645654 -28.481948293920659 95.727454151295660
-62.309839087646139 -27.575121876425477 60.090429859587658
-63.278969755769999 -27.650665688726427 95.312623007697383
-63.645210371367746 -27.699500989304290 95.323201393111404
-63.740829196178176 -27.289868557715096 60.151167775545801
-64.053985676692790 -27.142023982244019 59.091083730509929
-64.577553319023423 -29.184907864310826 59.647441099607953
-64.843740579112350 -27.264854487216169 95.590989162064801
-64.774697717253503 -28.327607432341445 94.189715751311951
-66.474913620711632 -28.224917557031997 58.961981687719948
-64.781631791648465 -27.873553544838099 95.825529928292653
-65.299393818476275 -26.842622852454451 59.454360369536566
-65.909008733909857 -27.967783864928847 96.150296166921606
-65.402059564236922 -27.915101693629520 59.354847830778361
-66.510303193556240 -26.890538158751433 96.306978694042016
-66.530015146115630 -27.817975394065730 59.018112730156766
