# This PCD file was generated using the MATLAB® pcwrite function
# from Computer Vision Toolbox®.
# .PCD v.7 - Point Cloud Data file format
VERSION .7
FIELDS x y z
SIZE 8 8 8
TYPE F F F
COUNT 1 1 1
WIDTH 806
HEIGHT 1
VIEWPOINT 0 0 0 1 0 0 0
POINTS 806
DATA ascii
-58.501977480152867 -36.329437193085468 45.603326025803220
-58.424380504380203 -35.955225957366785 46.695795398929867
-59.721862011420782 -35.937885544870163 45.749560714097363
-59.946375495018060 -36.338831304531482 96.501633457399279
-60.453499411343699 -36.389102472179488 96.665831258230753
-60.745673683628091 -35.744007619450748 96.642664569286296
-60.503412634634977 -35.879218967786656 46.000428673686429
-61.190463952255691 -35.874980097341734 45.482979631221959
-61.523029965154706 -36.606603085605379 97.224187050960793
-61.829941366204686 -36.675083698655747 97.655785301512864
-61.819408532600931 -35.801095406436595 45.622721382758101
-61.634016348244025 -36.346077271167488 44.791134337070076
-61.887170659814132 -36.500960058675773 98.143456165532498
-62.047027605806235 -35.570839930006620 45.940512523681548
-61.929918852261601 -36.128136932731607 45.012364533742222
-62.376025084546228 -36.619707847910433 98.152894841054732
-62.587200448405390 -36.368896080232901 45.048013899920356
-62.916728180535486 -35.702056937878282 45.825905681174532
-63.297460640015260 -36.037184523743747 44.878335261728736
-63.577740112195421 -36.840844911447228 44.139368680723550
-63.274208440698828 -36.252330781926339 44.835817701393360
-63.668138293630960 -36.826221764476067 98.287642309033217
-64.265897009661074 -36.720096408157069 98.459353927848369
-64.227303007181888 -35.744909158803871 56.197856343019822
-64.852444774182132 -36.307608682064618 55.499032581906029
-64.507011552814731 -35.634004990113496 54.441804266224722
-64.303205815945788 -35.615096275475523 45.732809441661097
-63.721691035322230 -36.566930256780495 44.387866234010922
-63.893494724954387 -36.046140839821071 44.791434936102206
-65.141504894080924 -35.819114815003658 56.337855179164904
-65.051298261293269 -36.473064707443569 54.999536321260372
-64.409035397870085 -35.681900738116205 54.657044193418699
-65.081049624133911 -36.050621216409681 44.918444918641107
-65.030671073421658 -36.540027778980473 98.702967753573716
-64.949854436847758 -36.602957767700133 54.941212889662218
-65.369179808713284 -36.702884953546373 54.507294678512501
-64.976958371569367 -36.091722106881505 53.092414634633698
-65.639574957345161 -36.596442065190971 56.305333785905638
-65.937487536462456 -35.622687921250730 53.407724153934154
-65.463920850871773 -35.975458783781896 44.358479413007224
-65.494940399306685 -36.106431865427822 44.241577080593416
-66.149849868307982 -36.180072303144009 56.997314606654228
-65.524466786513855 -35.882116595936552 53.708205246456757
-65.541830274458405 -36.158484926491099 44.938245206531455
-66.353310011598822 -35.809936435069837 57.165312541210021
-66.324492172794777 -36.375947615398196 53.427246530882968
-66.141019138307371 -36.282584302697664 52.305432594781742
-66.778821645670632 -35.457079975036436 52.630210963877126
-65.977773044663564 -35.826733711729631 45.870615025967780
-66.584733735461683 -36.516036424502580 44.598699135887294
-67.128025107751753 -36.947497126395874 99.175412906664306
-66.986098897134795 -36.216966908222275 98.952126538825382
-67.003690313419170 -36.341735788310643 56.977378843319812
-67.190902943698731 -36.990829250975814 53.230504497541084
-66.859281167243708 -36.114980703935558 52.441054836324142
-66.433308639177511 -36.073298143499223 46.612794120667189
-67.218940483320182 -36.590894720292219 99.629589778109292
-67.115678786641851 -36.016371744327216 57.168975427435974
-67.539138229289577 -36.078657467755612 52.327686686028500
-67.225827075251502 -35.674754410171538 51.512925230614613
-67.475569573620476 -35.999270798262714 45.925581224024185
-67.392060965917850 -36.811171613474585 56.830786243909586
-67.775831939725322 -36.679074941160614 51.990572414268549
-67.488910241207847 -35.958382253361648 51.407866657632290
-68.063439555197078 -36.547841358819255 99.629939921912026
-68.170643641279952 -36.722242897485060 52.077581012623078
-68.170679773770573 -36.767076670467944 51.761132319730642
-67.978324189865688 -35.431837947392822 50.274888848375618
-68.373120330854334 -35.260354582721540 47.099948741363292
-67.816032778110952 -36.913958901755201 44.698880465969197
-68.420359589696176 -36.311637135221119 45.835003775203518
-68.295902270433075 -36.151874614305370 50.773227018372388
-68.640672445614086 -35.640520094687396 48.691990880083360
-68.679413170797034 -36.306606765457886 47.318925028800138
-69.138951277818649 -36.533198264464801 99.624823666390881
-69.239837630500432 -36.693893252721196 57.499161219310011
-68.745387972725553 -37.042655335910219 51.470705429105557
-68.718526187515025 -35.963083054204361 50.538880228756007
-69.079756914922328 -35.974801311116821 49.707392043642315
-69.202647845141115 -36.518170055748229 46.031233917677575
-69.358200254180005 -36.676309210949405 99.956767078049651
-69.758470797975761 -36.775248980092357 51.121213820417431
-69.401954759144587 -36.390515038210154 50.751034470912558
-69.185244308225791 -36.180792989224123 49.147989074324272
-69.832514446117543 -35.855219501499988 48.740135941880133
-69.509715693231769 -36.431153461186668 47.913914926609024
-69.411912306253370 -36.501067942255730 45.994232753472772
-69.731313402131747 -36.294862593911191 46.473435939051747
-69.781720081100232 -36.213618921667553 58.211087127362013
-70.019289487642098 -36.361232808766225 49.528811136359899
-69.726572562188181 -36.590468763805873 46.706921332578560
-70.419240077118005 -36.303848329828412 58.421604364264589
-70.392152213197761 -36.585159015255961 48.651915025877685
-70.674691066939147 -36.471388943742163 49.109523000374480
-72.581369586760800 -37.018086485876196 58.690785652864193
-72.808706959656746 -36.668554166671967 100.252463069209838
-72.797493500757767 -36.418670001527296 58.367106781508944
-73.679461966778774 -36.446582136740432 100.088750522805569
-73.862706600429433 -36.812322820613389 100.112267601538747
-73.984390591731156 -35.870037986515555 99.861253709441797
-74.697403116713815 -36.749626973625787 100.418051925819384
-75.707113523400025 -36.612863570172593 100.462474684873513
-75.734448507526025 -36.314003447442580 58.963285999266027
-75.688740500371395 -36.262921695330625 100.519120131162950
-75.610754817816513 -36.884828511272907 58.938617297084335
-76.853043067494497 -36.767372277390677 100.377598058958839
-77.046629687457383 -36.724955150729947 58.771407188784181
-76.657833709130458 -36.501837734886180 58.522567216641853
-77.406764850136241 -36.488069260480614 100.750922214320369
-77.815565936415254 -36.514310390280251 100.544960932162581
-77.512592200282853 -36.694608522866559 58.833834840202279
-78.570170299525941 -36.659814955873777 100.499265604611708
-77.956146059530852 -36.838672500237180 58.750889669417219
-78.735640462995804 -36.789296992019480 100.700682893820670
-80.453378860301157 -37.086705207405217 100.713121512293966
-80.225382169570281 -36.731079006496415 100.476333988589602
-82.090573673744302 -36.654501491215939 100.619451956310243
-83.313798847550999 -37.036013730957876 100.751860749597697
-83.043532480940783 -36.566039318980778 58.770554851919968
-82.985404992632596 -36.415110918904595 101.107383516864573
-83.784881913104400 -36.227895959768119 59.221483173093532
-83.961751204274634 -36.628372833453348 100.953227982419364
-85.106635439194662 -36.794939200721380 100.640537551047544
-85.713338263054837 -36.764562742074460 100.284902306187178
-85.511076754624483 -35.873356723758427 99.643906798420801
-85.782018950184394 -36.450252671213100 100.565094344322063
-85.614259319448507 -36.192488872704828 99.987024347209285
-85.796106833106265 -36.699010474910985 59.406937121220395
-86.600982552135562 -36.869918408631655 100.132910203811704
-86.428048006633816 -36.184417078941351 99.638710663506899
-86.680578505973003 -36.810575897199328 59.355092122331293
-86.988527501133760 -36.418376946925058 100.106640459961696
-86.848497592607387 -36.556935113559582 59.684994838916744
-87.417569045200594 -36.183163208258350 100.276174757067011
-87.265429708392446 -37.038119998885385 59.774427065960786
-87.985825573276799 -36.512154013889379 60.281925853928968
-88.319999011556845 -36.316151144449265 59.909666018765350
-88.828150541133809 -36.710209945961992 60.898032235604283
-90.581930510858214 -36.599901997463135 61.107162020160672
-91.135917763964798 -36.451939114496469 99.805786335676814
-90.988440534898842 -36.008085121673730 61.639159562660659
-91.325280803270914 -36.281008038674052 62.454603936784679
-92.151104912229414 -36.830420666522429 62.198407692355055
-91.953411692948691 -36.716097527945834 99.305066068253794
-92.745477601713532 -36.232941428999730 62.414364735427355
-93.152078281809096 -36.392009656759896 62.787302044126207
-93.154296811287168 -36.688028499540785 99.872570121172004
-93.639739320729362 -36.619683527363975 63.156749818546061
-93.775067103119369 -36.566197427213538 99.220895295647736
-94.100702371509357 -36.604827266459509 63.235721306615851
-94.240728129249135 -36.220135642933613 99.263410009304380
-94.152103823751062 -36.238952216730247 98.870942775994280
-94.333665859773575 -36.924004916950693 63.794750065990257
-94.767568402230268 -36.663931227517871 99.655859066382675
-94.485211305976563 -35.981725056812749 99.204824297567541
-94.300755985669056 -36.864265828156839 64.140029485290796
-95.123405020809287 -36.701229168176418 64.442464175960396
-95.525147901267303 -36.124881196591929 63.986688356252380
-95.936094597459245 -36.374177491499381 64.582063867568337
-96.486825756522819 -36.478180005326159 65.402715316239181
-96.317231077886589 -36.189525861562117 65.195800946812227
-96.704341610489962 -35.963095552559679 65.616937166496825
-97.440481769224121 -36.532397741296215 66.312629604309961
-97.305542163343702 -36.373254577120029 98.237359591705541
-98.296519380286782 -36.081542832205024 66.543579628974712
-98.283737719851075 -36.282109711389687 67.038095507658483
-98.374474148722655 -36.698642883802506 98.386376481361765
-98.588586521939703 -36.651831716217998 67.219450231452868
-98.963177720763071 -36.947786637754483 98.392177437854713
-98.618671750757173 -36.237516533668000 97.815428369285058
-99.536025262985135 -36.672855122430718 98.859645519005596
-99.435769059878524 -36.099003903510521 97.938242909149722
-99.006403003528618 -36.611019386844063 67.954460080193485
-99.310931232835543 -36.714313650642247 68.932853296878875
-100.623903128977858 -36.318698283702972 69.549239505472585
-101.003661419672582 -36.257696929669052 69.695343256901694
-101.067535350164093 -35.788440360754194 69.609109578021119
-102.197497256547734 -37.372232519127039 97.995484865477820
-101.732706201449886 -36.349305815328755 71.264445640675291
-102.344322474074957 -36.202143411458572 97.513473038963610
-102.395818628556910 -36.815342814786092 72.262705390825417
-102.348828916235931 -35.866978763736917 71.363569000264519
-102.640763341402689 -36.746116433501228 97.473304004926561
-102.423190046934010 -35.902475517008263 96.858273583193281
-102.624599109462395 -36.491969887763382 72.630906154374557
-102.426954116884971 -35.647333078006973 72.184117069901347
-102.486465161955252 -36.340125331538673 97.276628744670134
-103.004780517119826 -36.213908298196479 96.979194154304807
-103.152629787892167 -36.617573904478938 73.721104539769854
-102.958639802303352 -36.202327904394132 97.572547900195488
-103.420557354788656 -36.369774490939669 97.174911055462701
-103.324675410145332 -36.448504921781911 74.420745283555306
-103.589699817887421 -36.573731971314757 75.294268233746394
-104.416681011521234 -36.418709263630774 77.252353809699045
-103.524626445311043 -36.786592871620655 75.862883454608451
-104.585884040429576 -36.469250834660642 97.087731447957424
-104.583262546718998 -36.614256448977301 78.079276932137162
-104.701553695195216 -36.516070507434733 97.171033894279020
-105.187193222441110 -35.561312678058940 96.016060518740275
-105.004286869266608 -36.513270832783483 79.256583183615291
-105.576493937758684 -36.753302390277767 96.641207906146420
-105.412406693870849 -36.075928400391497 96.055270850458143
-105.698148833933175 -36.475145466326396 80.262466966586643
-105.886753554964656 -36.442715398738059 80.910675080234412
-105.432871481724604 -36.714741796383109 96.531376991928411
-106.029795253543924 -36.036786233412215 96.633972778186020
-106.489913891225072 -36.352343489512457 96.368786356841497
-106.385541180109826 -36.494134781005052 82.052753160534564
-107.164345659100405 -36.838386454790957 82.655868282926136
-107.475677259132596 -36.294446344999955 96.228364582030267
-107.230583490124019 -35.698445612832153 95.387744423851188
-107.785307436794767 -36.570453471285468 95.668403072441052
-107.075751538776245 -36.317619448503002 83.826074451277037
-108.079421235263808 -36.334721857391685 95.552284597227825
-108.472180783993622 -36.448389299309952 84.796921470359848
-108.773623534217251 -36.527501501083989 95.292732327510279
-109.150615907917143 -36.140728521239843 94.911365952709190
-109.496296904795031 -36.909343461947216 94.987727835399056
-109.105086599464897 -36.520323244055525 85.712350250406033
-109.486191172978508 -36.610962989212148 94.159379954339713
-109.818530517976455 -36.609318626007422 86.454415410637083
-110.402393679950663 -36.756747997605920 86.539361687993463
-110.178975957282688 -36.736280699452543 86.999688291505493
-110.936799029431228 -36.566108109859421 92.999243177014307
-110.991053829270498 -36.098104229924353 93.460478129299531
-110.913248663639038 -36.541739814730775 87.225708894681702
-110.786447342078048 -35.575669337564740 92.528353035888642
-110.997849388954677 -37.098260057977967 88.097714560380297
-111.805279200625620 -36.419250840716991 92.303487857404576
-111.364611357011967 -35.772602573473009 91.439838019654275
-111.720663756490566 -35.479807868763253 89.135804318507851
-111.895489472706615 -36.304538403012870 91.644790906198466
-111.802045694665608 -36.186232763026538 90.361406496730140
-48.851753459977921 -35.558998938994712 77.604487800725124
-49.339243279595493 -35.640254580640210 72.484735092830547
-49.809041924019738 -35.682866466274042 81.837630686556338
-49.261426710110960 -35.535915432532974 77.134065911767181
-49.760211051834609 -34.850761091102086 76.500220600322535
-49.449003568662462 -35.550591882109202 74.535880971884836
-49.478341917274882 -35.042675544332084 73.067644189536608
-49.753119527552279 -35.187326307171745 81.163577396240868
-49.223987210096581 -34.564481580053190 78.807307838342965
-49.777477475974514 -35.199675790659832 71.815649616659627
-50.084135200259979 -36.141660836710784 69.497845870226229
-50.969385912802323 -35.612675858900332 83.799543210420353
-50.184951173026846 -35.502560335168219 82.876057754176472
-50.066565733390853 -34.847639780180963 81.905967573218916
-49.825162117782511 -35.388811390315844 69.576899240952613
-50.514544142851825 -35.330128770166468 68.711976495598748
-50.746715558450973 -35.189628565124188 83.256380316591816
-50.609823285434494 -35.762026011869843 67.900852794417972
-50.729562807939388 -34.909331293228661 68.345017603553856
-51.016855071714680 -35.648117275468302 85.395244276079964
-51.561524395739085 -34.785549353377576 83.534300991089381
-51.510721812859039 -35.487001512656633 66.635341977294118
-51.358199704162743 -34.898302222104171 65.421175110095092
-51.701263022619870 -35.981758364460177 86.180480513463749
-51.431630733344349 -34.721779131982956 86.194332328484620
-51.634844654360123 -35.407998248431944 64.984099406230399
-52.276575270553124 -35.739520518774341 87.327336418678414
-52.275820393283205 -34.875653504387778 65.035601619299342
-52.305875434855075 -35.069347174688275 63.881968785941211
-52.600049261347863 -35.730622800456430 88.346404889512613
-52.569359225413727 -35.228583094632420 61.942369133212900
-52.841255090130119 -34.878545521484767 63.156639445211468
-53.137946237635290 -35.612900956426394 88.888293767098190
-53.293876869643441 -34.825273700773330 62.721127995224158
-53.052354701561647 -35.349218959772848 61.559766985910699
-53.284050664489143 -35.104365875336178 61.926149557132383
-53.587689387935541 -35.751878216889118 89.435910817077669
-53.479984264125939 -34.514132246270172 61.864259328231498
-53.628670515311356 -35.488100139387427 60.479587479356788
-53.076692252096343 -35.414716384781791 61.028378195941450
-53.530214028100140 -35.454685377934972 90.371961246664100
-53.711203441825241 -35.711934684178701 59.726719112340881
-53.457422620951853 -35.474097828994203 59.915469685179225
-54.016655595371240 -35.410514855318041 59.386618534741253
-54.341991689949253 -35.190694893655667 90.257836239312851
-54.189938128167505 -34.892275742824332 60.067822719866868
-54.813812161430761 -35.086246470563779 91.127099898256034
-54.496153788311808 -35.204488884164718 59.091435733328574
-54.969220430789072 -35.471164064567610 57.285386994233789
-55.016376603240822 -35.058085863886149 58.425089125849311
-55.436280166692690 -35.313151818085132 92.307476835587465
-55.380860746356376 -34.730926557286530 57.963600911610818
-55.335234997839912 -35.764271675900446 57.142091391595834
-55.499417163265711 -35.326732764832734 55.988577131212267
-55.751069620973553 -35.732829703794863 55.028853990668971
-55.902012569269303 -35.604501986815180 57.318594675406992
-55.902697368148587 -35.533921486136663 56.029780487434778
-55.929266801515951 -35.770291005321461 53.045904716557807
-56.296876982274874 -35.030438390767081 57.098717159477673
-55.816703571801263 -34.942471939107911 56.272841911337196
-55.996284091818957 -35.280392273032007 55.233155496259826
-56.216083462071403 -35.564619259465132 53.415819278334602
-56.616263240573403 -35.117599580777814 52.124890436576592
-56.802042017987148 -35.568041304203796 93.475033383032795
-56.635066123986668 -35.035967115970280 54.433916120383856
-56.622961955645287 -35.081186187165727 53.473384902758305
-56.740821200619351 -35.181562144260006 52.384229167014922
-56.895853796884751 -35.451338938529645 94.083144122415604
-57.213231849571550 -35.106361424019738 93.404013300940207
-56.851149585053008 -35.021832933279086 52.666125553232433
-56.638014404780357 -35.788471675815806 50.337385288174623
-56.979960639424135 -34.989680570893356 51.359655729015053
-57.264427121779171 -34.848125908468838 55.377131312334100
-57.527508125375491 -35.048151155446767 54.300615207927621
-57.523285563320442 -34.796149805265109 52.337728610562301
-57.078210692700658 -35.289977760964831 50.010322170200389
-57.797764660801242 -35.795088155367985 94.661595826498754
-57.997111338028354 -35.539961760188639 49.411999259262920
-58.136205246332572 -35.811530499792418 94.911262180734411
-58.371933872975113 -35.047326921711999 50.353927617247308
-58.562219525803300 -35.009839929764780 49.796687162454816
-58.190449689679653 -35.356654066968176 48.352399433131069
-58.072254169220649 -36.050351459519085 95.156826610577170
-58.264705847192225 -35.100937849440221 48.337086547069688
-59.037438333556167 -35.312167628230853 95.352373023254358
-58.918034076872040 -34.590885302873296 49.153728037445013
-59.051890539478578 -34.807430888739212 48.300752166274641
-59.517183680270740 -35.328971310076376 47.079362833045423
-59.313055455863122 -35.656606125711257 96.164992786705270
-59.533005561699412 -35.206000521049646 47.999777454619334
-59.544345368001906 -35.525735688793461 96.193546108967382
-59.669699723848012 -35.062516272533401 55.140943806144207
-59.542281435710869 -34.927310849845888 48.348656762956026
-59.892869840062545 -35.838677808270589 46.862270850144455
-59.547395440809183 -35.027735793497158 47.618231859057744
-60.301119756395259 -35.063339708327881 47.744872341631648
-60.812579300229501 -35.985501722651463 96.988340060097329
-60.807528868196137 -35.057578278597845 96.414629879944883
-61.044375889212439 -34.624082769741761 55.599232999546992
-60.821694256345545 -34.668208017686233 54.431729152231725
-60.499121109768247 -35.871666327621291 45.746768926112438
-60.417872542255630 -35.602097107744846 46.716520765035654
-61.044898465884877 -34.381539418164941 56.348741281856100
-60.641498267403485 -34.895224954570999 54.286929743495826
-61.248973502748051 -34.218958195556532 53.138342935086420
-61.312757562005949 -35.242838266467068 47.473806578243611
-61.262173251618982 -35.377107237616272 97.094709341050901
-61.532879536811372 -35.240040562252858 97.556739225711979
-61.906913195355756 -34.837310794067058 56.034779556073659
-61.704003174794799 -34.929661103792355 55.137725126344996
-61.438235491775096 -35.083683289541391 54.321881239864197
-61.628351756150245 -35.035095610154336 46.655884571529853
-62.118815953773968 -35.793795492520957 97.114252018773641
-62.310753527870929 -34.995898063325953 97.073028445003757
-62.114612420894908 -35.043585220312352 56.179422915353882
-62.422463450642667 -34.857899064752587 47.798587087735775
-62.279718506890468 -34.775052959787999 46.514242858786908
-62.800548378979101 -35.979483900148999 98.017274538007783
-62.611364255201806 -35.388497552404147 55.274136636436296
-62.587435972279984 -35.111485853292912 54.352591667671845
-62.543602011302987 -34.823426719235826 53.597718261826920
-63.240521392589315 -35.733055583210579 97.849171100121382
-63.168612848927978 -35.324083077310277 56.303489312924903
-63.045785463548320 -35.715220583421015 53.997434012270730
-62.828369836998768 -34.674579655067816 46.635725098249104
-63.131776099023149 -35.602789100525541 97.903233683227043
-63.601308088748539 -35.561806189800329 55.938720576999458
-63.261730570704266 -35.053630830200028 53.424630079707185
-63.525318835667470 -34.756056021032627 47.250489939163117
-63.197460979794073 -35.935164245428275 45.723654288972867
-63.473540578754410 -35.228109455424075 46.708000727393859
-63.252204275400778 -35.962776429178447 53.795479901568939
-63.928887889182562 -34.854657569769593 52.565508462967344
-64.110689205545654 -35.323683395436774 98.036246295912449
-63.890688486510008 -35.728169960735052 53.427923485430817
-64.440497854280324 -35.394098509145358 46.636715314444182
-64.701595126853022 -35.585153861543787 98.188017194846395
-64.678090644621790 -34.915090489286143 98.192269321843398
-64.317214374465181 -36.004258201477349 57.131831434630953
-64.094375348823888 -35.412419260493451 56.934543774931491
-64.797194973382133 -35.133262798821015 52.264173322413285
-64.559598336245301 -34.623488787247773 51.471197663745464
-64.369668885643719 -35.707405621417692 45.472014629967624
-65.237013139167360 -35.639645857703776 98.803432665296512
-64.501397646355130 -35.335815143947443 52.448905764535780
-64.755029222324424 -35.421720387372545 47.340343948642577
-65.217776207609461 -35.408522543059803 98.799781144735348
-65.882655957072018 -35.302616396557347 56.779778335963051
-65.169287280067806 -35.982798159039035 52.331089153066934
-65.270763983018838 -35.261752334580279 51.439682698684457
-65.670107863920080 -35.012444779581990 49.540137695183375
-65.227996677440345 -34.316580630570122 48.464109207747399
-65.615444886439334 -34.989436476093836 47.879985913371321
-65.404205541199246 -35.608155414805132 45.868219720554997
-65.484399683451286 -35.022733873149988 46.716084907571457
-65.649739422684263 -35.403737529549105 52.689095783757871
-65.659477002608639 -34.890411030042763 51.514007971702831
-65.700207913532623 -35.064835192492581 50.273945418715087
-66.025707443491896 -35.533422637253523 51.486548233639219
-66.145782731933195 -34.924869298448058 50.381821335041224
-66.127597969269445 -35.406375819100539 48.588421692279326
-65.706112249739093 -35.102752593978387 47.610797189114422
-66.219827821268353 -35.461548726549587 46.097386840651005
-66.697037847216194 -35.381940611239315 50.920427857273644
-67.441682824948643 -35.866635142684018 57.537417874247851
-66.787019403274087 -35.492697145593525 51.234619770273795
-66.878731827521875 -35.672300603354927 50.653945822849813
-67.028161818364111 -35.091982439918148 49.372730664511849
-67.372325383407343 -35.076859778158742 48.338939047736815
-67.033780232732269 -35.306590295946762 47.690240247790648
-67.240996165802613 -35.565584716479961 49.816487607451705
-67.686446394839948 -35.172815837001231 49.236545826072870
-67.615790349296816 -35.607194784077144 57.701480782112455
-67.731311833158685 -34.850172079637311 58.168989264860883
-67.650894575029554 -35.195531427068062 49.752704353049964
-67.551842923366678 -35.372416455819767 48.807921512610001
-67.997771659709869 -35.836605138207389 47.281283694774523
-67.838901937742563 -35.340497887384743 99.387694183127408
-68.227302841158306 -34.806602092067912 99.198098761476089
-67.974242645401063 -35.239881030924046 58.255531097390445
-69.138247124051517 -35.803430857480144 99.771149465879418
-69.630124520773606 -35.622899417575915 99.895934011298451
-69.776803778947894 -35.713926088061868 58.302353061425002
-70.198754894400693 -35.382139259898111 99.732068703424332
-70.183817005574511 -35.539237749558957 58.334452386140342
-70.645818505532844 -35.946886794547432 100.289702162262671
-71.344756843702868 -35.839271613291508 58.258888908840149
-71.402216765671241 -35.496829486679609 58.695022012644401
-71.902191076520609 -35.773632759971896 99.852969502566609
-72.230646970954112 -35.517913875706292 58.716364069896024
-72.830348184720023 -35.549297543648841 58.417048730151407
-73.295262066602817 -36.008149329005960 59.088084044940643
-74.341947421781626 -35.457687459204578 100.025584780104950
-74.204823929236994 -35.692359464966586 59.067740986143050
-74.716244988855905 -35.918414188109573 58.642806036558881
-75.296452926541278 -35.277287415256360 100.270209789448487
-75.357921994410901 -35.640526694334845 100.423225066930513
-75.542610493998907 -35.064829311384749 99.864263733786828
-76.015465759344011 -35.908060371692216 100.487842296648040
-76.548477052629437 -34.426559523317067 99.940481005923459
-76.333045524231565 -35.644426183609966 100.344961628898972
-76.492230304631349 -34.764806903375217 100.643546760839314
-76.577431606039724 -35.519011121224189 58.567720089284556
-77.025906664497796 -35.367730260357398 59.080995488844209
-77.435770449574932 -35.459470564538897 101.142777943569470
-78.328326620052962 -35.558998690838699 100.195219860717586
-78.250521348758440 -35.298820342909757 100.113339696495601
-77.868144255671510 -35.871436517022495 58.677503053136341
-78.765891169392745 -35.393840622272478 100.587735675544550
-77.984787651622710 -35.557895375242559 58.775206035267033
-79.147542958846344 -35.806293192593316 100.399566422590837
-79.047842630471493 -34.964670220306637 99.819120749205041
-79.097719957501965 -35.334075311604067 58.436524505987784
-78.958074302569486 -35.714316208023661 100.215488858267605
-78.941500230211645 -36.154029009792758 58.878688309443625
-80.087403186840803 -35.704561182769872 100.185375666447229
-80.673257933906186 -35.659390482258956 100.045237087173092
-80.260937702748322 -35.756745605631643 58.723675840247282
-81.398096654556937 -35.754186314117810 58.528338519639895
-82.079599253544743 -35.224562982255101 100.425074004519061
-82.277136166345073 -34.656470604305504 99.710001423961700
-82.704661029282164 -35.677209837485989 100.280448099111211
-82.307060865472835 -35.748116655636139 59.090175454957340
-83.575088118741505 -35.750145201384093 99.948670928317910
-83.107021025995550 -35.542200624811123 99.931364926849781
-83.811720116964040 -35.682687136920968 58.886415453323103
-83.936699586286508 -35.795840705448931 58.602790765749205
-84.809813030803113 -35.812306237808045 99.630512472939770
-84.728138607226214 -35.790186320416723 58.864064449540884
-85.489856363340621 -35.713779842319887 59.226896623736820
-87.348042218504261 -35.772849603598964 59.776876895606016
-88.653901038999862 -35.979556249629482 99.579333135161761
-89.013459086877347 -35.858083086719034 60.632516228535678
-88.997603181120127 -35.821451727008693 100.228102358886204
-89.805253782601056 -35.820660734174567 60.784723220745526
-89.915988081536995 -35.793090008047962 100.052794787968736
-90.332115494414197 -35.728811889028506 60.964908749542872
-90.376396896264353 -35.497737781640133 61.582590503962216
-90.696947297766300 -35.709188714406814 99.445433082848083
-91.814587167605552 -35.960386246055158 99.739936366640308
-91.465870228447741 -34.704295527547060 99.029321226598498
-91.387977357549389 -35.740150110699751 61.629762756818792
-92.387334298843356 -35.554032228714135 62.149655342644778
-92.580565461918468 -35.762678070951011 62.282561613711472
-93.195868088610453 -35.839346635610845 99.417950341277603
-93.079280348805156 -35.587642652073576 99.401283129047144
-93.135653660429369 -35.492345131116068 62.566163655302113
-93.125644376119240 -35.442670506569740 99.162437037893127
-93.825603878374011 -35.651054789169194 63.364701740496244
-94.247233733468349 -35.841284583281940 63.578251539538762
-94.489384155113925 -35.907721892736944 63.783720109348799
-94.767555547122740 -35.256630491604909 63.559579061526385
-95.403422699733994 -35.659681720102199 64.362713097522203
-95.712672856695050 -35.887858449476930 98.893693330882314
-95.729697946935261 -35.873287175070679 64.867801028892600
-96.056691647086367 -35.551929462928214 64.694325469080439
-96.763368988379113 -35.329651924295725 98.798592984096373
-96.574645258943647 -35.533516975718733 64.949763325931741
-96.848919069315968 -35.098979536712726 65.073466978236866
-97.026592813088044 -35.587247706021664 98.727174081473876
-97.503015995703294 -35.680479805046723 65.789864438117078
-98.039636404293617 -35.561371198076223 98.431142912405875
-97.736201918734039 -35.877167879659673 98.210836854966971
-97.953734169029033 -35.077694891416371 97.931932832740671
-97.402691532998574 -36.057699089447048 66.525079729043156
-97.673306996674938 -34.503943621052201 65.679751290130540
-97.992939549427277 -35.687030101867101 66.321019064644034
-98.910722921374415 -35.574338984583349 98.470683107742985
-98.396494451566141 -35.385253855723775 66.459804534969322
-99.166397459214892 -35.788156576265216 66.632666126675801
-99.672505788343301 -35.293511227383036 67.541450581781817
-99.625139084134972 -35.925083350991947 67.510677264798105
-100.589896937438240 -35.462879287759293 68.513868133131993
-100.194909164852945 -35.639460885622412 98.062773505979891
-100.611389062156363 -35.846812427781757 69.125982824449920
-100.976092827803427 -35.575872629456619 97.983181534122011
-101.940380456992187 -35.683580451130467 97.346246127451579
-101.810211089609169 -35.881919166323222 70.626167230260478
-101.829368231116334 -35.704124574100341 97.094560000172009
-103.130249392467420 -36.025307913347191 73.428193992965276
-103.093736957034707 -35.610599711517324 96.563802097690200
-103.487884839274258 -35.513898414441179 75.127205633848888
-103.392251334204531 -35.646516637051185 73.762302733436357
-103.567151344489247 -36.093764084505494 74.222327403306451
-103.783678661986997 -35.712318500963619 96.700249481059302
-103.643905121467014 -34.863997055183354 96.222067028263154
-104.471379492972090 -35.363831605585304 96.828717540921843
-104.505333098184650 -34.649157879935068 96.048199905303960
-104.494570315984305 -35.288597389989228 76.313899421925711
-104.528861355929578 -35.520237173449452 96.785004353013463
-104.579117704861446 -35.446226791506874 95.808652871485279
-104.564170602095700 -35.614567661026953 77.028833371158271
-104.593681349651462 -35.692548546983879 78.098974118559710
-105.224489410491529 -34.462142668992293 78.406156845755902
-105.482157460875271 -35.720670784050462 79.915250734289742
-105.950752423235883 -35.749148245647589 81.252514090186210
-106.756388520574959 -35.506007060838428 95.660576117575985
-106.264768852294040 -35.726171670775720 95.234942094506422
-106.509101286881162 -35.536896721005405 82.077237811000742
-107.000047275657295 -35.978908690742166 82.870911593473977
-107.051949873464494 -35.996231590930492 95.565796112998825
-107.274508946661413 -35.932594802513812 83.539116925364723
-108.255887367000213 -35.138537294733112 83.745934707039424
-107.891123988351637 -35.592682705895527 95.104715726103350
-107.298708098951124 -34.888838097006392 94.951707694309135
-107.996811945531647 -35.357771588336071 95.092831313869610
-108.371801115693458 -35.702998962344218 94.905723352034371
-108.787268186290362 -36.072924861960516 94.191288254983021
-109.331550326583681 -35.756812681357466 94.372914430886368
-108.876326730922997 -35.199299153303862 85.437582580220436
-109.432457366829311 -35.769806143561517 85.800949712698653
-109.261978940325250 -35.929097917386137 93.919791271142032
-109.913967230964076 -34.801544009288442 93.680819701932890
-109.512332740406080 -35.287006335852880 85.680419620175584
-109.985142328378970 -35.276515096462582 93.065021581360824
-109.793518881181825 -35.863371862755095 86.248693227939697
-110.276412994138710 -35.734921210729972 86.705403158438941
-110.840144901715036 -35.282234595211939 92.493516946428372
-110.539674921603734 -35.140771482571168 92.454720701822183
-110.643305630163226 -35.269950836438170 91.468934772450794
-110.349722521362807 -35.409875329283835 87.158165425194326
-111.277653616117547 -34.782965428858105 91.672357242564985
-111.015689483453031 -34.647373405112965 90.351358026314728
-110.696445157203584 -35.007752024956183 89.599253618761779
-111.066107465742704 -35.334029026715278 88.796904573463834
-110.991020947220051 -35.040599963607846 88.347146486629313
-111.516194077276609 -35.281847662164353 90.368066758351674
-49.812291172355430 -34.897027410246992 75.438624324031309
-49.555899638987526 -34.790410453552965 73.802887977949595
-49.800023856870347 -34.678874980090328 76.828296979882964
-49.960630587807266 -34.303071767913458 76.226268220473941
-50.211226722792475 -34.287843778417397 74.260427287204649
-49.732704718315986 -34.835105824081218 72.519193788273782
-49.869894608755075 -34.500825981312438 71.363176381100416
-49.980373705829827 -34.412984896282708 80.874832787579777
-50.089333675687371 -34.476428601159242 79.995307585680322
-50.395978319360410 -34.364701498376888 79.021281846614343
-50.513291420489665 -34.332087815682527 77.712503693343763
-50.277938346487453 -33.692424273672614 77.248990638643363
-50.394575049784912 -34.260830024760793 76.294591323498480
-50.368442580368537 -34.114130925673869 73.802756936884577
-50.010625375792472 -34.353080448864880 72.378206131329961
-49.790086626850758 -34.329348585619670 71.555268807933814
-50.626387866694152 -34.497214691931255 81.807702086166444
-50.366068519164628 -34.110688726607975 81.176374396499526
-50.795013054253104 -33.808408504397207 80.015032832657781
-50.437372347069129 -34.206420727319113 71.574417937488477
-50.589398041331059 -34.983649280033291 70.123927369495163
-50.675180815724744 -34.425802679781754 70.479373852232882
-50.681567968140321 -34.095783057079466 82.915053362615140
-51.129007668400071 -33.851860328760921 69.392231583222099
-51.273998932492624 -34.123892363286188 68.276739142567735
-51.687516946667031 -35.041062237505962 84.342203298376631
-51.373874511885191 -34.434466809252839 83.961173671368869
-50.989326108889692 -33.857691019247646 68.585036209999288
-51.632136561129578 -34.720458408291300 66.947162612913928
-51.726955651739374 -34.534576646604329 67.451669928847892
-51.657470320769129 -33.917073696074624 67.697108639139444
-51.731126247837494 -34.749906765118823 66.236483312622070
-51.788372052361282 -34.199985055195675 66.868316032086597
-52.229153969541727 -34.612890125579327 85.827218927645760
-51.959900857486147 -34.260254476591157 65.607412381728182
-52.511324452856265 -33.875233873074350 86.887032625138872
-52.732281782263016 -34.925709990389841 63.988985795455527
-52.628834135048265 -34.221141051116177 64.987948534652190
-52.826529996435653 -33.883024065981999 65.307231889155133
-52.641828241718621 -34.089991186552218 63.849935706192888
-53.553042510950043 -34.333588976613655 63.181765930312473
-54.026985154191976 -34.765649928131467 89.487939772634164
-53.409179841230802 -34.503101055686223 61.345505557757058
-53.762058719868584 -34.108671892894591 61.902426182286483
-54.054052428438951 -34.743003790372477 89.947016149180854
-54.317019665599197 -34.101636786231104 61.811420553713880
-54.581465700183607 -34.716984303727088 60.992083856535501
-54.418245957313360 -34.533765223967819 60.002215061992437
-54.638803094840455 -34.601407160588209 90.163054159217879
-54.853431439605252 -34.851369456993247 91.677869832755050
-55.060649964506482 -34.497534118484097 91.295236682537535
-54.971414110833251 -34.760524257206207 59.614134189511852
-54.595689101266679 -34.169512345322723 59.983017884598659
-55.739342668148332 -33.783185793129597 60.305244795908088
-55.446693116426886 -34.607771405818504 58.972179295669115
-56.140017727454591 -34.883796898805144 91.832183282669163
-55.065576467101373 -33.640518855677946 91.723412479282160
-55.757978921223440 -33.976780216030861 58.999362053351945
-56.120504526584803 -35.345998605630328 57.418683589740610
-56.187745962570141 -34.226016059537912 58.239323938550257
-56.934811430960281 -34.608907402282014 93.378871308468561
-56.952331513633112 -33.936645552989901 92.421094777444438
-57.272279378926591 -34.068962108170950 57.819781432666197
-57.499398577453448 -34.518898075672951 57.294053634562779
-57.818958614001197 -33.980626007335445 93.484027687480321
-57.412470506961753 -33.991475286538275 58.121004190623609
-57.627653138825252 -34.855182223176016 56.140027785780404
-57.675040345229228 -33.910645578468561 57.071407031219749
-57.753397447899069 -34.567436122813369 94.259367844932981
-58.036616531829090 -35.138780603084804 94.501676521117801
-58.937835416572419 -34.800054431818339 53.652824817477772
-58.527608499498605 -34.648103066826280 52.681381084554566
-58.645865473981416 -35.226849442756006 94.744944323637597
-58.808922115171626 -33.615928045032632 94.168176053866688
-58.732851553091031 -33.911321362322347 57.220732087251136
-58.282652402620542 -34.481962694400174 55.997181401138164
-58.702499917145424 -34.899973504598165 55.251383422251116
-59.584067408601037 -34.721871902778034 95.302901591492855
-58.806335111141536 -34.781460681190538 54.175181045849847
-58.765288111431772 -34.061297323969804 52.190357467284962
-59.252210823256831 -35.022798287239453 50.448698422763030
-59.155559207927894 -34.038643242879353 56.954702898510035
-59.128704813758247 -34.098114455291061 56.061169408781382
-59.429679418962422 -34.594761716694208 55.465387951992852
-59.244429087715901 -34.578676473076037 54.386826380453414
-59.132847238088559 -34.060136007375327 52.395709320651015
-59.263746104128032 -34.371633647081502 51.737636657044980
-59.890447021334118 -34.768295322269445 95.470917458826008
-59.580153688647663 -34.634560829489992 56.108906618819731
-59.882432588280551 -34.508953687769882 54.541985749151415
-60.051157687677197 -34.258543586923992 52.613009069575838
-59.646237702246900 -34.250201631353391 51.325968949511356
-60.017539047836514 -34.643762398008050 50.869366702826888
-59.990001130359424 -34.430893004142106 53.334410189866219
-60.551475420783639 -33.961502688286409 57.013128290067563
-60.650570988805640 -34.294981122890853 56.409422372005515
-60.882491893077123 -34.814232879379084 53.290300683536586
-60.870338532660817 -34.104237290310571 52.419363653904455
-60.560305382716727 -34.086367591895154 51.714393140540793
-60.255583239554944 -34.220876301617530 50.798420450695218
-60.682749832832009 -35.034840877688488 48.474336506441105
-60.228990729731358 -34.381552465949589 49.640130361476686
-61.223974615595729 -34.673977255163791 96.686624104383199
-61.037689407981219 -34.219047323341940 96.347507397558900
-61.003852857527022 -34.191235374931907 57.231575234414329
-60.902725574589383 -34.334343033372420 52.059028256261392
-60.918353309185413 -34.143374500546592 52.007510773657344
-60.807036877003220 -34.662266747734499 50.665236182442463
-60.801837426011815 -34.207171198020916 49.435245088857030
-61.087972229146622 -35.004766023819109 48.775950902615151
-61.446932053808126 -35.003388156068532 96.794932894123676
-61.652588284129905 -33.976818160508515 95.935873730380095
-61.402367419098248 -34.656328552763142 53.476254987219555
-61.466016757357629 -34.242949128564746 48.449856020875011
-61.985748495976601 -34.412953594097168 97.253816778057057
-61.512660096597820 -34.837348314179181 56.502046505548634
-61.171067875441580 -34.128670296514272 57.116016927327237
-61.962473823771205 -34.879535371712812 53.111016265312159
-61.999136556276063 -34.600854227536267 52.524927710862627
-61.272275403491939 -34.015245208141046 50.575078445727861
-61.906922809005259 -34.364103100987371 49.799719983010199
-61.607823881653580 -34.769646172984771 48.055923622422796
-61.481359403947252 -34.455199169075705 48.680931547614357
-62.039911928626118 -34.800060394889286 56.716217078416051
-62.050445821671474 -34.304494412543036 57.076667960258590
-61.986239468584429 -34.548699869735351 51.682453912486615
-62.714396873940466 -34.227394310825012 50.054999502951055
-62.228679976145024 -33.537879875239554 49.691849114291458
-62.265327802719554 -34.753974636530678 49.057449780505429
-62.479043058527630 -34.601417158174655 97.299928015732604
-62.328295593886629 -34.446572221906848 52.297370848429964
-63.045675272332396 -33.921015409494402 51.592292408569300
-62.752450347723148 -34.509141633760969 97.805843784649952
-63.270550396970258 -34.115341797345657 97.435886336841392
-62.692232282687968 -34.723328242392753 57.139669780000787
-63.023003624039490 -34.625997482057137 52.323527238875371
-63.110562862706438 -34.246676531911717 49.619096875163947
-62.999682025515540 -34.327730033070111 47.688825264285079
-63.041110221267793 -34.448962335153929 48.863375166355908
-63.165870545117691 -34.594114645864636 57.040491847334927
-63.601693446131961 -34.302303808893221 51.170207570197334
-63.034343528817288 -34.065703507527914 50.456722104107797
-63.365146009090772 -34.497209654772142 48.499732604128859
-64.210354407350948 -34.013827315768097 97.963003902713851
-63.881421764424857 -34.674581006551740 57.788849775568394
-63.453402688790604 -34.440085931321128 51.585108304512652
-63.613776876402753 -34.335376045209827 50.476972755573605
-63.479385149386253 -34.270312776776620 49.849346394421552
-64.098154221439671 -34.799214584454639 48.065592287620305
-64.016901779574013 -34.701485562501787 97.996680222355209
-63.935606797528358 -34.532098776836527 57.474431810963516
-64.641051773501857 -34.237729995044461 50.502857740348794
-64.703571966739588 -34.665486901437262 57.887087167675382
-64.269299557941338 -33.850506155459826 57.977111031196927
-64.644953472253690 -34.771612206012506 50.721296203862700
-65.210123145853643 -34.605104644119486 49.464829043658490
-64.739847928358913 -34.328765677208338 48.834423877520592
-64.695023955042927 -34.504947701143507 98.551783404463919
-64.869303557837341 -34.506647798301444 98.570523636539264
-65.375600646903123 -33.881483592135396 98.300639756823486
-65.282760469207844 -34.334029541880184 57.863220845544120
-66.211160238263275 -34.890371690397430 98.502684931501264
-65.235708437259959 -34.749415563339682 57.756709650971104
-66.340202684136059 -34.926665878054358 98.690088410001053
-66.416022852061147 -34.569005102786555 57.654059052270178
-66.436291814440878 -34.144366980560733 58.040935237107021
-66.834706235753146 -34.265190343437389 58.123757484391191
-68.102403519163829 -34.499278680764412 58.523858421328292
-68.823405669631640 -34.554386394572205 99.106054883207193
-69.139747785177178 -34.779340012672755 58.358526648062636
-69.551109103026405 -34.550856118618327 99.586296067758425
-69.687086411610835 -33.754498470387041 98.897124470881792
-69.655636485204496 -34.714623239171274 99.569436715898831
-69.849364189539912 -34.869219669425497 58.363396615896711
-70.189725282187595 -34.958128749086086 58.459951270704707
-70.797430713109733 -34.676314614430616 99.333402057970943
-70.913873265678191 -34.951297906075617 58.597662783302745
-71.863635503529721 -34.842924568281148 99.887196223613174
-72.027614461404056 -34.742358961883745 58.813065403027579
-71.946851028261392 -34.839828079953762 58.622827656237519
-72.405506506907670 -34.443939232943720 58.530458925932471
-72.941350615482278 -34.865527311542436 100.166205764492318
-73.021413613961855 -34.855027018494141 58.715857341722462
-73.771249469444896 -34.933304723144730 58.708744005401478
-74.557328270029899 -34.549119682912206 58.359769042233722
-74.683335159260949 -34.697416725169433 58.961125709315617
-75.456573260211655 -34.750155388201698 58.477646874859929
-75.506947600161070 -34.912112225260813 58.591421642891952
-76.038665858565423 -34.061818504727697 58.445519768198253
-76.104511244234644 -34.808081611857915 58.200569437509664
-77.214588443713765 -34.550277798787384 100.085102328367029
-76.146731421286376 -34.632076209364271 58.345436566324494
-76.768415941197091 -34.754419881316451 58.168727536326521
-78.505874122359998 -34.233164234127607 100.161126048728519
-79.470884447615077 -34.322226198902442 100.091880424873608
-80.743961409776148 -33.961112953653824 100.290981722920009
-79.932539954659106 -34.545748455142530 58.317086088094293
-80.657496674991791 -34.533184815072012 100.407100888761676
-80.141926370524985 -34.381879304696824 100.209354229968625
-81.495226262538864 -34.682795247422249 99.841394978802086
-82.086158276159594 -34.587111146445714 58.766473504730747
-83.146161789858368 -34.412950153197393 58.660775402671916
-83.347732209785676 -34.655793369687380 59.127555299320541
-84.165729048429426 -34.759191284583011 58.783384393137467
-84.764447873233465 -34.788485310834389 99.986849935143169
-86.708681041604663 -34.889879076877200 99.655596182668759
-86.322763294360087 -34.704799841973127 59.394857025690833
-86.676407150030286 -34.523754567859449 59.770274514240704
-87.291300166612217 -34.461554012657750 100.238612750044311
-87.793604914576406 -34.620844373088616 59.953778459983390
-87.902970595115733 -34.417331363267564 99.697366650345018
-89.270206956848170 -34.483425114747178 99.759972905314783
-88.962257148939372 -33.825365092502203 99.303583679817265
-89.301888696213922 -34.622247901621421 99.730308496777198
-89.388126039096477 -33.608420196826863 98.642159166767925
-89.454202295679764 -34.566890758823860 60.637604817909960
-90.270244979240942 -33.946930289040125 99.182921893321279
-90.899331404358250 -34.923423338369020 99.235665575271710
-90.789807710081462 -34.367752389613202 61.464877748259326
-91.341991579924624 -34.903822211764250 61.588161491666106
-91.769961548593884 -34.394416616126840 61.746824036184975
-92.089248394202713 -34.926422376848244 62.139490962066724
-92.362168704140203 -34.583261931601641 62.491387365309812
-92.816318120756335 -34.797910214636474 62.197938641521006
-93.725691580703696 -34.761407451130523 62.561578603411533
-93.632076383311286 -34.607414886253984 62.768916780910672
-94.180215904177146 -34.589921548402224 62.937512699583806
-94.663757163798593 -34.477271799632653 98.488646819954283
-94.651131750826110 -34.750239904068472 63.201479427976487
-95.109340246838840 -34.652842805509088 63.906592391601869
-95.151641443896722 -34.806385186416669 63.993142780391288
-95.313255459955016 -34.449576936276202 98.627867145821369
-95.360564588052341 -34.704684538626104 63.642729265645542
-96.225092082081289 -34.568855638755572 98.702152944994751
-96.415327322453223 -34.911894228223211 64.599304662358492
-96.605968626087545 -34.809247898839139 98.625861856675513
-96.859238225884923 -34.353032522097322 98.440102130576562
-96.622297337975212 -34.234505720872527 98.619754457860452
-97.383904908336888 -34.717417862302590 97.863201525308639
-97.556138191577062 -34.815937852153944 65.212823804560770
-97.839749677981388 -34.729803320091307 66.110476135576391
-97.982857258187977 -33.743107401774736 65.684946869400250
-98.874955065446343 -34.672813460597190 66.550864802836145
-98.842057260406136 -34.235159907710717 66.389225610959429
-98.769102519604587 -34.785646419915757 97.482126648163103
-99.528627523485426 -34.435972173711725 97.989178034395295
