# This PCD file was generated using the MATLAB® pcwrite function
# from Computer Vision Toolbox®.
# .PCD v.7 - Point Cloud Data file format
VERSION .7
FIELDS x y z
SIZE 4 4 4
TYPE F F F
COUNT 1 1 1
WIDTH 1414
HEIGHT 1
VIEWPOINT 0 0 0 1 0 0 0
POINTS 1414
DATA ascii
0.051234 -53.477615 -170.543060
24.016945 -47.844757 -170.214706
-133.512665 -47.975342 -167.701523
-129.841171 -48.158249 -170.475555
113.562157 -51.326385 -171.348312
-61.330364 -45.239227 -170.323410
-22.124485 -50.946213 -170.977417
33.691605 -43.194214 -169.314331
-10.116953 -43.974243 -170.208923
-62.475780 -42.742691 -169.263214
106.939163 -42.992325 -170.330048
-67.767067 -39.825409 -168.984528
-130.900345 -35.790359 -171.543411
-63.999470 -40.824890 -169.624847
0.361594 -40.845078 -167.523956
-6.822662 -38.196838 -167.888000
36.375515 -44.030350 -168.652359
10.443020 -38.827072 -171.410294
-71.244560 -34.919189 -170.319565
106.780701 -41.098038 -169.357803
-79.943466 -38.451523 -170.650635
-132.280258 -32.374039 -170.358109
-3.879900 -30.362930 -168.717209
31.344791 -38.350189 -169.134033
-83.139534 -33.673584 -169.196884
22.258327 -30.984131 -169.481308
-6.548332 -38.183105 -170.066360
98.852592 -29.149429 -168.830750
-131.852066 -32.143219 -169.863617
20.201269 -29.917206 -166.800781
6.574192 -31.676620 -171.228088
31.756889 -32.837311 -169.192703
97.957962 -32.401047 -170.146072
4.646935 -27.129013 -169.267868
-115.250610 -29.331177 -170.243073
3.304432 -29.423477 -170.515579
31.423243 -20.900833 -170.769775
-110.042786 -24.748901 -168.807526
-131.969193 -27.055817 -168.139771
-124.755234 -25.235840 -168.831253
-117.089157 -25.300797 -168.496323
1.403344 -25.830078 -169.503281
89.311241 -24.182159 -170.757523
-126.410843 -22.408401 -169.397858
90.115105 -23.429230 -170.757935
-4.648432 -28.675247 -171.847321
-126.767990 -23.128494 -172.960831
95.695442 -25.274551 -168.252090
22.884615 -19.057938 -171.181824
-127.774796 -21.301025 -174.635605
-133.623291 -20.348572 -170.949844
32.639805 -21.627701 -167.102921
12.081762 -18.064407 -169.285660
-9.264849 -15.668228 -170.657166
13.298737 -14.915939 -168.068130
-145.805145 -17.066513 -168.961609
27.174578 -10.165359 -170.457230
-150.070877 -19.042816 -169.016144
2.167073 -15.852478 -170.675354
80.965538 -13.061081 -170.351044
3.323785 -13.458878 -169.454361
-7.789587 -12.866776 -167.600861
-9.608410 -13.246140 -168.707718
0.533323 -11.455765 -167.917984
-129.538605 -19.438263 -169.269699
24.765961 -10.508453 -167.995117
80.520287 -11.811508 -167.893402
29.994015 -8.630829 -169.653961
-146.351486 -15.473282 -168.642838
-32.820889 -10.664474 -169.448334
16.897253 -8.088196 -176.182205
31.936152 -6.508942 -167.520706
-40.273308 -6.153625 -168.849716
10.137751 -8.989471 -167.164673
37.876347 -7.381897 -170.995255
-149.152374 -6.703735 -169.913132
-54.622135 -7.648010 -171.690277
-35.656841 -7.373718 -168.740082
-64.662491 -4.653076 -170.044830
-144.420868 -6.529999 -169.916763
-134.738174 -1.713501 -169.454941
-43.085129 -4.422760 -170.813675
-51.787380 -3.695587 -170.821777
-137.080200 -1.989075 -168.943527
-136.442825 -1.380951 -169.097855
-61.952969 0.524536 -170.533661
-76.707802 -0.987213 -168.555542
-150.536163 -5.227631 -169.099075
-139.259827 3.903717 -168.963440
-116.782791 0.768066 -170.849594
-66.134583 -1.216553 -169.748856
-145.838348 -0.012726 -169.205734
-125.817368 1.876923 -170.466003
-71.094902 1.866547 -168.201279
-80.427200 4.293396 -167.874512
-133.117630 2.575012 -168.774689
-78.449463 3.144379 -169.117310
-133.514511 2.581329 -166.994125
-83.261124 3.905640 -170.193848
-150.145477 4.479584 -169.411041
-144.520874 4.469910 -169.382568
-107.745224 0.786591 -171.241592
-135.203598 5.339539 -170.883453
-97.294678 7.889984 -169.385483
0.110012 7.812103 -170.100296
-126.836517 6.479553 -171.350388
-109.874969 5.892731 -171.544846
-139.883011 7.833130 -168.044052
37.624790 12.990784 -170.707443
-130.499741 23.695831 -170.261200
-151.485016 21.093536 -168.145798
8.904634 25.819916 -172.434799
-132.646027 27.352081 -171.162796
8.915191 28.841522 -168.896072
29.533039 31.084015 -168.773422
-120.806503 32.354950 -171.023315
-56.776814 32.902588 -168.246078
-18.384960 32.639008 -170.813202
-98.313217 32.952332 -167.742905
-76.532860 36.391266 -169.675919
-76.798561 37.427521 -169.899811
-33.269306 37.206146 -170.839127
-100.166382 36.062988 -171.229568
-94.506027 36.841156 -169.192810
-16.489120 38.274780 -169.310669
-97.277084 38.918121 -168.715836
-111.116196 37.495117 -168.220947
-127.716034 39.393951 -169.908447
23.422342 39.662109 -168.689163
29.049948 39.990875 -172.543610
-140.792572 39.969208 -169.694992
-139.318939 47.450775 -171.312454
-128.122986 55.884003 -169.499100
-134.047699 56.903809 -168.118637
-134.504044 57.278625 -173.104752
47.218357 -238.161148 -168.446350
39.808884 -235.827621 -167.565735
39.716610 -231.817429 -167.709732
45.071114 -215.065720 -166.273544
-41.557487 -207.053436 -165.276291
-49.700344 -204.989960 -167.448151
-23.216469 -202.245605 -168.882004
-65.841263 -195.808472 -167.939911
100.182655 -182.252289 -169.688095
-2.912392 -185.630814 -169.090225
104.241585 -183.169373 -168.919510
114.090759 -176.226135 -166.849945
-75.580849 -176.944077 -168.118637
85.811905 -174.676025 -168.783127
-26.445621 -171.732819 -171.722610
115.941841 -170.583374 -165.988220
-37.463566 -164.840942 -168.406342
66.916054 -164.617203 -167.970337
89.781631 -162.244156 -169.636932
73.374084 -158.235291 -168.699310
69.134476 -156.844818 -171.243622
88.563553 -159.913116 -168.389389
60.406994 -154.454956 -169.675430
119.882523 -157.244202 -167.745148
121.379936 -150.759247 -169.605957
99.048927 -150.837082 -165.444611
103.473869 -153.544205 -170.765213
118.864777 -156.044785 -168.286469
123.146461 -152.184891 -168.659073
55.370472 -147.287933 -170.270065
125.617104 -133.902512 -166.306061
128.614975 -138.768173 -168.148163
50.426640 -132.031372 -169.258926
61.416317 -135.740845 -170.049576
131.135712 -127.441040 -169.205780
55.543434 -127.885529 -170.307556
129.352997 -125.547638 -169.183609
125.887970 -132.841156 -168.867722
40.191223 -116.826782 -168.478378
-34.663963 -119.127838 -167.889496
-36.341522 -120.147980 -166.931015
128.764938 -119.986847 -167.640152
-55.704525 -111.299576 -171.062485
-57.604832 -114.274216 -169.862183
-40.442699 -110.170135 -169.735733
51.375244 -113.154831 -166.800354
127.160339 -111.167786 -169.634445
-51.445744 -110.265289 -169.394562
-30.380848 -108.912506 -166.989639
49.996418 -105.755295 -169.885010
-52.347416 -106.797119 -168.738831
130.933304 -112.293015 -169.018585
129.984131 -98.146576 -169.388123
131.143387 -104.617203 -169.119492
-22.373363 -100.562912 -169.755081
-50.584827 -90.609650 -168.994308
-56.611904 -96.973190 -169.948944
47.454647 -104.256485 -169.653854
13.900268 -91.091415 -170.274384
125.054443 -95.032501 -169.475510
128.141098 -99.724976 -166.791855
128.748260 -97.718018 -168.436569
-48.442669 -91.238068 -167.965210
-29.660564 -92.696304 -170.087402
15.722548 -88.853012 -168.171844
-9.209703 -81.053802 -167.488617
123.145645 -88.013229 -169.368164
-18.948647 -93.794220 -168.911331
126.757813 -84.002762 -167.527252
-25.118149 -81.115616 -169.023544
126.550888 -87.919174 -168.752518
-132.244568 -72.668808 -169.949570
-11.479158 -77.872787 -170.155838
-4.922384 -73.446564 -169.106949
41.627068 -76.305405 -169.851898
31.026848 -74.607269 -168.761795
43.821743 -70.525497 -169.532867
123.692596 -70.773361 -168.329269
-134.824432 -67.587479 -169.035324
-4.009998 -63.026093 -171.112274
119.804756 -76.025833 -169.992447
120.948318 -65.186478 -168.645493
123.656403 -73.858154 -168.847015
113.111046 -60.071533 -168.517166
-134.776306 -60.517090 -172.176895
116.592354 -49.585800 -169.742737
-11.746067 -59.419510 -167.003876
116.295837 -56.899872 -166.782684
-106.630722 -56.937225 -169.782196
-13.785889 -63.190262 -171.827103
-125.180832 -54.962830 -166.548096
110.357689 -53.897339 -168.973785
25.260180 -56.512619 -169.199738
40.360172 -60.327408 -168.407791
-132.358017 -53.593323 -166.251740
-124.983521 -51.398224 -167.657913
4.474874 -49.530457 -168.269791
-110.125946 -54.212219 -169.909042
-126.106674 -49.679443 -172.550461
24.293739 -52.408081 -169.286667
-4.422728 -51.681870 -170.662735
35.955326 -49.964767 -168.034653
25.770634 -45.486588 -168.157013
105.277351 -45.738861 -168.838654
-3.211670 -43.042526 -167.704788
107.898720 -45.683914 -168.065689
110.609100 -46.898972 -167.981537
-134.011719 -39.482651 -169.446243
113.598907 -41.592484 -168.889374
22.007334 -43.432999 -169.203049
22.183895 -39.694168 -170.057297
-19.475647 -43.046265 -167.790298
-73.144196 -42.333618 -168.268097
-11.288054 -42.514893 -169.006363
100.982918 -38.582214 -169.052216
102.967415 -35.754669 -169.166306
-16.523594 -43.083679 -170.285522
-70.576683 -37.911270 -168.602417
12.763013 -38.058792 -171.561951
103.971634 -38.620682 -167.653336
-135.618744 -32.077820 -168.967331
-149.095337 -41.000732 -168.732697
-143.509293 -31.446899 -168.506943
-4.704454 -27.440948 -168.977982
-135.574158 -30.820740 -167.288330
7.099978 -28.213043 -171.661194
22.687710 -36.402054 -167.887817
-150.407974 -30.466461 -169.166016
-145.231812 -27.435242 -170.848373
94.420174 -23.745468 -169.756744
18.685089 -27.595932 -168.154465
-138.541962 -29.778122 -168.080032
-125.591904 -27.602234 -167.675415
-2.601524 -29.763565 -170.096802
17.158121 -29.723831 -173.429413
96.379013 -30.936264 -168.653931
-144.862793 -26.537567 -166.457367
-132.747940 -25.901733 -167.984894
-108.237297 -24.429993 -167.636414
97.165489 -26.389328 -168.399277
-98.899879 -25.468979 -167.738388
-133.255569 -24.165253 -168.759796
-131.448578 -23.950134 -169.034821
-130.333160 -22.896454 -168.936493
-138.615311 -24.600632 -168.053665
-148.058456 -24.593811 -169.193832
-118.931503 -21.700729 -167.987152
-117.568054 -22.735458 -170.689636
-138.648270 -22.768539 -168.326889
-128.898224 -17.342545 -165.821609
-137.166870 -20.301834 -169.009430
90.241432 -24.031906 -168.876999
83.037125 -15.553131 -167.318253
-141.902679 -18.631836 -167.790161
83.870888 -19.624649 -167.757660
-1.886593 -17.424698 -170.381134
25.971252 -18.936371 -167.781662
21.980137 -17.254028 -169.399658
-136.246735 -9.153198 -168.600677
29.884449 -13.339340 -168.320450
80.930565 -19.175476 -169.524902
30.098139 -17.323196 -167.505783
21.522238 -11.555634 -169.085495
10.566903 -14.597198 -169.446838
-4.802338 -10.827255 -169.167770
14.733700 -10.638000 -168.569244
18.703104 -12.463974 -170.288773
73.539848 -13.091339 -169.991623
-39.098869 -10.912521 -168.132019
34.007412 -8.733337 -167.003983
-45.864109 -10.307999 -168.602921
8.341173 -6.308197 -168.271118
-47.991646 -3.714569 -166.873978
-69.782158 -3.124359 -170.424988
-66.564537 -6.273224 -167.189224
3.970758 -2.213135 -167.470169
-106.740234 1.986237 -167.603592
1.717695 1.399109 -169.342560
-101.020035 3.692841 -168.677124
-97.855591 4.434509 -169.597031
-87.942329 3.871368 -168.701385
-130.347488 9.706543 -168.219757
-131.041702 11.292419 -169.380234
-151.474045 10.742004 -169.491837
32.938210 25.062073 -170.470932
-37.413845 30.007629 -168.234360
-49.842144 29.189240 -168.132385
-25.733742 32.247955 -168.186218
-14.718868 32.054504 -170.326202
-82.459045 31.891235 -168.821533
-14.321295 33.921570 -166.436401
10.744655 33.624939 -169.410294
-150.140823 33.937531 -169.066971
4.375572 32.496368 -168.787506
22.767467 34.467834 -170.187363
30.113169 34.741608 -169.652252
-39.963791 35.587677 -169.071243
-14.137409 35.400635 -169.546768
30.638815 37.153931 -167.722580
-54.003391 36.182098 -168.804123
-20.659660 37.734680 -168.971436
-1.869076 35.981354 -167.267349
33.401321 37.943756 -169.950043
5.700927 37.150665 -169.060410
19.566772 37.628693 -167.433060
30.339968 39.736298 -168.866653
-117.748291 38.356232 -167.619064
-130.727554 47.170105 -170.776230
-130.864105 58.401947 -171.803345
57.860302 -241.705353 -169.267273
47.705952 -240.446945 -166.863358
54.764977 -238.264511 -167.086426
38.227585 -235.681580 -165.676575
61.743111 -233.765320 -166.242981
40.834801 -230.426392 -168.076691
40.844501 -224.442383 -167.433487
39.588627 -219.516800 -166.987610
60.914707 -222.673172 -166.546906
45.063873 -219.060455 -165.949371
59.132103 -219.428574 -167.309555
48.383186 -217.451431 -166.999741
52.650906 -217.240662 -168.182220
47.313938 -214.759399 -168.034592
57.541336 -213.535126 -166.303558
52.767414 -212.966827 -167.546982
-22.945705 -203.720139 -163.960037
-15.388237 -204.004868 -165.729385
-70.324493 -196.938034 -162.391220
-71.145218 -190.997833 -169.125534
95.898369 -185.170822 -169.269272
99.780487 -181.194870 -170.944275
-0.240800 -184.678055 -167.003922
-72.298058 -181.450989 -169.431488
-9.360033 -178.079529 -167.224976
-34.085270 -169.052200 -169.181274
82.228195 -169.580994 -164.236252
71.205078 -162.048920 -166.970261
115.442253 -163.983856 -167.446487
87.356384 -159.270172 -165.956604
-49.112209 -160.625610 -169.089691
-48.810787 -157.125854 -169.562897
60.632549 -157.783890 -169.303253
94.079285 -151.440033 -167.009109
70.533424 -148.528702 -169.511093
116.866661 -156.783081 -167.592285
-79.704018 -147.672638 -167.608780
53.883595 -142.855270 -169.345062
122.559082 -147.584488 -166.779282
62.997173 -142.593475 -168.488907
119.957893 -147.842010 -166.528229
-69.631058 -142.194870 -168.528290
52.642647 -144.871460 -168.848282
121.867226 -137.565247 -167.930710
120.354141 -139.328400 -167.304443
125.822083 -140.284164 -167.474731
124.631943 -139.766251 -169.079636
55.449619 -141.165039 -167.015060
47.493988 -136.159988 -167.848801
58.521782 -137.619202 -167.013214
125.606598 -132.289566 -167.813705
55.223751 -129.282074 -166.368286
125.027702 -123.152847 -167.312485
128.024536 -124.556229 -167.985550
50.249245 -131.239273 -167.286362
-59.982647 -125.655273 -167.972214
132.954117 -118.661224 -168.606064
-40.846405 -118.714020 -166.870743
52.544250 -119.506760 -168.643829
-56.083721 -117.493423 -167.567001
45.096630 -119.490891 -167.546234
-61.404957 -112.501373 -166.585724
-30.415855 -112.353760 -168.635986
-55.038723 -117.313034 -166.069229
128.963135 -116.311600 -167.800644
130.109421 -111.041702 -168.559418
132.151428 -110.997864 -168.705200
-56.159145 -110.481918 -165.395660
25.999914 -101.759537 -165.567566
-39.259499 -103.222824 -168.698639
-34.250416 -97.211624 -167.886719
125.006187 -94.814667 -167.767365
-26.022102 -104.300507 -166.641541
28.557869 -97.645447 -169.076019
39.757637 -97.586105 -167.866623
132.528305 -92.399170 -168.693146
44.942245 -90.378098 -168.965103
15.516448 -91.429337 -168.870331
48.014568 -92.453934 -169.184662
-52.616756 -95.021103 -166.067505
-48.246181 -95.750427 -165.317459
-51.218403 -90.010208 -170.308853
131.368164 -93.912079 -167.244217
-27.387939 -92.574173 -168.804993
36.806320 -87.679520 -169.690903
-48.419395 -84.635666 -168.063385
-43.446533 -82.907776 -168.310852
-22.371590 -95.469772 -166.466537
-15.510895 -84.499405 -168.812302
128.891739 -83.580399 -168.237030
-20.698074 -77.549469 -166.528671
32.978252 -80.675262 -168.302628
126.315178 -72.020874 -170.224106
-132.165085 -77.086243 -170.291977
-129.377411 -78.184784 -170.572968
-134.981369 -77.540680 -168.632034
-127.478622 -74.093445 -169.831375
-14.454075 -67.677719 -168.849457
-6.924696 -68.109421 -166.812363
38.964283 -64.468109 -166.966888
-126.836105 -66.003387 -167.240295
-131.085159 -65.647690 -168.141327
-3.168747 -66.865555 -165.322586
29.554457 -72.983841 -170.835342
-131.578934 -61.504150 -167.077850
-14.520863 -70.050674 -169.808014
116.637161 -64.775818 -166.639069
123.599854 -65.107071 -168.336014
38.492737 -61.153046 -166.686066
-0.554052 -65.978577 -169.671814
-9.355484 -61.117905 -169.887543
-135.959106 -58.318176 -167.613281
-114.773834 -57.486191 -169.575623
-109.657219 -59.214737 -167.410995
-107.800827 -54.965134 -166.139603
-7.697762 -55.851578 -166.453445
25.088823 -59.877716 -168.008438
110.347366 -54.221115 -168.034607
-131.654587 -56.284515 -165.481812
-129.580154 -56.416534 -167.844040
-132.662247 -55.911896 -165.437210
-139.513718 -53.950211 -167.034485
-11.901766 -54.796143 -168.540817
1.461514 -56.657196 -169.950653
-133.802795 -50.351654 -166.485382
0.483828 -55.761902 -166.856827
-146.963165 -56.968353 -168.226791
-118.328979 -53.575531 -169.268295
32.144909 -46.904495 -167.331009
-148.166565 -50.871567 -168.030807
-130.169785 -47.276993 -168.844849
25.753025 -53.729752 -167.440170
-137.197937 -50.136566 -167.845795
-7.106115 -54.825363 -168.776703
119.674026 -53.300232 -166.021164
-140.264923 -37.120682 -168.213684
-148.183563 -45.081482 -167.264847
-62.531887 -45.044846 -168.740723
104.740219 -43.918625 -167.909332
13.287984 -37.222107 -166.923096
-136.073486 -40.713730 -168.579941
-73.546623 -40.190140 -168.033844
6.698812 -44.534698 -167.821396
32.699627 -30.319809 -167.936798
-128.824707 -36.256744 -168.849411
13.446085 -33.031158 -168.435776
-5.490604 -32.423004 -165.817825
0.964944 -36.660080 -165.297424
103.421768 -36.875946 -167.949677
-4.969561 -36.864578 -167.969711
-11.427568 -37.626907 -169.028244
-91.508034 -30.105362 -167.638275
1.240169 -30.829514 -165.591248
107.073135 -36.979095 -167.408447
97.136162 -36.653061 -167.263107
20.548117 -32.364136 -169.731537
6.441090 -29.733871 -170.393158
93.307114 -32.267044 -167.791580
-106.287567 -29.038895 -167.349655
-7.037653 -31.608887 -168.179977
-83.719322 -30.090210 -166.243942
-89.527504 -28.301285 -168.677750
-119.509811 -26.543762 -170.185333
98.802200 -29.581512 -167.991623
-107.731819 -26.765900 -166.273163
21.564121 -26.847366 -168.330673
98.302742 -29.999390 -166.966461
2.086979 -29.378418 -167.152618
3.798620 -22.881058 -168.684570
9.377148 -24.200470 -169.374222
26.331663 -29.499222 -168.220856
102.882164 -28.479492 -166.972443
26.765219 -22.981094 -165.904602
18.820993 -24.109970 -168.345551
6.278648 -23.922180 -170.556198
8.094413 -19.762863 -169.185974
32.604698 -24.039917 -166.281219
2.521213 -20.212418 -168.341827
88.464478 -16.518524 -167.450119
7.553316 -15.699097 -167.601242
34.900196 -18.218094 -170.558105
-149.470215 -11.579895 -167.812317
11.828556 -15.915817 -167.267120
5.405730 -12.751480 -166.957626
-154.107819 -2.601746 -166.741470
7.659240 -9.258469 -169.994843
32.869781 -8.031677 -166.438248
-130.038010 -1.062042 -170.041397
-52.257015 -6.888123 -165.306183
-45.793041 -6.886108 -168.188675
70.229485 -8.114288 -167.587250
-63.276302 -5.171539 -167.872849
32.985462 -5.128326 -170.272324
-56.845585 0.934418 -168.032364
2.486559 -4.044617 -168.055984
-129.831177 -1.214935 -168.960876
65.847466 -5.141693 -167.200195
-62.302822 -0.324585 -167.723373
-85.912987 0.715454 -166.877396
-82.152443 0.173920 -168.715958
-102.369774 0.725647 -169.825745
-90.323112 2.564850 -168.075119
-90.843300 5.262085 -168.703094
40.255527 3.321747 -169.803543
-111.741669 13.272339 -167.879593
4.244388 22.701385 -168.557938
-130.512131 26.287598 -168.042068
-153.785599 28.589539 -167.906784
-108.868149 32.342590 -168.567932
-98.693375 32.251038 -168.403427
-58.198505 33.212097 -166.700439
-42.090168 32.994385 -166.121201
-26.039780 32.365692 -167.665695
1.120149 32.033752 -168.722626
2.294053 34.917755 -167.248123
-21.267185 33.948761 -166.725082
-18.398056 33.573669 -168.156525
-2.348782 34.140839 -166.725174
-53.774029 36.659637 -167.548538
-38.749393 34.882446 -167.741852
1.827846 35.270874 -167.430756
2.809987 35.836121 -167.856537
12.344646 37.016083 -165.671463
17.948526 35.762695 -166.749481
-74.584137 38.042542 -169.083008
-126.755356 39.186279 -167.786819
-100.671364 38.947754 -170.123779
-138.371628 42.467651 -169.691498
-139.790543 45.268280 -167.870728
-129.218552 47.073090 -169.564682
63.336372 -234.534485 -166.364746
36.655510 -230.122925 -166.313705
64.901695 -227.922852 -167.229080
64.577545 -220.030563 -167.358688
103.620392 -185.054611 -167.032364
110.815849 -180.481567 -167.885742
117.223557 -172.757019 -166.547729
114.402107 -172.900589 -169.424072
75.508614 -166.907578 -167.665619
64.539192 -161.487625 -171.939362
79.040276 -163.810638 -166.106186
-50.258259 -162.715591 -163.364029
85.059952 -165.664642 -168.425415
117.967125 -156.979141 -166.750198
90.900238 -154.742142 -170.266739
111.789894 -153.399307 -165.618378
-63.193806 -153.819870 -166.904129
60.717865 -151.553970 -168.857285
-68.317139 -147.410141 -167.824829
66.877380 -143.876007 -167.904037
55.524837 -150.139481 -166.364410
123.728096 -150.699631 -165.472137
54.196053 -145.364243 -167.132629
56.187698 -140.104675 -167.026520
58.901669 -139.631287 -165.491806
123.714264 -142.394089 -166.151474
-66.471848 -134.285110 -166.325027
125.600563 -129.329041 -166.382156
52.989716 -130.769119 -165.339676
58.428413 -132.658569 -166.043503
51.845135 -131.333038 -165.913361
-39.738747 -123.627869 -167.134048
47.724651 -129.857208 -169.413391
-59.985172 -118.561020 -166.363708
-41.113136 -122.395645 -168.190170
-63.696560 -119.960144 -166.297897
51.235855 -126.327362 -165.937653
-43.428398 -118.970840 -166.486481
49.635609 -121.974579 -166.064240
-57.314167 -114.451752 -165.797714
-42.824318 -116.732941 -168.108307
43.441582 -116.739807 -166.739853
126.346115 -111.800034 -168.877335
129.685165 -118.604584 -164.765625
48.157333 -114.033371 -165.336273
-29.404202 -113.119263 -163.895493
125.239624 -103.267685 -166.994766
-57.275677 -109.565384 -166.873779
-41.833141 -114.831360 -168.344147
46.457146 -102.752716 -168.438171
-60.027775 -107.650116 -167.450531
-54.993671 -104.254898 -167.811661
132.284332 -103.530640 -167.035645
-49.472706 -99.210159 -167.490784
-22.360600 -100.764572 -166.485184
43.729881 -106.338867 -165.430786
-59.870327 -103.857971 -166.998322
27.596870 -104.397034 -168.509079
47.991684 -99.671387 -165.884277
48.568134 -106.705704 -165.878738
26.976702 -99.455078 -168.208771
-33.107948 -100.513947 -166.221100
43.685776 -100.269104 -165.711090
-28.034000 -105.689087 -167.902084
21.655754 -100.571091 -168.795456
37.552780 -104.997818 -165.365021
-55.086216 -99.353027 -167.585983
-28.692780 -101.672348 -165.894806
-50.478291 -98.850937 -166.863785
30.781940 -96.999680 -164.693924
41.497070 -105.309052 -166.788223
18.958035 -93.831482 -165.925507
34.864456 -98.723648 -168.400238
46.953613 -89.744232 -167.156723
-32.209919 -91.759811 -169.609039
-17.385513 -92.487885 -166.335571
-24.379292 -94.213516 -167.842834
42.579433 -93.500687 -166.655716
-29.283756 -85.796082 -166.886017
-23.617573 -92.508759 -167.397568
36.003223 -87.136826 -165.320267
-25.249603 -82.125137 -167.535614
45.059071 -83.445587 -166.879333
130.693008 -86.897705 -166.424561
-16.489525 -81.802765 -165.850235
123.687363 -81.284988 -164.653183
-17.597530 -78.614670 -167.176254
-20.257824 -74.651611 -168.135300
35.498638 -79.692032 -168.274689
118.956680 -71.848892 -166.126450
-14.996494 -70.106277 -165.823059
-18.200008 -81.961609 -166.850342
-9.494513 -67.661072 -166.863876
-133.167175 -66.566360 -166.957855
31.635498 -71.400955 -167.147476
122.621033 -65.738266 -166.244583
-140.742615 -58.750595 -168.086777
-11.532166 -62.842682 -169.813171
-101.062904 -57.848709 -166.006638
-116.796616 -56.244583 -165.609177
-94.915138 -56.748505 -166.332535
-96.011208 -54.377411 -166.064514
1.033735 -57.022064 -165.717316
35.916527 -59.289413 -168.974487
0.803493 -53.850098 -165.038025
-109.825439 -49.362808 -167.311554
-6.679878 -48.060730 -164.447189
-117.731796 -50.684738 -167.669586
2.274000 -52.590027 -166.968216
-129.808960 -49.412735 -166.619614
107.284355 -47.597427 -165.942764
-150.293640 -52.912964 -166.016708
11.700078 -41.030930 -169.923141
26.631464 -45.887543 -165.546661
26.680815 -37.050064 -166.317322
96.973267 -36.277847 -165.543503
23.290981 -43.373749 -167.175766
30.091368 -38.827454 -165.891113
-0.708265 -38.134384 -168.585114
-74.897881 -36.321167 -166.285461
-81.305771 -38.529953 -166.245789
11.804629 -32.469803 -165.082321
-150.520874 -30.457779 -167.047119
29.026379 -32.154770 -166.453522
-128.822708 -31.025482 -165.059265
28.030775 -31.053085 -167.288864
-119.721558 -27.949539 -166.983826
-100.763420 -28.244461 -166.671387
31.386187 -32.319870 -167.925827
92.903465 -28.792282 -165.715942
22.529051 -30.666443 -165.072266
-96.505821 -23.127350 -167.964767
91.656708 -27.154388 -167.173080
97.806946 -25.310364 -166.231277
-107.975166 -22.749542 -165.384003
-98.223083 -23.300644 -167.743210
5.111686 -23.361923 -164.849503
87.855263 -26.312347 -166.343643
79.963852 -19.368622 -168.199890
90.119400 -22.415100 -168.127029
-117.231033 -19.560242 -166.230682
86.592110 -18.325150 -168.012939
83.497093 -18.413910 -166.697296
-150.136169 -25.276596 -168.534561
15.129844 -15.904739 -166.943970
33.866001 -12.742157 -168.432602
10.574306 -14.881989 -166.899139
28.988361 -15.408966 -167.206482
81.747261 -15.966995 -166.488297
27.435562 -12.705521 -168.386017
5.210631 -12.163773 -162.757675
16.755011 -14.322556 -165.321426
81.242668 -9.259720 -168.481400
21.954220 -12.848663 -168.401337
6.690487 -13.361359 -166.423660
28.811808 -10.525253 -167.814987
-152.962204 -13.729858 -166.204437
74.583229 -7.262573 -165.520279
69.139595 -6.604980 -166.216949
70.733589 -13.033768 -169.128372
4.606491 -4.930969 -168.497665
72.648857 -7.809540 -168.550323
-55.169674 -6.246918 -166.851318
68.945709 -3.421448 -168.686874
-75.837677 -3.075287 -168.548218
-108.888901 -0.288269 -168.495987
-116.071945 -1.237152 -166.705978
58.908325 -2.749817 -167.983093
-120.998642 0.842072 -168.167603
-94.335556 3.064270 -168.554810
-98.107979 2.338989 -165.132675
-68.367561 0.810883 -167.089020
-96.815651 5.159943 -167.528931
-107.767448 8.896515 -167.398483
-130.408585 12.009277 -165.323105
-0.467010 7.422485 -167.273926
-151.605698 9.512299 -167.332993
-0.457804 18.000488 -167.770325
-142.784409 12.753021 -166.684631
-137.895203 21.769531 -165.290436
-152.445328 22.651062 -166.588058
3.417768 20.224792 -166.800522
-118.160004 30.959991 -168.570389
-144.515503 32.307983 -167.220428
-131.331345 28.611603 -166.233536
-118.775299 31.487335 -168.640518
6.790863 30.801697 -164.595062
-108.754326 30.517120 -170.576447
-126.604385 29.861694 -169.643661
-99.987732 30.039948 -167.070496
-60.859837 31.853485 -167.158524
-46.974209 31.008209 -167.052963
10.463752 33.978088 -165.760239
-37.718513 36.235687 -165.295959
-42.342770 34.449158 -166.136017
-51.776035 36.510895 -165.045837
-69.146606 37.944733 -168.096527
-83.117737 36.091461 -165.069977
-145.528702 36.086578 -165.601334
-147.966141 39.132141 -168.926010
-111.606186 39.962402 -167.397125
-129.618515 40.608246 -167.620087
-138.534912 46.575897 -169.771103
-132.425293 57.211273 -166.759338
63.082317 -236.114990 -166.135361
34.925571 -227.326904 -167.157593
58.949173 -220.028412 -165.490295
1.239909 -187.986374 -167.160172
98.873222 -191.124405 -165.849182
101.732132 -187.194199 -165.319519
91.599167 -188.922791 -165.044495
89.592026 -186.395126 -166.476349
107.305794 -181.763931 -168.808441
-77.881905 -181.286453 -164.512772
87.331352 -178.077087 -168.954773
-20.630714 -177.750214 -163.799622
116.788513 -168.121887 -166.160065
75.383636 -165.162613 -166.417664
120.838219 -159.059799 -167.753998
119.512070 -156.369858 -164.915314
85.620148 -155.411957 -166.690994
-62.074146 -156.853195 -169.296814
70.047325 -152.123367 -167.903687
120.795685 -150.000076 -166.548660
62.880592 -144.537537 -169.748734
96.066879 -148.791580 -165.472092
56.861012 -147.416260 -165.311981
122.262909 -150.587433 -165.079849
64.439125 -147.445511 -164.387085
124.873703 -142.884064 -166.900452
124.636383 -139.772766 -166.457199
-62.714314 -141.554550 -165.205078
-67.403664 -137.046021 -165.626190
58.828579 -133.997086 -168.416351
129.461487 -135.562225 -166.227295
129.726395 -131.109421 -165.301041
-69.597404 -126.621811 -166.417465
123.207130 -130.769836 -166.602234
-43.008831 -122.474182 -167.479126
-71.810913 -128.513184 -166.061172
-59.523624 -126.562286 -164.858261
-40.923031 -126.846451 -163.933853
46.130222 -126.368225 -165.025681
53.845394 -121.671478 -166.934570
-58.946850 -116.983688 -165.926056
43.860397 -120.369186 -165.999039
124.613815 -112.729355 -166.807877
-28.027496 -108.623108 -166.689255
41.376255 -107.581055 -163.004379
131.777802 -108.438095 -165.194321
49.756512 -111.094025 -165.101685
124.758171 -111.881500 -165.191345
-36.961628 -106.479111 -167.983185
-51.396420 -104.057541 -163.543823
-35.286266 -100.533920 -165.844040
-27.001041 -90.308929 -166.742279
21.582396 -98.329102 -164.448120
128.365158 -99.573059 -165.975677
125.578003 -97.316864 -165.848022
24.190414 -95.724014 -164.316849
20.775143 -91.641907 -167.787628
30.711067 -98.250183 -166.244583
40.582146 -98.473434 -164.467773
127.143578 -89.401001 -164.716766
122.569420 -87.515778 -167.601898
39.752121 -82.750656 -164.180481
42.154289 -94.800781 -164.942932
129.624664 -91.986023 -165.332611
-12.138147 -80.565765 -165.812103
125.909683 -85.272156 -165.007690
31.745749 -81.624390 -166.035446
38.086887 -89.610779 -166.064575
122.982910 -81.750214 -165.986008
41.511055 -83.605133 -164.882935
125.724846 -74.647568 -164.432022
-24.133076 -80.541687 -165.108658
42.359985 -79.687210 -164.507568
121.610214 -72.006790 -164.827576
40.148926 -72.754822 -164.844971
-136.579330 -67.830933 -164.140564
-13.732195 -66.049011 -163.448807
40.766899 -69.031235 -162.933975
-95.012459 -62.329056 -166.570221
-92.981827 -65.326996 -165.879578
37.987839 -66.384079 -163.810883
29.712038 -70.260849 -164.773087
-12.125914 -65.664902 -166.538345
-12.423912 -63.919876 -167.469193
-12.626043 -67.833420 -165.777237
34.488873 -75.513367 -164.910782
-135.725449 -60.990601 -165.754822
-128.645081 -60.136047 -166.113159
-126.450485 -58.628540 -167.128174
-5.041710 -63.439499 -165.262085
27.846813 -54.292603 -166.141617
115.294022 -60.327637 -164.767944
-96.468658 -56.825760 -166.459290
38.358738 -55.998123 -166.573318
-0.658386 -59.155151 -166.574493
-3.920111 -55.924255 -164.854080
114.334633 -56.697998 -165.114380
26.758888 -52.268188 -166.332169
-5.831654 -59.235733 -165.348709
-107.275055 -52.990952 -165.565994
-117.871948 -50.324509 -165.501175
-97.403587 -52.114380 -166.645569
-125.582397 -49.527756 -166.232849
34.051517 -56.989624 -164.590103
110.542305 -48.369400 -166.030380
-150.742050 -51.510818 -163.493729
115.861389 -51.309174 -165.240860
-3.098425 -47.224197 -165.338730
109.843513 -41.850311 -167.889221
103.486443 -39.572266 -164.910889
28.689087 -43.911819 -166.027908
34.495369 -43.146667 -166.387527
28.477259 -47.677643 -165.135788
4.675026 -34.845551 -166.549179
-80.204399 -37.781265 -165.444885
8.613037 -41.160461 -167.164474
107.935921 -39.339478 -164.924393
-76.439110 -35.559296 -166.169250
-87.773026 -35.305420 -166.308868
-75.332382 -34.338348 -168.563599
102.665962 -33.340057 -164.306595
-118.408875 -29.718735 -166.197235
-118.527481 -29.098938 -164.597092
-102.645737 -30.747284 -165.964462
-95.894432 -30.350739 -165.322678
-121.044464 -28.157089 -167.800125
-95.340530 -27.663696 -168.533218
-98.976578 -26.835709 -168.678970
8.946998 -28.968246 -166.464111
-1.687773 -31.272049 -165.072403
14.618919 -22.763031 -165.590240
5.873584 -26.906418 -164.818344
31.668348 -21.322769 -167.251572
-1.582552 -26.732910 -163.233154
-150.470673 -28.673508 -165.930695
14.639186 -21.489395 -165.324600
96.770172 -25.311874 -166.828094
25.563728 -20.432022 -166.742630
9.982244 -20.237244 -166.135941
-141.334518 -15.496948 -165.213120
-125.783859 -19.868759 -165.987732
80.109436 -19.093933 -165.635254
9.699972 -18.681763 -166.141922
21.183554 -21.195358 -165.521301
86.183083 -19.370514 -165.672485
93.833710 -19.740601 -168.197220
85.560211 -14.203796 -164.978073
13.332355 -16.421234 -166.745880
73.203041 -12.956238 -166.014740
-3.856565 -15.316406 -166.102066
-1.795864 -12.479675 -166.652435
24.535505 -13.260910 -164.198730
80.590790 -14.454422 -165.727448
77.951477 -15.405151 -166.088913
66.249733 -7.446899 -165.376144
75.183548 -12.105392 -166.686127
-0.344618 -3.583527 -166.570313
-67.330437 -2.743042 -165.121490
-61.218967 -2.826324 -166.182571
58.599377 -5.966644 -166.571976
-130.170151 -2.855377 -165.983810
53.884575 0.410645 -166.505615
-75.699409 -2.764526 -166.509033
-138.719467 1.342621 -164.576843
-125.580658 -0.272827 -166.442505
63.601318 -1.757629 -165.898880
-107.957642 2.215149 -164.345825
-101.434418 0.161499 -165.832245
-78.389862 2.283569 -164.136032
2.279666 -1.625702 -166.045029
47.527126 6.240265 -165.006729
39.801464 5.043915 -166.284668
-141.339584 4.598663 -164.475891
-98.298531 7.292633 -167.338730
1.753407 5.884186 -164.471710
-119.353500 10.253265 -167.692337
1.593705 16.113831 -165.137299
-152.841980 19.858795 -166.386124
5.669106 28.886993 -167.384537
-146.542450 33.787659 -166.073135
-147.005127 23.233643 -166.429932
-128.731155 30.256287 -165.882278
-154.096542 30.730499 -166.691360
28.062115 32.508087 -165.030884
-90.032578 31.209991 -165.671112
-70.786171 32.434052 -164.824127
-150.956131 31.382294 -165.553711
-76.340309 32.299988 -165.441177
-134.474060 32.217560 -165.729965
-57.151691 34.739868 -164.506256
-52.778324 33.829193 -166.078949
-65.242546 35.541992 -165.552963
12.418383 35.732056 -162.943893
-68.828812 36.360016 -163.517319
-83.638687 37.941498 -166.222397
-98.270035 36.408783 -166.041412
-102.265236 37.584808 -165.931763
-119.756195 39.782562 -163.512650
-128.462158 48.107697 -165.942993
-128.830414 56.188599 -166.897964
38.637249 -237.047668 -166.271667
46.142281 -237.190460 -165.251282
43.777798 -234.855026 -165.557205
58.496979 -230.449417 -164.478867
41.940506 -222.136765 -166.985535
-60.094761 -206.549149 -165.042831
105.478851 -189.954391 -161.812347
1.867560 -186.388626 -166.377594
116.054077 -182.432861 -163.738495
113.234200 -177.822937 -167.413757
85.185242 -176.664139 -166.800568
82.371849 -171.594681 -166.751266
-27.929859 -171.118805 -166.640060
77.561493 -170.759857 -162.096375
-79.399658 -167.328339 -167.331253
-34.544376 -169.847961 -163.076080
-40.577999 -162.483871 -170.451126
114.775879 -158.465515 -167.344696
73.629852 -159.086670 -165.250488
80.162560 -162.334030 -164.866028
-81.208488 -158.043488 -161.392212
125.263519 -156.981964 -165.502930
62.099220 -156.528046 -165.217514
115.951836 -157.218384 -165.737930
120.271790 -149.533157 -166.976135
119.567123 -147.954117 -166.422943
88.129471 -150.571335 -164.998550
105.068611 -149.019547 -165.143951
64.002289 -142.575470 -167.354889
125.529335 -148.412338 -165.425140
60.728706 -145.473068 -164.096130
60.449287 -153.773758 -162.745789
128.208633 -142.036942 -164.318878
-64.308708 -142.899765 -165.380341
63.200775 -140.384079 -165.437408
51.898129 -140.779175 -163.407669
119.625397 -145.146988 -164.590530
57.212215 -141.227234 -162.938782
-73.586678 -138.374115 -165.599106
-79.040848 -140.178574 -165.977493
122.959366 -137.235733 -164.264633
-78.380501 -135.785919 -169.797211
53.024700 -133.050629 -164.054291
53.765404 -136.247971 -164.632126
-65.353127 -128.795074 -163.782761
48.121513 -116.145142 -162.819244
125.564949 -121.060547 -164.725449
-36.371384 -121.582367 -163.576492
-72.940575 -125.528946 -164.836639
52.253204 -119.453491 -166.667938
-75.606987 -119.870041 -164.931503
-73.888283 -115.292542 -165.742294
-32.985775 -117.015427 -168.530518
-53.609615 -114.947189 -165.743729
-34.974560 -120.265656 -163.563690
127.937447 -116.050201 -162.672440
-59.371502 -115.353333 -164.150620
50.633015 -122.792206 -162.834045
-63.015385 -114.961060 -166.345886
-57.860821 -117.065552 -162.714432
-72.821106 -116.494507 -163.035217
-35.424618 -105.868225 -166.105621
46.423546 -107.706009 -163.386856
43.020878 -104.439804 -164.008942
32.350368 -109.183655 -163.699158
129.697678 -108.045563 -163.796051
-81.143593 -100.177841 -164.016724
32.329563 -100.865219 -164.348251
-57.787640 -102.604416 -164.706497
37.821697 -104.459961 -164.619110
-33.508354 -99.111389 -164.172287
24.663393 -102.938278 -164.757614
29.729153 -98.009644 -164.027161
34.972298 -92.059326 -165.875671
-29.030731 -91.263763 -166.265427
-25.990051 -101.312286 -165.423203
-29.369900 -95.678268 -164.020477
-90.052299 -82.853561 -165.548523
37.319511 -80.507324 -164.696884
-20.101299 -81.118637 -163.123337
31.573164 -77.996109 -164.208893
-128.818466 -78.635406 -166.664200
-18.303963 -81.702316 -164.225983
-135.901917 -78.564224 -164.954056
38.472298 -71.490082 -165.233688
-15.935287 -80.868439 -163.829178
-93.665955 -72.644928 -163.672318
-92.253250 -70.236237 -164.519272
-12.252293 -69.802933 -164.586731
-8.010487 -71.875580 -167.090729
31.174591 -64.075455 -164.483475
34.306103 -59.241791 -162.331390
29.889408 -67.509521 -163.135132
-128.201569 -65.852219 -166.331451
32.942142 -64.888550 -164.155884
26.290800 -56.830017 -166.123062
-123.638260 -57.926315 -163.575256
-100.398552 -59.768158 -165.841003
29.550884 -58.275497 -165.893509
-97.643372 -58.756256 -166.584427
-92.334587 -62.956360 -165.975021
-147.397324 -56.065430 -166.887344
-8.232647 -54.679611 -167.177368
33.492889 -51.839798 -165.307175
-123.758453 -52.501923 -165.713120
-115.514114 -50.430054 -163.680099
-1.915583 -48.631165 -163.799896
3.967466 -50.045410 -165.118652
-0.949265 -47.387726 -164.668564
-127.928833 -49.187866 -165.441101
-0.532610 -41.804245 -167.246582
2.364069 -40.957413 -164.331131
32.813614 -44.993484 -164.889557
3.583222 -43.278580 -165.621460
27.853024 -43.221466 -162.569534
7.336374 -37.020935 -163.930573
-3.342455 -41.158203 -164.455978
29.073706 -33.191681 -165.315216
15.596251 -32.155624 -164.434189
27.625456 -31.378693 -164.648544
10.315613 -30.479492 -165.647675
-140.464767 -30.062775 -166.414124
97.620186 -33.547058 -167.047729
-118.450806 -29.220383 -165.596069
-118.704865 -29.941025 -164.014084
6.595120 -27.662079 -163.185471
25.630390 -23.062149 -165.990189
-139.367355 -28.017654 -163.422379
101.878250 -33.551422 -165.183533
12.838580 -29.790176 -164.589066
15.564932 -28.333679 -167.530457
90.720306 -27.213928 -166.302780
16.138193 -21.237946 -164.540604
-0.652060 -23.695419 -166.760666
-110.110260 -20.058395 -167.922302
11.831402 -19.165741 -163.932358
19.220848 -20.754440 -164.307327
82.387596 -14.132980 -164.229156
-142.875061 -14.282089 -164.028442
3.158046 -9.166580 -165.924042
-151.490005 -15.017029 -165.946091
24.157564 -10.667923 -164.859772
-152.382675 -15.577042 -164.670349
-145.428909 -10.547348 -165.153610
70.392952 -8.569824 -163.798981
79.163795 -11.112640 -163.453247
74.187943 -12.847046 -165.235504
66.717941 -5.592468 -164.337158
-144.437378 -8.671738 -163.666977
-141.193390 -2.156189 -164.195206
0.182376 -3.948364 -165.161819
-136.410599 -7.357605 -166.022110
37.480679 -2.911407 -167.000565
-151.441513 -3.528473 -166.208893
-149.765244 -9.381470 -163.920532
-64.932137 -4.506012 -165.773331
-151.236908 8.577942 -165.403824
-68.537163 -0.767731 -165.207794
58.348072 -1.000031 -163.594559
38.191181 0.283203 -167.654999
-143.866577 5.666412 -165.231720
-84.056320 4.777771 -164.697235
54.288940 2.785034 -165.599747
-86.971336 6.325073 -166.787033
-139.817352 9.319366 -160.445831
-90.456108 5.110748 -163.266159
-150.362366 5.097748 -164.614090
-96.999092 8.070129 -165.234924
-136.072464 9.810791 -165.263168
-140.797668 9.763519 -166.695663
-151.142426 10.717712 -165.832047
-146.603745 7.013397 -163.700043
-148.069458 13.437897 -166.044327
-145.951538 12.360870 -163.317078
40.214252 10.124481 -166.044968
-137.776825 11.789368 -163.571106
-132.947067 29.345337 -163.280182
36.994118 23.997375 -166.655502
4.738955 19.673676 -163.517532
-111.356430 29.063202 -166.887268
-119.967850 29.999573 -167.545197
-120.434189 31.595062 -163.805222
-109.020020 32.247681 -166.647034
-99.272850 31.989624 -164.907516
-93.087379 32.834503 -164.757706
26.877048 35.095490 -162.975723
-70.711494 33.018433 -163.129410
-134.023987 37.024536 -166.651306
-83.812744 34.719452 -163.389053
-109.297066 37.498810 -162.310547
24.570347 35.967896 -165.863434
-98.133118 37.189911 -164.493896
17.122841 39.233093 -165.004105
-127.347122 37.627808 -163.321320
-137.017380 42.434937 -166.045517
-140.958267 56.641724 -167.142227
-138.364258 59.909302 -166.861435
66.784172 -228.596725 -165.668228
38.351254 -218.839905 -167.121399
49.796711 -219.084503 -167.043732
-31.751801 -207.831497 -165.777985
-0.081686 -192.831161 -164.066635
110.428940 -183.454147 -165.163116
84.144035 -183.094254 -164.171585
-7.479483 -180.677689 -165.959457
-78.357819 -169.785141 -167.580597
-25.215012 -175.207184 -164.457947
83.049995 -171.177368 -162.645676
73.599205 -167.114761 -163.673798
71.843513 -166.546890 -163.059372
-42.876629 -165.372833 -164.321320
81.104362 -166.333389 -163.995697
61.488571 -157.893051 -165.520264
83.779564 -158.156372 -164.018433
-49.211979 -159.222641 -163.239975
65.233238 -156.629303 -164.495331
60.650356 -156.125122 -164.841751
120.108604 -155.046661 -165.102829
-51.999508 -155.093353 -164.229965
126.085716 -152.200119 -164.260880
-63.691341 -156.983032 -164.510880
71.555695 -151.415421 -165.695282
64.322174 -154.204620 -164.397018
108.951485 -150.799072 -165.921631
100.739037 -146.107941 -159.839554
68.009941 -150.200317 -162.973465
-59.077785 -145.358597 -167.261993
-60.003773 -143.157471 -163.349106
-63.078014 -135.894196 -165.455414
-77.499413 -135.420761 -165.513855
123.564995 -139.470566 -162.495392
-70.520004 -136.643906 -164.818314
-62.382809 -135.312988 -162.922363
124.245415 -139.585068 -162.942047
-49.079762 -136.219681 -160.827637
130.259369 -123.615952 -163.618744
122.617195 -124.575592 -163.128906
126.200912 -130.599213 -161.084320
-78.505409 -116.446716 -162.592972
-34.711788 -112.575119 -164.813568
-60.925304 -107.656601 -165.457993
-54.231846 -104.517532 -164.007813
-56.952579 -109.473160 -162.219421
-38.854179 -111.083588 -163.536102
-31.224514 -107.070541 -164.375061
36.117287 -109.667389 -164.064041
-79.642067 -108.390732 -164.611023
-29.150890 -104.669601 -163.008972
-38.193218 -103.249542 -164.721588
-26.277901 -99.106140 -163.340286
45.377304 -89.054459 -164.234955
-32.945709 -104.824326 -162.356567
-81.184967 -104.111176 -163.774460
-27.550636 -96.176010 -162.775513
42.457077 -103.603928 -163.580185
-87.204109 -91.437271 -163.881134
38.045979 -97.527359 -165.766144
-91.673721 -82.952774 -165.731613
-85.785843 -91.522888 -165.076248
38.202236 -91.201019 -163.170303
41.213154 -86.858429 -164.510223
-88.442612 -80.160782 -165.909622
-126.328476 -77.922760 -162.928802
-5.616913 -66.517029 -163.595276
-13.091028 -69.362289 -165.290207
-97.669342 -68.616867 -163.617340
-126.958191 -66.540710 -159.079666
-90.800491 -72.297455 -161.166702
-139.935181 -62.494690 -163.278519
-116.742493 -60.194153 -165.405380
-117.735107 -59.511948 -163.040451
-5.457138 -60.227295 -162.811035
-107.523987 -57.947006 -162.933624
-99.436417 -58.805267 -161.888901
-7.607443 -55.685883 -161.580063
-138.229156 -53.064468 -163.286133
-115.457123 -49.495239 -167.173569
-108.101021 -48.640366 -164.432526
33.164127 -53.800705 -162.353378
-143.880966 -48.975952 -160.598007
24.252211 -41.631393 -166.176254
28.351475 -41.103317 -163.354568
-3.763998 -49.802032 -163.403030
9.877491 -38.766098 -164.302521
-151.411819 -46.027115 -163.127563
-141.311035 -41.496826 -165.034164
-78.919235 -37.725998 -164.508743
-83.998589 -31.372177 -163.509644
-144.971817 -33.532394 -162.653564
-88.520645 -35.020569 -164.253036
5.297835 -35.989578 -163.550247
-108.748520 -32.026627 -164.358093
-125.545258 -29.383759 -165.308029
14.785843 -31.355576 -163.576904
-117.652512 -29.443954 -164.551514
-106.944321 -30.158203 -167.878738
-98.917564 -27.315933 -162.428009
19.225599 -28.509216 -163.051819
-90.260300 -26.315338 -165.984848
-142.000931 -33.238937 -161.800110
-132.047638 -26.913010 -161.739716
-150.015411 -29.927032 -162.328964
8.806191 -25.095306 -165.405579
7.025064 -22.857101 -161.411041
93.101021 -28.174057 -163.811752
18.337511 -23.792068 -164.881012
-126.602798 -20.989655 -166.375565
3.100530 -26.724182 -164.198776
90.129601 -26.242538 -164.003983
92.056534 -20.919571 -164.748123
-117.960419 -21.496109 -164.075943
-143.430359 -26.216614 -161.888153
-99.122047 -19.918823 -164.371933
-106.284927 -18.121765 -161.925186
-148.323166 -20.070847 -163.042496
-144.112045 -19.095108 -165.172058
-129.328033 -19.385803 -165.854477
5.650413 -17.981857 -165.352722
11.776677 -15.675720 -164.989075
-145.042099 -14.990662 -161.880905
21.567211 -15.572403 -162.691544
22.986528 -20.496750 -163.869446
-145.546783 -13.950775 -164.566864
30.254620 -9.271393 -166.254959
66.903076 -9.903305 -164.136368
69.696495 -9.676239 -163.234055
1.656924 -9.626053 -166.782608
65.337814 -7.159729 -163.684875
-146.755539 -1.467102 -165.055969
-147.049927 -7.242554 -163.085861
-143.709549 -5.647125 -162.626984
68.387703 -3.248199 -167.112213
-74.088394 -2.741302 -163.620987
-111.441376 0.235565 -163.456955
-91.108391 0.515930 -165.211914
44.119556 3.357300 -164.122208
60.149048 -1.844574 -163.989075
-84.864204 1.446716 -162.626373
-79.825104 1.137939 -164.176193
60.036625 -1.160645 -164.155579
60.071426 0.494415 -163.252365
-139.809814 3.988770 -166.451675
49.016575 3.326141 -163.139374
-126.804642 10.946899 -166.161179
-98.652634 9.285889 -162.455963
-119.662201 7.620789 -167.866104
45.397411 8.066071 -164.799026
-109.929405 9.323578 -162.288940
4.236463 4.853546 -163.222961
38.177223 17.111115 -164.824966
9.296902 12.212189 -164.018341
36.646198 24.647919 -164.616791
-135.373169 29.087250 -163.789978
7.438573 25.270813 -164.349503
-140.222610 29.662079 -165.147156
-109.621559 30.862000 -164.973068
-139.800064 30.988007 -167.199829
-98.643784 31.801788 -163.826782
-90.604622 33.787323 -163.511475
8.592298 31.986267 -164.312836
-94.710251 36.087769 -163.938583
-99.793617 33.351288 -162.410095
-101.161232 37.097473 -163.926895
-119.692825 34.092010 -163.641922
-109.489532 38.447662 -163.491531
-140.813385 36.163269 -166.100586
-127.635620 40.293457 -165.575577
-136.911331 45.103516 -164.237427
-137.704651 55.873230 -162.125443
-139.272919 46.324249 -165.343231
-129.343048 57.489990 -162.886169
-136.277985 56.744812 -162.721329
50.704994 -243.461639 -164.503860
59.487225 -240.136627 -166.423233
41.630554 -229.071884 -159.220169
67.429031 -224.037643 -165.504028
45.249462 -218.562943 -167.588196
51.218884 -217.208832 -166.905289
-42.159981 -210.612335 -161.321762
100.602104 -190.921951 -163.125839
94.457108 -188.883728 -165.817017
-75.508896 -193.472610 -163.909546
4.618055 -189.593109 -161.889603
-75.437912 -187.193909 -166.125107
111.721848 -183.434296 -163.098099
1.230973 -186.645615 -162.106400
84.444008 -179.583267 -165.805725
-21.638916 -179.290329 -166.877792
-12.200583 -177.641953 -167.391968
73.900536 -169.506104 -164.726349
-28.947685 -170.801086 -173.878098
81.780525 -168.003372 -161.780823
70.011147 -167.038483 -166.384109
66.273254 -162.746811 -165.845612
77.876328 -164.469193 -162.589706
73.723755 -158.593826 -164.799362
117.825706 -157.077652 -163.271484
120.225533 -158.901810 -164.606720
75.931526 -155.315948 -165.029907
121.723381 -158.791580 -160.921173
-59.628887 -154.077103 -164.185608
-56.154812 -155.629715 -162.573334
117.619789 -154.953156 -161.668686
68.114586 -154.051010 -162.512070
86.961472 -154.300766 -163.818283
-59.427067 -149.785690 -162.209808
-68.995636 -148.926712 -162.772949
109.170738 -149.435715 -163.390121
58.396404 -149.334656 -163.552902
120.380066 -149.171555 -163.037216
60.747971 -141.653976 -164.967636
124.601501 -149.666199 -164.619568
-63.454762 -146.727859 -162.372147
122.896629 -146.708878 -162.814560
-69.435875 -135.579819 -162.927948
-43.015240 -126.438278 -164.687958
-37.914795 -127.939560 -161.315277
-58.145702 -124.776749 -163.873367
-35.263573 -124.536774 -163.451080
-69.119972 -127.221756 -165.533478
-61.569195 -120.243652 -162.475739
-67.801605 -127.017197 -161.019241
-42.588158 -113.032211 -164.662979
-58.765476 -116.451370 -161.860428
-42.499012 -117.418777 -161.164047
-45.511124 -115.131332 -165.892563
39.885002 -113.917740 -163.132599
-74.399582 -110.201370 -163.267303
-29.673218 -111.949966 -162.328445
-82.886719 -105.702896 -161.492188
-83.886978 -103.085373 -163.151108
35.420334 -103.523788 -163.473709
29.513422 -98.600632 -165.472046
-80.729584 -96.955063 -163.309448
-86.723831 -97.054810 -163.587158
-84.429634 -85.905350 -163.608627
