-39.127540588379 -72.148925781250 -177.121414184570 2.619653701782
27.331983566284 -64.381805419922 -169.914276123047 4.485340118408
109.882080078125 -65.063667297363 -162.172561645508 5.232478141785
-34.421672821045 -71.607292175293 -172.191497802734 1.398438572884
98.807258605957 -66.957191467285 -173.412719726563 8.434368133545
-34.239562988281 -70.934303283691 -178.122634887695 1.880377054214
-37.975883483887 -76.240203857422 -182.448532104492 4.280450344086
24.346183776855 -75.037261962891 -178.961181640625 2.527419090271
107.411727905273 -72.136383056641 -181.676101684570 1.119268178940
-33.844463348389 -68.740234375000 -181.014007568359 1.972532272339
-36.294219970703 -71.164253234863 -180.909500122070 0.560963034630
-22.063730239868 -78.562065124512 -187.734390258789 1.731493353844
-148.931991577148 -71.999343872070 -189.980117797852 2.153417110443
10.342466354370 -70.391265869141 -183.254577636719 4.258652210236
103.796272277832 -68.897621154785 -192.857467651367 3.821910858154
-161.879592895508 -71.497123718262 -191.808715820313 4.376561641693
-19.184291839600 -65.333480834961 -187.084945678711 4.775622844696
-115.348228454590 -74.849449157715 -198.295043945313 3.674910783768
-127.290161132813 -74.309265136719 -193.839294433594 3.354132890701
-105.381912231445 -73.528999328613 -200.373123168945 6.280416011810
-115.352615356445 -70.015701293945 -200.144363403320 2.899105787277
-9.997116088867 -73.055259704590 -196.155227661133 3.352263689041
19.958185195923 -67.789573669434 -195.629516601563 2.261969089508
-15.638073921204 -65.750389099121 -202.126205444336 3.090232133865
-129.130065917969 -71.741882324219 -206.645233154297 3.310208320618
-19.769977569580 -65.251693725586 -199.805267333984 2.357764482498
-126.723945617676 -68.424194335938 -202.903945922852 0.872624039650
-17.159526824951 -70.737716674805 -197.466140747070 1.391248822212
-147.582107543945 -70.005851745605 -200.544952392578 1.183014988899
92.088157653809 -64.069122314453 -205.466491699219 6.451929569244
-163.639678955078 -62.582012176514 -200.996109008789 3.022219657898
-0.971435308456 -72.011802673340 -221.937957763672 1.422276139259
13.175870895386 -73.746726989746 -210.446823120117 3.180753707886
10.557723999023 -76.171539306641 -217.253646850586 2.413419485092
82.502532958984 -71.172996520996 -215.303115844727 2.612846851349
10.589530944824 -72.863395690918 -213.443161010742 2.058763504028
10.906688690186 -69.717536926270 -215.129531860352 1.960384368896
-15.356282234192 -75.163993835449 -214.827911376953 1.192213177681
-89.907844543457 -73.349319458008 -211.539047241211 1.976466655731
-98.498374938965 -71.665840148926 -216.781921386719 0.963928639889
4.386066913605 -70.296928405762 -217.233871459961 3.290433645248
-166.240798950195 -75.482093811035 -220.713973999023 3.179394483566
17.462400436401 -67.356620788574 -216.824523925781 3.008178234100
-144.441268920898 -70.986991882324 -219.312698364258 1.718917369843
14.609916687012 -72.078987121582 -224.706192016602 1.376167178154
-135.316848754883 -74.553489685059 -225.063659667969 2.575873374939
-114.552314758301 -73.142776489258 -229.210708618164 1.411524653435
18.159759521484 -70.416671752930 -219.545013427734 1.463262319565
80.796340942383 -71.118003845215 -217.901947021484 0.854588449001
6.306281566620 -72.508583068848 -223.660766601563 2.511485576630
-107.625076293945 -69.959106445313 -231.835556030273 3.405381202698
68.289863586426 -72.913017272949 -226.951141357422 3.814111232758
87.216339111328 -73.035026550293 -229.057205200195 3.824115037918
-126.665718078613 -71.298210144043 -238.119918823242 3.536657810211
-119.602188110352 -71.279251098633 -229.638000488281 2.743960857391
-8.310699462891 -65.293930053711 -224.695693969727 3.500865221024
72.592849731445 -71.651443481445 -233.776748657227 1.350276231766
65.050827026367 -71.642448425293 -231.317749023438 4.201260566711
71.863594055176 -70.322685241699 -227.436981201172 0.839038908482
-136.865905761719 -66.165496826172 -233.669555664063 2.677864551544
68.955062866211 -72.917884826660 -229.111099243164 1.690384387970
65.921012878418 -67.018516540527 -234.506027221680 2.703677415848
-165.352752685547 -68.800292968750 -232.278259277344 0.981868207455
3.118008613586 -81.484794616699 -242.892272949219 4.024794101715
22.174486160278 -73.483406066895 -238.528228759766 2.833678960800
-5.670542240143 -66.931495666504 -242.074996948242 2.194310665131
18.412904739380 -62.535274505615 -239.135787963867 1.803612351418
68.417015075684 -72.318664550781 -237.149536132813 1.907760262489
6.998745441437 -67.815361022949 -245.531066894531 2.259380578995
-11.553313255310 -63.172523498535 -239.725845336914 3.385979413986
-2.149631977081 -66.513229370117 -234.020339965820 2.010130405426
65.336257934570 -71.514396667480 -241.588104248047 1.226475477219
0.874470591545 -70.881507873535 -242.172515869141 1.576186180115
-4.838977813721 -72.345947265625 -242.985153198242 1.741123318672
15.508604049683 -75.848129272461 -240.987838745117 2.520546674728
-167.093704223633 -75.807846069336 -241.175369262695 1.762523531914
53.617626190186 -73.173530578613 -246.779052734375 1.106530666351
48.354572296143 -61.441108703613 -254.112091064453 3.357333660126
61.298717498779 -71.825103759766 -243.065689086914 1.400064945221
-11.787338256836 -67.740859985352 -247.833648681641 1.965430617332
57.478057861328 -69.778160095215 -244.153839111328 1.357290148735
-74.476226806641 -71.360092163086 -251.643096923828 1.456473469734
50.409187316895 -71.637779235840 -247.452819824219 1.702617406845
-86.155410766602 -70.337173461914 -253.223083496094 1.224565744400
-120.332031250000 -72.706550598145 -259.146636962891 2.946168184280
-131.088394165039 -72.300971984863 -251.833953857422 2.663363456726
48.812007904053 -73.820365905762 -250.864532470703 1.600180625916
-128.811050415039 -75.903739929199 -250.720611572266 5.073981761932
-107.390808105469 -67.612701416016 -253.315155029297 1.784156680107
-117.989616394043 -68.852119445801 -258.236602783203 1.766287088394
-84.328712463379 -71.787460327148 -254.242279052734 1.306546449661
-109.715393066406 -67.020942687988 -257.506317138672 1.181039810181
-123.731010437012 -76.871574401855 -262.905090332031 2.135446310043
-147.336273193359 -68.454048156738 -269.355102539063 3.679742813110
-14.672852516174 -68.766746520996 -269.134307861328 1.989764213562
-174.344955444336 -76.204254150391 -265.271942138672 7.872615814209
-14.578600883484 -69.543830871582 -275.616851806641 2.509085416794
-157.845336914063 -66.741760253906 -267.250732421875 3.013701915741
-152.223037719727 -73.484313964844 -271.736297607422 2.591488361359
-171.092483520508 -71.811004638672 -277.941436767578 3.348662853241
-15.308172225952 -72.601585388184 -283.612579345703 3.856790065765
-126.135467529297 -75.456275939941 -282.563751220703 2.162983655930
-155.777770996094 -71.682708740234 -286.545898437500 1.974759578705
-142.033401489258 -70.278800964355 -280.270660400391 3.819598197937
-134.352447509766 -74.791961669922 -276.357330322266 8.246546745300
-7.739065647125 -61.770496368408 -283.842742919922 3.529001235962
-125.836051940918 -75.814506530762 -282.516754150391 2.083891630173
-140.041320800781 -67.134742736816 -286.162567138672 2.611949682236
-114.484527587891 -77.491447448730 -285.410125732422 3.498554944992
-81.867927551270 -67.604049682617 -289.776550292969 2.058478593826
-58.485862731934 -73.800094604492 -286.718353271484 3.182291507721
-8.088498115540 -73.186058044434 -287.468200683594 2.879774332047
-54.573833465576 -69.597091674805 -282.122772216797 5.315028190613
-55.998893737793 -67.908317565918 -288.619995117188 3.392381906509
-71.446228027344 -69.177276611328 -290.245880126953 2.835056304932
-89.124870300293 -69.232978820801 -296.270935058594 4.123953342438
-91.497756958008 -69.474655151367 -287.122100830078 2.073706150055
-158.097869873047 -71.692070007324 -291.787322998047 1.653954386711
-159.174850463867 -72.757705688477 -295.422637939453 1.743071913719
-123.202407836914 -76.103042602539 -293.084625244141 2.163957118988
-143.680679321289 -71.174308776855 -294.060577392578 0.737691044807
-150.022430419922 -75.026130676270 -306.623291015625 4.021428108215
-153.140487670898 -76.578605651855 -311.225006103516 2.353791713715
49.015811920166 -67.600891113281 -11.520359992981 5.763877391815
14.087880134583 -72.141265869141 -32.479492187500 6.038470268250
43.119926452637 -63.092880249023 -35.360408782959 2.394648551941
-13.600111961365 -73.897514343262 -65.712699890137 2.708580255508
81.816520690918 -66.566581726074 -64.644042968750 2.552151203156
92.028320312500 -63.249050140381 -65.739356994629 3.243060588837
79.646888732910 -76.218841552734 -64.484100341797 6.117791175842
72.019775390625 -72.271492004395 -69.981613159180 2.387475967407
91.207046508789 -71.246208190918 -76.501884460449 3.729162454605
-98.236679077148 -65.635795593262 -70.289619445801 2.931378364563
65.374855041504 -69.604362487793 -74.676383972168 3.292706727982
-35.829883575439 -74.066474914551 -77.873420715332 1.199058055878
98.109756469727 -68.524696350098 -84.777221679688 2.052906751633
63.547435760498 -64.409202575684 -90.380325317383 1.665577054024
108.514129638672 -76.468780517578 -90.975868225098 8.403457641602
98.633407592773 -76.179191589355 -98.847229003906 2.494446277618
74.534591674805 -69.842041015625 -101.792388916016 1.062203168869
-82.676490783691 -65.866531372070 -103.774681091309 1.589931488037
54.882053375244 -67.959388732910 -106.731956481934 3.095617771149
109.294654846191 -64.213607788086 -107.001121520996 3.219308614731
45.591060638428 -68.769424438477 -114.927337646484 2.267914533615
79.745048522949 -67.623855590820 -106.612648010254 2.167313098907
41.554698944092 -68.996536254883 -108.316635131836 2.215145349503
101.900627136230 -69.211570739746 -102.770271301270 1.520560264587
47.617076873779 -69.471748352051 -107.766380310059 0.962345898151
105.536048889160 -78.186141967773 -108.389076232910 3.448704957962
111.539970397949 -75.069107055664 -108.741783142090 2.869110822678
-80.360115051270 -66.818664550781 -114.490173339844 2.039279222488
-83.338417053223 -67.029144287109 -121.372306823730 1.761612296104
43.857707977295 -73.810401916504 -119.197502136230 1.945992946625
113.780906677246 -71.590530395508 -123.834587097168 1.009868979454
113.346771240234 -69.648208618164 -123.144309997559 2.206675529480
-89.966819763184 -68.919403076172 -126.606590270996 1.948459982872
104.740592956543 -72.844467163086 -127.804512023926 4.361145019531
-59.657264709473 -77.249649047852 -132.066513061523 5.078436374664
-86.081306457520 -71.256462097168 -128.463287353516 1.871424078941
-69.455192565918 -71.706871032715 -126.445442199707 5.899533748627
-60.685127258301 -65.616394042969 -126.936286926270 1.798108696938
32.450260162354 -69.797218322754 -131.224609375000 1.905288457870
45.491859436035 -64.849731445313 -136.540695190430 8.625313758850
-70.271156311035 -69.949577331543 -136.045211791992 2.666668891907
28.998750686646 -65.734748840332 -129.070388793945 4.698044300079
113.697952270508 -69.100944519043 -145.830718994141 0.994723260403
-36.835773468018 -70.766731262207 -150.366607666016 3.626204967499
35.371997833252 -73.259346008301 -149.821044921875 0.952817201614
112.772537231445 -66.733467102051 -149.657638549805 3.402162551880
36.580986022949 -70.940086364746 -141.991363525391 1.715708494186
109.587570190430 -67.687705993652 -138.658157348633 3.710448503494
-51.172428131104 -69.418327331543 -149.937103271484 2.015889883041
-74.684082031250 -65.822044372559 -152.063507080078 3.681972742081
-58.836547851563 -70.829711914063 -150.084472656250 4.967658519745
-42.755966186523 -76.625762939453 -165.067993164063 1.360294818878
3.010345458984 -73.529014587402 -155.543991088867 3.330904006958
108.387382507324 -70.416328430176 -152.437927246094 3.170915603638
108.244331359863 -69.006988525391 -161.335876464844 3.400058746338
11.723952293396 -70.002227783203 -156.322769165039 2.105008363724
1.353275418282 -68.529502868652 -159.921279907227 4.191698074341
22.668527603149 -66.860862731934 -153.370010375977 2.039770603180
26.442728042603 -67.738800048828 -155.523406982422 2.640064716339
106.597068786621 -69.181137084961 -164.935791015625 2.833575010300
111.976081848145 -74.108833312988 -167.153167724609 1.681506872177
24.296825408936 -66.030899047852 -177.082031250000 1.384778261185
23.949943542480 -74.261917114258 -165.773742675781 2.610603809357
111.250549316406 -66.025588989258 -161.982345581055 4.640390396118
-30.195360183716 -68.188934326172 -179.990280151367 1.862707018852
111.028320312500 -70.108467102051 -166.886672973633 1.927974820137
18.261735916138 -70.064941406250 -163.273406982422 2.901170492172
21.390390396118 -69.964294433594 -169.935211181641 1.694609999657
107.847190856934 -70.151687622070 -172.039291381836 0.640142261982
28.100912094116 -68.459365844727 -169.622924804688 2.366128444672
114.800636291504 -67.048828125000 -185.605804443359 6.670302867889
-38.637332916260 -69.731338500977 -180.609436035156 3.181485652924
23.523727416992 -69.947166442871 -168.239456176758 2.136563062668
108.285072326660 -69.322959899902 -184.974563598633 2.093003273010
22.493459701538 -71.318298339844 -175.975723266602 2.889594316483
-150.790267944336 -68.393066406250 -185.946777343750 2.319184780121
-27.577867507935 -65.773826599121 -190.397247314453 2.462081909180
24.081167221069 -65.939025878906 -185.313842773438 3.359873294830
-116.264938354492 -73.681297302246 -192.648376464844 3.321736574173
-112.309211730957 -66.439422607422 -193.688690185547 2.255830764771
25.881904602051 -70.851394653320 -187.215515136719 1.538890004158
10.412754058838 -65.505805969238 -184.371994018555 5.860246181488
-26.968721389771 -64.999305725098 -190.692276000977 3.426219940186
-28.295686721802 -76.726287841797 -189.325729370117 1.393960595131
-29.275646209717 -70.910789489746 -188.869476318359 2.406016588211
11.965400695801 -66.227142333984 -180.111816406250 5.313196659088
-150.511978149414 -70.729537963867 -196.649795532227 1.805196046829
-146.733535766602 -69.798049926758 -192.027175903320 2.865436315536
-147.513763427734 -76.249748229980 -200.198486328125 2.147632360458
-23.880859375000 -68.704467773438 -191.484420776367 1.572336077690
15.084959030151 -65.690376281738 -199.764480590820 1.435316085815
98.385040283203 -67.237060546875 -191.859817504883 4.802386760712
-113.239311218262 -68.262557983398 -198.579299926758 2.464983224869
21.429338455200 -75.791244506836 -197.317169189453 2.076712608337
-12.555228233337 -68.099212646484 -194.339981079102 3.678116321564
-16.725128173828 -70.042922973633 -198.341018676758 2.231594562531
102.124496459961 -67.083251953125 -200.347106933594 4.876028060913
6.846744060516 -73.660713195801 -197.461685180664 3.168311595917
-22.110908508301 -67.769233703613 -196.881851196289 1.723720312119
-119.875350952148 -75.092399597168 -205.147155761719 4.800487041473
-134.411788940430 -71.504051208496 -203.247756958008 1.767898797989
-114.248374938965 -62.670074462891 -206.831604003906 4.580787658691
-141.983230590820 -75.758979797363 -203.147674560547 1.514074921608
16.568326950073 -69.398345947266 -197.895462036133 0.667183876038
92.217864990234 -72.116928100586 -198.511032104492 3.229514122009
-164.958374023438 -63.500965118408 -199.434051513672 3.776539564133
100.496650695801 -68.008956909180 -200.839630126953 3.517848730087
-24.058092117310 -76.885742187500 -204.776489257813 2.721999645233
95.002357482910 -64.423171997070 -208.279617309570 5.584521293640
88.659820556641 -72.587654113770 -208.089080810547 2.532595872879
9.980073928833 -73.428184509277 -201.521347045898 1.090497136116
21.619846343994 -68.000846862793 -213.420303344727 4.618294239044
13.948532104492 -64.727996826172 -208.519989013672 0.845773637295
-10.571893692017 -70.059173583984 -224.369491577148 1.775309681892
-93.087715148926 -74.787879943848 -220.466156005859 1.664316415787
-12.932059288025 -73.583267211914 -210.513046264648 3.686574697495
87.554649353027 -70.441192626953 -217.944412231445 1.750747680664
-94.557205200195 -74.647552490234 -215.844650268555 2.368384838104
-98.839347839355 -65.629699707031 -222.620605468750 1.893504977226
-96.920806884766 -69.272346496582 -218.812484741211 1.323248267174
90.114379882813 -73.065116882324 -222.588226318359 3.036013126373
-135.798828125000 -72.066848754883 -225.334854125977 1.917057037354
-130.023452758789 -79.435142517090 -228.416610717773 3.229888677597
-116.041938781738 -71.147956848145 -224.724441528320 1.123602032661
-113.234130859375 -66.988967895508 -220.549163818359 5.399869441986
-132.037017822266 -67.408569335938 -228.475387573242 2.938562393188
-113.780715942383 -81.730857849121 -228.723968505859 7.451476097107
-110.374290466309 -69.338455200195 -228.703903198242 3.075762510300
-6.792229652405 -75.998130798340 -223.361602783203 1.221526026726
-14.335164070129 -74.480369567871 -223.081085205078 1.209514856339
-0.375059723854 -66.106513977051 -229.382720947266 2.028930664063
-9.518403053284 -65.149070739746 -226.706649780273 2.017564535141
16.313962936401 -71.386322021484 -234.294281005859 1.051107406616
-20.848722457886 -67.060516357422 -229.622680664063 5.242790222168
-166.514801025391 -68.927619934082 -219.898223876953 2.308202981949
-5.748795509338 -71.394577026367 -233.975280761719 1.328726530075
81.578498840332 -64.320243835449 -232.691421508789 6.968331813812
13.039845466614 -73.022087097168 -232.899536132813 2.258203029633
-4.665266036987 -69.237922668457 -235.695083618164 1.829623579979
-156.894119262695 -67.870765686035 -235.641708374023 1.147570729256
-143.531295776367 -68.418220520020 -227.514892578125 1.820955276489
60.462619781494 -68.420646667480 -236.842147827148 1.818455338478
-5.124030590057 -71.077529907227 -232.536529541016 1.898346543312
12.544719696045 -73.228881835938 -228.122955322266 1.251606106758
70.043907165527 -74.004882812500 -225.421981811523 4.517196178436
77.223686218262 -68.935478210449 -234.620742797852 3.027044773102
72.478752136230 -71.412063598633 -242.870697021484 4.091551780701
-1.691908359528 -75.162162780762 -234.053848266602 2.385898113251
59.295818328857 -66.398681640625 -235.772888183594 3.643474578857
-19.068553924561 -74.695495605469 -240.390335083008 1.475729703903
-13.405506134033 -65.449356079102 -239.358123779297 1.385332107544
7.965108394623 -69.768669128418 -237.845825195313 1.832607269287
63.968936920166 -75.307220458984 -235.707794189453 3.219818115234
69.108482360840 -66.998535156250 -241.752593994141 3.501096725464
48.559730529785 -70.640029907227 -245.273391723633 2.070607185364
61.316684722900 -74.899612426758 -242.287200927734 2.061982631683
-14.651716232300 -78.510169982910 -248.445281982422 4.706822872162
-83.662033081055 -65.765991210938 -258.150634765625 5.287473201752
-76.546531677246 -67.393630981445 -254.116363525391 3.637288331985
44.372661590576 -74.605110168457 -246.275085449219 4.949958324432
-153.065322875977 -73.705024719238 -249.410339355469 1.631472468376
35.325771331787 -69.235977172852 -257.369049072266 2.101723194122
-92.053558349609 -77.678771972656 -251.870758056641 3.477849245071
-157.395278930664 -64.668464660645 -253.725799560547 2.816394329071
-139.179779052734 -59.305538177490 -251.405242919922 6.819575309753
42.618225097656 -68.791191101074 -254.242370605469 1.235051751137
-125.482376098633 -65.797554016113 -258.962066650391 1.109535455704
-117.740608215332 -72.779739379883 -254.192443847656 1.723585486412
-90.784416198730 -64.465209960938 -256.374298095703 2.830686569214
-12.293675422668 -63.842334747314 -246.331359863281 2.966647624969
32.700107574463 -69.177246093750 -255.565338134766 1.643944859505
25.462728500366 -65.706214904785 -258.445129394531 1.227486968040
-160.444152832031 -62.885578155518 -261.461853027344 4.995948314667
-113.975128173828 -74.356590270996 -262.688232421875 1.698138594627
-12.728342056274 -70.197158813477 -262.144134521484 1.567350149155
-130.957794189453 -70.198936462402 -266.039520263672 1.517489910126
-14.341896057129 -68.532409667969 -270.074737548828 1.704478025436
-162.404571533203 -70.445358276367 -270.482452392578 2.344370365143
-4.785770893097 -71.334205627441 -277.560729980469 4.312776088715
-158.981414794922 -72.514602661133 -287.463226318359 1.559899926186
-164.991790771484 -75.898956298828 -278.268951416016 3.155473947525
-141.637496948242 -71.900062561035 -284.932769775391 1.420146703720
-172.161819458008 -74.711502075195 -284.388916015625 3.175896644592
15.232484817505 -74.518806457520 -289.023498535156 0.904213726521
-102.642654418945 -72.580940246582 -286.200134277344 2.493408441544
-87.559539794922 -62.790157318115 -285.033294677734 6.599445819855
-168.790237426758 -66.625602722168 -283.706481933594 4.143763542175
-92.699066162109 -79.475685119629 -280.212493896484 8.066633224487
-156.623214721680 -72.440658569336 -289.352233886719 2.243744850159
-77.632118225098 -73.320884704590 -298.563262939453 7.783260822296
-72.617523193359 -69.579277038574 -288.664093017578 2.362928152084
-83.384651184082 -73.485549926758 -292.114074707031 1.856126666069
-2.908686637878 -68.271202087402 -287.265441894531 2.673366546631
-91.188262939453 -70.625297546387 -286.230590820313 3.236029148102
-98.910697937012 -73.976478576660 -289.954223632813 2.669291973114
-119.214195251465 -71.093811035156 -292.934020996094 3.047732114792
-116.388038635254 -65.794578552246 -293.004058837891 2.690283536911
-133.738189697266 -72.035942077637 -290.553497314453 2.557975292206
-141.621109008789 -70.287666320801 -300.523254394531 3.516371726990
-144.282745361328 -72.651107788086 -312.149108886719 1.388456344604
24.528762817383 -63.818340301514 -13.608832359314 2.295776844025
34.056240081787 -67.505828857422 -15.090100288391 2.278273820877
30.297065734863 -71.577705383301 -17.279308319092 0.671207904816
45.357494354248 -63.644756317139 -18.570384979248 2.005245208740
23.468114852905 -67.412940979004 -31.361125946045 3.989515781403
-74.345840454102 -67.758399963379 -46.005802154541 2.054471254349
89.826629638672 -61.591262817383 -66.648094177246 4.934043884277
-19.689413070679 -63.962032318115 -66.269531250000 2.815778493881
105.548942565918 -68.083450317383 -73.556381225586 3.895141363144
93.515495300293 -73.469718933105 -75.188270568848 0.942425966263
68.559463500977 -69.138130187988 -78.692611694336 1.875302195549
73.509994506836 -73.763252258301 -81.307762145996 2.262524604797
-43.699787139893 -73.342117309570 -81.267173767090 2.438815832138
60.919334411621 -75.318084716797 -80.052040100098 7.110444068909
-92.476310729980 -69.645462036133 -89.082595825195 3.629363298416
-46.294303894043 -65.780731201172 -83.579689025879 0.455344825983
-56.112449645996 -76.278808593750 -83.373672485352 6.941621780396
103.896087646484 -76.958572387695 -98.593963623047 3.964784383774
61.099746704102 -72.824745178223 -89.084159851074 2.097899198532
68.622901916504 -67.629371643066 -90.266990661621 2.106558561325
-93.488166809082 -60.804424285889 -97.166168212891 5.741879463196
108.707077026367 -70.884674072266 -89.538185119629 6.111100196838
42.150363922119 -66.535957336426 -98.967552185059 2.498801469803
103.268257141113 -67.796455383301 -97.906890869141 1.087598443031
108.057991027832 -64.387214660645 -106.165786743164 2.855998039246
100.131858825684 -68.798583984375 -102.626960754395 1.728424429893
75.021896362305 -73.274261474609 -97.692031860352 1.869481444359
87.359649658203 -71.381629943848 -108.094650268555 3.554255247116
51.192886352539 -66.490882873535 -110.650878906250 2.066554784775
111.119056701660 -62.747764587402 -101.061119079590 5.627821445465
48.932552337646 -74.184150695801 -103.196372985840 2.305467605591
38.054916381836 -66.844497680664 -101.806968688965 4.711167335510
114.435798645020 -69.555450439453 -110.029060363770 1.624309539795
-77.472480773926 -63.830310821533 -108.074462890625 1.454781889915
45.948242187500 -66.883537292480 -112.200500488281 1.430981159210
33.061042785645 -72.798995971680 -116.051017761230 2.278265476227
106.900680541992 -65.106834411621 -110.363441467285 1.075626134872
37.064720153809 -65.305595397949 -111.133659362793 4.916859149933
-86.129402160645 -68.980087280273 -109.834129333496 1.877875924110
-94.326499938965 -63.790973663330 -113.673965454102 3.854593992233
101.788009643555 -75.403923034668 -119.745384216309 5.268732070923
-94.303497314453 -69.633476257324 -118.499763488770 1.671664357185
40.427818298340 -73.691497802734 -120.175392150879 3.131971836090
37.035003662109 -69.210388183594 -123.019584655762 1.108590245247
-85.114547729492 -69.175849914551 -123.201271057129 2.219774723053
34.421497344971 -66.353523254395 -133.142745971680 3.233742713928
113.567039489746 -70.028785705566 -130.840270996094 1.887634277344
-52.842727661133 -69.083496093750 -139.152709960938 2.318624019623
-87.086090087891 -66.949234008789 -133.408447265625 1.973560214043
39.196670532227 -74.687522888184 -129.208068847656 1.374441981316
-85.066345214844 -62.905254364014 -136.452056884766 2.628760576248
-87.010749816895 -73.397178649902 -140.930648803711 6.291486263275
-49.756359100342 -68.947799682617 -135.491424560547 0.983750998974
-70.531234741211 -65.668876647949 -138.090652465820 3.261186838150
-50.024719238281 -68.318298339844 -131.460250854492 1.502256393433
118.743858337402 -64.296371459961 -135.678146362305 5.074689388275
-70.558761596680 -71.909889221191 -132.955581665039 2.822552919388
38.743835449219 -70.408226013184 -129.657180786133 2.704511404037
-77.785789489746 -66.222633361816 -141.079666137695 2.104682683945
-71.137382507324 -69.546005249023 -134.557647705078 1.727522850037
-94.508674621582 -66.324768066406 -142.548339843750 1.300304532051
-55.195236206055 -64.050849914551 -144.419555664063 3.297699213028
32.246524810791 -62.241947174072 -145.608474731445 6.328041076660
27.913309097290 -67.083969116211 -148.195922851563 1.115820169449
21.475551605225 -61.040931701660 -144.069702148438 2.435834407806
113.003540039063 -67.668113708496 -145.553970336914 1.136859416962
-89.363235473633 -66.879547119141 -150.697921752930 3.384681701660
10.771855354309 -70.499092102051 -151.838180541992 2.417360544205
-70.827774047852 -68.229606628418 -155.222030639648 2.756170272827
24.580831527710 -66.517944335938 -148.325439453125 2.234531641006
-48.777881622314 -67.239501953125 -154.917144775391 3.428653240204
10.675519943237 -66.910415649414 -153.721847534180 0.978882789612
18.340049743652 -72.740707397461 -158.949951171875 1.110400557518
17.432971954346 -75.799369812012 -163.294036865234 2.509267807007
-51.076015472412 -72.299041748047 -163.464462280273 3.735179424286
-37.561569213867 -66.719238281250 -155.258819580078 3.908111095428
-47.225292205811 -70.530982971191 -162.338882446289 0.695203483105
-102.312896728516 -70.450439453125 -173.096603393555 1.918888568878
22.648933410645 -71.218063354492 -174.834274291992 3.507452487946
-32.494319915771 -69.327728271484 -178.659286499023 2.872621059418
16.293828964233 -75.350242614746 -177.849975585938 1.801138997078
-141.155349731445 -68.164474487305 -176.041076660156 0.709033489227
-30.519500732422 -64.086685180664 -171.923767089844 3.890749931335
-156.248397827148 -78.315887451172 -178.196105957031 8.190018653870
26.060695648193 -60.976951599121 -181.155242919922 7.480956554413
-33.938964843750 -71.512428283691 -169.424728393555 3.372835874557
-105.760269165039 -65.546630859375 -174.741790771484 2.474362373352
-106.095672607422 -76.892127990723 -184.312728881836 7.703323364258
-30.220064163208 -61.403614044189 -185.737182617188 6.983134746552
-23.801748275757 -75.668014526367 -181.089309692383 1.918729543686
12.474883079529 -67.349197387695 -188.515197753906 3.864394903183
16.271482467651 -64.464912414551 -199.275924682617 1.414913296700
13.677066802979 -69.749504089355 -187.271682739258 2.325241088867
-141.714294433594 -66.298797607422 -186.329132080078 0.777238905430
25.939483642578 -62.833576202393 -189.255218505859 6.580571651459
5.624443054199 -67.580810546875 -196.419845581055 4.019732952118
-133.390411376953 -66.794631958008 -192.729827880859 1.125730752945
-111.273185729980 -68.307548522949 -195.028106689453 2.899528503418
15.721960067749 -65.956413269043 -204.602127075195 3.095449209213
-118.922142028809 -66.647560119629 -196.760375976563 3.551209926605
-106.859405517578 -60.086025238037 -192.476470947266 6.403697967529
-166.688949584961 -71.162307739258 -202.312591552734 1.276420116425
-23.718730926514 -66.466056823730 -199.546478271484 2.589457750320
10.535953521729 -66.083526611328 -199.053848266602 2.791453599930
-145.205917358398 -70.303276062012 -204.183563232422 2.071851253510
-137.873397827148 -73.962234497070 -207.543579101563 6.003075599670
-21.820514678955 -65.935974121094 -207.915740966797 2.992712259293
-11.929776191711 -69.727706909180 -205.452133178711 0.837077558041
-12.601561546326 -70.703659057617 -205.496627807617 0.863621592522
-136.981582641602 -75.496788024902 -201.851211547852 1.343810439110
-16.994512557983 -68.238594055176 -212.582855224609 2.215045213699
-7.686960697174 -76.252952575684 -214.388320922852 1.295064568520
19.011619567871 -64.130989074707 -211.037170410156 4.460083484650
-17.313192367554 -75.743179321289 -211.616302490234 1.005169868469
10.945300102234 -70.550254821777 -208.310501098633 1.399793863297
-10.758680343628 -70.947273254395 -214.677169799805 2.822763442993
-23.806043624878 -63.807636260986 -211.185592651367 7.138115882874
11.998864173889 -77.476272583008 -220.202026367188 0.925535380840
-2.127737998962 -76.714561462402 -218.511856079102 0.838567674160
11.800906181335 -62.930473327637 -219.782928466797 5.205236911774
-6.019225597382 -73.094772338867 -228.730331420898 1.269519925117
-160.507598876953 -71.536300659180 -227.415283203125 1.951772212982
81.124984741211 -72.547370910645 -218.883804321289 2.290086507797
-135.289123535156 -66.095848083496 -223.634124755859 2.500412225723
-134.708923339844 -72.980552673340 -221.142990112305 3.949112653732
-7.092651367188 -69.993927001953 -224.757125854492 0.999371707439
6.451011180878 -68.188156127930 -235.788009643555 1.336763501167
-158.228256225586 -69.491973876953 -232.237838745117 2.748329639435
90.912643432617 -66.076202392578 -219.634460449219 3.689590215683
-0.591643869877 -66.900291442871 -226.512939453125 1.498638510704
1.486479163170 -69.487594604492 -220.241607666016 2.429417848587
74.674156188965 -73.072563171387 -231.262924194336 0.763214290142
0.750400185585 -64.917709350586 -236.745208740234 1.965761423111
-12.626135826111 -70.583610534668 -223.606185913086 2.757007598877
-127.373107910156 -64.737602233887 -233.646255493164 0.499920397997
-5.078960418701 -68.423774719238 -238.217483520508 1.753886461258
3.270016193390 -65.583595275879 -229.139709472656 2.026705741882
66.873733520508 -64.543701171875 -237.518295288086 2.944629430771
-157.297225952148 -73.184890747070 -236.991546630859 2.146754503250
-13.047546386719 -66.380218505859 -245.698074340820 2.666357994080
-170.169616699219 -73.908760070801 -239.431625366211 3.340946674347
11.533131599426 -62.349075317383 -240.843429565430 2.778459548950
-162.442245483398 -72.286117553711 -238.918960571289 2.752992153168
-159.051620483398 -72.716125488281 -247.806304931641 1.079209923744
59.248790740967 -69.707046508789 -244.266098022461 1.173156976700
61.112598419189 -71.842544555664 -241.427322387695 1.170221567154
55.903640747070 -70.190788269043 -245.937393188477 0.653467118740
51.913356781006 -68.838661193848 -249.161254882813 0.371530830860
-151.362258911133 -72.125061035156 -242.660156250000 2.498756647110
-155.534271240234 -64.741210937500 -246.170074462891 4.921394348145
-11.526031494141 -75.343925476074 -249.182800292969 1.152663946152
-149.824386596680 -68.885887145996 -247.978668212891 2.237043380737
18.024641036987 -68.981231689453 -250.655090332031 3.421754837036
-171.249069213867 -78.181617736816 -251.888427734375 6.411115646362
-168.935317993164 -67.709724426270 -251.564270019531 3.009012937546
-81.580558776855 -72.478889465332 -246.444458007813 2.375526189804
-170.667358398438 -68.592155456543 -257.544677734375 3.876695632935
-84.417594909668 -69.274574279785 -258.859191894531 3.640631914139
43.756881713867 -67.342163085938 -253.435607910156 1.962485909462
22.136262893677 -72.840751647949 -257.275512695313 1.129135131836
-157.053207397461 -71.858940124512 -264.202697753906 2.768296718597
-100.866058349609 -60.351173400879 -260.379150390625 4.425976276398
40.724971771240 -68.214500427246 -253.879760742188 1.168372631073
-107.413871765137 -80.676460266113 -258.031250000000 5.852539062500
-152.737518310547 -66.213768005371 -266.779968261719 1.174863696098
-102.803359985352 -68.689002990723 -256.113494873047 2.014702796936
-169.456359863281 -74.294860839844 -259.686401367188 3.802683591843
-112.654617309570 -70.701469421387 -264.441680908203 2.874798536301
-153.201339721680 -73.109817504883 -266.869201660156 1.743960738182
-159.296508789063 -65.946731567383 -262.788848876953 3.502547502518
-164.987289428711 -68.847534179688 -264.267639160156 1.773334145546
-165.409759521484 -67.875518798828 -262.669921875000 0.231666520238
-165.289291381836 -70.239868164063 -264.311492919922 1.370169043541
-169.477600097656 -71.282356262207 -259.065307617188 2.586280822754
27.681304931641 -70.542724609375 -265.463043212891 2.492287874222
-146.708435058594 -76.525558471680 -262.482391357422 2.885496377945
-151.781356811523 -70.145805358887 -286.074005126953 2.465749740601
30.054960250854 -68.502761840820 -274.930023193359 6.074326515198
-12.099346160889 -73.205802917480 -274.521820068359 2.836753368378
-124.460250854492 -66.350982666016 -285.301239013672 2.136522054672
-135.898483276367 -69.975547790527 -286.987487792969 1.770052909851
-132.636306762695 -69.434165954590 -290.265838623047 1.093818783760
-128.169601440430 -70.063652038574 -286.098846435547 2.781360387802
-111.741722106934 -68.170722961426 -293.150970458984 1.887213110924
-102.981140136719 -64.024864196777 -283.640075683594 5.748567581177
7.677665233612 -74.083007812500 -295.870178222656 3.381291627884
-83.428359985352 -71.381240844727 -291.271636962891 2.368050813675
-147.987503051758 -70.739608764648 -286.062072753906 2.642401456833
-102.179618835449 -71.225830078125 -291.442749023438 2.684472322464
-133.402816772461 -66.939689636230 -293.112335205078 2.407921552658
10.854472160339 -71.521667480469 -286.944000244141 1.537950277328
-109.968284606934 -60.650547027588 -286.598266601563 7.291204929352
5.668052196503 -69.653549194336 -294.079528808594 2.110811471939
-142.699462890625 -69.697135925293 -286.000061035156 2.072775125504
-151.552536010742 -70.072860717773 -295.178588867188 0.905308067799
-159.514144897461 -68.477890014648 -318.273651123047 7.740819454193
-155.718643188477 -67.227157592773 -311.195709228516 2.840355634689
46.435482025146 -71.395080566406 -24.648723602295 1.561449289322
26.117670059204 -66.681808471680 -37.558685302734 1.795113325119
28.653078079224 -68.499923706055 -36.071163177490 2.949623107910
-40.481315612793 -71.750953674316 -46.895893096924 2.795251607895
-9.495326042175 -64.440940856934 -63.206478118896 1.494083762169
95.773918151855 -67.890441894531 -67.218536376953 1.098391056061
68.690643310547 -60.092590332031 -68.103538513184 2.048190832138
-25.293832778931 -66.221801757813 -73.953109741211 2.016308784485
-100.801010131836 -73.624542236328 -89.205673217773 6.178970336914
-42.343143463135 -67.280616760254 -86.470718383789 4.869302272797
57.369731903076 -67.280265808105 -79.262405395508 4.305846691132
66.543922424316 -71.756401062012 -83.809761047363 1.531686186790
51.260089874268 -64.096427917480 -87.460853576660 3.693593263626
-59.143505096436 -66.994934082031 -90.953826904297 2.070245265961
68.316818237305 -61.200851440430 -88.811592102051 3.494062185287
43.071769714355 -72.858352661133 -98.565376281738 2.184620618820
70.194084167480 -71.015983581543 -94.862930297852 1.383947014809
-59.093395233154 -65.860191345215 -96.790374755859 4.715808868408
52.357925415039 -69.846458435059 -90.667587280273 1.642840266228
47.798454284668 -71.224617004395 -97.623237609863 0.767773866653
103.737388610840 -62.467987060547 -103.098464965820 2.360242843628
-63.922603607178 -67.916305541992 -97.923301696777 2.275220155716
112.654006958008 -66.548851013184 -99.021736145020 3.944279193878
-78.468276977539 -72.860824584961 -101.868530273438 2.551092147827
53.931915283203 -71.163902282715 -107.156013488770 1.409642696381
48.807315826416 -65.669815063477 -101.222633361816 2.024215698242
91.032333374023 -61.768161773682 -104.087745666504 4.453047275543
83.255027770996 -68.532554626465 -105.358909606934 1.368351697922
57.934963226318 -69.208549499512 -104.988983154297 3.082379341125
-76.829536437988 -69.185081481934 -112.865303039551 1.271732449532
-78.558021545410 -67.785926818848 -117.930953979492 1.527562141418
-80.979888916016 -69.307067871094 -117.508010864258 2.583543777466
-93.861991882324 -75.953155517578 -117.013496398926 3.410982608795
102.548538208008 -59.030311584473 -117.710762023926 9.061614990234
-90.956878662109 -72.506301879883 -118.030426025391 1.305212497711
-74.066947937012 -62.157253265381 -121.853965759277 2.456015825272
109.220764160156 -66.425262451172 -116.687973022461 2.762227296829
-58.591159820557 -57.174556732178 -116.751907348633 1.419076323509
113.727035522461 -73.907905578613 -131.245407104492 1.012020707130
110.442123413086 -70.381721496582 -129.491638183594 0.608921170235
104.931747436523 -70.437934875488 -128.398315429688 3.966125965118
-93.453941345215 -69.368659973145 -136.375762939453 2.846408367157
-44.318508148193 -68.278602600098 -141.820678710938 1.702988624573
-81.730201721191 -64.075973510742 -142.989852905273 6.294664382935
-68.827941894531 -68.024040222168 -147.978546142578 1.580129265785
-67.425056457520 -67.114524841309 -150.211975097656 3.002644062042
-54.418926239014 -67.533164978027 -143.765777587891 1.566099047661
-44.873092651367 -74.973205566406 -143.214508056641 0.979354441166
12.795224189758 -68.219367980957 -147.725357055664 0.918407201767
-93.120796203613 -62.453094482422 -140.255447387695 1.671232342720
-46.283767700195 -65.925453186035 -145.736297607422 1.907897949219
-50.097515106201 -57.175888061523 -146.062652587891 9.194581031799
-42.175762176514 -65.029403686523 -153.687393188477 3.397169113159
27.059558868408 -71.654472351074 -159.499954223633 2.517241239548
-50.940536499023 -70.402572631836 -151.867950439453 1.185425996780
-102.854438781738 -60.818248748779 -147.676773071289 4.986227512360
-48.117122650146 -63.280899047852 -153.840698242188 5.455484867096
25.533014297485 -72.467658996582 -144.336471557617 0.971409976482
-94.170692443848 -77.918022155762 -163.972595214844 10.923912048340
23.727869033813 -71.834350585938 -157.938796997070 1.752331495285
-108.024032592773 -63.300449371338 -168.057540893555 1.738430261612
-101.407569885254 -69.240554809570 -164.088394165039 1.684196114540
22.431219100952 -68.693016052246 -166.756011962891 1.184002041817
27.210218429565 -65.664665222168 -166.928436279297 3.936422824860
-111.506126403809 -72.644935607910 -172.704818725586 4.572635650635
-142.212814331055 -64.263900756836 -172.611068725586 3.045903205872
-16.872133255005 -69.100898742676 -191.114715576172 2.134551763535
-27.241191864014 -67.108505249023 -179.474426269531 3.227496623993
-117.416442871094 -71.251892089844 -186.513366699219 5.322230339050
-143.192428588867 -63.532703399658 -185.402252197266 2.509666204453
-100.113906860352 -63.911949157715 -180.854278564453 5.672886848450
-160.016204833984 -69.223617553711 -187.775466918945 6.593610763550
-130.435882568359 -75.685058593750 -195.482650756836 2.577974081039
-132.215225219727 -72.506683349609 -196.289535522461 1.000603795052
-18.554126739502 -66.047584533691 -186.013320922852 5.673349857330
-117.569702148438 -69.849655151367 -199.830718994141 4.096653461456
-118.966392517090 -63.203918457031 -200.956756591797 2.305055141449
-28.978528976440 -72.463424682617 -191.704681396484 0.554297983646
-153.825500488281 -65.200866699219 -194.174011230469 2.414766788483
-132.437454223633 -70.094894409180 -204.955230712891 1.435797095299
-124.419586181641 -65.049797058105 -203.195327758789 2.211055517197
19.437061309814 -72.961692810059 -201.393386840820 2.003808259964
-162.286392211914 -69.968292236328 -201.060180664063 2.363212823868
14.732821464539 -65.495925903320 -217.404724121094 3.084747552872
15.265579223633 -70.696243286133 -215.454742431641 0.936544239521
-14.009702682495 -62.476985931396 -210.877426147461 5.004421710968
-4.289606094360 -68.243080139160 -216.729553222656 1.048699140549
-173.096786499023 -64.766136169434 -211.166610717773 7.795457363129
-158.959091186523 -62.676540374756 -211.897048950195 4.646158218384
-94.417137145996 -67.673187255859 -219.146545410156 2.016087055206
-95.122314453125 -71.957733154297 -220.494613647461 1.956603765488
-160.322662353516 -71.201103210449 -227.610366821289 2.224989891052
-109.665786743164 -64.992370605469 -218.594650268555 4.419730186462
-10.923077583313 -65.858222961426 -210.113647460938 1.997090935707
-128.149307250977 -71.565322875977 -220.519973754883 3.678642034531
-143.094268798828 -69.132598876953 -222.296005249023 0.653747558594
-2.579481124878 -71.915504455566 -220.972457885742 1.490353107452
-133.609008789063 -66.067634582520 -223.634628295898 2.297805786133
-122.964561462402 -75.255584716797 -221.183654785156 4.409793853760
-113.675537109375 -73.470336914063 -222.991989135742 3.276071786880
-2.060180664063 -59.368499755859 -229.585418701172 7.689229488373
-107.259567260742 -65.300682067871 -232.389282226563 3.095028877258
-161.836242675781 -60.145217895508 -222.318588256836 5.908862113953
-144.661743164063 -68.207344055176 -225.792617797852 1.821792721748
-164.080780029297 -68.476325988770 -226.187988281250 3.618723154068
-7.911718845367 -65.394844055176 -224.514266967773 3.202603101730
-7.336861610413 -69.284332275391 -233.963012695313 1.851833581924
79.034233093262 -72.408706665039 -224.373077392578 0.566975831985
-1.481318235397 -72.255706787109 -228.293457031250 2.008157014847
-142.917724609375 -68.922126770020 -239.101989746094 2.374675989151
-14.241689682007 -65.013832092285 -229.400085449219 4.292167186737
74.438812255859 -68.759635925293 -226.923904418945 1.963633418083
74.343856811523 -68.804740905762 -232.890884399414 1.718585133553
-133.777374267578 -66.325744628906 -231.530563354492 1.150860309601
-155.068771362305 -74.852806091309 -228.384201049805 3.460655212402
-113.089073181152 -65.769859313965 -232.718582153320 1.837421059608
-125.233680725098 -61.972072601318 -237.057998657227 3.879030466080
-161.623931884766 -67.258064270020 -235.311904907227 1.496053814888
-160.827392578125 -70.268585205078 -235.225723266602 2.483621120453
-148.213958740234 -61.337558746338 -232.017089843750 1.291974902153
-15.638316154480 -64.702636718750 -233.700225830078 5.603937149048
-5.737894535065 -66.472076416016 -242.693527221680 2.042040586472
-159.592544555664 -67.548896789551 -243.586456298828 2.366007089615
6.312077999115 -68.880355834961 -236.146667480469 1.765782475471
0.269763708115 -70.451347351074 -238.661529541016 1.436912298203
-158.162231445313 -68.601448059082 -236.563980102539 1.654510855675
19.810913085938 -74.497413635254 -239.424179077148 1.940587639809
51.573348999023 -71.791725158691 -246.281066894531 1.978241086006
48.887596130371 -73.040946960449 -242.875549316406 2.516838073730
-17.318954467773 -69.610084533691 -247.092285156250 3.788964033127
47.444393157959 -67.080528259277 -249.828002929688 0.995294928551
-158.702911376953 -63.062606811523 -248.261566162109 4.795150279999
-155.220565795898 -69.928726196289 -246.200042724609 1.054958939552
-161.039535522461 -75.991378784180 -249.032165527344 0.978639543056
56.950977325439 -67.027069091797 -246.514434814453 2.181863546371
-94.220695495605 -66.802650451660 -252.614501953125 2.980116605759
-123.520164489746 -66.598228454590 -254.767181396484 1.762317538261
-106.065788269043 -75.683349609375 -251.958526611328 5.582168102264
24.437171936035 -74.729057312012 -257.430816650391 2.018869876862
39.366542816162 -64.723228454590 -251.475738525391 1.351281046867
-100.010833740234 -64.904502868652 -254.288726806641 3.560030937195
-92.490921020508 -62.074062347412 -247.931121826172 7.603096485138
46.251045227051 -75.310577392578 -255.744567871094 4.880635738373
40.722591400146 -65.491081237793 -257.097320556641 1.805214881897
-153.524826049805 -76.631225585938 -257.005798339844 3.038074493408
28.200706481934 -68.559959411621 -260.248016357422 1.715573787689
-143.610794067383 -72.263648986816 -265.252746582031 2.005585193634
-111.956268310547 -68.887954711914 -262.784881591797 3.083545446396
-138.493972778320 -65.049942016602 -261.643127441406 2.873972177505
34.117992401123 -66.886566162109 -262.707977294922 1.537740349770
-125.979881286621 -67.407806396484 -262.232910156250 1.051200747490
-11.310034751892 -66.299980163574 -255.445861816406 0.678107500076
19.877790451050 -72.784973144531 -270.949218750000 2.529928445816
-2.754447937012 -77.024017333984 -263.294006347656 7.252003192902
19.027490615845 -71.808242797852 -280.420227050781 1.699730277061
-154.896804809570 -73.261665344238 -282.284393310547 2.639852046967
-11.843440055847 -65.544692993164 -280.735626220703 3.163482427597
-151.992309570313 -73.596603393555 -280.939147949219 2.311789751053
-121.365760803223 -73.555168151855 -284.717285156250 3.826369285583
-164.850219726563 -78.063072204590 -285.833038330078 2.870913743973
-115.043357849121 -68.524055480957 -286.552886962891 1.697573781013
-102.860565185547 -70.169616699219 -290.388031005859 2.738796710968
-6.774118423462 -66.395896911621 -283.715576171875 2.015315294266
-107.122627258301 -72.051681518555 -287.566375732422 0.480766922235
-117.057090759277 -66.164093017578 -281.893829345703 6.653683662415
-123.952331542969 -64.434234619141 -291.872070312500 2.313808917999
-140.281875610352 -69.981803894043 -290.080657958984 1.883135914803
-127.535537719727 -63.623424530029 -290.440277099609 1.774751901627
-158.884231567383 -76.556159973145 -288.892669677734 2.957668304443
-147.315338134766 -64.495223999023 -290.421203613281 1.642090320587
-161.086059570313 -65.094047546387 -303.442993164063 8.063786506653
-154.612136840820 -67.109512329102 -310.449798583984 3.132333040237
-161.512741088867 -65.650680541992 -301.128875732422 7.945148944855
-138.155364990234 -70.728141784668 -309.626220703125 5.772739887238
-148.268081665039 -73.734375000000 -315.050048828125 2.221794605255
35.644603729248 -67.091377258301 -5.432749748230 6.678056240082
50.163532257080 -73.156227111816 -17.010398864746 3.734423160553
23.773160934448 -65.600692749023 -20.455265045166 2.759730577469
51.876045227051 -67.527252197266 -24.519405364990 3.533316612244
27.862798690796 -69.751419067383 -33.243801116943 1.587127566338
31.469001770020 -67.711433410645 -31.717845916748 2.835595369339
-56.882423400879 -61.731784820557 -48.912948608398 5.152046203613
76.190147399902 -60.768405914307 -57.963069915771 0.853744149208
84.128898620605 -68.652755737305 -67.448715209961 2.836413621902
-88.788696289063 -70.520172119141 -63.161907196045 1.636523008347
-12.687243461609 -63.797180175781 -58.327762603760 1.937590599060
-92.010749816895 -69.478919982910 -72.328536987305 2.759052515030
97.391418457031 -70.564315795898 -65.662658691406 3.496921062469
-10.631187438965 -63.835556030273 -66.377525329590 1.176675558090
68.186454772949 -71.323112487793 -81.997940063477 0.644975423813
-44.711517333984 -72.484405517578 -81.569114685059 2.491934537888
-25.153617858887 -70.290344238281 -72.760543823242 2.377055883408
55.977046966553 -60.172714233398 -86.257339477539 2.174413442612
-41.969371795654 -78.496849060059 -82.769058227539 2.435568809509
65.584732055664 -54.900390625000 -87.125907897949 1.628275632858
52.552410125732 -73.828964233398 -91.362709045410 0.663761079311
56.843849182129 -65.525070190430 -94.315132141113 2.111271619797
57.904354095459 -76.224441528320 -89.714607238770 3.396664619446
