# This PCD file was generated using the MATLAB® pcwrite function
# from Computer Vision Toolbox®.
# .PCD v.7 - Point Cloud Data file format
VERSION .7
FIELDS x y z
SIZE 8 8 8
TYPE F F F
COUNT 1 1 1
WIDTH 804
HEIGHT 1
VIEWPOINT 0 0 0 1 0 0 0
POINTS 804
DATA ascii
99.061777264103114 -52.782414338173680 102.559905111054334
98.541893107578474 -52.206249739730275 102.193226857199363
99.359955289534227 -52.539446623424567 62.979285722690811
99.239286672445900 -52.318977789221968 63.817287026359665
98.775673795147469 -52.297401252518405 76.654103909775742
99.465791309698886 -52.301264802916165 77.062089097714363
99.460558963690616 -52.981460330754494 78.449446174953920
99.025279431710118 -52.491438039585695 78.720972323915106
98.977871745474729 -52.284416787027105 101.076197391736201
98.899885991514907 -52.592236340202334 102.364750596517524
98.985628757211188 -52.221034703380610 102.422975501221771
100.558902191075290 -52.894438557953350 -98.624140047780514
99.729903668267269 -52.881665448706372 -70.698168506437867
99.904926662371793 -52.883497537454581 62.182226799695457
99.397562649318829 -52.208018833830749 62.836589698095281
99.691516354904479 -51.531961309327009 63.886460064809881
99.474747442053271 -51.922534764520769 74.447431317734029
99.638226020540941 -52.639005211859178 75.111600533175505
99.521764532996642 -51.976995772056370 75.908222945343326
99.367784460485694 -52.829552571191094 76.450347727094538
99.425866113824469 -52.994635563111025 77.076842722826385
99.326743973139656 -52.369549594991781 76.707799585336204
99.354983088279909 -52.913707601734217 101.351907828246411
99.395194429241329 -53.003737214450268 101.878806037631563
100.290320814448634 -52.664467792797375 -71.100805803032841
101.002825573087790 -53.060725328028653 -71.061634767358726
100.389498368473312 -52.562127958267340 62.252138727571833
99.837452635269784 -51.968324862378097 73.825641160132292
100.259947875516843 -52.923644280005490 74.765230922743754
100.665742793725300 -52.066963702895571 61.391193617322891
100.427355108718444 -51.894480651971783 61.822577798064444
100.538858538201481 -52.038172166603907 70.770230405749672
100.434315547671972 -52.097846149925303 71.840942951583116
100.390342404988900 -52.932383755606949 73.253308256790419
100.372179887600140 -51.954928489201706 72.562749394088854
101.197682459645222 -52.969318996722393 -98.522747696686878
101.368475021950047 -52.699581744984911 -71.352333117892201
101.154949806553560 -53.033024203491763 59.712499518186483
100.717489449721114 -52.926238075824642 60.101287057375004
100.646690918781204 -52.122319938518743 61.325414354742932
100.674413538377237 -51.795169354892508 62.726603125849479
100.521050703437396 -51.882528392918218 69.899177691624985
101.128431634031500 -52.984200783124635 71.017786678744827
100.674831974363983 -51.379842886108086 70.977358658452758
100.944028468477640 -53.213963853580431 71.790104882973765
101.222755030281121 -51.947674310640267 60.486394899237354
101.097077839919947 -52.262818548136877 61.062687922172472
101.398293957288146 -52.883894064799641 70.175214146412401
101.507778831388890 -52.646148490894689 70.056895201513228
101.543814776013463 -52.832411336666155 59.009912024195465
101.546312629834475 -52.829655983297087 59.655069516682644
101.845100795654631 -51.646531591105202 60.449687223759263
101.708391581300347 -52.118068002461918 67.130897046734376
101.983047129648554 -52.866324987437523 69.065368778227935
101.790599041352920 -52.488102560447629 68.695992413314258
102.649145418920497 -52.604270432826659 -71.541894749280019
102.000311601425580 -53.005887088524062 58.483057821156073
101.712096563303774 -51.780478107877997 59.363651137709475
101.912489666075942 -52.015248193762716 60.547927635993865
102.178417484128147 -51.955238059248288 67.088369209521886
102.435257378095017 -52.283734380706377 68.296371391571469
101.936206336640836 -52.319463121013371 68.004073846146852
102.469589779243890 -52.689399983585133 -72.164721053339420
102.404888953521336 -52.555079728698466 58.392852528704104
102.653152147577117 -51.740160167118304 59.201304154246685
102.840733861906614 -52.641494884954852 67.285001198130402
102.430929260319246 -52.685737664335015 67.058481029364188
103.175416576378097 -52.594378370707190 -98.509732919785705
102.869080999095473 -52.892880158455661 57.426092102773858
103.193394093765420 -51.973676308703673 58.570414189211455
103.069687158054037 -51.837578260531444 64.073620003062587
103.082626443607225 -52.508657397138258 65.193779943934146
102.767180852484046 -52.477846846176334 65.754511787371300
103.558616184938842 -52.843907910448991 -72.025575733651038
103.731462914123227 -52.735069051449095 56.215957774909825
103.466833834998681 -51.993073807172600 57.379256001424586
103.231957582151182 -51.975736469693494 58.472186416601787
103.071138823338742 -51.764401827644079 63.389383089511853
103.419264689026747 -51.678205293147258 64.356808110450160
102.800533425749023 -52.947625313694495 65.952506318702859
102.881970857334636 -52.397026576857691 64.873476275773683
103.698717595540728 -52.971231701203202 -98.548252837332782
103.710915621195298 -52.901110500909908 56.764527024213081
103.817902425972321 -51.979290200930521 57.498933199098580
103.027579933560389 -52.053640741455375 58.250086112196371
103.816759632271683 -51.538449474042913 63.082628431619476
103.973024486712845 -52.383211046731745 64.206599938916867
104.567458902962997 -52.468336864672139 -98.119403078557212
104.277875216611534 -52.833295150123938 -72.633343173357702
103.646329713510355 -52.619573497010776 56.528130552399531
103.978989865641978 -51.636599062221237 57.538305789751533
104.104758451059396 -51.934603128482870 62.300310963813487
103.511663179889908 -52.386591961881415 63.386920511360557
104.799428908807158 -53.113556908519200 -73.073234908295774
104.224200668811790 -52.875453683547796 55.138615458915218
104.467395977210572 -52.299754179860606 61.815457291636740
105.082110199823589 -52.782305244830901 -61.321488301801267
104.965004339406718 -53.290165087489690 54.740889060237031
104.789348486195564 -52.812343303618597 55.672166443878069
104.901345547057858 -52.375458626143057 56.383722975813740
104.754304702407453 -52.054438630691678 57.696160104691216
104.716921760336078 -52.084142968147496 58.541317042050359
104.643310490690808 -51.971209917365101 59.801827056370655
104.791579010048352 -52.217787585994614 60.050481005901645
104.728315910192592 -52.152656782600452 61.416976720128822
105.361535306015568 -52.707018340756100 -73.003885112583845
105.587672780111362 -52.441212063384967 -62.274382605131386
105.481433552427262 -52.966606278108372 -61.601687309136032
105.407029912607953 -52.881134166437548 -60.136608542586160
105.168677919092545 -51.654708258724739 -60.428852791335117
105.352772955374220 -52.660194731641106 54.384544462203984
105.160918988972469 -52.554856330809280 54.438511714927472
105.043808872685304 -52.151515675223045 56.302225764737138
105.447597356950084 -52.282451878192198 59.527962576462535
105.372581722263703 -51.855266188281185 60.009512148806031
106.211816145453270 -53.076882966720611 -73.023614951056118
105.960892481335534 -52.891164473653063 -62.008663483505238
105.551924650325034 -52.644976271046907 -59.930079523683240
105.739120377327808 -51.652068613930879 -60.363879616886123
105.733715571732844 -52.304964708401492 54.597138452286899
105.950187208799520 -51.952114392251048 55.269751843612553
105.660250773845959 -52.186255907627206 58.643049618282809
105.665644942133198 -52.359747190785683 59.779064261310658
106.232909760984754 -52.420832104298846 -62.422364170222423
106.302643031292419 -52.855801122744595 -62.566701097302946
106.298368534036840 -52.808168986917302 53.566086192652016
106.007865235721752 -52.119251161483049 54.687279033367808
106.035889895667509 -51.847369443643373 55.610706840102331
105.865071675110016 -52.392316240127890 56.529868479306778
105.862273904214121 -51.909348075295291 57.334783013841054
106.165731571730063 -52.175183769133049 58.583311183049283
106.111709635081709 -52.555288547016232 59.569741633322856
107.010128589147939 -52.576986365463341 -73.523073104350985
106.872139150905610 -52.665754508553228 -62.247374157020985
106.535113997343686 -52.373335891011415 -59.508915402527165
106.836961140592564 -53.154364546832561 52.784451961971129
106.704551408121645 -52.493501048175439 53.399386486427744
106.520911623251948 -51.956885678711849 54.801122067258625
106.720347072908268 -51.896861079978770 55.632233228702553
106.582686979870530 -52.318180201597237 56.989627298347713
106.328687970630739 -52.192169848846781 58.164725748012721
107.181673754125484 -52.736168397895668 -97.989294777504483
107.266554171718653 -52.874213726694713 -74.235579556988100
106.652442675568452 -52.769779428495127 -63.114842300659419
107.234024336965135 -52.125486766259016 -63.411302991373930
106.876340737961783 -52.228103189662427 56.485920583843601
107.096418068616984 -52.515538219508073 58.990705343429156
107.652756155656022 -51.906918997471116 -64.663266753488614
107.654648289306053 -52.513739783077440 -63.458408557676805
107.484049866695827 -52.526289950200464 52.722256407671551
107.641357831807895 -52.194455914692107 53.481030031289627
107.372563516314159 -51.880136284771517 54.671541916677405
106.887678402840734 -52.071885709710408 55.753101603974379
107.371339134728828 -52.768660305111922 56.288762257697421
106.853891825882471 -52.399563540969062 57.368860888894687
107.828014719166632 -52.906348491634688 -97.564532888433192
107.818115491844452 -52.770897468373612 -74.224454502667072
107.811099680077405 -52.632530352103466 -70.094273818220159
107.624374797738895 -52.646523424347677 -68.865447026420725
107.847286776450147 -52.102474226916172 -69.525686295680586
108.228804177939807 -53.060473172849548 -68.496265318314641
107.748731784079865 -52.617516489254150 -68.706623174507214
107.930584663740262 -52.353342972913374 -66.947861068522528
107.760145394766795 -51.933057423754704 -66.490824938337312
107.848571242146704 -52.036650757290310 -65.227534139612487
107.942191494788787 -51.936238287515152 -64.793032865479987
108.104683072801748 -52.387126450834607 -63.445698932388453
107.802662641935171 -52.906213703130952 -59.702305991705700
107.632202132742805 -52.517228544288159 51.898289181168018
107.532447960990382 -51.962248533995222 52.735045054840725
108.015589704981480 -52.055984896704224 53.130560011759378
107.297004850720228 -51.834187101356093 54.457277570142374
107.203732012993839 -52.567926714732536 55.804958093479605
107.549638674305214 -52.681469335167854 56.606486956787172
108.693116098678601 -52.506544026300610 -74.280416174768163
108.451665316462069 -53.074009188568034 -70.439295786984459
108.246343491981918 -52.205686525186799 -67.375244362333916
108.339816445540478 -52.402621545662420 -66.604417284359599
108.376806209260209 -52.291155212488434 -65.293310065372822
108.461469122991446 -52.713178036179336 -62.435270768520475
108.299914751201626 -53.017035536760062 -59.645811912837999
107.964760812451061 -52.811251649911448 52.005639343561107
107.958845166875179 -52.085883850988125 54.994820022573926
107.903039948703992 -52.514429428998760 55.725091218412722
108.100029555718237 -52.607291995007067 57.071815486846717
108.949008237646723 -52.823055230088009 -74.188808524590570
108.502801540695287 -52.662051512374916 -70.952016518934002
108.515205800786418 -52.571922159658428 -67.686186921061150
108.574178580526379 -53.004255226956317 -66.163755735175386
108.202057570628739 -52.114610420232218 -65.083738199814988
108.634224467853542 -52.201597223182524 -64.671636052697011
108.519272722337604 -52.300098199462788 -63.580163364884555
108.627118256567130 -52.937113312165515 51.311212392609995
109.094687685126416 -53.236246010870381 50.566280447446573
108.781438440379318 -52.184723327002196 51.719423810795220
108.362159671150735 -52.072523293244998 52.852205373667196
108.882397320589490 -52.236256522468466 53.648687334359806
108.556059956469184 -52.305485342389701 54.478106612801945
107.867156990590516 -52.440536702391597 55.750148499376472
109.006990562034488 -52.568123467051421 -74.817029151930640
109.348381852010831 -53.238046432841486 -71.613167530329477
108.974998724465379 -52.726742487586748 -59.691028319433769
109.021223319860226 -52.303685455932339 51.728845740755673
108.916218530792364 -52.036578649724198 52.811719796519107
109.055086121611296 -51.944538673263104 53.699265122840480
108.874120089056333 -52.818774303608954 55.807442645178234
108.798830237011032 -52.303590700177004 54.866374659534429
109.565902926348130 -52.970657074219588 -75.203676373649841
109.889795478565546 -52.628022621912820 -75.048599180382013
109.606553040862963 -52.726977370121269 -71.900519761802016
109.781285427357034 -52.314913581008291 -70.986030942628020
109.123235076564512 -52.845121133919726 -67.816370476350158
109.435243250576491 -52.275053831426654 -67.499124748049539
109.088103588237743 -52.178576818149189 -66.677580968159489
109.591890810586975 -52.066715487196788 -65.207709366217614
109.658105658425583 -52.461318452748998 -64.489074313648629
109.126466656964254 -52.600573372096946 50.513974329899362
109.717783555360541 -52.604452681500874 50.716020934955559
109.343271030514728 -52.518816618410170 51.555184000335721
109.099819022546114 -52.190334677184481 54.767914426710789
109.947896153807363 -52.785520763012130 -97.238741346724396
109.826819513056407 -52.831904764405365 -72.052344759635005
109.753637302973488 -52.377825598756587 -63.918072337402265
110.012602440381571 -52.501152151926107 -62.702391621509648
109.949362978233424 -52.794101644565693 -59.542631100340692
109.494968182788327 -52.820586527401147 50.754424874049953
109.558887261353291 -52.298186397471419 51.538321591229945
110.084292313855499 -51.916625402357610 52.559584261658898
109.779826678587597 -52.497536969063681 54.051327050828320
110.759239345033848 -52.689212402102193 -97.202262067134768
110.337287241232545 -53.291811694724700 -75.317417821492995
109.956040611019588 -52.310285566694006 50.915942012098157
109.744900978657483 -52.221247436391415 51.737677925032081
109.769172404112112 -52.251022182051258 52.464291297746378
110.197916424204180 -52.344741504378071 53.911132305166504
110.865005085073264 -52.898449300684767 -74.665372895485874
110.667180179287996 -52.808066021283125 -72.181215619368288
110.787669953434843 -51.980006289130316 -70.685186344323000
110.782157147621334 -52.441501725356687 -68.334438615833491
111.037102329100676 -52.716266108656782 -67.157929277332570
110.603309761760684 -52.312919101128152 -66.743887805467011
110.758236254701174 -52.522625859133981 -65.551653720663225
110.438201360941065 -52.648834554063690 -65.112733415580067
110.307376121093640 -52.946446690994698 -62.561026906027081
111.074145306316325 -52.849968413712553 -59.460734459501495
110.298302196239291 -52.465419801901533 49.569653223534530
110.046778153366716 -52.368750382587159 50.306908030093616
110.278879091903249 -52.384101071713019 52.765679880590440
110.817840586347188 -52.440066513799167 -75.779497181701274
111.080789649270244 -51.963796294078548 -65.481979383969403
111.448028203646828 -52.670303642536730 -64.466584821901833
111.268595155660307 -52.237095535966482 -63.970858882174682
111.251161617860689 -52.567188895212141 49.176315558475508
111.013639218278541 -52.607251198057000 49.652857838734874
111.337355776960166 -52.356422499542546 50.772749048787247
110.717666703197153 -52.632377609930913 51.344239438466637
111.689266785015633 -52.954049827381205 -75.849361980707641
111.197081637130736 -52.468257948636257 -71.588339493805535
111.731736053163885 -52.785705685342812 -59.356089186046887
111.148584126021987 -53.030332716249148 49.393348001513495
111.249132584652784 -52.498983428227696 49.830831303235797
111.406054229384807 -52.268201298781939 50.980541453335739
111.505950827270937 -53.148423409443275 51.815895343308142
112.196510128932246 -52.351342232215949 -96.794923154836937
111.897154018417609 -53.356833933679425 -75.868134921786861
111.797078808604539 -52.660007955727409 -67.703274566191283
111.651571247465384 -52.144213204246647 -66.241037739341564
111.838365134825281 -52.446933249108085 -63.194548095342228
111.936011159007521 -52.765379881861115 -63.010353237513840
112.010469850686292 -52.027269961622714 -59.709165446587754
111.802674020951940 -52.850670327422428 48.969267807675443
111.822209784442364 -52.895671478128364 49.964522573540080
111.944475324788485 -53.022267530042619 50.947719569811660
111.946426904282731 -52.906239161270577 -96.882720033732113
111.850229022145754 -52.998219405436956 -76.279774727068926
112.755168936801383 -52.622162466496725 -71.733756718452682
111.803637939845046 -52.611300128013028 -71.218239469388990
112.127548603123813 -53.018251498195404 -67.617456454850924
112.555568259366993 -52.338276692861960 -65.431574930213060
112.241021364954449 -51.808748161529991 -64.520517502951535
112.304167725502339 -52.324906638428196 -63.630948081510908
112.322248026775455 -52.312259062154823 -62.815606201568379
112.460809631816247 -52.772593142936230 -58.695254506996321
112.064550656821652 -52.407882947243863 -59.721340556010141
112.183846278751489 -52.890468949214359 49.163180831124642
112.388668450958647 -52.672743610479777 -76.680746766345493
112.519830108893856 -52.868796558372267 -70.726084251281407
112.419951578577042 -52.032987431622637 -70.357074558630586
113.056532170425442 -52.644893477795534 -67.400503730593201
112.483888324604692 -52.548495136878095 -66.028077017178788
112.284593612864128 -52.935881351677310 -64.731830214096775
112.587901275060389 -52.708501826770025 49.008261386140703
112.053999279838578 -52.434166571171247 49.953073178519816
113.388071995378965 -53.070003826941061 -96.670594913132149
112.937346011859418 -52.892307663459682 -76.594372586186807
112.933405649449981 -51.791290636806750 -70.069314560609286
113.314048336796219 -52.720303550053217 -65.082826908357973
113.087985710353152 -52.895241097459639 -62.390802820930730
113.016714594528523 -52.640307714422164 -58.897849013808830
113.150680013779038 -51.875819910164331 -59.529620251316629
113.505470813729985 -53.304643959446182 -96.490638305713304
113.965044588626682 -52.757644791514068 -77.925979357104353
113.623501776666401 -52.894699083188328 -71.252852688131995
113.662318504072573 -52.152465049643546 -69.992945466434904
113.549997171886488 -52.781886488165284 -67.245724762955803
113.465554751763193 -52.232024495975018 -66.206199066414129
113.739262231149695 -53.035861800590816 -63.460946033610767
113.382199483561408 -52.233227847143361 -60.045475871630131
114.029677078997565 -52.643915115027163 -96.027139701440149
113.756721079348637 -52.789992359279879 -77.878108653252966
114.545441099302252 -52.865459881159715 -66.021314873183684
113.297779282138166 -52.091354768765100 -64.564890105642391
114.123404298574769 -53.110038861778129 -95.848614482629557
113.959439145683902 -53.111410360124829 -78.179978268969947
114.230795157018960 -52.940320159444219 -65.639675419394621
114.200367176405919 -52.439158004664087 -62.555484945422080
114.468875412872023 -52.007045190660442 -59.611581562869119
114.876783220064610 -52.965560931482038 -78.065287510628352
114.935470835375696 -52.761498747079727 -69.993725852365756
114.568484168735367 -51.971261189405361 -69.053777889038827
114.683973422523025 -52.839534557005862 -66.197032447298454
114.829485202796093 -52.820483271573686 -65.422931071170723
114.518008192933010 -52.388080602315547 -64.564520068633058
114.741896046997596 -52.211662396403298 -59.814807039607253
115.311787670866693 -52.651315348924307 -63.476681272692062
115.040636657743534 -52.779435032085033 -79.618104906437836
115.564853768036713 -53.037832867494252 -69.410393948385376
115.218367910997728 -52.476830604938336 -69.275174017767355
115.499167434450641 -51.722846257560668 -68.205560617360334
115.179106747814728 -52.652191120297708 -58.527339481461645
115.773566226027270 -52.380676942263918 -80.372928191422062
116.044529364180718 -52.173672148645998 -68.562582858520372
115.833630745005024 -52.120418258227879 -59.443233698208601
115.670867107244931 -52.562531088942499 -58.763772919267083
116.091816226217816 -52.620750924167282 -95.921326841029526
116.264399554644697 -52.628994316547242 -59.046484703750622
116.138443896680158 -52.591196672667245 -95.650020921553320
116.820120992320113 -52.858303613434423 -81.003973375712377
116.769504568484450 -52.554541915704867 -68.211716870701068
116.582591229363828 -52.704289087634535 -68.050746201661568
116.708635170610464 -52.163340260077042 -67.657780218467408
116.944647245571502 -52.269100287557933 -60.057436249824789
117.364018607746814 -52.818965109959322 -95.350425972998423
117.262700524040284 -52.724434846062628 -82.090027353141352
117.159679989475791 -51.701528946438316 -82.863498225391623
117.051318000049605 -52.680904689532952 -67.737329205033518
117.216385869996316 -52.143088662997876 -67.663877653069434
117.005791831244238 -51.954267217588857 -59.651043058325840
117.217393965995029 -52.957647516527622 -58.862899797365607
117.489221898542638 -52.705910264893923 -82.820434629374233
117.856488694590027 -51.790102826397224 -83.774203009129877
117.045651365798378 -52.247381771670383 -66.995688476206567
117.566308236308217 -52.512577777803479 -83.706405560818965
117.710383969781091 -53.183358220989646 -67.482845610848628
117.912423425698620 -51.901473021867353 -66.090740268266018
119.133600682973679 -52.870854774791795 -84.016389956179921
118.760381273544326 -52.564654056824580 -84.495236220599494
118.382163514995341 -51.886265433380075 -84.593912211191395
118.533549919817773 -52.467071366434674 -66.147173579342265
118.427787840159766 -52.017831107217745 -59.522046127979088
118.343283306042949 -53.156071816713727 -58.994984202533260
118.757234871049477 -52.067693146301870 -85.155814175460009
118.751361168589909 -52.673998304625215 -66.063548599181303
119.121212536505297 -53.185486167524161 -94.210602664060886
119.192158167873558 -51.445725279900600 -93.765309206403344
119.584539133236191 -52.669707178856854 -66.203240818150789
119.167116561766292 -52.438631928008220 -65.698701775856406
118.980288437473618 -52.248506036283352 -59.495185267916234
119.795079365318188 -52.668800098946718 -94.431898767233022
120.027822627208664 -52.545631175903829 -94.066418331340287
119.536971667183337 -51.986041009976809 -93.814929424034858
119.935588389368903 -52.712992661875525 -86.493850379484158
119.759314168883876 -51.659535297286354 -86.404283899784630
119.335738811107717 -52.344721301811731 -65.113727902517738
119.540630353806250 -51.819493583536527 -64.349145002317286
119.562323672239984 -53.028793715583497 -59.030144578996911
120.168083049236756 -52.757368811596812 -86.579194592487767
120.122566582608172 -52.804195643578808 -87.365485654593613
119.935820169374168 -52.315707269252862 -65.571891822552075
119.399715436255548 -52.193782701616350 -63.352020803208916
120.087026990945574 -51.758507262315781 -62.996844074753994
120.213788879482479 -51.670257582130013 -61.421553034194361
120.095228313884931 -51.854861342059500 -60.697513434196040
119.781815266149891 -52.197397931430821 -59.691080993078977
120.423428710972374 -53.359033532455769 -94.041628126267767
120.267743483810207 -53.074052159409717 -88.124220342492691
120.284472822402620 -52.369113699445400 -64.159316798887602
120.434867145625603 -52.244902292087147 -63.442117862695284
120.561025298881319 -52.758093663413909 -93.324474981725814
120.714816386572849 -52.908791754601367 -87.896528206163325
120.869918383310065 -52.682454431985171 -64.634677118857454
120.488863742652768 -52.535011247636120 -63.461172612841807
120.404731913404575 -52.011759450874827 -62.710174138398528
121.214369756912916 -52.055108459717829 -61.303235290456399
120.689320581637972 -52.059128775641810 -60.840302931069857
120.866478844140261 -52.726670602069220 -58.521991088583995
120.683885126807610 -52.236050947756489 -59.681071475144499
121.147155706995704 -52.950341358010967 -90.185260700892400
121.530472363001209 -52.873879099458755 -88.674015675819845
121.086257263500428 -52.908755088701128 -64.683401382470493
121.048080155557543 -52.174310743358518 -63.472416477838237
120.949394235933141 -52.099480635372487 -62.839091291900708
121.351897226367498 -52.380711070419075 -61.433212317875878
120.860165538493334 -53.051273066045646 -59.567214897245208
121.248746869229365 -53.056915391537373 -90.939295571102619
121.421074401090692 -52.280928811517768 -63.332636731344138
121.991165350907394 -52.955240193850038 -63.563355718931476
121.618817745990370 -52.628625756259169 -62.966032728852795
121.959818959339273 -52.684323516876184 -61.658072353946459
121.977396520494054 -52.769688040024086 -60.416433196887382
121.894013568781887 -52.942263769911783 -59.820040646501312
122.639257929447325 -52.983863023570521 -61.531146009567031
122.954769697909001 -52.781139223041798 -60.897502764360560
236.882375769449823 -52.404110375674726 -3.326249073374945
236.541574372334082 -51.827598383716982 -1.960502482630330
236.430102177875398 -51.795848409956847 -1.260729538722170
237.163768923313683 -52.897256017195268 -8.235188835573561
236.936341469888561 -52.789314379613465 -7.287913634037091
236.978366932287400 -52.648426587545629 -6.068018351155336
237.558920893201361 -53.368360845636346 -4.851611367310694
236.807783520037447 -52.864346850074341 -5.301769583088989
237.218989198086831 -52.839956111598667 -3.923317165107187
237.122738899636317 -52.704430406326438 -3.632337052181842
236.907928797149083 -52.098695893082336 -1.925154430009541
237.244549945966412 -52.531049135707960 -0.682063612735487
236.968050716874586 -51.796073793255246 -0.447399499284530
237.109258200688203 -52.350379623397053 -8.777008051429423
237.438679167632330 -52.801775712753887 -8.942316992342274
237.279652028102788 -52.187967677868251 -4.333923135088201
237.773891788976869 -52.206638119826039 -2.638193974997211
237.307797623087708 -52.046246580780455 -2.276185076839025
237.564534603190538 -52.549966025100197 -1.083734746228181
237.224655829593189 -52.273511591930415 -0.967559367794210
237.280811073985774 -52.028975479876920 0.809534297236258
237.206625021267399 -51.645814363279534 2.802708379829813
237.491190858141522 -52.496054098502832 12.913364642073022
236.813078818805337 -52.433865570787745 14.368203723774103
237.956687249168738 -52.618884510181658 14.929957473572333
237.266003217371548 -52.737277154251338 16.133154012133090
237.556445170589285 -52.274615137417108 17.083202366991962
237.767976975847347 -53.069390411106774 -10.270558036889936
237.579795970839911 -52.660000378021394 -9.593564927665584
237.987399742773817 -51.891291267765062 -8.702024488391055
237.847483984684800 -52.634563698064440 -5.198443830073746
237.654475618511810 -52.344396190462312 -4.147320894932450
238.035280063006297 -52.211000605002972 -3.025513262653506
237.461231202215060 -52.036295550640695 -2.072875579433271
238.002571900627856 -52.090678708511071 -1.143833438779068
237.920591532070262 -52.409393922419923 -0.102078400495417
237.957086413496597 -52.226261026573120 0.334712365726617
238.060598540394778 -52.679869012289309 1.597161365386718
237.932499187078037 -52.023237070160995 2.409885895743557
238.178196671217137 -52.463381930615370 12.210351141444550
237.712831414123968 -53.030859784473954 17.621999227808498
238.093468311512709 -53.008120964267121 19.291721850729530
238.437138064193988 -53.080388671141463 -11.349746982631210
238.136137721164346 -52.344148252153552 -11.284338322494653
238.181618628519857 -52.163258459459115 -9.676424198521659
238.046167234862139 -52.352203745315208 -9.024071532598883
238.494991315643290 -52.217415097625562 -3.973166282293780
238.207801819457814 -51.955221976204115 -2.969048650600794
238.233366263217221 -52.101004647343423 -2.234234243645390
237.645500512843739 -52.648558045288347 -1.308965654250564
238.321265513406360 -52.673152731824217 2.891356888623779
238.423142528137959 -52.051991336770506 3.253287284707429
238.335267554938099 -52.532816693175874 11.307424496727661
238.160377525994448 -52.894525791845489 19.420277719670239
238.581744200688121 -52.871547802444894 -12.032126322782828
238.709621073745438 -52.461978553191372 -11.973337616192806
238.668532238195979 -52.680239732870469 -11.273565699861297
238.879271242801877 -51.956240324045133 -10.128296832774170
238.713329385690542 -52.066981655177770 -7.917052226093039
238.320538922435333 -52.246948997636643 -5.193891527906799
238.689080896263420 -52.185394258275430 -4.640776879132049
238.573436061842045 -51.797232627189246 -2.773939374044470
238.159959585124852 -52.114854928391644 -2.318645674343976
238.461621297049845 -52.801019679811532 3.526993509268804
238.679289065823269 -52.724805286369744 3.599227602003840
238.885678467850880 -52.916813165911442 4.591690582739586
238.436551040020504 -51.597231426984237 13.571829499742311
238.587854908475407 -52.802819002278341 20.552621369421942
239.362747723485114 -52.061255729042166 -11.653987679794758
239.021232736348168 -52.243383050692323 -11.159391321328135
238.547421670647140 -52.214123095590743 -10.357882995033345
238.822964050265313 -52.070527772345102 -7.881902371988188
238.830067984396834 -52.540971678424647 -4.516158649029359
238.800156852194561 -52.392155693137056 -4.277231060700414
239.126007823089225 -52.626484510961284 -2.334346692766666
238.827543861746705 -52.173236127945330 -0.195152660702330
238.904614643026605 -52.207009340036805 0.621066516380708
238.941724021245534 -52.356079973419419 1.420469762909748
239.314246782770311 -52.287733874105108 9.127559656941246
239.043898119298149 -51.614771404954261 12.220628645162197
238.986382469845182 -52.047240990252085 12.825749035743932
238.840592382906550 -51.995208986624135 13.842331638411974
239.060050442360762 -52.923929731052489 21.104849588041045
239.154645415422806 -52.800511787996918 -13.403346364849950
239.895975213192401 -53.108851325811777 -13.604084918954191
239.141180880561677 -52.706681710450816 -12.830790455022017
239.274218966638074 -51.944342595457549 -11.603279164844725
239.221453937248555 -52.170599044908393 -10.955414943572928
239.454529169052364 -52.243503978389683 -10.190568488400670
239.220737529853352 -52.283384846377260 -8.082464475488068
238.986159099563849 -52.021284688137371 -7.122910221551564
239.154131172470329 -52.688688280811689 -4.110190013008364
239.317889808490094 -52.272745363774035 -3.500553257086291
239.060083449389310 -51.987071651258077 -1.037340947284267
239.316476655817752 -52.325111290553437 -0.317295177023455
239.574768567156298 -52.711945909305456 0.214991057079117
239.282175236118917 -52.464411617818300 1.305089764277724
239.602488106808977 -52.369807121200253 2.520512403676322
239.917362341283877 -53.041880648634354 6.113380341314466
239.135680618806163 -51.955442504051760 6.161257943912836
239.546961546563580 -51.921759899272416 6.987878335162909
239.500191197388347 -51.833300025838817 7.787492414100210
238.904503803236679 -52.043118417051957 10.860987891543052
238.919113940419265 -52.330505572461981 11.634527944191976
239.240257543776664 -51.633943835542944 13.040635854850978
239.219410716743880 -51.919517938831760 13.882351574960328
239.435207340283995 -51.771953869035144 17.883869692668547
239.089715932332240 -52.788372387682301 21.878959975030437
239.772316899647848 -52.100232397367265 -12.715807798524601
239.779336871148189 -51.920580242276458 -12.028164907020995
240.314175087767723 -52.512955425019058 -10.778339685235929
239.859526783401606 -52.262192940095439 -6.698064052881599
239.827414448198880 -52.275416843499798 -6.267814370406994
239.539837452052865 -52.595700930708581 -1.105194659166072
239.859667358096374 -52.595166864574999 -0.486850565822094
239.600741181115467 -52.338425298497903 0.453187745166677
239.864743157004682 -52.554755310921486 1.619012210966843
240.122731204460621 -52.223999594730216 2.260613138521073
239.638208257921150 -52.287912445648956 3.493671383465877
239.650275076639645 -52.870533948814938 6.060065119306630
240.138820365351194 -52.465392913678279 7.569442136591246
239.486938071577868 -52.038480794654312 11.560796851287597
239.715706834367126 -52.169751663038909 12.292073910759271
239.667364477121851 -51.891576527221766 18.332463792818857
239.918285048346490 -53.223317050490742 22.191310326799712
240.392341770637984 -52.601203046711326 -14.356673645790691
240.186397339294132 -52.100327003480807 -13.272581988016563
240.187554381040201 -52.443360498921372 -12.553561718486275
239.677600445806263 -52.295429070546326 -11.982604229602650
240.228539200181729 -52.953525416899133 -8.665496416721052
240.145240152321179 -52.664096569160648 -7.793963543585198
239.931710081319551 -52.265024874305468 -6.829806785262785
240.458338432543144 -52.629059488902996 -6.218623409975813
240.280342893704415 -52.183147177461571 -4.520676313786042
239.772807366165324 -52.000037284163419 -2.114924517107214
240.371606606456567 -52.378883851086727 -1.081269546081272
240.385560243323823 -52.113080858386610 -0.349898437465617
240.067094588975181 -52.247203284177786 0.491832559477759
240.022875107299058 -52.572227694859521 1.526185310715783
240.343568976930584 -52.350346309718176 2.458314078516070
240.698840056279408 -52.937348175359212 17.073979059878624
240.245250905130291 -52.947076220402948 22.545218734128298
240.658525080317474 -52.205300628948443 -13.609425571468392
240.947110879245031 -51.706050663332007 -12.909557259077642
240.354566685466210 -52.471359705044591 -9.660309891633684
240.661365351961422 -52.554689193931154 -8.562960850039589
240.739908441181086 -52.698522684125827 -5.292326425236374
240.330091224452900 -51.555045953959187 -3.753232100183031
240.463758561179588 -51.992940788637291 -3.316192509888034
240.505842214089682 -52.014048890262217 -2.385696221574320
240.637821331626611 -52.249059003814793 -0.778093457681353
240.505056489931775 -52.570981218919272 -0.153022666789972
240.813059737624059 -52.333117831827884 0.897146237923080
240.402991895017550 -51.909914929291745 1.465436149484909
240.677153324760354 -52.095090671736990 2.514640396184211
241.020331028281191 -51.852736199872353 4.012576112403409
240.872679999864516 -52.218459228481443 4.569807824672528
240.823044743160722 -53.012445733502823 12.454493023206576
240.365301647160237 -52.420505408672163 14.055816195158132
240.374035534014325 -52.970919641260153 14.784456630340554
240.684149239369589 -52.803247519185035 15.427098610262249
240.317227854405047 -51.876526776791827 19.637594397881291
240.511248708206210 -51.960493834299406 20.957429742581848
240.496804212862742 -52.999217010872457 22.881738587891554
240.879759433572957 -52.611203193794964 -14.808251455653442
241.199775865314848 -51.879244499257226 -13.179606628499009
240.825293876984347 -52.189036201574673 -10.491399313092076
240.829151056932403 -52.530556065267390 -9.905976296755560
241.355446314137083 -52.857559423902231 -8.960089300092557
240.975585227793061 -52.473493963318916 -7.781912722589407
241.067913583567872 -52.579690986817553 -5.717449267232521
241.094096412396112 -52.237099282491940 -4.085640223363300
240.920602484056616 -52.120127787735115 -3.058609748860550
241.078872063478315 -52.184578188183266 -2.031739400247602
241.003348502891384 -51.758246624104707 -0.849005428078856
240.556792024076401 -51.749687083092930 3.837337789417109
240.974819023121057 -51.365230196939301 4.150990298128688
240.894607141209605 -51.801938263696854 5.072532516432370
240.992794877962723 -51.838266393711876 6.281260985876333
241.024064586649871 -51.858644910167321 7.631518906213368
240.920689727975088 -52.432037564683704 12.995683200329269
240.862806883006641 -52.144085423191207 14.077180694851645
241.107987260761490 -52.342309740645142 17.096965216839447
240.694428989368163 -53.098819274226656 17.551308368922605
241.094784815452869 -52.215596793189221 20.453823359201689
241.389344440620164 -52.465707272051283 -14.866138763355133
241.814931603982359 -52.496141758447841 -14.584813236329957
241.402107592797336 -52.388022022334432 -9.789563748733070
241.256701000994155 -52.611449880693186 -9.193106915392185
241.760798679211376 -52.369340298273201 -7.994148248988886
241.396670339633602 -52.395298383494868 -6.919151391344856
241.476016399364283 -52.277113412176760 -4.853815957260243
241.668840028024562 -53.179714021833291 0.496930419684822
241.885846231750264 -53.187497603927376 2.847089952883223
241.203157895139924 -52.087326767984727 6.201589787141132
241.462527970438401 -52.953536070439469 11.166844957241876
241.683098898171153 -52.363265037859485 12.133364041458652
241.329377985341353 -52.682447921326741 18.519087246605896
240.898780828225625 -52.596195642274665 21.569204980213225
241.292008815647847 -52.947335178378943 24.095501219008923
241.879240559121598 -52.714059393878394 -15.168553487260784
241.601918165246531 -52.930164462034583 -1.640318095774112
241.870099179287024 -52.743958303068851 1.174840177573131
241.717571241790836 -52.525673701101546 8.778232690772379
241.767640530986426 -52.591383478816979 11.446406605200442
241.929337191230445 -51.548773430195880 18.990518170378287
241.707190979684441 -52.322440331327080 21.110635438572213
241.622049138470260 -52.817552891916655 24.132007439941688
241.978322819081455 -52.830579945288115 -15.611549407339275
242.320599146415816 -52.590927532278869 -6.422006793102005
242.321219447466120 -52.608191335781811 -4.090192688510407
242.052123655183237 -52.492646427839475 -2.211475773978191
241.710718794571619 -52.285337732134550 -0.092916117250360
242.175826148613112 -52.104194099258223 2.530637334850289
242.202756839378594 -52.541216506082002 3.710477712203313
242.171480622604236 -52.852383891993711 4.665174324877436
242.259881846897031 -53.021072761946243 10.167471060563251
242.460820879625373 -51.768594207846277 11.206846083760110
241.706983191615194 -53.101262536282519 20.116594609183963
242.142197826296297 -52.265515760243922 21.723869058716620
241.814425886569637 -52.755007541726982 24.462619804837711
242.749452485406920 -52.904984381217041 -12.555701000477857
242.479298852987512 -52.687701545642547 -12.013946271326095
242.781941117698892 -52.443013816773920 -10.792453226744074
242.601729791433712 -52.272350850220143 -10.166200600568413
242.581882525582557 -51.903464628380718 3.465929450015998
243.149683630511106 -52.762224006591417 5.344567683113956
242.376509854351241 -52.081185228217414 10.386149470141291
242.135589767315139 -52.883490718777267 19.349364813005799
242.449929336705395 -51.966633043539588 22.445163163781373
242.986886143048849 -52.379596152165966 -15.566735251215970
243.046177397686648 -51.981484948627902 -13.973284425040619
242.955638567136589 -52.898109583248669 -12.713606080075406
243.069904644347559 -52.267473600206422 -11.377545867341905
243.023204771137955 -51.986078361961241 -10.963441505900425
242.564199508775005 -52.623117641393677 4.302902201500244
242.829685254842275 -52.119693794291692 4.961883434464094
242.672218688445071 -52.741934625035739 6.295626264842706
242.932907241730931 -52.719080967525947 8.667354535002321
242.325562318804003 -52.233417015520480 9.122880103699623
242.756320820160852 -52.760758672477557 17.794099449592146
242.737570532085556 -52.696151297161670 17.517029798339564
242.882442545780663 -52.387316361651841 18.996575783058265
243.161182175667165 -52.051994286483939 19.596377314111223
243.194459325916597 -52.188363877589360 22.457709225307614
242.685074720204085 -52.857412289935340 24.664525373800334
244.034280943589181 -52.171404878261292 -14.621346483541327
243.506099084239764 -52.349133547562701 -12.859894609685245
243.567517976677010 -52.697988000788399 -12.030309732215949
243.171736440582208 -52.086366938077177 5.340669696814253
243.281192037608861 -52.124897800139173 6.336643690792351
243.115898038031617 -52.657489680256091 7.281650997003292
243.088459954820621 -52.011346082378139 8.332613686823560
243.376319538211931 -53.004288841269123 17.073853716599636
243.429649296121823 -52.407769494512415 18.054641188491740
243.707282572390881 -52.290618918759257 18.621490911040425
243.556568788281908 -51.755060269631606 19.677150739665304
243.302220215635117 -51.920186178258085 22.992331781758370
243.558392120506426 -52.747464303064731 24.917121467091423
243.734514773682406 -52.149381736155398 -11.843685849703796
243.852548577121269 -51.438924686152177 -10.899560860292059
243.917332515243771 -51.858951340421470 7.504750090861916
243.450909396814524 -53.010698833912599 16.522171690790834
243.505139160050305 -51.703666466067311 17.896953745084801
243.549522779614335 -52.357381030742978 18.958127480571868
243.850118483078433 -51.977599095913746 22.241726631803310
243.686369953162142 -51.689598759847478 23.526879307053651
244.002357862300045 -52.668552281999645 -15.413094985565589
244.198576120926106 -52.620109126500601 -12.715073038157547
244.171130327494922 -52.412650480300123 -11.533657373450742
244.015653658165178 -51.806772348141536 -10.715933983640960
244.391257123964436 -52.947871969272171 15.348576177474088
243.967031661459345 -51.864902442763118 23.455061763241357
243.898314329419748 -52.756641495799023 25.158719326410576
244.606936392080030 -52.944286119995105 -15.710479518162984
244.294812799580029 -52.118432890059033 -14.259990623953483
244.745754772811864 -53.040084509644288 15.170537351156803
245.167967067772253 -52.701093443814415 -15.632040293130185
245.277435401586359 -52.272459586088345 -14.675305304721855
245.005957317328352 -52.621025256440859 -11.387062872535454
245.309645611368438 -52.071448283360866 -10.736239603206073
244.695383854672627 -52.716819851656822 15.276354404390379
245.317034157868250 -52.269017827895269 23.686143172596857
245.302447372689755 -52.903483938039095 -15.379866361791429
245.597925764498683 -52.146848294268558 -15.447646339171119
245.770917151076645 -52.094144313426185 -13.638983668049372
245.270309175093814 -53.077716545947503 -11.538212188549661
245.321915556620752 -52.545875140679378 -10.807975809264242
245.482512032693904 -53.406670539320196 15.079983981993939
245.402698241209350 -52.444089732785400 14.684594343196352
245.952627913552760 -52.071031166266039 -14.740532476671309
245.583474366578002 -51.921924257056467 23.636397082863557
245.422428866579423 -52.979179077224593 25.673267147520804
245.968599273585511 -51.828410544792582 -13.333509215119726
245.853104032162264 -52.396650406564184 -10.831271224464192
246.426350512346062 -52.968427988746562 14.672700873376380
245.735261455091432 -52.088795742042521 23.700215763771755
245.916629279310087 -51.983518575692429 24.606976082525811
246.262994298799867 -52.768051316890123 26.338766502755078
246.873301279360305 -52.783725146307710 -15.832826792153572
246.529718131834414 -52.568927285757084 -14.567801695063103
246.617724626596953 -52.142902549590012 23.495797781790213
246.608526447752013 -52.271883380742594 24.597881596383843
246.646680450681430 -53.128953559869259 27.011460557542271
246.930484847194577 -52.422398693852521 -15.123666548366085
246.836957757906220 -52.570705798857979 -13.563073868427992
247.138442561693097 -52.753654113947434 -11.265544502049558
246.740693547701994 -53.050692757279421 14.075537033009857
247.386799298313747 -52.949338628549313 13.896995831315131
246.900219085372441 -51.864270615550943 23.270824840699269
247.085109713409565 -51.985781562378392 24.218135881539720
246.767692906640377 -53.079401181167206 26.705972849612575
247.677090911807255 -51.600328602335509 -12.579062598887203
247.131405240063117 -53.325536569898098 -11.191418268593912
247.116896191930778 -52.782276060619715 12.809239676398665
247.460720289396733 -52.705204026969319 12.161421234909728
246.915540762253215 -52.211308420882133 14.443927149832295
247.148694837726396 -52.528032635982768 24.626003508476540
247.015284420366072 -52.583591547422486 25.385263355234592
247.507038596505993 -52.763913056359392 28.175869091950617
248.077208234202601 -52.155992801412864 -13.403349138101866
247.526446641996671 -52.308862813704280 13.217471815562860
247.785219850066056 -52.388614045971124 25.616869143818420
248.045175735823705 -51.702002359107091 26.374524998572770
247.948450513992213 -52.768628484507182 28.504563549067097
247.823937790158681 -52.829886556887750 -14.788227932670276
248.139315961270341 -52.862472128822041 -11.185966888386332
248.137990127564620 -53.130939317496555 11.595544064194314
248.157696326380716 -52.813263954771749 11.908585399427642
248.088187236990308 -52.269622136731911 13.080349071530735
247.986574032879531 -52.442614519041307 24.262139578091947
248.058352282337864 -51.938415099349562 25.398498094268280
248.146334094838267 -52.300900742338825 26.379852223352650
247.736967561276714 -52.699095727815916 29.343559794396104
248.708807609075365 -52.524110721278603 -13.247704245258928
248.404556745798629 -52.229835449802323 -12.361621895836908
248.267286031068181 -52.769963437150345 -11.061005884644867
248.805319761779572 -52.507011584111396 23.570859108328943
248.125312861077816 -52.063802298096313 25.259847138620636
248.662705880830629 -52.430368012317359 26.847679221918426
248.164717031856952 -52.190918588681200 27.357878947993875
248.478452340098102 -52.910933948578894 29.779903623158191
248.711341857578617 -52.052661724268077 13.123412871463819
248.835470340365788 -52.738309881458768 23.359174772308961
249.136687874183622 -52.440496488935111 25.579542094809007
248.832662888373335 -52.407898859073505 26.063987319958535
248.791920852740532 -52.327822881851645 27.025430437715961
248.709743965108061 -51.848089098721140 28.492851168367441
249.443200460851273 -52.756954791990538 -14.642060922690991
249.659273702939942 -52.558805854777162 -13.336883878351612
249.090529915226227 -52.717711150358539 -11.538951735598950
249.434465920231986 -51.724749181168050 -11.155388507471017
249.392941930315232 -53.106064786038132 12.375550644722907
249.250333501684111 -52.371250791880009 12.978471603793107
249.248307278459293 -53.108613984998406 23.233525241179532
249.033403002556213 -52.407073476548533 26.542776813385842
249.419310741358402 -52.550362031423390 27.232397930351048
249.366547856693700 -52.467284263064265 28.422305811874413
249.786889532487123 -52.791477890651457 30.822092388733413
249.752214528154042 -52.558622544427607 -12.856839738398341
249.756442011730741 -53.208285161807076 -10.970942922466639
249.703966776303560 -52.717115431169930 12.850657228882120
250.149084676641252 -52.731009627377667 13.188586373138866
249.795831290347820 -52.047284773144696 26.574939045743825
249.590839430679608 -52.521308624801115 27.199205323018237
250.051056000273178 -52.338242173945105 28.022645897646356
249.656266162822391 -52.251546998271657 28.884703059174420
249.680087863554462 -52.641513288962514 30.706881187618055
250.011258746435402 -53.179855923360329 -13.511025186634724
250.526039522458603 -52.150938236548534 27.862390527226580
249.957351220292054 -52.343253615971037 28.228856402673639
250.421577327658383 -52.106654368562197 29.015909621908669
249.820828012505103 -53.007944451198661 31.168636429916312
250.633599667537567 -52.806545672952915 -14.220792621145158
251.021389067773413 -52.135388877432653 -12.627256968633798
250.618402213455738 -52.776627195952905 -10.909558140717371
250.265860717125264 -52.892808319352518 13.271451567938282
250.448917766660429 -51.844393546437686 14.029745951582521
250.540127729318868 -52.158212700474699 15.185942575627310
250.478762567131298 -52.160441809573072 27.489691985666575
250.583462832016409 -52.381266949606164 28.404689063896715
250.865191328351301 -52.789729611235472 29.041448132370025
250.340748431344906 -52.654588927223770 31.434012394850999
251.120986963306905 -52.706205709044077 -12.932998424073777
250.970412638918873 -52.557900857549718 -11.426343822472777
250.844745062857271 -52.696679984713015 13.870954550942285
251.351361370722145 -52.403309377771301 28.215175981128663
250.868651085318135 -52.561756823092381 29.137554054370440
251.360304419134309 -52.987980085351580 31.649618642069736
251.612632546636718 -52.064607781358937 15.148768075934520
251.427246915874662 -52.711976523541651 26.509404003162658
