# This PCD file was generated using the MATLAB® pcwrite function
# from Computer Vision Toolbox®.
# .PCD v.7 - Point Cloud Data file format
VERSION .7
FIELDS x y z
SIZE 8 8 8
TYPE F F F
COUNT 1 1 1
WIDTH 795
HEIGHT 1
VIEWPOINT 0 0 0 1 0 0 0
POINTS 795
DATA ascii
118.217242896792115 -64.353246150666095 -82.628635046890111
117.945316738701550 -64.385790665487676 -75.542035965765621
117.882851023343107 -63.890351033115877 -62.638714307686548
118.185980744899510 -63.767479144715523 -58.592618159351176
118.187351947210587 -64.318178457768411 -94.928885033394153
118.488789357834847 -64.625890063850321 -88.685938358781328
118.403935394816230 -64.332942721071518 -82.271473916465183
117.658484568050085 -63.711145463247220 -75.018615403412440
118.527762597747753 -63.573219403990706 -58.921330035235513
118.009381453619980 -64.086567940451175 -58.421134048850703
118.830079003963291 -64.234222569466652 -95.332175256539031
119.113185961131592 -64.320168770492188 -88.476068615860783
118.767767589920226 -63.909821832720255 -82.420481129830847
118.271427554439839 -63.774353605914825 -79.172890358770331
118.767038590961690 -63.573776434055745 -63.559574854977782
118.767701456741960 -63.909437354911688 -57.217374582288329
119.666372043914336 -63.655602384071258 -81.071062035413689
119.593843588728063 -64.252601447406249 -75.221323314436972
118.253036535607251 -64.404511982160329 -63.799651686453075
118.757100813103222 -63.923796705198939 -56.815354953919233
118.917265683580439 -63.585049782930525 -95.588463588998948
119.677039606408485 -65.010562699966684 -89.761905610099618
119.610161171813616 -62.957852257269607 -88.958433199901393
120.032076324119160 -64.346181751184034 -82.212671380100744
119.490728814502901 -64.092371049870991 -79.389086844268235
119.085726753229707 -63.206491056281905 -77.877850669299477
119.209258374487916 -64.512754523604372 -75.247725014382297
119.537509344789015 -64.011125725347853 -64.406199485894248
119.195737135294607 -64.114439784039817 -56.511695704119504
119.515817480654192 -64.835476780444154 -89.516614633882753
119.806164460084304 -64.924650275418685 -82.347101250934159
119.866049509531265 -63.851342650485321 -79.176778205705403
119.641178834310480 -63.821384053338249 -77.150597038418866
120.283721370594336 -64.494974453991063 -75.281920114105446
119.461338260061311 -63.170938644210153 -64.377954256489573
119.680204390594682 -64.143693274772787 -63.202797629015564
120.059356919840909 -63.073262608228546 -94.985001524173938
120.210673042318788 -64.715817727892926 -83.210968532987621
120.978612106759655 -63.623152844699362 -79.052916882823197
119.348203911405491 -63.574434311007522 -78.511495557504503
120.097198194502468 -64.161021611279111 -59.741943875588461
120.617601811136680 -62.708537325511834 -60.035951754093993
120.533900212183667 -64.288562354399119 -55.549446438986045
120.872708333608173 -64.301734923822210 -95.076535176628539
120.044458963791570 -64.062541874635798 -94.858452593735961
121.643417760575772 -64.152959841691256 -89.365394648933986
119.775020400042891 -63.536248606263840 -82.269308635469045
120.362216045238043 -63.500088916091229 -79.295296015093953
120.962547792979024 -64.079136203830970 -78.505416553325176
121.026351579274007 -62.358395816065112 -63.984457282960463
121.800467488484287 -63.305714463364424 -63.290713487648404
121.539988718742634 -63.555337828836343 -61.213786326715429
120.579516647913536 -63.409013596566979 -60.104031135957328
120.893282994584240 -63.266048691415918 -58.626029705351854
121.044847196481186 -64.015178926020354 -55.870496154026952
121.626204571087712 -64.202828238418064 -94.650811657559061
121.286609382062522 -63.782488539333286 -82.892728658694367
120.702112909733401 -64.778867307527491 -77.001929733510138
121.531501797743303 -64.125557407261482 -74.430495709200187
121.434459066152073 -65.358405429858109 -63.362470552056564
121.371097025702127 -63.507654713202243 -61.385195797371090
120.352053482482887 -64.133180808557285 -55.787859678901725
121.449017918411784 -64.551536473205815 -90.089868222975355
120.868542076693146 -64.604918384000285 -74.713546484386299
122.302825284072568 -64.421979315326567 -63.577766494132348
121.049620103738604 -63.425945858193160 -61.468664064361668
120.931729972558315 -63.498856764631981 -61.359628727041702
121.203886492966731 -63.767443014302756 -60.387502844979188
121.678247529982769 -63.714784208474583 -58.752007023266543
120.884474447475142 -63.421843615828251 -57.916912653953652
121.738520342083376 -63.690412731115913 -94.375868771838512
122.573903160510454 -64.603757440065564 -89.939317704414592
122.172242456589203 -64.361283546431764 -82.224720689179989
122.381703145013944 -64.192180483264750 -77.323531932512978
121.944526394426916 -63.116424613576626 -64.271981193326809
121.469008154023157 -63.312876153091054 -61.126381570225263
121.940484072651728 -64.056523382549841 -59.771119193668021
121.522274096139896 -64.032584823442889 -60.604818960822563
121.709683071944937 -64.686605658445927 -58.917806386812188
122.474364582946109 -63.537306455316241 -57.797113456403551
122.439992223179829 -63.868261414443566 -54.943351785940060
123.142044598329704 -65.018743803956582 -92.506564314306388
122.849067759841148 -63.681716963487247 -90.952614861161948
122.699597064735030 -63.455446475795569 -83.672046571113967
122.060220622326966 -64.165744418194819 -76.433468492607801
121.370815230723721 -64.794223953938754 -74.296901895423503
122.001134463679222 -64.045776835575992 -63.580621558251110
122.390109540084808 -63.151642851073859 -62.455007841208086
121.417579959488933 -63.185738545157591 -56.637143169350956
122.144701975674735 -63.758866521852937 -54.174284090199777
123.239875713687297 -64.325280558400436 -94.001323833660720
122.875734444396059 -65.319974533712923 -93.140237008780090
123.336670381357152 -64.054115000337646 -91.275030947732091
123.168248673300255 -64.294206958563066 -92.011389712461096
122.861285838912465 -64.783309879837333 -83.244213451605532
123.558077021196254 -64.351347799161672 -78.184680629002315
122.274603586305190 -64.428423460020326 -64.035879167656404
122.259831860579624 -64.374192811085493 -59.362261728180798
122.869153328624350 -64.653997811313559 -83.544153267762695
122.975811596579547 -62.987661716169214 -82.842164795641395
123.611679686326639 -64.333277736464566 -78.671921032805727
123.668185567583137 -64.399317062470502 -77.294992933853720
122.884263486771104 -63.083120779061531 -77.124624456651475
123.097813624292641 -64.601665784195802 -73.517412967480382
122.702953019883765 -64.370243213015129 -62.617933171355673
123.133954375283565 -63.569149028958805 -60.955092522684417
122.940076954681047 -64.906045046505241 -53.538013160620579
123.461408754647053 -64.100305720483959 -83.080107835206348
123.775693386392831 -63.063009079890406 -83.390167122417992
123.287434551392664 -64.925440231196362 -75.594833670789924
124.063420332404419 -63.733998429972658 -76.886701162165195
123.147796105186842 -62.953664499325356 -73.927297474075786
123.757248656412514 -64.138360269778047 -63.398675644083227
122.766109548963939 -63.967868022251778 -60.543632194073936
123.821235742712105 -63.885666282333929 -56.054635524774881
123.527997813230527 -64.237072837694328 -53.710853444002076
124.821539644985492 -63.644118171814611 -84.566605929368180
123.055391359127242 -63.625037455718086 -83.294400433290633
124.333034999936146 -62.961980561112938 -82.406599276477777
123.882922415901533 -63.912201946774175 -79.368941492092347
124.385515086457701 -64.717155208684332 -74.237464836540056
123.278232974353358 -64.340076604528818 -63.620070611734818
124.028955023997781 -64.428695517734624 -55.719494278805598
124.029254406050356 -64.804934469467284 -53.607450515403585
123.574156254593802 -63.623373914653115 -83.830876884685992
124.081760460391521 -63.132145226250572 -84.479625177782836
124.711639266348968 -63.198626353721551 -82.568910264252651
124.107557977649108 -63.340052727112834 -81.741569538623750
124.716773690367987 -64.501477155729503 -75.362655528118921
124.570119923659732 -63.369525550406451 -76.379774066210956
124.339381157909614 -65.199530100612918 -73.932538606132709
124.062938577008524 -64.235115507456314 -62.680114599440849
124.841653153269490 -64.217990325278905 -61.141672093391634
124.744873717247131 -63.929233486443692 -84.364006706691271
125.369094746501304 -64.111153513252617 -83.340727033918540
123.975806716477393 -63.836013833329375 -82.080278280193752
124.204294900660074 -63.632862593618341 -82.286250518441136
124.618692149683241 -64.935847630897243 -75.801544590389184
124.273948296497920 -63.575388534417172 -77.204171615904116
124.498008194067523 -64.391079402064264 -73.582283783390295
125.164383430464895 -64.736112624469129 -73.249382971583771
124.547245138874047 -64.191738529943350 -63.627886211797801
125.428779718379559 -64.096459798993465 -61.774161390577568
124.421240045890741 -64.413202086958648 -55.553350842805905
124.457359333696544 -64.974250962953690 -52.389999021782792
125.180077765432529 -64.084810319681338 -84.490259130444670
125.476561982433793 -64.272100705459920 -83.671680156375501
125.647266408460666 -63.967105955489700 -82.242537891109706
125.181791847941952 -63.534515514052998 -80.895289343875788
125.558685570802652 -63.465880526155473 -78.835075276921884
124.601980279418484 -64.021499621087287 -76.725756154422413
126.036270561767623 -63.255130019594787 -77.757381935499183
125.573646153613112 -64.130956634114625 -52.538827477427759
125.344361948463941 -63.577252810352562 -84.651195157545672
125.531534287629896 -63.944972085746514 -84.274007508362558
125.085113126412651 -64.745685344952150 -83.412078134082790
125.769131711192884 -64.423666337837417 -81.190893141034408
125.809358383700584 -64.006829128839485 -78.798679559693710
126.773971794244972 -63.097206141398274 -78.149564844511588
125.306951578076607 -64.310193385036470 -76.217403087737480
124.621591257759164 -64.079341168132856 -76.321833767328727
125.232377056025769 -64.790357362795348 -72.755627916998876
125.263546152763155 -63.350161385436124 -62.011465519520833
125.070605749992509 -64.450020098120746 -61.424308248251201
126.117633859843352 -65.401849077223162 -54.835139994267415
124.673511419690797 -64.148861677835285 -52.495668783859863
126.516472841402873 -63.645265967060283 -84.588326359611813
126.266607154701745 -63.377416776503125 -85.184721215729027
125.471771790681828 -63.699496747153034 -83.605647941499612
126.164705629819252 -63.949493623682528 -82.003901952423462
126.492437601725086 -64.370435727457902 -78.620657541852026
126.156167208490714 -63.496581021902955 -78.534036074719197
127.196868913843389 -64.294245443600587 -77.016878369558285
125.304069673556626 -64.237797583447275 -73.053377025846089
125.948521044706922 -64.120841023042843 -63.244387889382409
125.422000541578825 -64.650089327155683 -60.683167925633718
125.727934306910683 -65.091666484771011 -54.585686968541943
125.494187326225102 -64.013958472488000 -52.447918874189909
126.904021602543310 -63.571248357105546 -52.493473556988128
126.329655935370099 -63.591232192022119 -85.208338855682754
125.327347096392515 -64.234595379743126 -84.744679243752756
126.116094638533013 -63.070081730396126 -82.115573389074711
126.112085411248259 -63.863957358338823 -82.843896002716932
127.195336909184704 -63.362910585566098 -77.881410721142998
125.805059433272817 -63.860175791098570 -76.769396013565000
126.681330086780875 -64.238571498195398 -77.512043987383748
126.314924797345540 -64.179291109412063 -54.322055469205253
126.987005029044937 -63.631053086203352 -85.678367143859262
127.121252053952077 -63.684919301647611 -83.550712243575703
126.678967280556620 -63.337650768465295 -83.024376966500967
126.252119050405994 -63.203420758292339 -82.007328679924811
126.092742869284251 -64.578677942542754 -77.030007091278392
127.074701468159674 -64.263230794269901 -77.556579928528066
126.624668924749059 -63.953078311906921 -76.268664198053386
126.926604883186826 -63.374038717801156 -77.399224997975480
127.227166624542889 -64.425572745756867 -74.200703443051481
125.842031117005064 -63.541935079883189 -63.039519051759470
126.476194581242950 -64.212804427719092 -61.455014268850455
126.760549066704627 -62.843972693336667 -61.720376320169294
126.748090997221126 -64.247630196624229 -53.854959247246363
126.861739512625249 -63.642264908102831 -51.472768798284299
126.527971330969478 -63.842683652077184 -85.569033873978867
127.644718443913646 -63.339597580190386 -84.428916021733414
128.119720943985925 -63.479711128445544 -82.529745583427868
127.006965219572365 -64.080834294538207 -83.266834518953615
127.211108107401955 -64.231258744045931 -81.296917098795475
127.634561080104248 -64.291689717190692 -73.603539917227693
126.872011920775293 -64.194520997221886 -63.770684215789601
126.885538088389481 -64.154989360942722 -61.877682964773406
127.627114825747853 -63.562088758080094 -53.937814302635971
126.834859705024812 -63.847930934668128 -51.495972577582208
128.358295589010879 -63.528016742559458 -86.032129395086685
127.721360775184337 -64.031085041050133 -80.617311014505546
128.006661284239016 -64.815874677403954 -76.482899799408841
127.618261382244938 -63.960941876925006 -76.474651976156423
128.060971927715855 -64.289838006162199 -54.009867741899484
127.526270616802876 -64.771394771730797 -50.650408211109450
128.002648873220380 -64.364728530709726 -86.653346585720115
128.089578072735890 -63.665813646167194 -85.593569168880933
127.683159169634138 -63.734292491916918 -84.488398234674747
127.151652683591692 -64.046774732822456 -83.888909744217088
128.335416847181762 -64.678953871827460 -81.014351644720108
127.878763783325539 -63.430826345662538 -82.390747294084974
127.971790630464810 -65.385682667341655 -81.320494350948451
128.258743202913507 -64.226235177581501 -76.847270394251112
128.646025200042573 -63.881867906387939 -73.098496419574317
128.242314899614684 -63.565062715377834 -62.719759921257740
128.381826664698650 -64.033752062785524 -59.848002896013369
128.782952548924868 -65.049031733855912 -86.561842106979171
128.102126986364254 -64.445912244296551 -86.518312274376726
128.438055293354466 -62.769709386870126 -86.605264568429305
129.061023534909594 -65.505664973430441 -82.399940345457793
129.481744810015584 -63.339000676455527 -82.791330737385195
128.173228734612195 -65.162561001241727 -80.813508533285471
128.102915744842733 -65.031355589368360 -74.000943241265219
127.954972617742982 -64.314129498734573 -62.997053365483922
129.111155052066607 -64.123007488168710 -53.416062824915393
127.296303517779165 -64.695324442142805 -51.190141360368834
128.354980836849933 -63.450078938184106 -83.113366550207104
127.851482987115261 -64.716708895995822 -60.853924698611571
129.397521338437542 -64.162212739619534 -53.362970557045301
128.301755656308018 -62.848568585851559 -85.993835565484815
128.058188901613164 -64.524720851117564 -83.203551021962625
129.259383037501152 -64.662878662951826 -80.061956656144289
128.772200344132102 -63.638677953499581 -80.177368486633512
129.011154241558813 -64.434225654710104 -62.893882303160048
129.618069672204371 -64.152577723842569 -52.152378250858291
128.742007061563470 -64.763711810151733 -50.355483037760351
128.981444066900053 -63.191413389586998 -87.989669324445259
129.459724187460012 -64.335886477629288 -86.365546960372058
129.371378990991332 -63.041349349330261 -86.867298015637232
130.081287526879748 -63.640850041090943 -83.608442103329367
128.929192222734457 -63.788436143982523 -79.886407803419772
129.562767544280604 -63.770732000614544 -73.338858362098591
130.097012086210356 -64.557349390754197 -88.097123649416176
130.095072128855662 -63.852236114534648 -86.555539193283323
129.733924307359757 -63.784184190247487 -83.067663256055226
130.523170883638443 -63.843640531232467 -79.596388963520582
130.937194171461016 -64.782557584321026 -73.500552564224023
130.143818692800750 -64.115066304225124 -62.010242672329106
130.033176412441776 -64.417621248711001 -59.948019995776043
129.978670227519785 -64.065589096507438 -52.400857247250357
129.038286600108677 -64.756359890472950 -50.838167853679828
130.387311084052897 -63.346269054482590 -83.866482204255405
130.844378393012050 -64.542906315928136 -80.409304848388601
129.475033362980867 -64.252126854962043 -62.109997376947348
129.940921915940351 -64.738157465813103 -50.458927804674154
131.394399057603238 -62.718344313398148 -87.713789664774751
129.298102102942011 -64.703625432156358 -82.598854653981292
130.451291742051325 -64.271032791011024 -52.349909164465380
131.503349936665160 -63.866688974660363 -51.562328981439876
130.792955933547205 -63.923785105691550 -50.345884369462375
131.395956622382300 -64.703889697396704 -88.486924604224299
131.037636679320485 -63.940288828572562 -84.718359015371661
131.847485040830975 -62.823636964405196 -79.499686004510906
131.366113932085057 -62.693057559376953 -78.351788836126701
131.233249713448600 -63.186356298845126 -74.490680890403084
130.976302155757224 -63.974930472481134 -62.617354827331624
130.966182471432120 -64.762802406742466 -59.861388250121784
130.699756128378056 -64.076136405829516 -48.895989120395065
132.083555935064908 -64.464075251342962 -88.994628291238044
131.252861671633013 -63.739603642901983 -87.860379246540191
132.049753326482659 -62.602531469358098 -84.122953160074687
131.332073528386104 -64.500779575029725 -83.374005191989440
130.549022297829680 -64.116924146459439 -83.259542780640672
131.267167703700807 -64.440087657568569 -79.396404465837620
131.433559467317110 -63.669755629243397 -73.572765641625281
131.834832789419636 -64.030444093469498 -51.688552092285761
131.919451693526554 -62.669303651369027 -87.919526229613467
131.827930469850202 -62.732559336120993 -84.563964046770224
131.697291250577621 -64.448757357348356 -78.848312739812670
132.383391738165756 -63.045714311460614 -74.218715677726223
131.873205449843795 -64.842166850678012 -73.417719694566301
133.001574601381577 -63.431682962502776 -61.926802481475754
132.118894853264351 -64.460343522677746 -60.448374965667433
131.701675564129999 -63.803140104504052 -51.667135643695779
131.825334214034115 -64.229656578060499 -88.606666719361371
132.488317936821346 -64.048109339889876 -89.265141688933539
132.707225159840249 -64.157761279725349 -77.773533308212478
132.332109729274862 -63.901100017049941 -61.377125793313297
131.819362309533801 -63.338584645756939 -52.389328390422769
132.596520621791058 -63.820326550534190 -48.740643733647417
132.588499495343342 -63.226988594136472 -90.257653302333921
132.730881321580654 -64.709279880022081 -78.017866689143176
133.124986242451087 -63.442767059256354 -73.659753604570824
132.408815792857979 -64.318610587316712 -62.008943953443620
132.906437081362498 -64.069267588635498 -58.850058694060678
132.907053254134070 -64.479265174589031 -51.373170359132956
133.351544865590370 -64.162022893238088 -89.389421390511501
133.464543543226142 -63.502091076746211 -89.183510256665514
132.780244217575842 -64.824218211198684 -83.269511629077684
132.876830492977234 -63.771977354888875 -84.475056907466353
133.065456198015141 -63.843573320263985 -73.448525617921732
133.320068535961667 -63.863507733614995 -60.807466252308686
133.624942276571829 -64.425883670980468 -58.246779650013472
133.597407149092874 -64.294532614345485 -51.531615761369252
133.067285670299583 -64.871458349845838 -49.191830541125036
132.406169755423008 -63.941823042997385 -48.718208072965815
133.910474762430141 -63.109578580162463 -88.984464051240749
134.124552191448458 -64.269463205215828 -78.409058393395583
133.087563038878187 -63.747507905977741 -77.797285946845861
132.861840111787274 -63.860963330055611 -73.684700605943618
134.072160767566515 -63.282490883795020 -60.830718163002260
133.530030840876833 -64.348623096380152 -59.047832094232191
133.401359707648737 -64.077843303068178 -52.049155847743236
133.276393445360014 -65.065370092918428 -48.140839521409198
133.476391514957442 -62.958355097281689 -48.426052719508711
133.578251353854739 -64.537768956263321 -90.239385738167741
133.787163988231185 -63.800920169901303 -83.839623221574669
134.128957650936542 -63.236990504005163 -84.806436891723322
134.577329454936034 -64.515580754027440 -77.174496345355934
134.758355894193699 -63.337020104312302 -76.790712004783444
133.411026147975235 -63.776705928111028 -52.905532115372438
134.062222887267325 -65.071901678526629 -89.108743264852848
134.131185426185709 -64.538480636694672 -84.869436976789970
134.687416972648066 -63.501905987182312 -77.272023169052531
133.493652086064259 -63.108333780761555 -73.514048753299761
133.953221969618710 -64.132041301090368 -72.503835230295351
135.187007241133358 -63.962652421145449 -60.817677846421120
134.891987746407494 -64.681472964323845 -58.225830238239745
134.280058054977360 -63.548944723182018 -52.235766211759397
134.860267459701788 -64.172337307079474 -90.545853364810625
134.293885953090609 -62.798450664803248 -85.248064595535112
134.406490290934670 -63.625867550821951 -76.481992589294734
134.179018588743190 -63.155770460025138 -76.272584696404678
134.612740670011988 -63.588919310008848 -74.619428425357455
134.880629990360234 -64.461549422464628 -61.278921959755934
135.130932008080151 -63.636199640043330 -61.170137299703882
134.139193524678888 -63.839998896619591 -58.791261627656745
134.722211839976268 -64.473370619043578 -51.278135816340715
134.733154182035207 -63.877221976471432 -47.785744658158698
134.332345922989845 -63.023742219646920 29.658267877038448
134.620666087466589 -64.243327375065576 29.513500498147337
134.946479937578374 -63.699202534207387 -91.327350713163696
135.295555744474143 -63.814983782131208 -77.157266335999424
135.548403795800539 -63.494939704945679 -75.635671506214834
134.722695469693491 -63.064719737655565 -74.233016642041321
135.273253265330652 -63.876435574714279 -57.297047757058024
134.782472930782376 -62.991266528365465 28.137665602337592
135.377034004773918 -63.772433039284763 -84.432803581546679
135.694099467697072 -63.440164345216445 -85.226030058287705
135.251109570648168 -63.455344510434571 -75.835310469101131
135.016593016406091 -64.778206014129765 -59.853646316760447
135.554448570340242 -64.836915551864521 -58.219064814003985
135.737646753919847 -64.576671816185353 -48.296481109293801
134.528112699333150 -63.335467203041048 27.599146723528381
134.943093665166600 -64.034913585459151 26.983304487681210
135.367696413438608 -63.944281750096110 28.913339508635488
134.526999530536528 -64.546052247153355 29.585667806944301
135.912087226989826 -64.445037651310685 -91.070043230902627
136.238306986741321 -64.218414191135210 -76.397073207868544
136.473714472253960 -64.318274780584247 -74.335163886165176
136.868272677037794 -63.425529431881785 -73.662624453176576
135.963465183322000 -64.168523818008211 -57.949969004509235
136.315243691317875 -65.193043308343320 -57.031665288831086
135.662783595849845 -64.080254179132666 -50.863053770555432
135.660203932055879 -63.704340800785062 -49.231043011903537
135.908754708373721 -63.530239096861607 27.122479101294399
135.150887845012875 -63.815081382901326 27.811331313039446
136.095382761823856 -63.560528934412858 28.582108145151793
134.854635457799105 -63.361695857292645 29.513557866031164
136.780921833103605 -64.214887428494293 -91.462480216047169
135.567795154165054 -63.911062821718048 -90.344443401270539
135.824189272547187 -64.538247085299844 -85.390006082206227
137.036621196709063 -64.356841615053142 -85.294726849665977
136.087251089654131 -64.866890814230359 -75.345305718006173
135.357019536046607 -63.179704099612223 -74.821711195619784
136.408239119126335 -64.381011377322167 -73.593295377580702
136.059895382402601 -64.429522354702925 -74.303275900008572
136.343557113279701 -64.572476386088468 -59.818749285878702
136.304270697287194 -64.521484750330401 -57.476631716930051
135.870846771875023 -64.138324180985578 -51.559190805414261
135.344143535578127 -63.410788833621055 25.774988632134541
136.022794633719656 -65.434207838654601 29.157640847051191
135.527299767655620 -63.977082370582195 30.154090103615701
136.825040788452981 -63.845257124579476 -91.266425908393686
136.739001971057405 -64.852860484835503 -74.746548894565365
136.352961817763770 -63.732210618742272 -75.286088368232896
137.162882795208617 -64.685472173956555 -59.730997333645789
136.632618370199964 -64.401491062789546 -57.099853045832084
137.803507839455165 -63.259185119732564 -56.843020381066935
136.305261029912344 -63.602056909575353 -51.991181143982487
136.506678758696552 -64.071245909293168 -51.851779176788291
135.620674625729293 -63.165678176515797 -47.753034545847576
137.177770737221323 -64.343606217210947 26.672246290832820
136.380358566973456 -64.131623636850094 26.983661354904509
136.730959503679969 -63.684450961357726 27.356949372855677
136.794951493123335 -64.113953585386867 29.637209240255199
136.435305497569544 -63.683996979987867 -85.718013371701147
137.510823573758330 -64.432908469726314 -56.762575764334628
137.124955499636883 -64.158769342515086 -56.145521115290720
137.256213435127478 -63.082595193761890 -54.177366036742484
137.457530109857260 -63.835410616995190 -53.235202597901008
137.269690967244145 -64.055357887601446 -52.175826964852966
137.556999621099408 -63.145022897979473 -49.249338631593702
136.707899002880566 -63.403279751375322 24.306214022271273
137.111195301821994 -64.820174287336087 26.190908001523646
137.053829779519276 -65.069270116809037 27.454400258786794
135.642849171574142 -63.757994865497977 28.351321617750038
137.352588770454133 -63.703416965266157 29.460717260782374
137.041316838691216 -64.050467200739433 -92.249174189703979
138.164281614078703 -63.934283945715308 -92.344575802152789
138.069366995601484 -64.537900368406369 -57.440552121581149
138.143489544851150 -64.217578286115440 -56.532908109858660
137.136322275494678 -63.678983993146105 -54.879195998867210
137.948753537745034 -63.785454414699146 -54.061542440226027
138.150459214417168 -63.712292983313617 -51.169961019533901
137.577255147523061 -64.150158178818742 -53.369752703744169
136.628113084381312 -63.861861557750558 -48.651529360530994
137.312880613303577 -64.215017052643816 24.972833495583473
137.311841875932743 -63.833130969879747 26.120371171018913
136.379375330556201 -65.166006587907617 -86.622742975884492
137.486441963497583 -64.517979691174531 -59.017894405781341
137.035186599508421 -63.744612604296535 -55.460228403259542
138.857457124752329 -64.187282863389996 -54.952332969933899
137.946937109881446 -64.386918916380353 -53.415488556504876
137.518824774904374 -64.524850100779645 -47.672027273280420
137.660072594593970 -63.221813739493186 24.438841180737175
137.080255038218638 -64.659209777435464 27.964449735173051
138.143466644887326 -63.812700895367655 29.537658251637360
138.154236443237295 -64.380309853267406 -92.794612725771032
138.405836908424391 -63.927232354187140 -86.204349700751536
138.329706863096391 -64.586338173687707 -59.348962792170269
138.513086663938225 -64.345569559834175 -55.948327750614453
138.718086429389160 -64.804369183801754 -54.690738278362829
138.020262186969944 -64.277748599774668 23.908342265224761
138.127102678825025 -64.381051687681961 27.176099691785055
138.776974206819119 -64.566906293516354 -92.692944199977731
138.272031456893444 -63.971951380732705 -87.271841410242715
137.498191401913033 -64.157698089989807 -58.151643741341402
138.607997126044097 -63.067470306287518 -49.471532573447220
138.845569693507343 -64.671911086683579 -48.255894750078454
137.354296977791506 -64.903984984835589 27.832751659366327
138.189600533541807 -63.812418341149254 29.819378530775229
139.134884466422392 -63.809040869982866 -58.834270175662859
139.679597550532662 -63.445082471440230 -57.157160965020893
139.230773074487871 -63.706055992601208 -47.998749071737535
137.893241143294517 -64.147470067028436 29.483918693153019
140.118164877276342 -64.421280961175668 -93.260457701705619
139.019142122507958 -64.640879864549973 -86.862112152555952
139.254285098178400 -64.681842735788749 -58.424800823384977
139.773767072913017 -63.375000033914404 -58.188405272387058
140.256643512616790 -63.339091225941388 -48.441756636343740
139.718747040870170 -63.954147557251190 -48.178175847990062
139.596547142711472 -63.773445853767626 23.137788734674526
140.139134146107637 -63.890932817827604 27.315753033657188
139.487983332767413 -63.842593923318930 -93.003509352600446
140.132556096234509 -64.636657912269442 -57.872888016149084
139.649458197619623 -63.633061325833651 -56.826486132412178
139.204544288175896 -63.276976867969680 -49.176030255766385
139.348428180698249 -64.107745032899672 28.133467301776282
140.996242043691524 -63.291287634461270 -93.522540812809467
141.144493274150932 -64.182982773901941 -86.602808796404645
140.356257812780939 -63.206223471214130 -88.110158150952770
139.744047751294715 -64.132017320982257 -57.585375469543941
140.387356391808623 -63.192788336997950 -57.028709939647790
140.897729140260878 -64.610130431323071 22.910383247719331
140.579575909249144 -64.086531567879021 28.235249314572606
141.028702753662458 -64.146217011389425 -87.256714260091755
140.505142857285222 -63.728896759730020 -56.199460032408382
141.259225063298089 -63.920148087483852 -55.554638149743987
140.056292618564527 -64.002404480131318 -49.555691339857162
140.984451421891094 -63.808832588143119 -49.647880109501450
140.303458418298789 -65.390159418599779 27.758103589622827
141.159713731448932 -64.397917448523742 -93.567359509034347
141.255245581269207 -63.111090175070586 -55.577166007603942
141.354075295101751 -63.657514244299307 -50.295069374139338
141.220116001066401 -63.502130636654528 -50.819913854321811
141.441475657036392 -63.109682641376025 -49.353059585902763
140.876374173258057 -64.821191332825464 -48.666600615023853
141.488234371137793 -63.514044147107526 20.619385522586963
141.000116920442593 -64.268894717283445 27.198440345083913
141.594154282786576 -63.896883898664854 -94.192868932200071
141.360415266086335 -63.739602361329517 -54.310247757456075
141.929340311462624 -64.966233338253005 20.827465802174444
141.751712811757272 -63.582197337379299 27.178395687774120
141.614628536700991 -63.704232402753064 -93.782583299749334
142.062786512369456 -64.064990804953396 -88.017560194027524
141.836884021197108 -63.395928658954389 -54.931899681505705
142.219258952336759 -63.870782332147840 -53.658087712299945
142.876685038132308 -63.813104201561742 -52.131565606312734
141.001303093353442 -63.676992988559320 -50.578262511035923
142.120744543203273 -64.498341780647493 -49.651080965450866
142.202262992150764 -64.087031505575851 -50.159665597555993
141.471822169229938 -63.949402410572532 20.106376032615518
142.393021838183046 -64.628139672398433 -94.923226009688719
142.270582947441852 -64.466055161382045 -86.824440901965744
142.518942343981678 -63.945125909760478 -53.471400280371164
142.628191294067335 -63.962138728496740 -49.170033617184174
142.075864979618387 -63.481821851196216 -50.450019973642426
141.613048010784723 -64.386692905621487 19.037705905902097
141.795144469443187 -64.844288448659029 26.483488696863837
143.297706977864323 -63.823360959586580 -87.540272418759997
143.606632098002848 -64.936915637951529 -88.195895969541155
142.603002182663914 -64.352584089290005 -53.421921987412254
142.811000790828160 -64.012324788969593 -50.617453653990765
142.285696709071090 -63.665635524934117 19.210878434007672
142.541740743629646 -63.741954722221223 26.670259901649917
142.531156651407372 -63.679272964934810 26.565866429785405
142.930277553237033 -64.283506837517606 -95.053080174003298
142.855881820118015 -63.777795834971784 -51.602940780776564
144.131311163854832 -63.938766908788935 -52.209265210819062
143.474912840574206 -63.779069430840778 -50.610484338107860
143.473887134932539 -64.846138633590712 18.627668428942965
142.966287315873586 -64.463241103367054 -94.663340070691746
142.299774006636000 -64.191225682297613 18.357955534086010
142.959022117067661 -62.629199019297751 25.729584075482425
144.135178972191653 -64.942343071137429 -94.967770547913787
143.230836870261328 -64.618447317825456 18.166061178604096
143.673327046936350 -64.077126046266372 25.913404083388468
144.435018108573104 -64.174742008587486 -95.298170747469968
144.466657563488127 -63.764956770226547 -94.902536716197275
144.798187956708659 -64.274017782044211 -87.556002878451153
143.980128941834977 -63.963904275100376 17.507840723601614
143.972906189077065 -63.916245217910699 25.432138023826262
143.665009973547313 -64.145599750221095 25.363454069975937
144.830847884423861 -64.730944785000773 -89.230732315976823
145.284395107081849 -64.207972272246963 -88.210232019651443
144.740284286789120 -64.606123167209105 17.754701495235295
145.262486386008277 -63.960656749500089 -96.164575816758500
144.688076189501771 -63.941043853315904 24.836736455195240
145.131806267169395 -64.549667802452362 -96.759952185504361
145.817097834843139 -64.370546947452084 17.002091612004879
144.645438644812401 -64.543137571494242 24.210216236171220
145.697316025022957 -64.347758121627692 24.180284905108440
145.944889306463551 -63.772768318410598 -88.581924758525744
146.157730868494639 -64.397829876443183 16.984689236283117
147.060085946363728 -64.181559141533924 -95.888876469736147
146.328231377979392 -63.639993252659465 -89.640732739334283
146.461902122413250 -63.058481975405627 -90.074016022619091
146.594852513539223 -64.706834243712166 17.040546066519983
146.782230315453404 -64.241479817017122 17.440133059256762
146.639536006530307 -64.676306900519734 24.598208887174753
146.556908727313385 -63.969040613070064 -89.253414455244553
146.168064290055554 -64.542611235603744 16.971589096002361
145.651765248127305 -64.078457903347214 23.264264261953340
146.626305003082734 -64.964544775382961 23.705038633837848
147.644472427259615 -64.603661493769536 -96.034708326746397
147.306833780468480 -63.482251694867941 -90.929680267060974
146.612941002822339 -63.243502052467846 15.608549195491740
147.500533240832823 -64.766532093517128 15.732467000119959
147.303893610686629 -65.029292247920850 22.809790540186704
148.337444100789639 -64.906091741600818 -96.309868108316863
147.667036587283633 -62.943342712046096 16.137531699554856
147.843357115855980 -64.088728450136983 22.264377879170073
147.383863068371738 -64.436209888836245 -97.547102110843824
148.727297936811766 -63.788742298928128 -90.302428107816056
148.318964782096828 -64.975583047929348 16.006296349643165
148.164776480190937 -64.129358400589325 22.906200682639025
147.493857605940264 -63.405756179737878 21.509326709111477
149.123623785925275 -64.387225443062249 -90.101990656073497
148.180537305427237 -63.812476611097864 16.479731915046980
148.576178570615269 -64.244039588800462 20.892119375097295
149.353885073320725 -64.854164256026820 -97.662766275437406
149.869784959365177 -65.032687297365669 -91.064909780580521
148.987499903449987 -63.379754256308033 15.480016702588351
148.728499463508001 -64.466701337674195 20.971416776800599
149.089106402690987 -63.994301802062083 15.657559277580868
149.156003121310363 -63.559445171017515 16.521817840255039
148.906933199364545 -64.292352786374451 20.935296617422768
148.960935696941448 -63.064712919807860 20.118895418098468
150.603534704591851 -63.398669586900027 -97.966627228229441
148.672362990190550 -64.225557224862314 16.036754567224211
150.287095517830920 -63.516139224972079 16.812040651656652
150.072841322909881 -64.369677610373842 20.660758853169405
149.957686034235991 -63.473806789025986 19.900128975342906
149.843061323570026 -64.510606945375812 -97.950216694762304
151.062063772592182 -64.274561309389668 -90.460275516370743
150.376824332915902 -64.199576635470123 15.518010045619786
150.228527698483134 -63.339846831733936 16.280915768209585
150.773370716882965 -63.412091565472110 17.782957053537508
149.097700776849109 -64.018648448526960 21.039770758786769
151.027819508858300 -64.415389281227306 20.704700239007739
151.012902010569860 -64.185086023754266 -99.330603175936488
150.653635745758237 -64.157840902530936 -91.338733442380558
149.609628173761081 -64.104176016242420 15.106383972779614
150.334772623495581 -63.880499460152066 17.045310173543623
150.766791757183114 -62.748400179464198 17.230805259853394
150.003301574870193 -63.743571010439084 20.845995616944887
151.571901114205247 -64.333608510621630 -98.438568897692804
151.275375828010823 -64.699816454947666 -91.788537587383928
151.184653712298172 -65.451273244472631 -91.489677893318074
150.413812545489890 -64.705450068113763 16.631644904544419
150.404960498139843 -63.995503609580652 17.029521775042998
151.342730389964345 -64.331847832784788 20.747093755206773
150.809315017877282 -64.974456538884766 17.166339343799603
151.423342087296305 -64.100389172924679 17.595432640662576
152.003925805377008 -64.104876058472414 18.788996970398628
151.860234678781381 -64.252739747627800 20.677516153812810
152.120494194797146 -63.965790900000087 -98.754515488946026
151.803398115817572 -65.080873207792180 18.548918993634988
151.503053081793951 -64.323730810723376 20.908929108909415
151.753657883610202 -64.183215299303882 18.701558675771352
152.177763363951698 -64.399927389534767 19.393430253416533
152.313756717653376 -64.159041594956861 21.511783110594923
152.184830574830499 -63.850001876632049 -99.140021627291091
152.138575710856031 -65.242930179813229 -91.921800473958172
153.652527121525026 -64.258398468733574 -99.268020018809850
152.855883247515948 -64.298548360513465 -92.842663458818620
153.278024607667987 -63.538425308869790 -91.726832790115580
153.864844018175575 -64.634738118122414 -92.888049027987066
154.553475070405199 -63.979174869967267 -100.420133480114529
154.857519412514478 -63.286850453184613 -100.228930932232302
155.445095529013201 -63.787536446343267 -93.130272044683323
155.164504946052745 -64.228671348117814 -93.398809708535907
155.639295183576536 -64.077539075754871 -100.435787367572843
155.484841033801217 -64.840392023325606 -93.334565361542133
156.343923954206218 -64.780390319167509 -94.660487814989651
156.312955269762625 -63.660231161415851 -100.667578416348334
156.953139779924015 -63.966168210163246 -100.172655811064658
155.788207698882161 -63.916426826347077 -94.794138419720156
157.135672505549536 -64.335614157770664 -101.108121263745986
156.837112309596506 -63.813577513014280 -99.925433057829906
158.448371278557886 -63.338331997308615 -94.470625341918748
158.108547055709977 -64.491719660275436 -101.956676380296287
157.908215668419700 -63.503913207470475 -94.160691748190558
158.450860566384449 -63.772083205409913 -101.175333244028209
159.784702319724033 -64.607185025566025 -101.401467226840523
158.336219930705738 -64.323417000138463 -95.272803220195087
159.990780184605683 -63.966445979571134 -101.693245025151114
159.951058224222948 -64.806548775704044 -95.937936702573097
160.343976560694387 -64.042379343036771 -96.090356092230763
160.499581912362288 -64.464142326839621 -95.070281966999772
160.337751528753472 -65.068127840085936 -102.264279292398214
161.650137398434993 -64.108760252500986 -102.085210939122973
160.741749307276905 -65.758962844067128 -96.066644514227008
161.344923312165406 -63.453063592673573 -102.295734844082006
161.412862919530653 -63.157031799166489 -96.274663214630067
162.278985341732124 -64.303517849025738 -102.725757426440822
162.084656570433822 -64.536999564062967 -96.476161955334746
162.548145349046848 -64.609624847961157 -95.712399011417403
162.202489617935612 -64.696508548438800 -103.807568997966641
164.287966515158189 -64.395054136336100 -102.325424179268126
163.684987331333218 -64.307993499841473 -97.445345995734414
164.024657250549211 -63.649385837648410 -104.150643953343035
163.700156879852585 -63.872154852240840 -97.517494780479822
163.237541019174728 -63.868356408498201 -97.243912603038993
163.775737399912600 -64.276646950613923 -103.976813021180362
164.661658613407752 -64.176169362933479 -97.441802797016251
165.042793991036149 -63.624107704543334 -97.476171626705138
164.216041083158359 -64.203852978702670 -97.975394399081196
164.968488908640211 -63.916046670924601 -104.747819033553483
165.766959893323218 -64.147683633220893 -104.371743316002068
165.968892968867863 -64.160306565534810 -97.061809675109430
166.818214661227501 -63.849760668379389 -104.678888365567573
166.417063550239959 -63.952924700812574 -98.043306008471561
166.537484196200523 -64.375768022837107 -98.599263241993540
166.543708249809214 -64.111816390761547 -104.804650046874940
167.057566190079626 -63.617401375987839 -98.945899257401493
167.143227010855725 -64.129601732988689 -104.786397108223312
167.581318512277988 -64.134210921171714 -105.464712232772968
167.358151158719124 -63.758104714759980 -98.369736273130300
168.481235311617922 -64.596824986595649 -99.838196571550100
169.375210752719113 -64.646198502090542 -105.090832558652437
167.742827425325430 -64.960714749460763 -99.057256330604076
168.531210181863230 -64.782326410883385 -105.759351797078153
169.566339590182736 -62.997497341760926 -105.477298652836311
168.840240103086302 -64.052478970264190 -99.782417191163532
169.272050062218852 -63.868179952238279 -106.147924433894559
169.700555218363803 -63.942537653425362 -106.265284933004480
169.946871525710350 -64.402178980389508 -99.752867654595136
170.691394010631257 -64.617931453329049 -99.743807909658528
170.146909035725287 -62.862909642534902 -101.572135383624243
170.596819058459118 -64.037362591503765 -107.134627057362934
170.834334217122546 -64.379464701405752 -100.140528299939319
170.832846412890035 -63.437670536763960 -101.282504332812920
171.136005321150179 -64.142071741586989 -106.531760779613066
170.739387832468225 -64.442236870229337 -100.881485812897211
171.904503688896028 -63.223751260941341 -107.000917905454102
172.523270733385061 -64.473155980670796 -101.118347694848381
172.713779911978946 -63.754226172454111 -108.109593998902682
172.736285275987996 -63.727251394602490 -100.387242652553738
172.209232940902837 -64.189140337946966 -102.007747559144136
172.473774749872490 -64.330599156719302 -107.869208250787437
173.041059010323181 -63.989287170468330 -100.884451216387390
172.811823238533322 -63.036109064792100 -100.973105471665221
173.116247781311131 -64.487413686644416 -107.817011597878832
174.503520112452293 -62.670580309237849 -106.655500642867707
174.526380774401531 -63.905242736022856 -101.561787870594316
173.899218029173880 -65.397301502271475 -108.513500209892143
175.333213828927455 -63.477198446809183 -108.864400290653876
174.081194730230010 -63.457825307888626 -107.800371721717227
174.926186343462490 -64.319473688107735 -101.161499915039897
175.645132540943933 -64.458973886873906 -147.919022128163732
175.227806950069407 -63.883674813071138 -147.261524812047924
175.407780585577797 -63.842316001246616 -146.347449272427099
175.252274435388472 -64.073603483062897 -146.167214707518383
175.530859972799078 -64.535439474978773 -143.883861137355211
175.768419587928122 -64.016449879013422 -102.414806707088132
175.144151867337882 -63.840760398793464 -101.726830628308534
176.655000123575121 -63.535164089093769 -147.921791291879288
175.580274621836878 -63.887769953905078 -142.474170861005177
175.536296064610838 -64.238294482078317 -108.390272967113845
175.386996794129857 -64.574134926675328 -102.679612827457532
176.137554946272246 -63.932110825011293 -103.004243591640474
176.065814787029041 -64.450142824520981 -149.972963138977121
176.566497917919975 -64.622227107397734 -142.181143173070183
176.243265680163603 -63.294183128477101 -142.185877272252441
176.727070224972266 -63.759818173722650 -141.375223371749172
175.611376432357247 -64.360972623363025 -108.973114307168188
175.820398484808976 -63.101179545581076 -109.200618903475942
176.056916981791801 -63.968274445472446 -102.132753403009772
176.179722402843623 -64.174266881615935 -102.644551344761723
177.131531295587024 -63.296978237251878 -150.648169906356742
176.348758136450527 -64.191726423463933 -140.875983478300469
176.536889500999138 -63.653520249205641 -140.266030625322202
177.094697990237080 -64.330540873288982 -108.580530340716322
177.250487629806116 -64.046204487889739 -109.029469319007262
177.215608797604602 -63.454780412562044 -140.058849396399808
177.048694762723983 -64.347093765585512 -108.732325393374978
176.993849746229529 -64.576594496032328 -102.300525400075003
177.075688746508064 -64.334887735328408 -140.081453490849071
177.763894129313940 -64.702379647408392 -102.881901759570766
178.416095069362484 -63.397287448897018 -103.577685569957865
178.035784992859135 -63.696425118634835 -139.809573805031221
177.501820605173066 -64.228928361377186 -108.454462775673008
177.983842890268591 -65.082689808434651 -103.309371188875588
178.189881044332935 -64.405575656488963 -151.222739567251381
177.828730067986328 -63.745666102227119 -151.282215449150954
178.378937608217484 -64.085339916599949 -140.324335388908537
179.160894198653779 -63.330447343381806 -140.371514855768339
178.790117038387649 -64.623676299031587 -102.695980050170348
178.447911048242815 -64.144857383549862 -103.692958679239766
179.755597133954723 -64.187231077136843 -108.609427211781849
178.287793349297402 -65.014527655940995 -103.978226324602801
178.989260024225956 -64.614389417983347 -150.621085180867965
180.085370621397090 -63.658071300289180 -151.274504236381887
179.694315908262013 -63.636157360875899 -140.426531157313491
180.075736029106594 -64.392614309770295 -108.923844594868569
179.355314678729542 -64.039560253386128 -140.059658108493892
180.588081206975687 -63.932360670021325 -104.794141074916936
180.968745256532145 -64.422462797402133 -109.848641391510327
180.739282765106736 -63.533132472666580 -103.511231509065979
180.359564448222301 -64.322831516706316 -140.478003447710421
180.377779106062746 -63.493030002062909 -140.098477315513179
180.286435028546123 -64.515080320087165 -109.425016842791507
180.974350727086886 -64.285949135207503 -103.305039326091091
181.077362630466098 -63.809858756308529 -140.305409849777107
181.366436404935683 -64.477116520394091 -104.218174493303920
181.306198576399709 -64.620904490118633 -140.226211817368409
182.089772271194562 -64.115152652724888 -140.722151220266284
181.253587189769803 -65.156681519797843 -109.903964163758559
182.117176552885240 -64.104931850463728 -103.445327190412428
181.322526562588564 -63.776395950712882 -139.221923555483841
182.272988861498305 -64.102700278675087 -109.563088752332490
182.600799680115500 -64.561990112382176 -104.767862644337967
182.719994636493453 -64.362451815061547 -140.582215128947468
182.561459745761880 -63.090466306866062 -139.799002017824847
182.247707436235942 -63.418373117652422 -109.908371385350861
182.036914248698992 -63.969987816281090 -104.253520185513125
183.622568761465715 -64.632606413714413 -150.116628854612145
182.483083569179200 -64.061850896249837 -110.312709083911258
182.408833245710440 -64.403613400608734 -141.228467791494978
182.418967475524795 -63.436480841421897 -140.660220227874987
183.053750419102244 -64.248776278870338 -109.761669774795209
183.828083251092067 -64.658431078141533 -150.791089848622732
184.067105233197111 -64.827477455937938 -109.840458257764070
183.173530994266713 -65.119618787162750 -104.916578769505804
183.756672261187646 -64.029107758289527 -104.844224478085764
184.241711744348692 -64.363589916463937 -140.028001364641312
184.406434070223412 -64.227399097686089 -140.657298007967825
183.728845419471128 -63.239343220328010 -111.045333600924025
183.887114057155486 -64.525460925395137 -109.709735300976561
184.047108653020359 -64.814919276228920 -104.263520301959005
184.373386521618386 -64.008760463916900 -104.635712067225526
184.600655568461889 -64.132849345437961 -150.728299270686250
185.038308605605380 -63.623490229036548 -110.081587733057248
185.275234423993481 -64.466564046956165 -104.647215567554426
185.816858202407502 -63.743520733770936 -150.194305770225839
185.142144031003767 -64.871117624602505 -140.441062010459120
184.755801603538401 -64.231470398583937 -141.004693793767615
185.278573636493206 -64.890178341073451 -111.107615475698054
185.724994110031020 -64.201618895136747 -110.199984262031407
185.487015114212369 -64.990445011612721 -104.905349209071957
186.535939605762650 -63.934148329273413 -141.005357482425637
