# This PCD file was generated using the MATLAB® pcwrite function
# from Computer Vision Toolbox®.
# .PCD v.7 - Point Cloud Data file format
VERSION .7
FIELDS x y z
SIZE 8 8 8
TYPE F F F
COUNT 1 1 1
WIDTH 809
HEIGHT 1
VIEWPOINT 0 0 0 1 0 0 0
POINTS 809
DATA ascii
123.926666498420559 -55.699992953409229 33.328562137283235
126.119033243757542 -56.903388016507400 41.715152711788868
125.030758965526033 -57.266992963463125 -65.096433057406657
125.294763312983875 -57.444980544336140 -60.609876082517843
126.427404944022015 -55.889726522413341 -61.699103671430272
125.261029339795570 -56.326457394663649 -59.586913199035813
125.031552152270351 -56.194805577822763 -59.142670164745560
125.720284401992387 -54.717762512731284 -57.341009850146087
126.408186371347625 -55.835334696050118 -54.719148953529782
124.845243261482025 -56.356118873696381 35.253727069756458
124.835558329041262 -55.948038032105188 41.416218262225954
125.790305806178566 -54.514802424139397 40.090790029659843
125.783701268339868 -54.977220249164283 -64.066754540604649
124.359170736098335 -56.123116768616029 -62.550436179034705
125.059467664706304 -57.998821382409353 -54.645039327012874
125.335107997508814 -56.033386505184687 -55.854426173583214
124.584305404399984 -54.526511885402165 34.755392311156726
124.676447312022773 -56.890101143683786 40.192000960985837
125.472862209828065 -56.701087172070288 39.104734601610197
126.551510444171825 -56.908886319141473 -63.742464010853240
127.182531941545648 -55.507477745056796 -60.792916324132278
125.493832375334094 -54.709165185547796 -58.144610583379439
126.234263604802905 -55.085051129774143 -59.204367805524726
126.171721689152307 -56.870472899137368 -63.356589411575740
128.020333263299847 -57.202255134839184 -55.171665225837174
127.442339676341263 -56.101769943227232 -53.850660987111183
126.905983325144703 -56.204164010098651 32.843025017181404
126.207937694071987 -56.629768953868897 33.781808723772720
126.575291996795002 -57.366465352611726 39.681728394404104
127.507748176179661 -57.826196548662551 -59.006288700376246
127.770027310797104 -56.132282855953072 -54.357265952428939
127.718795732356554 -58.365989416075536 32.790317559292376
126.243003336595820 -56.062670700232282 33.151285431535165
127.232791009972772 -56.699941356452477 39.961608944090500
127.868901563452269 -57.212153440976330 -62.642195863485206
128.430762916436038 -55.024290396253747 -54.877923860213841
128.298500245452345 -55.499424572567492 32.818040680885886
126.762368487561446 -56.012398041802143 38.498934882035485
128.644809888526254 -56.670077319751250 -64.175559976613258
128.183071347271607 -56.596158081039718 33.303112674093384
126.012115819623332 -55.635299115961942 38.503587131754294
126.722122500555386 -56.913012975577757 38.747789421701135
128.834636564197467 -56.557105401559198 -63.346382719859932
127.712475581347718 -54.949496311542937 -60.994278109407617
127.696641967030288 -56.952114177810579 -55.437286338857220
127.914885487024790 -55.850543478453886 33.098803049585229
129.049476406504908 -57.724171094469291 32.719101094250519
127.741980511143424 -55.550448040699955 33.156401323697239
126.969389336860431 -56.524772960131557 36.855640581863241
127.809069626474226 -55.783391733766670 37.845447062575296
128.038583558131393 -57.319582555082476 -61.392509098090080
128.197435264143820 -55.896928877350575 -61.648651783572873
128.862229979773986 -56.032160840687133 -61.926330692721464
128.260937752204597 -56.513746137698703 -56.065338442567615
128.021782548629631 -57.362828512443407 -55.512334524274131
128.979353359972009 -56.777927532740733 30.984186911677856
128.984204497441141 -54.512514704350266 33.927874866546475
127.974094055602080 -55.902868095323115 36.325656838414638
127.772551558330107 -56.919032367972505 39.212380118799445
128.437527427370526 -55.293054997069156 38.053386380010068
129.412337463421636 -57.326055699677113 -60.958474815519097
128.287752871306793 -55.756824196519133 31.720601597538451
129.279420540406136 -54.823844528469927 32.590350729695132
129.271084515719679 -56.237984541748816 32.694468721695543
129.066186603496931 -56.074592420475994 36.430002984616237
129.102449606565358 -55.408311043868665 -60.545404355481971
129.867710251408653 -56.244272959010885 -60.386829544324748
130.106742224767686 -56.361561929392366 -57.287659909150314
129.670767914082916 -55.860766621747700 -55.963849609111740
128.435231185882856 -54.705274465516311 33.932083535714085
130.195949905904087 -55.938497569823141 35.947718597803060
129.239870666351948 -55.802235993405347 37.449624610852190
129.784004947393726 -57.608649350930627 36.721158680791568
130.466856305165976 -56.060867913779347 -59.834597993873743
128.595807226331118 -56.580793933983422 -58.677663154727433
129.518937057834421 -55.069849513773114 -57.941938384530964
128.932498711074373 -55.456432066465716 -57.928367350079562
129.785277010733921 -56.428053472894433 -56.067531229291781
129.632663954841036 -57.593640914968098 -55.691005086102535
128.951189652030706 -56.544915113352729 32.287073894975165
129.429483686382554 -55.674086346187316 33.751884055869446
130.044234008375128 -56.273950373002123 36.433814579975355
130.253081826209041 -56.681557183593142 36.674156382627494
129.007479297781686 -56.632934627593819 -59.832242034417327
129.122314548785823 -56.298341222153880 -59.827748231500387
129.487250209743820 -56.431080376004253 -57.174179852211779
130.422349410749518 -56.342345429445274 31.599385709427899
129.334213973583672 -55.977392803930165 32.307987919781127
129.076134381433036 -55.355102918390848 34.043352776223166
130.798795065070095 -56.276421555302989 32.334320333116196
130.681650236057891 -56.397322387488686 35.270457206303149
130.274673284702629 -56.298692360706070 35.213847184262221
131.202938482245003 -56.678872863832261 -59.156053453846624
131.471896473465762 -56.280984535711106 -58.759234438499170
129.172095360465079 -57.634138564632593 -56.631598055564119
131.355530212773630 -56.847687507754571 -57.204253580943579
131.067955672870482 -56.467242784316035 -56.566045089165307
130.452711713630293 -55.768222491246235 31.012327493802609
130.623006441157116 -54.736695549962342 32.988594307070699
130.519300259517649 -56.293751509593115 35.040789718414629
132.580323160555650 -56.516300493923254 -58.688670351857240
129.578865770055444 -57.639757770951405 -56.841185356496133
130.505388464324170 -57.343524273304396 31.051323766199729
131.034331477170014 -57.288822046208857 31.918157687246349
132.030808893807688 -56.926507195644497 33.743432349343870
131.311082366255874 -56.188609417960215 34.784266542807558
131.831396517431983 -55.852176041488754 32.754691563764311
131.495703986876322 -56.824914062516001 32.132478689448789
130.387705603443948 -57.020171916281356 33.487937592734163
132.015364226008558 -56.327734761299901 34.360331838356309
131.034689845159591 -55.638786359802602 32.415321597797487
132.908412182905181 -56.133994307598904 31.520013801685021
131.475298437101543 -54.774805551326352 31.738256586470285
131.496160796620615 -56.663639890446063 34.253585869245157
131.820451997086280 -55.682191349043698 33.365083148165020
132.235864423625600 -56.216618199003662 32.431776988530970
130.914730564634823 -57.029449104813452 33.641712774666921
132.534075677949744 -56.117221142447349 31.101178873350548
132.487661778991338 -56.132159269704069 32.047525740121358
133.597925061095367 -55.899702227741813 32.769246413334869
131.440231890900208 -56.780272492230274 33.072656145965581
237.425705261089234 -55.315479780998146 4.354432648179460
238.673187265190336 -56.585460141818032 4.036795978031853
238.302131111450194 -58.190191577738695 3.899861130904718
237.420782691518895 -57.937531542898355 3.552364456782475
238.510608085181957 -57.228587747193721 1.940620843266622
238.531472098545379 -56.812687126023917 7.524570217924664
237.164781453743132 -56.521574784348793 1.332594120093027
239.390737252779445 -57.471074917303319 7.331701298387642
238.355177015902058 -56.758139759359729 7.728445605487474
240.329239019872603 -56.556124121673967 0.496546952880758
240.676674030228895 -56.435875277459850 4.257871575898783
240.481766341337476 -56.102246080842512 8.987680534593268
240.626597057084098 -56.541134988370729 3.665399823898659
240.183730487376920 -55.747791085111537 5.567061385087356
239.595428633276640 -55.986860016662710 8.173292600613159
241.980031818421395 -55.928208580461998 4.487820561289203
241.271060590495040 -57.271937052415737 3.728176493092697
239.407073619651271 -56.601106582204274 8.146491251444848
242.405228959958180 -57.378692431379910 6.770295000515117
241.857627255198167 -56.606917235327721 18.467949419740624
241.573761081345822 -56.973814838419514 21.033794216901242
242.769495813982559 -56.368379198357623 1.358714899451081
241.368212448068135 -56.888844253127274 0.759450715517418
241.209237402990027 -56.848900284070815 8.071335810346159
241.356819451483176 -56.092020588228557 7.393439274983111
243.561570807515750 -56.852243646714392 16.567622421921993
242.052049680311882 -56.819576683476051 17.595806749284321
242.547950427734719 -57.261032391133995 1.253617384409178
242.005367752538632 -55.670320555787420 1.863058666916912
242.184332256032832 -55.284456394778026 2.189738866509414
241.973712059650552 -56.385222119103247 17.087132623309831
241.606916042540178 -57.654429557860439 21.190607523869069
243.496949680699430 -57.276915982274303 3.168867725984694
243.109853194530558 -57.385418442853521 2.840223740246751
242.469873295797413 -57.131935249342114 4.186591606311817
242.784882062489714 -56.892067148238262 5.406446937675097
243.566973470491519 -56.664166766095484 5.977036882376359
243.349677744042225 -58.935964115563657 6.067791726185670
242.006386645048309 -56.153316416455930 15.065512962694232
243.687388131129580 -56.574105729764455 23.061049777618887
243.720911714213145 -55.794107755179276 14.240430246033444
243.074209456553490 -56.805686603582167 23.998883043186808
243.396765621316376 -58.179851483513815 14.421217108419244
242.966949200711099 -56.301084992086984 22.988760622638740
244.471872755209205 -56.501356081271844 15.324369696788070
245.369585570351120 -56.318136026575075 12.597101736491231
244.642263141277539 -57.510899405491706 15.084189354390571
245.547949275640207 -56.545122853028282 24.131346075739035
244.740864523050561 -56.108053197463654 10.541161195361569
244.721817460875002 -56.715638302115252 13.116453097586881
245.872283194100248 -56.951254734647598 12.827246731216141
245.314193710597237 -57.807544031023248 14.052365143828345
245.101726865669718 -55.738900432681483 23.491135007302052
245.205319017941775 -55.924730512942133 10.786540825356882
244.389403797048402 -57.157532850902861 13.449502494844351
245.247727937039457 -56.646589185190059 13.332552475561755
245.190312475140189 -56.761377320010801 22.775695890065109
245.202879547382736 -57.029726263448552 5.419849989526363
245.680324724215779 -56.361319397670449 5.326468439337021
246.150383126668828 -56.643871271509873 9.365208466635462
245.848776336771266 -56.149048000168541 10.143090219435832
245.561401765600493 -55.950261563208656 10.443129884987609
245.476635767419765 -56.932155884802881 12.228919933629424
245.975471385954506 -55.832285640845235 11.078298293846855
245.238839461466114 -56.930478694148171 13.730370387751911
245.790072860414995 -57.369448796766761 13.769925531599558
247.024277912327278 -56.638404042247117 14.752933146013174
246.334709457981006 -55.973395282422523 24.240903785200835
246.757743713028788 -57.056251897334086 5.176374040925365
246.156188236970593 -56.220575672880464 4.768422576872187
245.293707028424620 -55.330544643552777 4.894791765932011
245.850089901820610 -56.820608551735468 5.434595703514688
247.205210664886408 -56.479931623513252 6.649590323460069
245.616789729561901 -55.855642758004024 7.586455711109497
244.959029232570487 -56.081676269566913 9.351140820328267
245.806662337155359 -54.898092502301004 10.038784883571447
245.866943798945982 -56.984558720985277 11.951118050697461
245.876460439468218 -56.759043560366258 13.262061128882458
246.781241097594460 -56.570295185497727 12.536295491083774
246.321520744869076 -56.414618683394181 12.880236867411700
247.160344279657977 -55.739039894601376 4.024218603845906
245.954172201962621 -56.467071471627953 4.484484596432866
246.206518846348928 -55.511993027151718 7.182331518041922
246.446473008793731 -56.232913420169425 4.087803941556547
246.384656456701293 -56.710964781248521 4.461880897355170
247.217509726405808 -56.869054609585731 3.534743624509940
245.930233748040848 -56.924800307315373 3.727448920296398
246.927819550681818 -56.032413113689607 4.413589754754085
247.675255868800605 -56.860722527046910 4.257650052825005
247.094468766961029 -56.146775120660777 5.400578309421992
249.444140851370776 -55.135363340356882 4.027384538467334
248.676639902360932 -56.849798449417065 6.313520820589236
247.748072891373852 -57.526634055971009 5.047620480050041
249.909506798987962 -57.426518204679809 6.660636052848726
248.747875774916622 -57.035043463980294 4.954532914099819
249.080049220762476 -55.693931905355086 6.153040316196994
250.318219988336551 -57.054859809845489 7.252595341404217
249.217858365880630 -57.365046229045539 21.951636957451562
250.774293584405029 -57.214583505043649 6.525576784083973
249.700492227883473 -55.664386213330523 7.358036174953329
249.848864928426224 -56.193382517400018 23.814688244446444
250.757231477863257 -57.423974758376190 9.134701569440752
249.902055399336916 -55.435326884209758 6.572781361660446
250.026507087982566 -57.345240329821735 23.045430553664165
249.864236722975761 -56.011041734684888 5.641823181724806
250.176863664232002 -55.932821257221555 23.455083801694208
252.182915222208123 -55.998345647350732 6.492873550147493
252.233958610861663 -56.801553099539312 22.847420480873680
251.313948930782942 -56.795866541054650 7.976914329120247
251.108988920538366 -55.889249406502579 9.944580395855560
251.328018882039345 -55.214083937098998 9.731770530733819
252.456350779301516 -58.014216600023317 9.056517111246958
252.271638330878886 -55.791753102989802 10.573824520120990
251.634245607870383 -56.447637213637918 23.834877103198501
253.534494343670559 -56.272751101120669 25.651803466817544
252.572774396678227 -54.365142674543073 23.853005730826304
252.544396398954376 -56.924217749487212 8.895167806386659
251.863067829698082 -55.860262313654445 10.133789141283332
252.788923179564250 -55.929004361754224 24.239284106228013
252.716742969918727 -57.144117074366740 9.405426021531708
254.440776813895326 -56.241953491835304 24.078534299072572
253.674901969601478 -55.823848719028028 24.864098490509541
253.244032008332709 -56.276446781608669 24.763238428731505
253.987494258772472 -57.486030303989921 10.007345065572007
254.064872250240398 -56.319074248997296 10.328680222267264
253.478265131027086 -56.262483767845126 11.797576085341122
255.163218465887752 -54.410939338591056 10.039483514410529
254.235596608204077 -55.743136553657223 24.788808508184381
254.145650211524725 -56.895983235714219 -15.134813007517405
255.885081633425244 -56.226578873051736 11.272928234925756
254.588010773566509 -57.302091472336464 24.473340595025867
255.579394012366549 -55.497745263723459 -16.746340752147400
256.170952135587982 -56.674785541300750 -14.609928495641382
255.816026012506796 -56.260066360577355 -13.880732150617948
257.188053408001338 -56.307798985300956 10.794714686935551
256.064460259022155 -56.434888049750811 9.892023150359167
255.231409037782129 -57.198241165109266 24.187646650680470
256.632807719576363 -56.215908907328931 11.111379412351132
255.780578195199581 -56.111882207748529 24.498592941516456
256.518312996343866 -56.777063930347090 11.987659514923559
255.808056514409202 -56.793042674299421 12.001340869450479
257.287470210158745 -55.715734815621090 -16.604287354515961
256.916709948029450 -56.017290705026056 -16.082579881411895
257.583686933483534 -55.642469056877609 -15.290071205413650
256.262044973789330 -56.232062581905460 -13.042388527603888
255.923420018225755 -56.235671990437638 25.536783001068248
257.215528615389587 -56.251464319295259 10.371837727721262
258.581502065857364 -56.090520768045906 -15.960014136245348
257.729471355011924 -56.782638472738874 -15.377671205884592
257.471264560885743 -56.321009720439875 10.565526008836802
257.456080555107405 -55.001383433493615 26.617084519927065
259.026853619045880 -56.096749104063406 -16.649306694828486
257.897817602170278 -56.464381830530122 -14.390829896252480
257.683373127152890 -56.911246424712942 -12.788865668173278
257.868093592073308 -55.122623468850378 12.654508715297384
257.913679199697356 -56.832972820293143 26.349519675000334
258.936073676986211 -55.049748545829189 -17.614769113391453
258.353263922372719 -56.349593722888237 -17.281751300051731
257.140717757417463 -56.442771569306153 -15.259513733494856
259.850775655000461 -56.841317417897088 -13.955956886297331
259.081961672109003 -56.318457933769984 11.117943992952386
257.310012057686265 -55.117047165535588 13.483120345645649
259.848749872683584 -56.392416330291155 26.757324639711598
258.913178555215609 -55.841178402762139 -16.525564078782427
258.923932382380258 -56.454376530245156 12.078503749668576
259.369148530421626 -56.452861477127172 27.421925968051077
258.866185004124134 -55.911499857868627 -16.314370065299538
258.799461814966776 -56.657466237237998 -13.569069717919668
258.233426677980333 -57.693747096522294 11.818336895855198
259.129249228597416 -56.709140249373696 -17.882717084579294
261.652048965954407 -55.189448036211424 -17.334124816266169
259.767802387678557 -56.270728877010299 -12.941854293284802
260.291962582836334 -55.858528909987641 -12.730521292800301
259.235673731802365 -57.224786318070329 26.068297734447157
260.931968786193011 -55.587658302062742 -17.012020401198708
261.611432453526959 -56.085620692957200 -14.589450624339467
260.853077057746873 -54.981851459453893 13.564314327593095
260.542671128272275 -56.474601042777138 27.640347346234847
260.085234035431597 -56.883707788677384 27.732006094608202
261.646604176010669 -56.434659567092922 -17.225146357578137
260.256495110153082 -56.442811987622754 -17.196168252417063
260.714287849241146 -55.883492902288914 -17.712457843096718
261.862611009699265 -55.461505749247472 -14.097633900040551
261.321128362374338 -56.355142838858960 -13.062866768658033
260.908386670392360 -55.759964169123599 13.677465676117125
260.329330414576646 -56.615085737398331 27.567201019396016
260.817352908237808 -55.412598907402547 -16.730469911738112
261.975269747857624 -56.909309169033492 -16.013582417095087
261.943649722472003 -55.951247493598146 -17.452780059064320
261.969112523797605 -55.939519525687402 -14.935890683162974
261.778152815533247 -56.747443634781995 -17.937002916617157
260.513456678354828 -55.864649500857247 -14.747588074968267
263.466143583219889 -56.391781006922088 -15.912647589810778
262.108533699104555 -58.033187494166235 -12.712623730013359
262.211567666080384 -56.946741603169684 14.011163390749228
262.548744915859572 -57.314039718473346 -18.550769666156491
261.638175391463562 -55.748935791943552 -14.053281019891754
262.330939185917941 -57.682698153226113 -12.667538895066638
262.422364243061509 -55.058539460925658 14.430866936354860
262.982451280523037 -56.015236992837337 -16.712023597181624
263.157148219114049 -55.919315016906900 -14.530302833297041
263.513496383002860 -55.815839957036673 -15.305873398358631
263.720251043269911 -55.869336610704330 -15.487759332110958
263.900739250283891 -57.621042487619789 -12.933514318210779
262.861447816145869 -55.910476315139405 11.974793536484670
264.548586332602326 -57.882047097689792 -18.313216821459473
264.220580291421413 -55.245491752271356 -15.381642413886954
263.114048933375557 -57.281553201054209 13.541185125332284
265.003143747541401 -57.004939684467487 -17.513192744627556
263.757364248618387 -56.318961352015748 -14.279288407062786
264.130082264411101 -54.464684972963830 -18.008850968082822
264.487747487406637 -56.397052697263291 -16.992019541904291
262.917234873752193 -55.378571019680095 -12.777458302645412
263.815980055625005 -57.634157283573394 13.584646395081130
265.032889410518806 -56.366788403880570 -17.787558499152532
264.296017922219789 -55.219242488120166 -17.221218354121579
264.474665294081035 -56.716810718072281 -16.454471840901739
263.354636275069652 -55.968210860851279 -17.259368559348346
265.277783762061631 -56.234669742119280 -14.457670590570057
265.423504722981079 -56.546709888087122 -11.948643036271291
264.537896336944300 -58.066023513700529 28.131490991525343
265.268099506436386 -57.323390835596257 -17.650927197898007
265.082945465482112 -57.058752455231001 -15.710936040452637
265.064131627664381 -55.733504446919746 -11.861634432366277
265.650297841414329 -57.361785182092504 12.327105707278134
264.388980998039358 -56.990194090113015 28.291595569664938
265.704633340243959 -56.090800607489363 -18.909976819205031
265.232709038453493 -55.373494018895570 -17.698216269249670
265.771102179949196 -55.882745624014156 -16.079230928167021
265.324308638808759 -56.424973924974260 -17.088126684649552
264.790516467701309 -55.002272502855064 -17.195354948844596
265.583393029440515 -56.348299437544938 -15.709162546574365
265.861919990517663 -56.179583043984330 -14.427498285006125
266.262351308722714 -57.790258040952814 -13.062682128648426
264.173916243265808 -57.063304512669937 13.173903432478179
266.081358602250418 -56.124709050766725 13.790793772364729
264.306680305313137 -56.847519651858860 26.930720192257272
267.497578180349137 -55.799218117944029 -15.638789321019956
264.654735123256444 -56.147301487885521 -16.089248665828890
265.646195599511429 -57.625272824823142 -14.327246252438597
265.433004396312924 -56.763847669129760 -12.556993999632100
265.251968784505380 -56.913429303978184 13.397232074830042
265.417582864651592 -55.760517814183530 13.437650962336946
266.608830589693525 -57.457930481951053 27.287026043291668
266.473390617786833 -54.815409993618331 -13.146609702645916
266.187042512197081 -56.648894566274578 -16.787120830899084
267.036169798609876 -55.027983466358144 -16.570657502015546
266.474118839736491 -55.575505859117420 -15.819824359027130
266.766765333675266 -55.275004772139788 -14.893261644962378
265.656395567723337 -56.982419172896741 -11.939684537711944
267.080814702868281 -56.686461059048220 12.499915533957898
266.533023371573677 -56.192015801662265 13.531948141710602
266.022519092707910 -56.896348765780793 27.800207376109707
267.678270481633945 -57.363995544037600 -15.865305215665764
267.478313109470093 -56.782170379548973 -15.769769049627406
266.079719580857386 -55.524981713278343 -14.722596446718473
268.294764754350069 -55.772630260804952 -14.810044653142143
268.552942460346344 -56.384655493684079 -13.638106281308840
268.045914975304413 -55.477217957412499 -11.774429598880339
267.281575944172914 -56.244492961156546 11.776383899068152
266.774957244665700 -58.034621586353737 28.820711704882918
268.267210560573915 -56.352635982816736 26.266099548137056
267.634884777452498 -55.617502097951991 -15.948649669057748
268.016816966760643 -56.802251401017479 -13.228398617051802
267.121439562536011 -56.773271547157442 -10.831077622777308
267.893191707144524 -56.865288513221437 26.726917091070565
267.628038428636501 -55.939109299354236 27.286909321385693
268.671415878520747 -56.531600140523246 -16.133079812592225
268.891420417725669 -56.241523224390747 -16.107109758338346
268.189671467189498 -55.397149923918320 -12.233291642213445
268.085425883025266 -56.888648495886116 -12.775219062978108
268.044697428467202 -57.623779052620726 -11.407337360227324
268.625018977868194 -58.259816241186797 14.059305118709791
268.989569387927133 -56.882722754061525 14.357290859259445
269.636319253179579 -57.154278592575274 -16.468891198004215
268.706548305107162 -57.222894233076261 -14.941241262030690
268.724028476973729 -56.031727486857179 -13.438499423547213
269.242870299087429 -56.938823144013483 -12.359870727823870
268.445368470808603 -56.662259527927205 12.710471386293127
268.000801116445871 -56.875752398191487 14.529711491245649
268.302476945958517 -57.506722053617793 27.708848425408469
269.912919053613052 -55.889963542676377 -17.883976355417744
269.277143983349447 -57.698922074144150 -17.352188160952611
269.012684426064880 -55.769275496984875 -15.385189996781282
268.541966409464862 -56.507915314934984 -14.191634059127058
268.832215634856709 -57.509859677638566 -12.770260847214370
268.043388596620616 -56.921878034616739 -12.076932882302973
270.403074982652015 -56.735183294816331 13.938847418595023
269.684869769616512 -56.568324564747456 25.890916028040504
270.392169540101520 -57.570844218167295 -16.562925662759671
268.728648821531465 -56.965563631431877 -13.740307242183309
269.697815832733568 -56.434453553021548 -11.955359923560037
269.032696129948988 -56.745466962334568 -11.908088861932960
268.172400544384857 -56.569730558448924 -11.065998346612488
270.446455752825216 -57.380885574286189 13.402513574329801
268.585231432822638 -56.716934281147736 27.035684214950521
269.587070871264928 -55.498436128499307 26.342685028775527
270.745374486521825 -56.500138197542952 -16.264534705715214
269.822941834450546 -54.098119247947075 -15.802937365252980
269.077631100690098 -56.103046562378637 -14.511724110898507
270.614931959245212 -55.812763311228927 -13.949870102379611
269.902047153112164 -56.910485114961872 -13.111413077787651
270.753793969228980 -57.279081214066878 -11.645330215284186
269.863041841155450 -56.605348185397276 12.954759287357531
269.311705277352473 -56.952164489247110 26.466888356321711
269.956527197859486 -56.166389749624777 -15.879807235883490
270.665062922941274 -54.968724813532631 -16.054171147386260
270.854319112041651 -56.996434754507888 -13.426806770129344
271.338651158303662 -56.806361889876619 -12.549933039277299
272.218809609123127 -55.782789282750976 -15.090443425663583
271.483462782656318 -56.067105395733314 -14.843192939380327
271.178319537661480 -56.929166826692366 -13.038632907229220
271.169111864906199 -57.072770206954651 -11.612096560759246
271.341666968279640 -56.363500678329551 12.130254172798189
270.705302330201619 -56.582523016003655 24.490818199051169
271.786536410302801 -58.281992823950752 -16.141310868341535
271.044623406781795 -55.881544308325637 -15.346630415647443
271.150826677902387 -54.580225705728196 -14.285493445940341
271.846415122805354 -57.039917997008288 -13.235689455404977
270.035476103974986 -56.848168571259535 12.932054912690429
270.687855330212585 -56.464245589832693 26.281721216142248
270.418197826802157 -55.304431021558599 -15.129014152118284
271.954388745689926 -57.482171375866820 -12.313779837541979
271.374646872766277 -55.203550155107834 -11.055010542196502
271.050016976849406 -57.545237030367872 -9.916721142855607
272.112482338027462 -56.935764954883993 25.211561890635853
272.259692210926005 -55.324932032985046 -12.182861086767620
270.730211091664899 -56.755855160563449 -11.152030737864937
273.008113618705806 -55.199171873685515 -9.935742894545372
272.195196879391574 -56.208287542368851 12.450881435275452
272.249663927941242 -57.038948830821674 26.467984035126896
271.603405358705459 -57.747817990024082 -15.468780838901917
271.779810391129899 -55.677972066578810 -13.784736600211014
271.861857581636514 -56.483446813123891 -13.428380603729661
272.602431161461368 -56.135912211224991 -11.018030217182169
271.564051991212636 -55.279113672915010 -10.569258910368761
271.296269035993362 -55.482584206612970 12.465531779623909
272.217526021046126 -56.226643696260830 -15.535106731065703
272.456440390794285 -57.765568593742621 -12.859956685191404
273.484950920166114 -56.661056109537185 -12.112207254482021
273.369426987270401 -56.909994089939261 -8.915029892389677
273.144586620537893 -57.578884639578334 25.035073029394798
272.667240863109953 -56.962057237367596 -13.971079318216887
272.228546985843820 -55.404105639663740 -13.036573071763051
273.437584820900270 -56.568478768633625 -11.692168767629349
271.034265342966819 -56.181148111229618 25.448959293786427
272.061869228288685 -56.066951634714854 24.928109635861961
274.056693850483953 -55.502102733321031 -14.420146778266352
272.308718921285163 -55.508104999557794 -12.557188850447016
273.015476286141791 -57.396761812449078 -12.220725036680983
271.880928504562860 -56.165052454162144 -11.538875072308691
274.257017581293951 -56.570847754963410 -9.087320156989195
273.652419107264279 -56.423891898709904 12.804831001005367
274.761882122461202 -54.421742722009355 -15.495964298547584
273.769358408021731 -57.450703774293643 -11.965449007555202
274.334930179183402 -56.623447064243237 -11.014884667429527
273.131530665104719 -56.046308379637971 -7.914374130187303
273.065840595928137 -58.110809589365928 -13.059481587612478
275.148679070161279 -56.987727807813535 -12.747845301565938
275.417895728461986 -56.572040455142300 -10.382989676453949
273.549243979045400 -56.232081192835885 12.882889274650619
274.372550359867830 -56.510539524566006 -14.095456958780295
274.806589715336202 -55.163902592312297 -11.632160359226370
274.545216736323084 -55.847357611267874 -11.548775286600536
273.893492652645364 -56.312251545943440 23.661420292742534
275.341605223005047 -55.784906877509151 22.526041406526708
275.715276868344574 -55.449035140235601 -13.347884933835358
275.018622558754657 -55.967718717235556 -11.822305880910294
275.056932164607190 -54.975779236359323 -11.135563155304759
274.474103176973074 -55.660521782414101 -9.858537464158296
275.445144614278490 -57.715728950477022 -8.394931224734878
275.863590808955564 -55.786922540004191 23.419201720407127
275.353011065362978 -57.304952041589765 22.809739901568854
274.950032446421119 -56.498298203316438 -12.119649777692198
275.879866576350423 -56.669877762725669 -12.568263536282030
276.247238658197261 -55.717493439518329 -10.085024480955402
275.637394670559672 -56.472618551492026 -9.579150807060300
275.759226562959441 -55.513467808469883 11.761618684479236
274.808041909673022 -57.230632978999274 -11.846560328289675
276.091794840824548 -56.043224239898628 -11.152934341161346
275.168534542181987 -55.647895336571096 -8.986698297540709
275.984555222081269 -55.907187010359095 -8.253023832430387
276.044847543933258 -55.051381446739583 -11.687501504311843
275.818107918420992 -55.440235102091094 -12.293807432921286
276.028091956305900 -56.522076081501794 -9.944422503320441
276.025585209534995 -56.755231244346483 -7.251859229712846
275.833003953796720 -55.993230136072832 22.114071454882907
275.426497112332981 -56.799998532433833 -10.775257002529070
276.684079051619960 -55.812565575864056 -8.939797747733087
278.350624223013824 -54.751331161748254 -7.032486515184688
276.453350066075984 -54.478970347005095 22.247565854559234
277.654448100542538 -53.962034353973259 -11.531087917216313
277.183446401232175 -55.911468294504722 -10.152611730858897
276.134427684412913 -56.701694087313491 -9.593108250045502
275.325163554427945 -57.171273635519611 -6.961150726908074
277.321780285596788 -56.274943696841454 -12.055891893597684
276.643514760365861 -56.881941606533388 -9.326730020525064
278.627965063636111 -54.128438453441369 -8.807008195853387
277.909713943062286 -56.849931629937053 -11.206418617244275
278.447220839273257 -55.745767822168943 -8.945157639704361
277.535024151574021 -56.575986075868293 13.539408374517222
278.807183324577693 -55.705098339073430 -10.613722307451306
279.311577250009748 -55.500401171928161 -9.627161534378347
277.989647045339552 -56.145043698642880 -5.665920947623059
280.376952627901858 -57.131814462798047 22.641977926826513
278.666184550543107 -55.860815835167351 -10.854464070944758
278.295832679899320 -57.222804438845834 -9.116529896372578
278.370602273311420 -56.908682633649363 -5.776535599262339
278.320439690878800 -55.585429401359704 11.865617137789702
278.411183422603585 -55.961155239904315 13.085074242631249
278.293182059438948 -56.708299190058064 21.578803253009610
279.066219615782529 -56.989153765746430 -8.354371559128936
278.089921551427153 -55.294605044961600 -9.285964531596175
279.782953422537275 -57.502850304468438 -7.015713554827306
278.427106550260362 -56.897023702438624 11.901746172532979
279.383740671453097 -56.633854802740061 -9.404729241762677
279.241592265954466 -57.565519849943811 -6.732478441747310
278.873947796611787 -57.158434573937093 21.228309318980713
278.857719864937735 -55.970441829304349 -10.315321449515935
280.254994709354321 -55.972683514243933 -8.314037843219918
280.133782134529497 -55.552283907484778 -5.921818876073548
279.638273376255995 -55.624872568292773 12.091371374976914
280.759583448838669 -56.151413296830519 11.572552923952498
279.612165225879892 -55.927356158883711 20.922881425792262
280.741073632379994 -55.388321758293159 21.231515592776265
280.132585390822328 -55.643652263645471 -8.473736906234301
280.425625651686687 -56.099435778207841 -6.083096840996190
280.007135411828813 -55.733435011066270 -9.166654907667862
281.525964796895607 -56.166895064289783 -5.610664815803013
281.105895422795129 -56.272711299820322 -7.602938335652759
282.289823818246987 -56.982035159420590 -6.050428640221526
280.850752240125246 -54.809450718577104 10.937438945475323
282.350306352470000 -55.120930506110732 10.919167888420649
280.535190142096951 -56.969994026368177 19.453931716544751
281.508153959982451 -55.837620976960146 -4.278785044292418
281.058225404071095 -56.693855480998600 19.655800820594987
281.502873371536964 -55.131028806383647 -7.492531761019752
282.457783116051075 -54.588833726997017 -5.034803291541904
281.863247431396530 -57.002156176302776 11.554163134588007
281.691458168996746 -56.876753928229569 20.851426953249558
282.493159733163168 -55.764718313689137 -4.246871410971825
283.191249289238385 -56.481577174578590 -4.712713355414989
282.326604137447305 -57.110175106212644 10.800554346950083
281.178754146735116 -55.871126975636976 10.980982149647026
283.658735762653976 -55.579413619831811 -3.920319681816334
282.515219268117846 -57.126866817118064 20.256165886080904
282.256988684039811 -56.518671621180459 17.957839942648011
282.943001782426506 -55.589391983710215 -3.041316024509330
283.570437642886930 -57.234279358389131 10.887101563691584
283.986511469655682 -55.173708293849550 12.940039291843336
281.952026354856855 -56.055436718285968 20.007738637797523
284.521435067117693 -55.439374967820832 18.536651356653401
283.558744484679835 -55.281024655334626 -6.842732506825965
282.424124933592850 -55.046753120041991 -4.365196602044797
283.042531969105539 -56.363107499720613 11.118070512741701
282.702730748299302 -56.039431187755177 12.669073319774814
284.704669637158474 -56.648491022962482 -5.629242727346711
284.510777227333392 -54.708646894281571 -3.685638235328128
284.199485633941947 -55.575837392342869 -5.978523998404615
284.793497660229036 -57.628617863848447 -5.551336090455473
285.219239116969959 -57.314007393279361 10.992552087620211
284.872945380863484 -57.249947292416572 17.932923076194317
285.253887229781185 -56.051748660924503 -5.340924534691806
284.058876759385839 -56.754343408312344 -5.666461630437640
285.273087216381725 -56.288168659484960 -3.069518649785271
282.935465393459424 -56.563656469820401 9.780822895110454
284.983018386397703 -56.034248591977232 11.600372369152325
284.493119329664410 -57.711868923438445 17.108605657984171
285.024120577765586 -56.868917637825419 -4.038851377514620
284.191188243168142 -55.992670762378438 -3.059392125488500
285.898812373537794 -56.404473682704413 -2.646985503999847
284.192407787459388 -55.368939893971444 -6.209724865615760
284.861139847234767 -57.694990038936666 -3.304513701359132
286.144068309461716 -55.964260507172845 -2.984471684496927
284.766449766082360 -56.205575379098676 -1.664660344089776
285.577987082255390 -55.816553860008675 11.962724813583735
284.670369427324374 -56.690737097330697 11.596280457374071
284.951493426345507 -56.595929000578892 16.441575749352168
287.405667661746463 -55.667520629010490 -4.399825776319972
285.674711854370742 -56.168812800412972 -4.882446213986252
286.156467732026670 -57.780512987229407 -2.670600325663222
285.861846104167228 -56.817033940587280 17.145648348029795
285.713889461560939 -56.941668194937549 -3.513998558917909
286.736080810835460 -54.405582752366101 -2.407911015060670
286.367905395978084 -57.342306812123951 16.701888840923232
287.451364636248456 -56.400821426837354 -4.821406638034428
286.420887859981974 -56.286542386619075 -3.187222041479388
287.087339944677012 -56.630062814080276 -1.632893609664620
286.829512173907403 -56.309227221743505 -1.132157123202225
285.721775479540099 -56.439194048642683 11.803772740827119
285.664642324458953 -57.405274287615761 15.992179579775351
287.355391574994428 -56.162286644129132 -2.252259920849816
287.339466210841294 -56.523666211259531 -2.288068088444337
287.258328839942976 -55.461260219065643 -2.947286384715271
286.899216869150848 -56.390554613194602 -1.085878914161400
287.300514965028015 -55.172453904288922 15.109167205117039
288.691239688014150 -56.394203025445051 -3.417903197965272
287.876270285729845 -58.006842815197281 -0.363889217672936
287.726036060185550 -54.758933337608291 -0.095849606441269
286.309305508011050 -57.212745073579079 16.939874322977211
287.789051334024180 -55.166295444823064 14.351208753724517
287.467668630959452 -57.061148312625605 -2.807019933300196
288.394968354634557 -55.623745020159916 -3.058557440687736
287.362540861421451 -57.411882994357391 -1.385506068335280
286.884727046960961 -56.093127751728744 10.921241578464844
288.168877059411841 -56.633315559617884 10.703922973204573
288.259371581209336 -56.045319537662124 12.472066820413442
287.687255624234751 -56.769277491497178 13.297013003911024
288.727284293678849 -56.721221947463654 -3.011412458868736
289.314727852984447 -57.585387590718476 -2.019104210799470
287.805215777424223 -55.128006708512913 -1.721062999205816
288.348597966390400 -56.546015598811714 11.052613656294575
285.692123569819785 -55.305144839990504 12.386241244583898
288.655347436312979 -55.905698469923941 15.546915644077915
288.536454318863946 -55.417745025115607 13.195945324463542
288.816831167319378 -57.276362721403380 -2.040517998774057
288.773534367725574 -55.878622632935574 -2.410849605003964
288.783917963647923 -55.751862921378461 -0.774422207951817
289.359683228690471 -55.916229899483049 11.380645293544459
287.836643444647450 -56.211214723033159 12.739490229839010
289.122975902078963 -57.057938870514931 15.182953437720158
288.207909304950988 -56.967481299347000 13.767692687203578
289.951802724686274 -56.398193893571971 -2.442333924833043
288.145897503503932 -56.019502094547420 -1.191115814345132
287.825212850770981 -56.061898053624340 -1.116880461166096
289.975731678766067 -56.397826186128476 11.468871172441768
288.307901879483950 -56.867935059133622 13.472200938520455
290.784065185184772 -55.386496194445769 -0.996467447733438
290.313307088823024 -55.981517641994159 -1.362655477036598
288.068761363924580 -55.118944214152535 0.704567833220809
289.198165817160373 -55.040142335092334 -2.360588471013289
289.434629032987118 -56.776313799380802 -0.541413415886312
290.571106956775793 -55.423311661243766 -1.006543364398014
290.055554309530805 -56.242625376573770 -0.988047548413070
291.266355669477264 -56.135996972581040 0.413274212550628
290.730478593597297 -57.136165679564705 -0.002384950161957
289.867140344375912 -56.679142798415995 0.994044104180587
292.592067318240993 -55.087516921690856 0.565223568088955
290.690879494221974 -55.812481350948183 1.593429456276191
291.958194522803467 -55.070777482825100 1.977738194822970
292.038990695375958 -56.378353829801434 2.007448513785614
11.756160733228510 -55.628548782432084 33.481240520594461
10.243251149688236 -55.846053357222402 34.517652474664295
11.771744404172958 -55.287648420541274 39.074809638670686
12.318053386750941 -55.546641164834526 39.604692653590199
13.352362890151484 -56.261080567622237 30.030127500071735
13.324679761917691 -55.662422681873203 29.860761053398161
14.351907299023358 -54.998460248150245 28.207494475929874
13.735160401293175 -55.276004805379905 28.209092424093765
13.946247578782081 -55.159475752553782 25.791576103956462
15.428780398593277 -55.926893792713905 43.896999358147632
14.136349419893920 -55.285685496317228 44.043433599904660
16.309613539970350 -54.767726275473599 24.892453466644838
16.297605041065481 -54.521907340913778 45.954221906657715
16.345600023370157 -57.269204379658810 47.106062795260229
16.782679151367319 -55.091258159692593 24.385424792078179
16.372604625919891 -54.986102102465203 46.134308526444080
17.473530614253427 -54.649553054472875 26.002892670402534
17.686502150024737 -55.943592211006447 34.772046435592472
17.857138946397114 -55.330264977380651 35.263151796016473
15.555095148881575 -55.352062254872223 37.633158298661726
17.239383654017512 -55.636953875497277 46.463966928022998
16.261681499069756 -55.650070112688404 23.745351443788739
17.050448037977745 -55.602601629615698 39.090874793516946
18.123201083000797 -54.688477001437334 22.886922771583656
18.468498945215579 -56.353785776033796 33.378212387750018
20.183841862179769 -55.579213354096545 47.844862749660777
18.644729454487013 -55.928432952800101 31.613925883819761
18.616301995572950 -55.427556514398873 31.364901770649389
18.183723622020597 -55.676261684457181 39.739822450261883
18.102140049828048 -54.301084999736595 23.207782659275814
18.206884586740014 -54.935150143162126 30.946578295757533
19.260397599867165 -56.472183518306693 30.153040397142703
18.467302452593000 -55.091505292990163 40.384441354373308
18.274064250284347 -55.624381946944503 41.523185314713913
20.089778554710655 -54.626010573245189 22.567855135749234
18.117011774443430 -55.948372090647055 29.480516017078177
18.922438284797259 -55.492670105951206 41.324455080595506
19.168391813965606 -55.641570192126260 49.280028027339689
20.490770006640094 -55.502917148271202 22.432102050026813
19.803536968580605 -56.048127598451565 29.992008288454198
20.014607114014211 -54.939398805473239 43.227713854484520
20.698750954767029 -56.817730850565248 21.946498511852852
19.970322746372464 -56.946884043210495 29.399170683117763
20.041270079566473 -55.646113564386127 28.763735679290626
21.049176605017891 -55.278495950376332 22.716508816026671
20.517932574551725 -55.058764572352160 43.049431962549384
21.303511136588998 -55.280356157497344 42.758240569603664
19.985241713361308 -55.714043377690302 51.590722379905429
21.023050316073558 -56.704183981028173 22.438522584166119
21.769620726598703 -55.976486992915497 48.839044035883809
19.985184897620989 -56.001510271893544 21.540934140500021
21.836779287709874 -56.076318124923937 28.087593893626767
21.173178703871454 -55.185700931029679 41.902329208869759
21.745634068962495 -54.739443289151374 27.470230207448470
23.666040163626246 -55.556047459891936 49.941308373717135
21.589443488616944 -56.096390981580633 51.527242907188203
23.017811131319853 -54.047047179708883 27.904661118068191
22.776302293975622 -55.923275017897531 27.419031318116783
21.657300141078576 -55.995927428284034 50.171535787679602
22.490300030730097 -55.464527470478735 50.774818793445334
24.070659138832180 -55.798530037242081 20.500199725659581
23.665861960767359 -56.700350426912721 26.037920459445623
24.941713984745022 -56.037123660355071 27.273982884583152
24.830449386860725 -56.579515274922286 26.960957147752854
25.390321101147446 -56.375818664525646 51.718509039300187
24.832569027795660 -54.410261937472953 44.763012185839983
24.178789472276069 -55.275185216153247 50.970735294629606
25.742082748662121 -57.377827672271692 20.712086726016274
26.073101569710818 -56.880511108737579 26.122416285153818
25.780176216357578 -56.062329160325014 50.279535811189206
24.821962476725783 -55.743242114139207 19.416145013672271
25.795093199158380 -55.921844002635524 44.655204453836191
27.744299758637091 -55.718846383490714 19.678231399156314
26.148316228866630 -56.765414371116151 51.437052630939284
27.188065653930792 -55.387444643146388 20.461836507623921
27.605380741718221 -55.028953885214918 49.819314558592801
28.008482429123315 -55.582185056220624 20.368519743336520
27.349317223809784 -55.609922988905595 26.875640460880824
27.231711555468276 -56.323695075017326 44.706295827744647
27.979892042165449 -56.532389826686760 50.711829305284063
27.873088146244339 -56.170108399367550 46.009572290955411
29.076410873143157 -56.001987940049574 20.444184830545151
28.938350645639346 -55.286585819633935 26.420631460191736
28.635261405159614 -54.025586597662794 20.854655304620866
28.270405292373603 -56.566931921979013 26.554973116390169
28.462188723259384 -56.528760269744204 44.817438733802589
29.814145043034454 -55.692310784379345 22.180281666054423
29.467664789263058 -54.259504109283625 45.198582888178692
29.612926758825687 -55.924614219769865 22.261040449298097
29.815499597671977 -55.248793947985568 27.077191732682785
30.053722845743735 -55.499732243134623 43.578220247504845
31.874611087523920 -55.864036193881446 20.850641310279308
31.417091769399843 -55.995825413333790 51.091537928011981
33.241798687427327 -56.363228219256733 21.254027523147844
30.519321072838604 -55.520115206244412 27.327200345625233
32.500079377277956 -55.549520713325819 49.848741039782013
30.952445579493411 -56.299060503264464 29.113367176346017
32.676344682926008 -54.361136302185884 22.441210996443683
34.787371481166161 -54.924950138188173 43.147983926159846
33.496687253245469 -55.590217987526749 21.714188064889537
33.310844535237031 -55.501776369713617 28.573053452548869
31.984792578139309 -54.729240466444182 22.606933584846313
32.960501618136846 -55.287146623348747 48.189722623389258
34.532635435855816 -56.641892976010951 21.770767445982397
33.552873148861657 -56.658210060557039 42.572408625261410
35.562742433974528 -55.916289755264593 29.061351481868662
35.333995382438786 -55.665197070821016 41.308039426634046
33.985401526503829 -55.015815391376172 41.775314693533502
33.965559240795827 -56.943659603911584 31.986506874882810
34.929320383751786 -55.798619089695777 29.947430649592267
35.150696533634104 -56.491383920390184 40.590389327513265
36.931534364104763 -55.341619789105657 48.101400790804256
35.286477938342003 -55.612040365103596 47.764337109990279
34.225480889022869 -55.686172900841335 32.102327843586281
36.925606688397160 -55.962764259874405 40.469984617730752
36.662067527561213 -55.716331231128763 39.319807468448282
35.784982616624944 -57.344789222938005 46.640208803959936
37.207441444114629 -54.521765076852745 25.474768794947007
36.037939957805207 -56.835553896233741 37.747018390155027
35.373676359880740 -55.836028329559468 37.691789555964810
37.326740691969505 -56.566936167821687 46.003283955274426
35.582987489988845 -55.211156852153287 47.597659581734966
37.171982938100051 -56.661358713148481 34.088886624228685
36.586698904618707 -55.497525743808033 47.388337864984088
37.742712610114602 -55.369950223644487 33.774599545878630
37.880073153659218 -54.498105740768871 26.863190325786789
38.175628783029161 -54.984954427853403 44.753702068400017
37.248586495386633 -56.000841655169168 27.516943074855373
38.205467061099441 -56.247607509066739 33.732691390028265
37.470973508313470 -54.937039681964748 34.572405908838725
39.139669046450926 -55.406010496898382 45.283180481559761
38.865278891646014 -55.579495396424718 45.735247931173490
38.572787390150879 -54.648726818562082 27.613711272263977
38.290259555617268 -56.350432799984524 43.763518256687419
39.845183580781288 -55.764968741031751 28.535752038179840
40.902138213358654 -56.088262310273009 28.341678761547783
40.257829090182469 -56.154920522087885 35.515574630447745
37.830536399441648 -54.735408715827589 43.562956439278800
40.592926148835680 -56.090185969663303 31.349699464241823
40.321751431369080 -56.385193397302999 34.749096644937040
41.024980467684898 -54.822562396282244 33.354674435465746
41.455579068271959 -56.442212065086046 30.468955540005496
39.904446757003946 -55.123368184439649 34.715364829321878
40.465730400696081 -54.899331565192874 36.471135316428658
41.225164393904919 -55.278793541513615 38.710620587029965
41.862726774216632 -55.970502088859860 39.922592334598917
40.922665510736820 -55.821429027446818 36.818143413817388
