# This PCD file was generated using the MATLAB® pcwrite function
# from Computer Vision Toolbox®.
# .PCD v.7 - Point Cloud Data file format
VERSION .7
FIELDS x y z
SIZE 4 4 4
TYPE F F F
COUNT 1 1 1
WIDTH 1512
HEIGHT 1
VIEWPOINT 0 0 0 1 0 0 0
POINTS 1512
DATA ascii
57.022923 -41.369740 85.438126
56.612953 -40.649429 92.851051
57.090706 -41.500782 82.376106
57.087677 -40.646973 83.407654
57.059978 -41.031219 84.487396
57.431858 -41.102539 92.988243
57.512875 -41.339756 95.151146
57.445393 -41.583153 100.811600
56.886806 -41.185040 100.643501
57.149349 -40.910404 101.518356
57.072063 -41.479332 102.926834
57.335140 -41.215034 103.554688
56.907166 -40.458107 104.401344
58.074173 -41.352680 -85.374908
57.994225 -40.453098 0.575675
57.396557 -41.105526 81.166061
57.809097 -40.951126 83.593887
57.635963 -41.135700 95.396652
57.537540 -41.690739 100.009476
58.152435 -41.379112 -86.196342
57.897224 -41.749184 80.876396
58.102104 -40.648479 80.812904
58.723869 -40.871056 82.861298
57.787128 -40.600365 82.570763
57.641239 -41.470654 93.011490
57.882694 -40.099365 94.520004
57.948807 -41.241066 95.710678
58.105980 -41.722019 96.202042
58.169361 -41.657700 98.515152
57.762173 -40.131710 97.767365
58.012234 -40.959328 105.601494
58.460899 -41.028198 107.258476
58.821991 -41.059074 -86.215988
58.587139 -40.468544 -85.875870
58.165779 -41.043209 80.061058
58.418812 -41.006519 80.644737
58.395275 -40.681675 81.362068
58.355988 -41.669487 87.418404
58.389935 -41.366089 88.273277
58.485901 -41.390705 89.477386
58.432159 -41.350105 93.876350
58.368210 -41.097397 97.675056
58.599888 -40.957912 96.696762
58.281429 -41.152603 96.403893
58.158424 -40.577026 101.543846
58.246784 -40.234295 102.521187
58.503551 -40.591091 103.578209
59.199512 -40.666836 -1.996633
59.102932 -40.845158 -1.120165
58.765980 -41.429146 80.215668
58.819221 -40.462132 80.848022
58.569859 -41.120453 81.992737
59.096378 -40.921291 81.505058
58.679211 -41.264523 86.416969
58.833302 -40.682926 87.466080
58.235073 -41.779587 90.071465
58.774952 -40.796165 90.156914
59.130192 -40.996788 94.370461
58.272202 -40.351974 94.806923
58.544765 -40.485722 100.581078
59.032043 -40.833878 102.346588
58.500893 -40.858635 103.535515
59.711124 -40.882099 -4.944541
59.614502 -41.049927 -3.926766
58.940342 -41.128048 79.049309
59.020531 -40.977627 79.302139
58.989548 -40.553211 80.776237
59.112068 -40.487339 86.645401
59.349350 -41.406368 91.876572
59.073494 -40.589062 90.980621
59.336590 -41.398357 92.095131
59.530975 -41.136574 94.490273
59.272602 -40.492832 99.292336
58.456120 -40.419750 100.726822
58.634640 -40.500908 101.103500
59.292252 -40.810253 102.649567
58.900127 -40.991375 103.484695
58.792061 -40.363991 104.265221
59.321102 -40.386738 105.377068
59.000416 -41.134514 108.015244
59.665073 -41.564468 -86.938423
59.933529 -42.006950 -8.686376
59.760082 -41.551895 78.858826
59.824867 -40.756691 79.363861
59.575214 -41.426884 80.661850
59.463711 -41.130222 80.655540
59.472916 -40.432911 85.226120
59.246040 -40.826473 91.567268
59.400688 -41.589802 93.063828
60.280182 -41.171730 92.916367
59.672153 -41.354637 94.592201
59.762119 -41.151653 96.105774
59.243401 -40.699558 96.691902
59.720211 -40.648708 98.936760
59.908218 -40.654594 99.141708
59.233715 -40.709885 100.710793
59.836594 -41.058170 102.213875
59.427177 -40.435905 103.884895
59.702301 -40.494732 104.671562
59.446423 -40.241650 105.344849
60.294861 -42.052608 -87.363007
60.729965 -40.985779 -9.570138
60.604977 -40.936825 78.183472
59.853024 -40.992718 78.651833
59.803925 -40.461460 80.155388
60.505524 -41.033047 84.169014
59.954609 -41.056221 87.684860
60.821247 -41.315182 88.566742
60.119064 -41.341133 89.383347
59.756020 -41.064960 94.750069
59.663418 -41.554337 93.789978
59.625526 -40.856022 96.243881
59.684761 -40.558182 97.704536
59.868378 -40.309376 98.873207
59.670647 -40.717815 99.664619
60.147827 -40.361202 102.717445
60.375317 -40.522263 103.484779
59.922939 -40.824596 105.101715
59.761879 -40.637833 106.203247
60.242737 -41.387333 -11.070726
61.033356 -41.518776 -11.501311
60.352627 -40.873096 78.271461
60.114922 -40.865314 78.680252
60.620926 -40.650387 80.158188
60.880108 -41.513237 84.296547
60.583817 -40.464897 84.874329
60.185703 -41.728851 86.352425
60.412575 -40.940567 88.707901
60.162842 -41.151157 89.192139
60.270195 -41.323643 90.818184
60.287144 -41.280422 90.175148
60.607094 -40.821533 94.482048
60.577419 -40.909622 95.792374
59.845619 -40.438454 97.251961
60.574074 -40.597137 98.052200
60.578781 -40.770119 99.199791
60.026852 -40.420120 99.904732
60.339176 -41.344208 108.798149
60.610989 -41.450256 110.175987
61.224834 -40.671989 -12.827383
60.898876 -40.410816 -11.598297
61.237091 -41.137089 78.610115
60.775944 -41.220634 78.984779
60.655251 -40.823170 78.569176
61.103218 -41.496239 83.594429
61.165096 -40.097401 84.313446
60.821953 -41.154583 85.213959
60.831604 -40.989799 86.614098
60.352631 -40.773167 87.142464
60.998573 -40.628674 89.308609
60.967651 -40.310120 90.202255
61.132324 -40.946106 90.970634
61.143917 -40.728992 94.066711
60.251842 -41.419415 95.409256
60.358913 -40.705902 97.958244
60.691772 -40.659184 98.828896
61.650543 -41.153664 -15.460268
61.542152 -41.437344 -14.128616
61.264858 -41.222527 77.389618
61.092960 -41.388355 79.004112
60.627823 -40.987640 78.840019
61.495781 -40.825356 83.293327
61.344288 -41.327606 85.092247
61.558578 -40.917854 85.220589
61.775257 -40.663651 87.095428
61.672993 -40.633167 88.700363
61.375175 -40.886822 90.409126
61.150101 -40.983444 90.856728
61.112053 -41.231522 92.029266
61.188854 -40.643738 95.415924
61.462391 -40.825783 95.576653
61.102612 -40.976692 97.384171
60.869884 -40.549900 97.510201
60.948139 -40.464493 108.479317
60.378269 -40.948410 110.086205
62.091377 -41.581753 -20.093586
62.379028 -42.269039 -19.798386
61.950272 -40.917187 -18.496361
62.083691 -42.112442 -18.173742
61.759228 -41.746399 -16.563656
61.422173 -41.391521 77.460426
62.013653 -40.578617 77.827042
61.619347 -41.216675 78.673141
61.754398 -41.786446 82.768829
61.905056 -41.433643 84.728050
61.097366 -40.854160 85.545235
61.476727 -40.656773 87.146446
61.256962 -40.794216 89.247757
61.634003 -40.474590 91.231560
61.501904 -40.293072 92.114426
61.652317 -39.807491 96.873024
61.359386 -40.523785 97.799454
61.829739 -40.700584 101.900299
61.445744 -40.293736 102.495613
61.702183 -40.352932 103.389885
61.587357 -40.486923 104.731178
61.392471 -41.567863 111.071625
62.413303 -41.250156 110.727348
61.837929 -40.534389 112.398430
62.126740 -40.763531 -87.890953
62.564602 -41.223900 -22.373739
62.271347 -40.951439 -21.153648
61.613514 -41.344131 77.381569
61.848957 -41.515053 78.027794
61.940929 -40.785824 77.781105
62.075794 -40.922054 82.641373
61.865757 -39.853130 83.749077
61.670265 -40.784969 85.293114
62.085346 -40.409664 87.026024
62.137527 -40.378021 89.163864
61.993786 -40.047382 92.145302
61.797832 -41.355793 93.344856
61.887794 -40.556866 93.107361
62.195087 -40.039513 100.801750
62.198582 -40.490463 101.455093
61.954216 -40.497578 103.001854
61.869610 -40.509670 104.585442
61.977978 -41.242199 105.598648
61.579094 -41.475372 106.455093
62.119446 -41.126053 106.597137
62.320267 -41.755444 107.445976
61.850445 -40.429302 112.098465
62.877708 -41.953392 -87.759590
62.939445 -41.816769 -23.379108
62.167648 -41.082256 77.056160
62.723675 -41.080528 76.775452
62.552364 -40.957798 77.717216
61.915848 -41.451637 81.876137
62.540020 -40.881058 84.180038
62.407936 -40.518803 83.677177
62.197834 -40.051414 89.652710
62.202267 -40.727623 94.106010
62.690876 -41.199841 94.785637
62.516556 -40.765968 99.627487
61.990902 -40.641750 100.317383
61.950378 -40.821606 103.230026
62.448738 -40.438519 104.672119
62.199387 -41.480415 105.712189
62.427345 -40.456932 104.953468
62.446060 -41.082649 107.345650
62.720200 -41.355515 108.235748
62.427216 -41.449669 111.666725
63.159088 -41.758923 -88.270531
63.024296 -40.966354 76.247322
62.667862 -41.100933 81.121460
62.422184 -40.395920 82.340576
62.694847 -41.486366 84.006386
62.759670 -40.947655 84.662323
62.597942 -40.574886 84.416786
62.251930 -40.504166 87.040558
63.000771 -40.482414 89.297211
62.551823 -41.143196 95.482468
62.474472 -41.003017 96.782463
62.706764 -41.221706 100.301849
62.469860 -40.544182 100.898422
62.629787 -40.459831 101.812950
62.517551 -41.310352 105.728760
62.982243 -41.435303 109.533211
62.391716 -41.717556 111.456177
62.495262 -40.921406 112.338219
63.137039 -40.705627 76.488113
62.863075 -41.184086 77.078468
62.941887 -40.781052 76.831612
63.161324 -41.180168 81.836388
63.046566 -40.339088 82.993065
63.277554 -41.081020 83.746681
63.091011 -40.956001 84.294006
62.997086 -40.642799 89.584610
63.355190 -40.779881 101.236618
63.488892 -40.705872 102.284447
63.275658 -40.878056 103.663597
63.153286 -40.559250 104.351257
62.901188 -41.415253 106.025131
63.200722 -40.907230 105.485016
62.970203 -40.314289 108.587830
63.232227 -40.929459 109.377434
63.513897 -41.298168 111.213699
62.934338 -41.062748 112.011002
63.683315 -41.248058 76.529976
63.593163 -41.259258 76.986694
63.191563 -41.141125 80.954773
64.128349 -41.050091 81.488792
63.811680 -41.204731 83.846451
63.827881 -40.567581 85.711655
63.175644 -40.837219 85.818169
63.190102 -40.520023 87.690857
63.407406 -41.430969 100.470146
63.594055 -40.499714 103.473801
63.677494 -40.230648 105.089264
63.518955 -41.264347 106.085846
63.506992 -41.595905 108.877686
64.172997 -41.577469 111.893654
63.915291 -41.512623 -88.565262
64.576645 -41.836456 -24.764486
64.073555 -41.349651 76.088829
64.046173 -41.260456 75.876053
64.145065 -41.163780 84.521034
64.051849 -40.335606 86.660614
63.927528 -40.428196 89.608192
63.946854 -40.699291 101.911118
63.364723 -40.413174 104.689751
64.022232 -40.566036 105.542877
63.918648 -41.091404 106.896950
64.013634 -40.818813 106.035126
64.034798 -41.285210 110.190620
63.942993 -40.206200 109.194534
64.603699 -41.056316 80.553871
64.438301 -40.402748 81.556961
64.227402 -40.893887 84.083519
64.332329 -41.029816 85.644699
64.260902 -40.717182 86.665306
64.331459 -40.299328 88.213081
64.145714 -40.102448 90.618599
64.266716 -41.083447 101.667892
64.096725 -41.083260 102.276573
64.095642 -40.549488 103.202019
64.104713 -40.581543 105.490295
63.850174 -41.367107 107.263000
63.993832 -40.926411 106.419266
64.892654 -41.036560 107.330688
64.115471 -41.140282 110.412704
64.282227 -41.662376 112.255501
64.950127 -41.865997 -88.449272
65.128082 -41.249748 80.301140
64.439865 -40.229206 82.500664
64.753342 -41.006424 85.431381
64.980614 -40.413540 89.121658
64.870216 -40.707592 103.441948
65.290535 -40.350735 104.768150
64.712479 -40.171143 105.375282
64.699959 -40.648453 106.495682
64.794258 -40.920288 107.008461
64.289330 -40.448296 112.823715
65.182838 -41.458927 80.070229
65.037834 -40.813751 80.417885
64.915489 -40.748657 81.946251
64.853653 -41.202869 83.849091
65.880440 -41.198151 83.162621
64.608269 -41.158386 85.010101
64.740295 -40.352230 87.212227
64.721077 -40.952953 88.967171
65.296707 -40.481232 90.565147
64.574059 -41.528149 102.702713
64.871727 -40.509865 104.613449
64.939774 -40.770866 106.819626
65.186691 -41.939007 110.846931
64.995621 -41.147518 110.120255
65.635681 -41.382465 -89.254425
65.110489 -40.928474 79.510094
65.236397 -40.866043 80.765846
65.889847 -40.263817 81.385170
65.629753 -40.934826 84.353836
65.443863 -40.486485 86.312630
65.436432 -40.590309 88.398621
65.486046 -40.300800 89.699326
65.504097 -40.426807 104.507568
65.466759 -40.031940 105.572823
65.130005 -40.176601 106.209167
65.501389 -40.965889 107.477196
65.846642 -41.342041 108.271149
65.303131 -41.477272 111.163933
65.028870 -40.522480 110.497917
65.353195 -40.939465 112.716225
65.399788 -41.066780 113.043274
66.343102 -41.529572 -89.264389
65.799019 -41.277344 -26.294252
65.943405 -40.816479 79.926598
66.366135 -40.737476 80.858475
66.192184 -40.801594 82.005348
66.106644 -41.081921 83.600464
65.598816 -40.946701 84.622208
65.874786 -40.325012 87.707176
66.309082 -41.285976 104.323318
66.162354 -40.877197 105.250221
66.504669 -40.682281 106.449341
66.275543 -40.839279 107.816818
65.847435 -41.265713 108.777718
66.116158 -41.434578 111.338585
66.259285 -40.715446 110.076004
66.970482 -41.368244 -26.456827
65.965691 -40.865261 85.520683
66.410355 -40.766232 88.638855
66.919228 -40.300713 89.263863
66.144577 -40.344604 89.305260
66.416252 -40.832481 107.116173
66.327675 -40.993973 108.796021
66.301254 -40.858414 108.400940
65.914444 -41.692638 113.001701
66.774452 -40.391300 79.597488
66.754242 -40.580666 79.450554
66.651054 -40.669998 81.614426
66.305565 -40.931923 84.466888
66.790291 -41.011925 85.694160
66.130600 -41.227566 105.086624
66.110245 -40.604866 105.579529
66.655563 -40.826042 106.428299
66.628090 -40.698925 107.162949
66.770012 -41.595757 108.962074
66.352913 -40.796341 108.261269
66.814903 -40.925179 111.167999
66.319412 -41.118599 113.162170
66.802849 -41.243839 -89.334885
67.104836 -40.587868 -27.440571
67.395203 -41.137981 78.929108
66.923134 -41.526096 79.690155
67.168251 -40.405907 81.225029
66.878960 -40.430824 87.131721
67.565865 -39.886757 91.542923
67.291542 -40.914822 106.325607
67.119797 -40.965977 106.934906
66.596054 -41.332760 109.316521
67.218872 -41.263432 108.199242
66.772125 -41.142681 110.960266
66.841591 -41.083347 113.921738
67.860641 -41.541603 -89.325935
67.825447 -40.715675 85.095474
66.956795 -40.459774 85.513664
66.938179 -40.582825 86.988815
67.097969 -41.095207 107.195869
67.529694 -41.302677 109.095833
67.625267 -40.579384 108.084862
67.302612 -41.584518 111.902756
68.216805 -41.129025 -27.877350
67.627373 -41.276649 78.603554
67.822365 -40.800755 79.543770
68.348106 -41.233540 84.027672
67.841949 -40.592636 85.571602
67.197502 -40.365444 89.760857
68.187096 -41.009789 108.491722
68.074829 -41.140678 112.084686
67.625725 -40.889606 111.050606
67.874603 -40.929611 113.121216
67.986008 -41.008827 113.756859
68.490402 -40.311741 80.670303
68.376717 -41.357693 83.578232
68.179634 -41.119640 87.024544
68.596458 -40.430435 88.401062
68.154823 -40.344788 90.482788
69.094666 -39.969936 91.862473
68.229080 -40.572872 111.185379
68.205872 -41.087444 114.107864
68.495186 -40.988361 78.863388
68.533569 -40.957951 78.597702
68.438019 -40.752792 79.328720
68.581093 -41.015709 85.143692
69.458794 -40.401718 88.765419
68.784317 -40.399448 89.602615
68.625587 -41.280197 111.694382
68.495667 -41.133751 114.085533
69.055138 -42.512787 -89.639122
68.850861 -40.353687 80.558197
69.236488 -41.134579 83.081772
68.711357 -41.047508 84.365486
68.979721 -40.289574 92.168579
69.012367 -41.454193 112.302834
69.354897 -41.155807 114.203865
69.509636 -41.090050 78.408562
69.087692 -41.405972 78.675400
69.806877 -41.374847 83.359169
69.814110 -41.023846 84.615921
69.315407 -40.936283 85.051750
69.144073 -40.955078 86.893402
69.576408 -40.118587 91.297356
69.670731 -41.025791 112.773766
69.619003 -41.417648 114.139420
70.261070 -41.194717 -89.767303
69.784431 -41.524490 77.945076
70.031914 -41.095219 77.658997
69.796799 -40.901993 78.307068
69.856392 -40.921715 79.918236
69.612282 -40.196701 80.677162
70.530159 -40.957531 84.559044
69.495819 -40.621559 86.072914
69.443321 -40.624886 88.426308
69.912018 -40.974373 89.307274
69.906372 -40.795254 112.222481
69.888702 -40.430325 115.163345
70.826920 -41.164715 -28.586672
70.780190 -40.196606 -28.813402
70.251877 -42.021332 77.777748
69.938950 -41.679718 83.651482
70.296753 -41.135647 86.406517
70.197716 -40.826260 88.013702
70.111946 -40.303188 90.217163
70.153481 -41.322586 112.387909
70.023582 -41.448666 114.213966
70.641960 -41.361000 115.132126
71.048004 -41.607750 -90.170929
70.667633 -41.284313 77.505356
70.198669 -40.842018 78.521545
70.552010 -40.587856 80.068916
70.768867 -40.251705 80.968719
70.739372 -41.415977 83.900085
70.803802 -41.112984 84.677071
70.439133 -40.642494 87.214722
71.027466 -40.280777 90.859650
70.091385 -40.941883 112.171761
71.293800 -40.815689 78.550545
70.185066 -40.595570 89.379379
71.614952 -40.365189 91.662338
71.041611 -41.560658 113.059235
70.892708 -41.527588 113.986473
71.176468 -41.549603 114.728508
72.088882 -41.756348 -89.924538
71.003540 -41.198391 77.681068
71.289307 -40.750549 84.375420
71.134338 -40.865692 84.714966
71.489021 -40.657516 86.109993
71.477180 -40.550461 86.478638
70.930466 -41.227200 88.414345
71.599701 -40.147064 92.953476
72.137672 -41.434834 -28.769888
72.241920 -40.739094 77.475388
71.458382 -40.585735 79.716301
71.766304 -40.227585 81.028351
71.807571 -40.868881 85.840157
71.958214 -40.057480 87.423683
71.712242 -40.581261 89.367493
71.699333 -40.287251 91.623375
71.813499 -41.235359 114.850716
72.597923 -41.784008 -89.929123
72.712975 -41.218620 77.682037
72.590858 -41.094151 78.688011
72.206810 -40.370705 80.568863
72.139320 -41.299198 84.660645
72.120804 -40.741558 90.002853
72.047447 -40.427120 93.259468
73.169220 -41.875065 -29.065201
72.718506 -41.111267 86.540726
72.985374 -40.930420 88.326591
72.559769 -40.498291 88.552483
72.932289 -40.525402 89.344444
72.721886 -40.539551 90.514626
72.609917 -40.652477 93.553993
72.796104 -41.238548 113.608917
73.767357 -41.542431 -89.890594
73.500298 -40.767414 -29.657490
72.612366 -40.895592 78.875710
73.161041 -40.874542 80.855721
72.872719 -41.149155 85.284538
73.304558 -41.259258 86.622276
73.051407 -41.058941 88.599266
73.361137 -40.141098 93.568619
73.418762 -41.052662 115.505074
73.523727 -41.178066 77.848381
73.475883 -40.355942 80.611694
73.428345 -40.578846 90.345390
73.728127 -40.803219 91.318588
72.665184 -40.590984 91.676971
73.411186 -41.086445 112.982239
73.394333 -41.870525 115.076385
73.477249 -40.919441 116.148827
74.180458 -41.441338 -89.961281
73.874077 -41.275166 -29.696547
73.793022 -40.736931 79.315231
74.279495 -40.978546 80.553101
74.106506 -41.176262 85.127182
73.534660 -40.658470 87.807869
73.616035 -40.706112 88.839928
73.683662 -40.320347 93.943398
73.852692 -41.565189 113.502380
73.988121 -41.460960 115.046799
74.151924 -41.068905 77.985901
74.214752 -40.688610 86.399971
74.409698 -40.911743 90.285851
74.526894 -41.209103 113.429207
73.919960 -40.996143 113.168633
74.151741 -41.487988 115.303215
73.908752 -41.090645 115.933182
75.284828 -41.838081 -29.766550
74.624084 -40.800674 79.014366
74.829842 -40.341549 79.921562
74.886452 -40.962685 86.638443
74.559464 -40.441963 90.122116
74.404289 -40.254314 92.467194
75.019165 -41.110405 77.259369
75.257706 -40.892319 77.671783
75.078461 -41.008625 78.841789
75.497757 -40.333519 80.628593
74.560051 -41.171738 85.867325
74.689713 -40.972744 89.026947
74.584595 -40.709576 91.464279
75.708038 -40.478352 91.885651
75.159470 -40.387215 93.374100
75.592873 -40.965637 113.640709
75.011383 -41.124512 115.565819
75.528175 -41.068481 -29.871248
75.492767 -41.115990 78.539833
75.927589 -41.033356 86.057487
75.462296 -41.361691 90.695526
75.321129 -41.180260 116.062004
75.763443 -41.618008 -90.903961
76.617271 -41.005688 -29.674080
75.565689 -41.024250 77.709648
76.260994 -40.746834 79.214912
75.816650 -40.414654 80.626595
76.553848 -41.053280 88.019989
76.021553 -40.592426 88.250214
76.029907 -40.197426 93.667580
76.208588 -41.031204 113.675217
76.113647 -40.189590 113.298561
75.604950 -41.121574 116.000305
77.174484 -41.050842 -90.471298
76.519241 -40.770458 78.122345
76.383240 -40.701553 80.975471
76.247398 -40.814720 86.120766
76.808151 -40.892651 87.662636
76.581146 -40.362118 90.175819
76.340996 -40.967846 91.087875
76.178574 -41.092197 92.802116
76.738495 -40.765228 93.711159
77.064140 -41.437092 -30.886518
77.648003 -41.475132 -30.881241
76.694664 -40.876930 -30.761492
76.343292 -40.790874 79.088646
76.744644 -40.620319 80.907242
76.927505 -41.029465 86.174263
76.763428 -40.938702 89.436806
76.735474 -40.467674 91.223381
76.597946 -40.857262 93.498222
76.813187 -39.973450 95.599594
76.781250 -41.198059 116.085724
76.592384 -40.783104 77.266411
77.292328 -41.009209 77.484291
76.972588 -40.640755 80.212723
77.086800 -40.592587 81.443153
77.140617 -41.158405 85.530273
77.323257 -41.212189 87.005615
77.409027 -40.156357 94.032730
78.088318 -41.723797 -90.625328
78.105240 -41.389538 -31.271215
77.873695 -41.239185 76.760071
77.184937 -40.737045 78.700134
77.846733 -40.498920 80.471382
77.546074 -40.667713 81.673187
77.894173 -41.226845 86.247261
77.447823 -41.229824 88.769737
76.684364 -41.131874 90.512909
77.172699 -40.233089 92.337463
77.421890 -40.409313 95.568420
77.764549 -41.223236 114.142525
78.140305 -41.336029 77.966927
78.041634 -41.185322 79.048401
77.984039 -40.274021 81.391144
77.676529 -41.068840 85.854393
77.740425 -40.779526 87.493286
77.615738 -41.067364 88.799988
77.877319 -40.713634 92.428253
77.795982 -40.927814 116.048500
78.840797 -40.373947 -89.916100
78.465874 -40.785351 -33.762032
78.740242 -41.104263 -32.490753
79.035927 -40.666618 78.983215
77.992882 -41.216587 86.591347
78.533676 -40.805763 87.432495
78.066330 -40.827553 91.385925
77.705353 -40.457378 93.729568
78.250046 -40.419128 94.950485
79.151733 -41.627907 -90.082787
78.861832 -41.251850 76.957100
78.455643 -40.647442 78.208252
78.498413 -40.967949 80.643074
78.795303 -40.242634 81.876144
78.235123 -41.038055 87.838646
78.245506 -40.743179 89.701942
79.006760 -40.807079 91.467148
78.874557 -40.720604 92.589005
78.503311 -40.422649 94.783875
78.878937 -41.045704 -33.427029
79.233223 -41.389931 77.198753
79.270439 -41.092144 77.148560
79.145775 -41.228737 77.411018
79.248695 -41.093746 78.827209
78.834778 -40.571594 81.280952
79.431061 -40.947937 88.324471
78.940712 -40.718712 88.917328
79.686661 -40.696186 89.817017
78.841599 -41.474617 116.045288
79.645607 -41.001057 -90.391975
79.505341 -40.864967 78.121338
79.460136 -40.788822 80.085594
79.340034 -40.906078 90.752914
79.566666 -40.864700 91.918419
79.495239 -40.845127 93.866226
79.470222 -41.385120 116.401039
80.362434 -41.044426 -35.078968
79.900635 -40.564457 82.882660
79.634476 -41.010342 87.561829
80.165390 -41.544609 89.269493
79.986160 -40.565208 96.411110
79.165161 -41.270699 114.031113
80.981178 -41.266731 -35.543343
80.357841 -41.130112 77.668320
80.526955 -40.489307 77.838470
79.447372 -40.691517 78.521126
80.267204 -40.660969 80.933769
80.155312 -41.139229 87.693542
80.255852 -40.833706 89.663330
80.490517 -40.904236 90.387260
80.862473 -40.612183 91.961639
80.366219 -40.356281 94.702156
79.981369 -41.089653 114.138916
80.261917 -41.652470 115.945076
81.132248 -40.172649 -43.473190
80.438873 -40.488884 82.313530
80.548660 -41.622852 88.326653
80.747749 -40.900806 89.965622
81.220795 -41.172104 94.833755
80.779556 -40.846859 114.481796
80.669930 -41.132248 116.222000
81.838158 -39.956814 -45.464954
81.133171 -40.281185 -44.265324
81.600082 -41.061958 -43.094128
81.174377 -40.731224 -41.850742
81.415878 -40.426655 -39.271591
81.625305 -41.474152 -37.660488
81.325867 -40.670742 78.628609
81.686531 -40.545876 80.864067
80.773308 -40.248890 81.287926
81.637947 -40.211262 82.558952
81.721916 -41.145611 89.086472
80.472916 -40.925995 91.199120
80.647346 -40.500225 93.215118
81.058517 -39.765293 98.045303
81.489647 -40.920856 -44.430542
81.549576 -40.670349 -43.053413
81.610573 -41.218391 -42.364971
82.135719 -41.548698 -40.219997
81.973961 -41.211563 -40.500126
82.011726 -40.822102 -38.781078
81.389435 -41.134621 77.117622
81.232506 -41.020485 77.900635
81.489693 -40.619865 79.325836
81.801338 -40.732403 80.619530
81.822891 -40.941811 81.584106
81.424255 -41.427387 87.348106
82.072861 -41.323597 88.190445
81.573616 -41.048206 90.305878
81.344551 -40.883194 95.916710
81.598984 -41.277054 114.104637
81.166489 -40.652897 113.980980
82.034698 -41.225800 116.007683
82.276703 -40.856083 -45.592693
82.329491 -41.402924 76.577904
81.828087 -40.297970 80.521088
82.043762 -40.649178 82.595528
81.677963 -40.945683 89.250389
81.984642 -40.513500 91.220932
81.962746 -40.681606 96.664658
82.325104 -41.176670 114.225876
82.998718 -41.172169 -90.833687
82.329613 -40.866463 77.884178
82.519051 -40.445244 79.735031
82.645256 -40.707901 90.263733
81.592964 -40.411118 93.340782
81.952835 -40.732670 95.029358
83.065163 -40.630722 -45.867016
83.128288 -40.506996 82.285011
82.389000 -41.416050 88.635109
83.133232 -40.903984 89.774452
82.370987 -40.779800 91.023537
82.867767 -40.535648 92.498024
82.559494 -40.315022 95.769493
82.793060 -40.403576 96.883034
82.642052 -41.218781 114.281281
82.756226 -41.473862 116.451515
83.425430 -41.325733 -46.757996
83.033401 -40.948498 77.799034
82.892197 -40.632118 79.325699
82.777168 -40.417419 82.897186
83.364899 -40.866039 91.543808
82.653755 -40.361923 93.556412
84.258728 -40.230209 96.026031
83.011322 -40.527470 97.118462
83.524834 -41.495686 -90.506714
83.923584 -41.312206 -46.695942
83.559364 -40.297379 -46.820473
84.001778 -40.973667 79.150162
83.628387 -41.006687 81.330315
83.659584 -40.460312 83.179192
83.470680 -40.421555 83.940125
83.323776 -41.145153 89.385498
83.558777 -40.989590 91.414612
83.829155 -40.825314 93.612328
83.896782 -40.667274 97.226089
83.503914 -40.943748 113.727280
83.716316 -41.163048 116.549240
83.900963 -40.540005 116.944954
84.137924 -40.322487 -47.198059
83.580681 -41.183067 77.306702
84.846199 -41.087868 80.637428
83.832748 -40.244762 83.610672
83.925446 -40.811871 88.489792
83.968315 -41.090302 90.557739
84.272240 -40.763607 92.610603
84.141586 -41.327312 114.733879
84.906433 -42.190819 -47.272331
83.980072 -40.915516 77.947929
84.150322 -41.179817 91.224373
84.943573 -40.933887 93.066368
85.011139 -40.848225 93.815086
84.737099 -40.594093 96.799355
84.060349 -40.952389 114.116020
83.994438 -41.425125 116.072914
84.633492 -40.782703 82.267998
84.762329 -41.653473 89.841331
84.604004 -40.733181 95.784340
83.996391 -41.053532 114.298492
85.111069 -41.041225 116.617981
85.699005 -40.866440 77.002930
85.251991 -40.900558 78.513084
85.624565 -39.916920 83.361458
85.392471 -40.444740 84.147530
84.735405 -41.167759 90.305893
84.821747 -41.138470 91.172310
84.750870 -40.680870 94.911163
84.980919 -40.765762 114.555099
85.714104 -40.470036 80.651459
85.298042 -40.646984 81.845215
85.753181 -41.019409 90.743179
86.013634 -41.254902 90.728317
85.424385 -40.743748 93.183182
85.040054 -40.659821 96.014824
84.921204 -40.973267 96.635300
85.129768 -39.870922 116.912140
86.207298 -41.225235 -91.161736
85.600197 -41.230480 -47.670517
85.829163 -40.620415 81.600891
86.116150 -40.671162 92.381546
85.628777 -40.528843 94.681458
86.298309 -40.639465 95.726196
85.709290 -40.720833 96.680504
86.068687 -40.462009 97.451996
85.767273 -41.034779 114.318359
86.387238 -41.571121 116.293114
86.040421 -40.272556 116.692032
86.729660 -41.263851 -90.268822
86.848808 -41.789982 -48.170704
86.710274 -41.022964 79.359055
85.836067 -40.893272 83.604362
85.988785 -40.604355 91.426529
86.237656 -41.013241 93.075447
86.232506 -40.778263 94.978073
86.387177 -40.408539 99.622429
87.394745 -41.310627 -48.577522
86.876274 -41.333607 77.516998
86.594116 -41.053043 78.899757
86.045532 -40.823376 81.669083
86.469612 -40.561779 82.163628
86.955330 -40.220261 83.375748
87.038307 -40.975357 90.080681
86.992882 -41.453289 91.328705
86.805939 -40.762917 92.957619
86.700432 -40.536263 94.219498
86.635979 -40.645245 96.473152
86.565231 -40.353622 97.337967
86.707962 -40.137192 98.003738
87.101318 -40.259148 99.503761
87.097961 -41.132813 116.243019
87.563576 -41.391270 -48.354904
86.746368 -41.475937 77.564156
86.767532 -40.536991 78.775070
87.041916 -40.852150 84.095398
87.392876 -41.299278 92.157707
87.097305 -40.605873 93.225723
87.034760 -40.319721 96.480980
87.168739 -40.959564 80.951065
87.413376 -40.608692 82.756310
87.600319 -40.380814 85.355728
87.363770 -41.319000 93.058388
86.782890 -40.860340 94.593887
87.617050 -40.670502 97.821701
87.720718 -40.955204 113.837257
88.754211 -40.797020 -49.511192
87.980858 -41.330360 77.791725
87.770668 -40.951241 78.933891
87.055672 -40.856205 80.220032
88.123398 -40.715683 82.665260
87.790092 -40.347744 84.384590
88.146034 -41.074158 91.326355
87.614029 -41.070045 94.411415
87.812721 -40.659832 98.073792
87.762451 -40.784687 116.552231
88.508217 -40.762028 -89.982132
88.903343 -41.269173 -49.912376
88.930176 -40.239372 -49.462639
88.403763 -41.243328 78.060165
88.420357 -41.024849 79.423523
88.777504 -40.531696 81.859978
88.288445 -40.577969 82.611534
88.377167 -41.195530 83.635223
88.587494 -40.486469 85.504768
88.264549 -40.985855 91.952293
88.431007 -40.988255 94.037193
87.973862 -40.587223 95.135918
88.579613 -40.661812 97.317513
88.036667 -40.766788 98.077881
88.274437 -41.908356 113.949425
89.139862 -42.299614 -50.498421
89.073807 -40.705429 80.237953
89.006447 -40.628555 85.534126
88.825684 -41.309036 93.271858
88.581406 -40.726818 95.295006
88.676140 -41.605560 115.889420
89.415535 -41.288956 -50.348137
88.926544 -41.252853 77.550819
89.179428 -41.039486 78.899582
88.968666 -40.701618 81.356895
89.968361 -40.901936 83.177277
89.459869 -40.172577 84.484421
89.267685 -41.880600 91.440788
89.006584 -40.418682 92.940086
89.631050 -40.934387 94.132179
89.237892 -41.003384 94.632248
89.614761 -40.496143 97.799362
89.259659 -40.191006 100.547028
88.765038 -41.269196 113.824165
89.197586 -41.312996 115.814072
89.970833 -41.252777 -50.839252
89.496597 -41.175224 79.058914
89.258255 -40.880489 80.036819
89.911224 -40.764534 83.834740
89.601212 -40.564728 86.679543
89.640938 -41.405624 92.047791
89.595551 -40.954704 93.721031
89.855316 -40.685455 96.448463
89.380188 -40.408596 98.774261
88.868805 -41.649216 113.987648
89.487488 -41.288769 115.771683
90.132599 -42.039768 -90.607246
89.927155 -41.318321 78.151024
89.706467 -40.860153 83.873169
89.331215 -40.386665 86.041359
89.811485 -40.393990 86.592896
90.366760 -41.432388 90.858719
90.286316 -41.195839 93.042580
90.089821 -40.718204 93.017929
89.682373 -40.954288 94.818810
89.340378 -40.857487 97.895180
90.627853 -40.966667 78.915871
90.170517 -40.682415 81.365578
90.348564 -40.935543 83.242081
90.367172 -40.642101 84.585930
90.447296 -40.028908 85.652008
90.902756 -41.138744 92.370537
90.565323 -40.940323 94.475967
90.256882 -40.460449 95.886040
90.452278 -40.709522 97.218048
89.815498 -40.647411 98.437241
90.560150 -40.250149 99.839890
90.166153 -41.131371 113.406227
91.390091 -41.082493 -52.050522
90.707733 -40.721180 78.473579
90.705482 -40.797134 80.008156
90.861252 -40.963303 79.965240
90.753815 -40.867783 83.126884
90.573517 -40.660465 84.551155
90.866447 -41.427666 92.941483
90.691811 -40.537338 94.607475
90.746193 -40.432926 99.007751
91.454056 -41.145763 -52.722733
91.290817 -40.301090 81.501808
90.677017 -40.910076 85.509445
91.012672 -41.147579 92.761833
91.333862 -41.102829 95.263153
90.622887 -40.761353 98.301292
91.186043 -40.601059 98.918655
91.072464 -41.241451 113.424835
90.494637 -41.349220 115.801819
91.476089 -41.210423 -52.816948
90.773270 -41.518715 78.006454
91.419250 -41.234699 78.772408
91.448219 -40.961594 80.356506
91.925354 -40.461025 81.776405
91.825157 -40.459061 82.368187
91.337234 -40.608189 83.944511
91.137711 -40.869987 85.117897
91.594856 -40.877132 94.135727
90.355644 -40.613514 96.660172
91.266998 -40.589233 99.546371
91.173637 -41.123661 115.874046
92.455582 -41.637932 -53.230747
92.232758 -41.138035 80.174889
91.893021 -40.799038 82.666260
91.610413 -40.833271 93.061172
91.765335 -40.931473 96.387413
92.024826 -40.483578 97.588829
91.686409 -41.492954 112.870712
92.302742 -40.386250 116.422699
93.100380 -40.270073 -53.518684
92.135460 -41.171814 78.799774
92.782074 -40.629181 81.485680
92.456451 -40.366596 85.702255
92.053551 -40.451286 86.717751
92.222420 -41.212395 92.572090
92.009995 -40.421070 99.266884
92.116653 -40.525562 99.896614
92.799088 -40.450920 116.204010
92.716324 -41.191780 78.789459
93.084038 -41.258175 80.354034
92.848083 -40.500187 83.091782
93.025055 -40.434113 85.222496
93.019066 -41.481495 92.307373
92.583458 -40.701721 93.326180
92.265892 -41.285187 94.172615
92.789619 -40.841705 97.004349
93.075668 -40.845749 98.766602
92.769409 -40.345093 99.648232
92.663658 -41.630199 112.311737
92.875847 -40.761570 115.793648
93.563362 -40.317612 -54.339523
93.323669 -40.368553 82.879990
92.755501 -40.686394 84.449944
93.430283 -40.549133 86.024597
93.317467 -39.946278 87.405197
93.119591 -40.394222 96.788773
92.770729 -40.977383 112.636108
93.420921 -40.258884 112.632263
93.760178 -41.018215 -89.864838
94.180099 -40.263287 -55.259495
93.665970 -40.563599 79.290489
93.783791 -40.751129 81.218086
93.389313 -40.470284 83.820061
93.872147 -40.385303 85.507172
93.964859 -40.603188 87.074806
93.105934 -41.097206 94.652054
93.708565 -41.081558 97.483498
93.858513 -40.466095 99.992882
93.320618 -41.490223 112.679390
93.560066 -40.452183 112.076469
93.502335 -41.294731 114.966476
94.616852 -40.881962 -89.956726
93.955688 -41.016876 -55.335667
94.616302 -41.363895 78.468040
93.882545 -40.467911 85.341606
94.406898 -40.623737 86.275635
94.163857 -41.095528 93.328316
93.930595 -40.855053 94.842262
93.699799 -41.207253 95.997635
94.382881 -40.807507 99.170883
94.310326 -40.311768 99.811867
93.808456 -40.139397 100.701920
93.995880 -40.787804 -90.028069
93.988525 -40.691235 79.692513
94.405075 -41.124298 80.585030
94.409233 -40.687786 82.567406
94.022888 -40.688263 83.777199
93.898582 -40.417641 84.720200
94.315186 -40.677830 88.396736
94.661369 -40.287952 89.492485
94.231689 -40.898449 94.184601
94.433983 -41.186821 96.217369
94.090004 -40.306126 97.768066
94.674850 -41.385696 115.364639
95.094765 -41.584572 -90.148972
95.430809 -40.149765 -89.692001
94.631592 -41.070171 78.932877
94.789848 -41.005714 79.530212
94.548805 -40.736057 82.831383
94.654114 -40.608883 85.197159
94.794022 -40.448845 86.075470
94.961311 -40.280827 86.959290
94.825592 -39.871433 88.204681
94.870171 -41.437965 94.390274
94.976761 -40.952206 97.239906
94.388672 -40.706249 99.419022
94.530975 -40.423588 100.713623
95.501488 -41.779655 -89.773209
95.041527 -41.130856 -56.913246
94.904419 -41.118027 79.926811
95.456863 -40.838703 82.424911
95.493462 -40.787792 84.127945
95.048775 -40.920715 85.765625
95.143890 -41.142456 93.533333
94.925690 -41.428791 94.306572
94.851143 -41.202297 96.483215
94.780670 -40.491909 98.702637
95.369698 -40.135452 100.683662
94.668259 -41.485550 114.993591
95.982681 -41.237007 -57.298782
95.157791 -41.190681 79.328499
95.792366 -41.149727 79.781281
95.966301 -41.024502 82.460808
95.627075 -40.706333 83.591415
95.509979 -40.245560 85.783310
95.017700 -40.288506 87.585587
95.503418 -41.272633 95.305809
96.012543 -40.412064 98.773270
95.364784 -40.283268 101.028503
95.670937 -41.289471 111.818077
96.274345 -41.397396 -89.962006
96.052811 -40.734406 -57.180649
96.192413 -41.514336 79.570580
95.930283 -40.690804 81.408173
96.259239 -41.100094 83.733093
95.770256 -40.018143 88.203590
95.779739 -41.203564 94.756157
96.037033 -41.322060 95.250275
95.966454 -40.791309 98.923889
96.460800 -40.601509 101.154785
96.257576 -40.361897 102.385605
95.758881 -40.998329 110.958237
95.866882 -41.568279 114.460403
97.174751 -41.053772 -89.552597
96.791328 -40.890472 -58.275909
96.583069 -40.525997 84.482353
96.379082 -40.663971 85.455780
96.485252 -40.219486 88.716263
96.575417 -40.823818 95.134712
96.516464 -40.845943 96.166168
96.470039 -40.965797 97.805672
96.601486 -40.980293 99.135277
96.216599 -40.072407 114.676750
96.248299 -41.050823 81.018219
96.731255 -40.989384 83.030319
96.874413 -40.652069 84.773529
96.486359 -40.171646 87.208603
96.906700 -40.164654 88.271210
96.578377 -41.129757 93.596375
97.046082 -41.063648 94.757263
97.261795 -41.105919 114.507668
97.476334 -41.073097 -58.727497
97.629990 -40.595940 80.443352
97.640930 -40.992138 80.981094
97.531105 -40.547001 83.111465
97.115250 -40.832676 85.047539
97.477196 -40.238960 88.856613
97.736267 -40.930370 94.437447
96.808243 -40.638821 97.290031
98.293274 -40.577927 -89.732079
97.995575 -41.098618 -59.618893
97.430588 -41.035847 82.523651
97.513283 -40.782909 85.975441
97.288818 -40.492451 88.214439
97.896591 -40.025085 89.036591
97.761200 -41.047806 95.482346
97.642990 -40.897038 97.833435
97.432686 -40.857876 110.558189
97.544594 -40.167953 112.322472
97.692932 -41.680618 113.779594
98.390717 -41.804893 -60.022182
98.019333 -40.752018 84.230873
98.324402 -41.095245 86.002251
98.019409 -40.928864 87.527794
97.765541 -40.585091 87.895561
98.104446 -41.402817 94.458633
98.113182 -41.069958 95.707291
97.725067 -40.812344 97.063293
98.236099 -40.568707 98.248550
97.581657 -40.991795 99.596382
97.052658 -40.855080 100.561630
97.771378 -39.793583 102.149773
98.214226 -41.263924 113.233086
98.223328 -40.986248 80.687988
98.295822 -40.519688 82.516563
98.533089 -40.743820 83.686386
98.745323 -40.527683 84.911644
98.372330 -40.331375 87.463020
98.442444 -40.931644 95.097237
98.586502 -40.930473 96.282768
97.822044 -40.590591 98.944473
98.487625 -40.269409 100.930962
98.459625 -40.830658 110.350159
98.377014 -40.128994 112.309944
98.896767 -42.085388 -89.351501
99.144081 -41.115608 80.531670
99.091309 -40.566246 82.359497
98.495705 -40.682846 84.473145
98.489464 -40.786259 85.675873
98.319168 -40.642529 88.133766
98.986877 -40.859653 95.909592
98.613762 -40.708138 99.715981
98.562927 -40.951382 113.811470
98.849426 -40.515652 81.692368
99.187149 -40.679733 83.952286
99.098564 -40.709045 85.238533
99.218262 -40.851643 87.512222
99.259331 -41.228817 94.267242
99.084564 -40.871014 94.894310
98.917633 -40.865917 96.888718
98.971733 -40.966614 98.269829
99.512947 -41.292679 -89.009865
99.672493 -41.198494 80.665291
99.225792 -40.976307 82.962357
99.397736 -40.159023 89.900978
99.809219 -41.295406 95.114815
99.597610 -40.924801 98.377716
99.630157 -40.742073 100.017754
99.292259 -40.250412 102.692535
99.233749 -41.365364 109.671677
99.349411 -40.245029 109.168304
99.657639 -39.852234 111.259979
99.436142 -40.373878 112.116570
99.527534 -41.265335 113.658470
100.497002 -41.344589 -89.045158
100.021446 -41.500862 -61.446400
100.119949 -41.086937 82.052803
99.970253 -40.755619 85.348045
100.305321 -40.183640 87.293015
99.759285 -39.920128 89.392311
99.986191 -41.465355 94.249725
99.602188 -41.336689 96.118294
99.910027 -41.113773 96.375877
100.395462 -40.087570 100.724594
100.628456 -40.966347 109.557800
99.738022 -41.592182 109.453842
99.914436 -40.250408 111.241875
101.093414 -41.673389 -89.499466
99.759895 -41.020020 83.344917
100.543427 -41.053513 84.412628
100.090424 -40.476891 86.533531
100.422981 -40.381653 89.489952
100.501999 -41.120270 94.426285
100.763435 -41.123917 95.900467
100.155251 -40.481354 96.538948
100.646652 -40.737438 98.996696
100.181137 -40.529850 111.028015
101.219093 -40.290478 -88.800644
101.477745 -40.646088 -61.996971
100.784737 -41.374516 82.046860
100.902908 -40.495079 88.109360
100.332184 -40.475876 89.316460
100.973236 -40.963570 97.060150
100.767174 -40.890255 98.429543
100.992989 -40.558578 111.185394
100.462082 -41.151768 112.943848
101.494781 -41.581860 -88.643829
101.125214 -40.754566 82.798416
101.243187 -40.993294 84.533638
101.247894 -39.783478 87.074303
101.569832 -40.196342 100.905327
101.207428 -40.468494 101.053177
101.049805 -40.180260 101.757561
100.836243 -41.694786 108.859421
101.041122 -40.131031 111.034561
101.677917 -41.056633 112.798935
100.946045 -41.394207 81.369385
102.012970 -40.817268 82.923805
101.817810 -40.288506 84.354828
101.199471 -40.790359 96.551552
101.062775 -40.669224 98.423065
100.765549 -40.814247 108.663643
101.881798 -41.026077 110.233841
102.574654 -40.942554 83.257759
102.014694 -41.062046 84.493042
102.582779 -40.808479 86.232170
101.586159 -40.572254 87.021729
101.529160 -40.627159 89.000320
101.668571 -41.116856 94.990891
101.717537 -41.172276 95.072876
101.980095 -40.589199 97.522743
101.828560 -40.641163 99.807243
101.868294 -40.926323 110.495415
102.614273 -40.977520 -63.307487
102.133659 -40.690605 85.684998
102.640099 -41.098904 87.172600
102.330452 -40.271221 88.272499
102.572678 -41.004379 96.259560
102.204796 -40.590309 99.183220
102.213272 -41.216461 112.077789
103.088051 -41.641373 -88.872498
102.957993 -41.002056 -64.051895
102.963837 -40.397732 84.895798
103.514084 -40.925480 85.356453
102.712418 -40.084576 88.589340
102.904228 -40.713226 89.479454
103.048615 -41.159676 94.273247
102.728798 -40.897003 95.901237
102.878922 -39.897743 98.551003
102.444069 -40.383423 101.092949
102.524986 -41.679920 107.835938
102.453163 -40.372078 107.391129
102.923820 -40.495552 109.090454
102.274643 -40.792114 110.388924
102.553299 -40.095245 112.446472
103.554413 -41.362366 -64.814064
103.843254 -40.270309 -65.425125
103.018196 -41.028164 82.457588
103.740768 -41.204540 83.799561
102.913879 -40.644726 87.230827
103.272141 -40.843300 96.784073
102.924789 -40.664032 98.133698
102.907089 -40.518356 100.000359
103.168015 -41.225555 107.003090
103.074776 -40.296719 110.265007
102.828285 -41.127781 112.116013
103.984436 -41.318909 -65.192245
103.140739 -41.349972 83.083138
103.988792 -41.140503 84.439545
103.683296 -40.732346 87.295898
103.605431 -41.081558 88.815506
103.689140 -40.582184 89.147552
103.451645 -40.259174 89.894432
103.699921 -41.361008 95.532173
103.011055 -41.356255 95.366005
103.519020 -40.952057 99.552254
103.830399 -40.490635 101.542885
103.425339 -40.905357 109.279518
104.387451 -41.273357 -88.679214
104.361992 -41.070568 -65.539055
104.224419 -41.093269 83.143799
104.412941 -41.179451 84.554070
104.152306 -40.758659 85.727104
104.406113 -41.560379 94.745316
103.767990 -40.907036 96.710106
103.874725 -41.019238 107.518036
103.899521 -40.347340 106.344315
104.065430 -40.774284 109.508766
104.217438 -41.280701 111.270416
104.489746 -41.367584 -88.658318
104.821144 -41.325325 -66.544922
104.962852 -40.603088 88.453438
104.345543 -40.869438 89.055298
104.156723 -40.580460 97.900169
104.223099 -41.107300 99.624702
104.042648 -40.805931 100.144958
104.664825 -40.304127 102.165771
104.541206 -41.588886 106.708595
104.204643 -41.042606 108.410690
104.351906 -40.933407 109.163689
104.393028 -41.265541 110.826843
105.060646 -41.461189 -66.640884
105.463936 -41.796818 -66.974945
104.992477 -41.005909 83.880226
105.004311 -41.491264 84.714394
104.887184 -40.296391 90.468674
104.805748 -40.438919 91.178673
104.680351 -41.434288 94.451759
104.751091 -41.250072 95.069603
104.315941 -41.084679 96.230476
104.707176 -40.795715 97.962723
105.746819 -40.837456 99.990700
105.067619 -40.239075 101.100365
104.653183 -40.275906 105.979568
104.600769 -40.148331 108.231155
105.641823 -41.405220 -88.154076
105.219231 -41.317616 83.822372
104.262794 -41.021069 86.068092
104.963760 -40.740337 89.032799
105.391640 -40.576527 90.728989
105.026993 -40.088886 92.317352
105.096100 -41.280457 95.015274
105.078987 -41.214256 95.710381
104.893776 -40.866688 98.410400
104.889091 -41.250423 107.598976
105.259254 -40.799335 108.318581
104.889374 -41.070061 110.345215
106.330093 -41.273357 -67.996803
105.575432 -40.945606 84.221130
105.441292 -41.440113 85.465202
105.437813 -41.107445 87.040581
105.751610 -40.728458 88.732727
105.934128 -40.251690 89.433403
105.308334 -40.670345 92.050674
105.994141 -41.397865 95.629662
105.655052 -39.887741 101.655548
105.834496 -40.523396 102.840866
105.332581 -40.763691 104.290352
105.553925 -41.037254 108.702934
105.619667 -41.284641 110.005264
106.049522 -40.177883 -68.528610
105.971138 -40.917835 87.186623
105.895927 -41.014301 88.443001
105.824104 -41.004269 90.193619
105.925674 -40.838375 92.214020
105.974258 -40.284470 96.462013
105.959801 -41.039730 97.214859
105.686584 -40.665806 98.927376
106.116478 -40.657444 100.601814
105.765701 -40.417744 101.554893
105.719063 -40.377441 103.130615
105.706772 -40.420353 103.709106
106.032600 -41.187515 104.979233
105.328514 -41.472889 107.219444
105.975060 -40.646107 108.494041
106.843872 -41.404613 -87.831940
106.723061 -41.326916 86.345551
107.491577 -41.130764 88.334373
106.271736 -40.675404 88.227364
106.669785 -40.972820 89.893028
106.057274 -40.744053 91.458748
106.320091 -40.570328 92.517990
106.548187 -40.889847 92.803764
106.992218 -40.767780 93.819099
106.428352 -41.206219 95.471817
106.409042 -41.032024 96.200806
106.716835 -41.126545 96.988823
107.363884 -40.551659 99.852394
106.707146 -40.435627 101.611847
106.223381 -40.343307 102.848778
107.159554 -41.399220 103.346512
106.072311 -40.477715 103.197540
106.446838 -41.362259 106.374603
105.999840 -41.127571 107.488251
106.171890 -41.649689 109.842720
107.377510 -41.490631 92.112091
106.306435 -41.384972 92.117630
106.686569 -40.611744 93.258308
106.995636 -41.288097 95.943062
106.532204 -41.281448 96.590622
105.864227 -40.883362 98.106949
106.629372 -40.615459 102.003059
106.765877 -40.522877 102.646400
106.835258 -40.535061 105.923424
106.298386 -41.092205 106.681145
106.339607 -40.672653 107.148392
107.248825 -40.846455 -87.432945
106.576485 -41.121563 -69.947990
107.504974 -40.886257 94.581688
106.799355 -40.927540 98.275681
107.251167 -40.666073 99.018501
107.285431 -40.616917 101.067276
106.656044 -40.412476 101.719917
107.234848 -41.119102 102.574890
107.061684 -41.580582 106.278465
107.267296 -40.909695 105.592896
107.368515 -41.603210 106.880638
107.242081 -40.404644 107.589897
107.473305 -41.381973 109.230331
108.069839 -41.400143 -87.148041
108.154800 -41.443832 -70.957176
107.334961 -40.366299 94.752670
107.573463 -41.445023 96.988892
108.044083 -41.240803 98.109787
107.734238 -40.764874 98.348381
108.019333 -40.365116 100.969032
107.834457 -41.806812 102.640671
107.914696 -41.380039 101.424934
107.143486 -40.576462 101.869034
107.980614 -41.489986 104.687309
107.718491 -40.695412 104.725632
109.039810 -41.387726 -87.052803
108.131866 -41.087410 -71.852066
108.766418 -41.338486 95.053589
107.878456 -40.588947 96.116226
107.844543 -40.687817 98.893036
108.026726 -40.837784 99.143028
107.949692 -41.409065 106.363480
108.050560 -41.222321 108.390762
108.921692 -41.004559 -87.173981
108.894135 -41.763924 -72.182594
108.899513 -40.774143 95.875732
108.102631 -40.223488 97.457802
108.132912 -40.286819 102.687592
108.396263 -41.815807 104.952484
108.330132 -40.545254 103.606499
108.512062 -41.473423 105.795563
108.290894 -41.238426 108.362305
108.975189 -41.570705 -86.810127
109.736778 -41.214012 -72.896553
108.414268 -40.620441 97.029877
108.656395 -40.579632 97.653458
108.988022 -41.590508 102.046661
108.812088 -40.460506 101.844452
108.866844 -41.123562 102.721329
108.500633 -40.997349 108.150475
109.027626 -40.509323 98.137474
108.624054 -40.997150 98.837822
109.970024 -41.203068 99.866905
109.118263 -41.079380 100.657265
109.458252 -41.324612 105.313004
109.070381 -41.190338 107.300041
109.797165 -41.322788 -73.515808
109.825851 -41.588074 104.672073
110.215591 -41.146507 -86.912033
111.230537 -41.385685 -73.524445
110.191971 -39.881699 -73.674377
110.291916 -41.443233 81.791786
110.128624 -40.973530 90.782715
109.792198 -41.145859 92.701202
110.007484 -41.565105 93.246208
109.890732 -41.139000 104.186188
109.882660 -41.312721 106.855034
111.162643 -41.203705 -86.826988
110.268547 -41.479294 82.692627
110.694969 -41.275810 81.552032
110.151070 -41.230995 87.237595
110.699707 -40.705944 89.669441
110.559006 -40.643333 89.899162
110.600891 -40.277462 91.360558
110.559296 -40.484005 92.549591
110.285133 -40.519001 93.464104
110.761604 -41.238480 105.580307
111.458794 -41.176239 -73.897339
111.387009 -41.248219 87.150391
110.864090 -40.154316 88.787239
110.713646 -40.869431 90.064484
110.599518 -40.606136 91.296425
110.510986 -40.368832 92.287857
110.814491 -40.549900 93.214699
110.816292 -40.796513 93.780266
110.887703 -42.260185 96.786568
110.709572 -41.318787 102.731895
111.946060 -41.009521 -86.284081
112.069191 -41.266380 -85.871826
111.805428 -41.210823 -74.300491
110.840073 -40.446747 -74.565025
110.988174 -41.511333 85.126114
111.585602 -41.111778 85.862396
111.253517 -41.234653 85.645241
111.028763 -41.010284 87.038345
111.524124 -40.560108 87.383392
111.194023 -40.534157 88.348572
111.154442 -40.345364 89.336128
111.538170 -40.510727 90.193985
111.169838 -40.810787 91.316551
110.981056 -40.944416 92.166267
111.175262 -40.483471 93.854225
110.786880 -40.972385 95.826302
110.899635 -40.954815 96.164185
111.707756 -41.121731 97.309769
111.177521 -40.952633 98.053032
