# This PCD file was generated using the MATLAB® pcwrite function
# from Computer Vision Toolbox®.
# .PCD v.7 - Point Cloud Data file format
VERSION .7
FIELDS x y z
SIZE 4 4 4
TYPE F F F
COUNT 1 1 1
WIDTH 1474
HEIGHT 1
VIEWPOINT 0 0 0 1 0 0 0
POINTS 1474
DATA ascii
203.382507 -65.281845 -111.668320
203.200531 -64.719345 -111.704224
203.761658 -65.097054 -109.504967
203.449127 -64.817619 -107.094955
203.631683 -64.724564 -104.174446
203.363083 -65.288605 -12.239640
203.016785 -65.280243 -3.729008
202.657639 -64.287933 24.121445
202.799835 -63.992016 24.729296
202.516418 -64.430550 25.639282
203.599670 -64.833893 30.367233
202.631622 -65.203873 107.896507
202.141296 -64.953537 108.348816
203.479050 -65.085320 -155.812149
203.785309 -64.549919 -129.974670
203.654541 -65.070137 -122.518944
203.893204 -64.141563 -123.239937
203.183472 -64.940765 -9.643473
202.857330 -65.260727 -3.964845
203.469467 -64.691147 -1.274525
203.233719 -65.035011 19.648014
203.227478 -64.249924 23.650267
202.888474 -64.415253 24.604534
203.058319 -64.237801 25.870365
203.090012 -64.589279 26.800318
203.440887 -64.987907 27.971006
203.955017 -65.167015 27.794958
203.442200 -64.725227 107.674400
202.681305 -64.709984 109.345078
203.125153 -65.223770 108.635323
203.761948 -65.292450 -155.750748
204.090149 -64.949814 -130.462082
203.414948 -65.122307 -123.297455
203.853439 -65.285980 -112.456642
203.956406 -64.919014 -12.076600
203.841354 -65.235283 -9.308585
204.060913 -64.969666 -1.125339
202.861984 -65.091736 22.650187
204.500839 -64.369568 23.979023
204.052383 -64.057106 25.241291
203.879211 -65.500084 29.577631
203.030991 -65.303398 106.780945
203.438736 -64.718781 107.154724
203.641815 -65.085251 108.715363
205.115463 -65.609207 -155.661865
204.301910 -65.146584 -130.865311
204.171143 -65.314484 -122.779175
204.660156 -64.846977 -112.433617
204.248123 -64.434807 -3.849966
204.483505 -65.273537 -0.252822
204.260773 -63.962440 -0.554626
204.022522 -65.040871 19.524290
204.218445 -64.908073 23.023499
204.103241 -64.431198 25.354959
204.072433 -64.667267 26.656200
203.619034 -65.348900 106.078339
203.907990 -64.927422 107.653366
204.875961 -64.538452 -131.492157
205.115387 -65.025452 -122.557747
204.621674 -65.147438 -122.184296
205.234497 -64.978699 -121.407501
205.357803 -64.803726 -119.274551
205.666290 -65.105843 -118.191048
204.855652 -64.853134 -116.541061
204.739731 -65.181068 -112.772522
205.445709 -65.096085 -113.363091
204.868866 -65.280159 -11.959401
204.494644 -64.913216 -9.393221
204.396912 -65.189995 -3.209213
204.397507 -64.896492 -0.314492
204.808273 -64.926712 22.056911
205.310715 -64.439178 23.207596
204.082611 -64.125496 24.983145
204.606476 -64.360550 25.749254
204.636688 -64.964188 27.575422
204.749664 -64.628334 26.339664
204.661484 -64.798126 29.851278
203.971634 -64.721497 106.674751
204.441574 -64.672058 107.785805
205.275742 -64.896286 -155.603287
205.007660 -65.164101 -131.870041
205.325912 -64.982071 -132.063614
205.405319 -64.853561 -114.193596
205.272812 -65.126694 -113.728485
205.048935 -64.167679 -8.595824
204.124084 -65.311836 19.590593
204.999664 -64.659592 24.006302
205.089691 -64.376884 24.815382
205.277527 -64.742729 25.532854
205.299225 -65.105141 29.699942
204.828323 -65.092880 106.369957
204.774185 -64.798851 105.954338
204.873245 -64.648956 106.872124
204.466904 -65.153549 107.877365
204.617722 -64.747749 107.561935
206.093628 -65.097099 -155.878937
205.465668 -65.362572 -11.163148
205.211563 -65.167419 -9.068130
205.240570 -65.000992 -3.054418
205.566620 -64.950951 0.147342
205.862228 -64.929672 21.983784
205.411804 -64.377579 23.181099
205.014511 -64.867905 26.350163
205.205276 -65.230286 104.625618
205.201492 -64.877731 107.820496
205.745758 -64.780914 -132.459732
205.561569 -64.182976 -132.461060
205.850922 -64.895973 -11.246450
205.787094 -64.830009 -8.715026
205.892227 -65.120689 0.336775
205.256317 -65.156631 19.709005
205.875305 -65.146591 30.095875
205.437485 -64.480194 105.940430
204.927628 -64.713089 106.912651
206.320221 -65.187790 -133.073654
206.535858 -64.454979 -11.022165
205.918549 -65.223694 -8.603309
206.203354 -63.954540 -7.478856
205.677429 -65.393143 -2.467639
206.168594 -64.410187 -2.473651
207.022522 -64.983032 -2.165058
206.677536 -64.537949 0.756003
206.264313 -64.914230 19.515018
205.685501 -64.508965 24.118931
205.726395 -64.641342 24.659319
206.063171 -64.612495 25.674747
205.870193 -65.401848 26.610359
206.255630 -65.037109 29.564070
205.923630 -64.417961 106.006393
205.509720 -64.557808 108.075111
205.692429 -64.799393 106.763336
206.633850 -65.162270 -155.701523
206.845520 -64.840591 -10.464447
206.710388 -65.121452 -10.365767
206.768265 -65.496117 -7.625867
206.332993 -64.389793 22.654207
206.483978 -64.184059 25.061842
206.983398 -64.146843 25.913946
206.457596 -64.682625 26.887932
205.944702 -65.121048 104.616257
205.520142 -64.647385 104.558563
206.015579 -64.873566 105.654045
206.057922 -64.930603 106.479446
207.349854 -65.162163 -156.014511
207.203796 -64.988693 -133.295502
206.852585 -64.475716 -8.225588
207.178467 -64.823692 19.126177
206.697891 -64.822319 23.605560
206.713089 -64.763367 24.525108
206.935822 -65.097801 26.885939
206.909866 -64.951233 29.503633
206.866272 -63.838120 28.365477
207.068192 -65.071175 103.945107
206.275528 -64.810791 104.936203
206.906021 -64.671181 105.890526
206.382813 -64.968681 107.333832
207.762207 -65.271248 -155.980133
207.363831 -65.071083 -10.198485
207.504410 -64.829857 -7.540799
208.038773 -64.802193 -1.724654
207.901352 -64.829811 1.886729
206.987030 -65.168320 1.133244
207.957306 -64.650856 23.866810
207.468033 -64.722061 25.091839
207.555405 -65.104042 29.323833
206.579590 -64.983521 103.629608
207.014420 -64.828857 106.896896
208.670471 -65.244133 -133.514725
208.162292 -65.099556 -133.393051
207.826752 -64.722206 -9.863088
207.475693 -65.249474 -1.504675
207.984512 -65.278252 -1.046934
208.074081 -64.887978 18.953175
207.957550 -64.995743 22.607672
207.183075 -65.150146 27.059582
207.662704 -65.057716 25.433542
208.216492 -65.156387 29.076406
206.720169 -65.112785 103.505180
207.633301 -64.461998 104.921455
207.152527 -64.920815 106.971893
208.270599 -65.166771 105.979782
208.472641 -64.947090 -156.111053
208.757263 -64.954926 -9.461411
208.328308 -65.199379 -7.676714
208.774963 -64.363884 -6.318389
208.125183 -64.012245 -1.970161
207.798141 -65.313042 2.231280
208.070999 -65.085991 22.064434
208.157196 -64.620171 28.300262
208.092377 -64.825119 104.040443
208.240341 -64.844276 104.927544
208.587891 -64.891602 -9.175742
208.503433 -64.995117 -6.782401
208.705139 -64.598961 -0.677258
208.282684 -65.240486 1.485522
208.680115 -64.896233 18.847841
209.120987 -64.617012 21.881248
208.363586 -64.432419 24.567949
208.068863 -64.590309 25.551109
209.053680 -64.924629 29.349514
208.123825 -65.131790 103.129883
208.253601 -64.757439 102.866035
208.727585 -65.032555 106.095367
208.424515 -64.722824 105.857651
208.847229 -65.067719 -155.814651
208.698685 -65.272575 -9.097115
209.040176 -64.904541 -6.832277
209.244476 -64.563538 -1.042649
208.525833 -64.629356 2.416277
209.015030 -64.251900 1.709694
208.177628 -64.541595 22.860199
208.867493 -65.216454 25.964510
208.613007 -64.742844 103.212753
208.721359 -64.692741 103.862671
208.622101 -64.763763 104.512642
209.973038 -64.887169 -155.681198
209.328186 -64.925446 -133.395584
209.260651 -65.000679 -9.248363
209.280640 -64.834335 -6.902526
208.919266 -64.924545 -0.072861
209.153564 -64.881660 3.030112
209.242203 -64.918846 19.469727
209.116394 -65.371910 21.577602
208.689911 -64.957413 24.831743
209.128952 -65.147728 29.010410
208.798599 -65.265984 101.950974
209.254425 -65.332443 105.505333
209.054947 -64.582039 104.779434
209.926880 -65.029388 -155.830322
210.421906 -65.043442 -8.183949
209.614090 -64.956062 -5.354758
210.062057 -64.618233 -0.957859
209.668686 -64.394775 0.385694
209.564392 -65.129875 18.540422
209.106247 -65.127937 22.905207
209.100952 -64.499039 23.731483
209.614136 -64.509964 101.864029
209.038986 -64.240974 103.052742
208.929260 -64.653290 103.628670
209.903809 -65.182571 105.434685
209.492447 -65.193237 104.648544
210.331482 -65.015793 -133.242081
210.461441 -64.386955 -133.302307
210.037247 -64.856674 -6.060363
210.164063 -65.043144 0.001961
210.004013 -64.952827 3.127555
210.395020 -65.081566 22.052271
210.561081 -64.749527 24.003679
209.915054 -64.897141 25.039240
210.190643 -64.990707 25.144402
209.700500 -65.302666 28.775696
209.959167 -64.752449 101.976448
209.801086 -64.409592 102.945915
209.736954 -64.645088 104.239326
210.464584 -65.101776 104.582756
210.724762 -65.010483 -155.846558
211.406113 -64.742149 -133.130783
210.694595 -64.982750 -8.201571
210.510132 -65.323112 -5.985991
210.222488 -64.348709 -1.189565
210.891357 -64.646942 0.041077
210.309875 -64.434113 2.707952
209.938797 -65.065353 18.437817
210.086884 -65.016823 19.459627
210.362076 -64.754112 22.959175
210.706223 -64.876831 28.296661
210.749176 -64.326164 101.789940
210.131927 -63.972336 103.239555
211.338516 -64.943672 -155.615662
210.873306 -64.962227 3.805075
211.653610 -64.990143 3.455757
210.888947 -64.879440 18.989477
210.775192 -65.066589 21.893227
210.844376 -64.816101 22.871735
210.896011 -65.354736 100.995110
210.604874 -64.876801 100.741135
210.122879 -64.463768 103.614738
210.758865 -65.135147 105.011093
210.609146 -65.140610 -5.204255
210.966446 -64.508926 -5.015493
211.631424 -65.057114 25.004717
210.963943 -65.197098 28.156527
211.254120 -64.352554 100.849121
211.222885 -64.258606 101.927887
210.871384 -64.513283 103.045700
211.226852 -64.771492 104.902512
211.888870 -64.953331 -155.952011
211.634827 -64.612587 -133.376328
211.309891 -64.903610 -7.372169
211.634033 -64.399269 -4.509612
211.297668 -64.083183 0.016668
211.861420 -64.756592 1.021279
211.887878 -64.822510 4.611793
211.385178 -65.405968 18.581375
212.003967 -64.578720 19.214397
212.202179 -64.849480 22.904341
211.953827 -64.909180 100.762482
211.523529 -64.268402 101.966789
211.407379 -65.010925 104.019089
212.447495 -65.291702 -156.079010
212.416229 -65.184120 -5.222371
212.339722 -64.535568 0.795102
211.752548 -64.737198 23.609871
211.797867 -65.608856 28.171741
212.609116 -65.331314 99.485123
211.841751 -65.036385 100.174332
211.541489 -64.107758 103.120667
211.834610 -65.085487 103.788353
212.894470 -64.924278 -133.298355
212.200348 -65.116768 -7.361239
212.610535 -65.174911 -4.653382
212.377090 -64.388184 -3.809383
213.080734 -65.025505 4.458295
211.818954 -63.924034 3.560104
212.220367 -65.311417 18.686619
212.454147 -64.913177 28.019447
211.627945 -64.627205 27.581841
212.806427 -65.227852 99.191284
212.491165 -64.677704 100.200584
212.229004 -64.183037 101.346123
212.361496 -64.304665 101.995926
212.464691 -64.372948 102.800529
213.247284 -64.903458 -156.004776
212.987946 -64.895248 -133.721619
212.939651 -65.539116 -7.016047
213.101868 -64.142830 -3.756188
212.606613 -64.919098 0.890147
213.387985 -65.373177 1.871456
213.113251 -65.367775 18.587355
212.942841 -65.475822 22.653402
212.950790 -64.704323 100.196365
212.646179 -64.565094 100.600822
212.512314 -64.194931 102.150726
213.025162 -64.471054 102.710243
213.770111 -65.503494 -155.952271
213.356171 -65.033638 -7.175629
213.546875 -65.280602 -3.793605
213.699234 -64.751991 -2.525126
213.367477 -65.070572 5.410027
213.396591 -64.304222 26.475246
213.554199 -64.696693 27.977373
212.800461 -64.657555 98.930664
212.974426 -64.494049 100.348930
213.191910 -65.032288 103.394188
214.114273 -65.262787 -133.642578
213.792542 -64.814835 -6.173332
213.547836 -64.243454 -3.269547
213.207581 -64.281090 1.267907
214.075699 -65.156898 2.166087
213.998062 -65.234344 5.488305
214.109863 -64.813812 26.820091
214.276413 -64.616676 27.688545
213.314819 -64.968185 98.774803
213.700287 -64.664543 98.919586
213.558151 -64.618263 100.216560
213.073013 -64.445732 100.990700
213.268707 -64.674591 102.018478
214.118607 -65.248520 103.253372
214.538055 -65.158096 -155.847687
215.197510 -65.411209 -133.780594
214.208344 -65.493080 -6.300650
213.643646 -65.208748 18.383034
214.140640 -64.114006 18.776903
213.935715 -64.735062 97.953865
214.040909 -64.529121 98.932297
213.785248 -64.341293 99.909698
213.985672 -64.382721 101.038651
214.126526 -65.475060 103.169991
214.115540 -64.557228 101.924660
214.652969 -65.321281 -155.989182
215.119614 -64.994331 -6.187274
214.676666 -64.980484 -2.931737
214.369965 -64.720161 -2.618121
214.888046 -65.172089 2.330204
214.047791 -64.686295 1.952648
214.074280 -65.104782 5.959765
214.453186 -64.795944 27.499966
214.063110 -64.244522 98.129776
214.427200 -64.417221 99.660248
215.748535 -65.350388 -155.864197
214.947601 -65.213539 -2.526266
214.779236 -64.107140 0.441932
215.236954 -65.066399 6.122624
214.506744 -64.541664 26.887321
214.836029 -65.023308 97.148293
214.767136 -64.459007 98.184471
214.966827 -64.294746 99.604370
215.050156 -64.521133 99.875961
214.194641 -64.292496 100.934723
214.446274 -65.042091 102.814850
214.363571 -64.658699 102.427597
215.436890 -65.238281 -5.558011
215.064453 -64.438400 -2.312221
215.194778 -65.030548 1.772222
215.720917 -64.557457 2.953883
215.270767 -65.280365 6.651703
215.017609 -64.076790 5.872370
214.842087 -65.105637 18.481316
215.500488 -64.829247 27.587818
215.233932 -64.831779 97.413261
215.640335 -64.392944 97.662292
215.401398 -63.917007 100.164238
215.543427 -64.511253 100.893341
215.081665 -65.154442 101.757553
215.896271 -64.868294 -156.044098
215.967926 -64.703720 -5.396422
215.682892 -65.139664 -1.998184
215.737167 -63.955036 -1.222852
215.873169 -65.073288 6.628356
215.950287 -65.433090 18.442308
215.577911 -64.462173 19.034594
215.816315 -65.299843 27.732534
215.777863 -64.690598 97.195023
214.956131 -65.151985 101.832932
215.494568 -64.937546 -133.698380
216.517075 -65.116913 -5.300374
216.409195 -65.417465 -2.051124
216.343231 -64.388100 -1.461400
216.321655 -64.608116 1.887009
216.417572 -65.275269 3.434230
215.338440 -64.872246 3.045175
216.329117 -65.511086 6.664702
215.904053 -64.060959 27.183052
216.085434 -65.067543 96.675179
215.809357 -64.406860 97.259789
215.983917 -64.142426 98.220825
215.212326 -64.281296 98.837158
216.192947 -64.482887 101.152939
216.553925 -65.093719 -155.949310
216.908157 -65.104515 -133.474747
217.219437 -64.903908 -84.689896
217.070862 -64.783958 -83.963844
217.113312 -64.914825 -82.805428
216.531326 -65.108192 -4.378224
217.017593 -64.898689 -1.881621
216.670197 -65.085358 3.753918
216.770782 -64.874039 3.129194
216.845673 -64.793724 6.878761
216.656876 -64.185699 19.297268
216.142715 -64.867813 27.194096
216.759293 -64.381317 26.712919
216.422668 -64.242546 97.270409
216.085663 -64.152390 100.028107
216.632889 -64.455574 101.194824
216.919662 -65.282921 100.631035
217.235962 -64.978668 -155.997253
216.973969 -65.484482 -85.809593
216.897781 -64.746834 -4.140738
217.207001 -64.125702 -0.893788
217.613235 -65.039963 7.314658
216.923721 -65.011131 27.183899
216.429123 -65.023041 96.331375
217.128586 -64.914444 95.243927
216.616623 -64.406250 96.625137
216.581573 -64.249504 98.939240
216.830093 -63.851978 100.341606
217.152679 -65.065590 -86.750580
217.615143 -64.731499 -85.667580
217.357071 -64.508392 -85.163788
217.648773 -64.617821 -83.548630
217.531113 -64.210915 -82.588036
217.508575 -65.181976 -81.562767
216.960220 -65.065681 -4.326759
217.435440 -64.804108 -1.115499
217.225510 -64.267090 0.842692
217.739990 -64.337654 1.090754
217.340698 -64.587692 2.646519
217.039093 -65.214432 4.064291
217.200058 -64.697189 17.680254
217.140900 -64.085403 25.733267
216.954178 -64.639786 26.733011
217.131943 -64.693756 96.435410
216.638184 -64.575981 97.422318
217.003036 -64.139954 98.326950
217.083572 -63.933544 99.466202
217.098160 -65.197639 101.076324
217.057114 -64.401421 99.853699
217.932190 -65.409302 -156.017776
217.940521 -64.666451 -133.416336
217.642181 -64.905739 -87.568802
217.931061 -64.279640 -86.578339
218.134125 -63.986809 -85.674141
218.210587 -64.161507 -84.897446
217.994675 -64.309067 -83.605217
217.373779 -64.273163 -83.089729
217.979462 -64.695541 -81.361374
217.840912 -64.579094 -82.173012
217.773346 -65.179993 -3.863122
217.731903 -64.924126 -0.913408
217.787125 -64.565758 0.076693
217.997681 -64.001305 3.067823
218.121429 -64.498016 3.614709
217.778275 -65.136375 18.161324
217.140381 -64.995651 26.730473
217.328476 -64.494453 95.207359
217.826141 -64.420128 96.601295
217.921402 -64.836876 97.131668
217.651855 -64.094292 98.141136
217.704346 -65.092445 100.062904
218.275543 -65.458855 -156.129349
218.144577 -65.020332 -89.369423
218.031586 -64.326485 -88.716095
218.447296 -64.440628 -84.621674
218.494217 -64.579758 -84.173416
218.575882 -65.177048 -81.881653
218.116531 -65.252510 -0.718478
218.487762 -64.614815 0.181439
218.013214 -63.974621 1.061928
218.242844 -64.120163 18.917658
218.293106 -65.352058 26.745331
217.976318 -64.081558 25.477379
217.847794 -65.648598 94.534264
218.111206 -64.543953 95.437569
217.475815 -64.318848 99.577545
217.948654 -65.172783 99.920197
219.444229 -65.185417 -155.820496
218.571930 -64.795464 -133.732666
218.320618 -65.608139 -90.098396
218.899643 -64.035713 -84.792931
218.395218 -64.642868 -82.684769
218.842148 -65.097694 -81.666939
218.357285 -63.957176 -2.521458
218.606750 -64.753159 -0.226532
218.464996 -64.653282 3.976071
219.117157 -65.186577 4.872824
218.650665 -65.343094 7.854605
218.593292 -64.869514 7.944025
218.450745 -65.419121 18.010576
218.817413 -64.963570 26.697571
218.571045 -64.922928 94.946320
218.592407 -64.048347 95.107918
218.069260 -64.308006 96.580009
218.268753 -64.134186 97.349976
218.506470 -64.294945 98.530510
218.574249 -64.951118 100.515121
217.990173 -64.198860 99.069023
219.696671 -64.685158 -133.408020
219.498428 -65.208351 -91.057472
219.732895 -64.158058 -83.538765
218.959152 -64.182434 -82.914093
218.887680 -65.265289 -3.124574
218.936493 -65.135559 -0.417002
219.036224 -64.687210 4.485787
218.786316 -65.010422 8.462170
219.095001 -64.323586 7.441914
219.171524 -64.198410 25.507486
218.638016 -64.848381 93.126427
218.915833 -64.211296 94.722382
218.781891 -64.421783 98.360985
218.533432 -64.430206 99.089417
219.506409 -65.072624 -156.476135
219.598846 -64.767357 -91.628799
219.402039 -65.208199 -82.901108
219.525406 -64.734085 -82.984299
219.514511 -65.304977 -3.511659
220.046082 -64.222549 -2.246677
219.220612 -64.954941 0.093764
219.576279 -64.753349 5.799685
219.595184 -65.151451 17.929193
219.424515 -64.789268 19.246012
219.361099 -64.576797 25.617661
219.117508 -65.012787 93.397575
218.999527 -63.869793 95.879486
218.925766 -64.388626 97.489388
219.257874 -65.121452 99.148140
219.960876 -65.619568 -155.759857
220.303589 -65.510544 -133.222488
220.093094 -64.840729 -91.844093
219.336731 -64.147926 -84.716209
219.872177 -64.151733 -83.923386
220.066467 -65.249176 -82.920425
219.571167 -64.847099 -2.986572
219.448578 -65.343437 -0.286377
219.515381 -64.604698 1.049262
219.872849 -64.156075 2.367971
219.950607 -64.750618 9.008968
219.720154 -65.058525 8.719595
219.352356 -65.106255 26.311829
219.220413 -64.631546 93.122299
219.735641 -64.389130 94.348373
219.411041 -64.185387 95.448296
219.344940 -64.101059 96.739029
219.991089 -64.595345 97.193146
219.228516 -64.637352 98.432236
219.508804 -65.209755 99.028496
220.819550 -64.895996 -93.318253
220.609177 -64.245049 -92.383385
220.853348 -64.064606 -84.685402
220.038483 -64.265259 -83.771683
220.174042 -65.064957 -2.505253
220.473206 -65.002251 0.621735
220.115326 -63.986378 4.787632
220.467667 -65.064812 9.163090
219.564850 -65.091370 18.284044
219.704193 -64.177376 24.750053
220.484726 -65.556381 26.666740
220.314255 -64.559937 25.894457
219.667511 -64.864532 92.692810
219.796371 -64.465012 93.466347
219.976440 -64.263489 94.551170
219.935150 -64.010117 95.599312
219.775772 -64.380196 97.158981
220.047516 -64.433769 98.131401
220.832626 -65.026489 -156.278900
220.881760 -65.133377 -133.661255
220.367081 -65.013626 -93.536751
220.662308 -64.225998 -84.641693
220.791946 -65.079803 -1.849204
220.498749 -63.989975 -1.535786
220.359619 -64.936821 0.374958
220.941528 -64.448868 1.189691
220.694473 -65.059395 6.151502
220.563034 -64.409721 5.934631
220.882919 -64.946190 9.904714
220.407074 -64.563042 19.203491
220.573517 -64.947372 92.227943
220.386673 -64.425385 92.451546
220.217041 -64.298996 96.648560
220.660828 -64.204544 97.014984
220.256271 -64.754097 98.087456
221.272751 -65.014488 -94.050766
222.116516 -65.244980 -84.332565
220.976471 -64.433372 -84.758896
221.028915 -65.138695 0.895458
220.754211 -64.938728 6.760574
220.943024 -64.961426 10.080264
220.599335 -64.190506 19.004629
221.177856 -64.194801 24.970072
220.677063 -64.418777 26.079525
220.852859 -64.697281 91.294281
220.970276 -64.343788 92.440567
220.520233 -64.189568 93.708099
221.221420 -64.023468 97.373924
220.541931 -64.342079 98.981956
221.273254 -65.177223 -155.961624
221.813904 -64.875755 -133.307190
221.587631 -64.998009 -95.423820
221.589340 -65.085350 -2.085635
221.225357 -65.598900 0.982359
221.120041 -64.506683 1.624471
220.988220 -64.513603 5.624689
220.986633 -64.674538 6.291758
221.032379 -64.828163 10.439594
221.436340 -65.300438 10.618867
221.046005 -64.398010 25.216518
221.359589 -64.917404 91.101105
221.235580 -64.035027 96.118515
221.448029 -65.333084 98.647141
221.040100 -64.610283 97.057541
222.353439 -64.981644 -155.939911
221.865234 -63.881901 -95.379646
221.978455 -64.929298 -84.944351
222.376282 -64.596603 -85.521805
222.056870 -65.181679 -1.611973
221.322083 -64.620285 1.724259
221.633392 -65.258659 7.126047
221.424850 -64.279350 19.010622
221.861038 -63.979595 24.954050
221.591354 -64.719505 25.912945
221.680405 -64.677940 90.680550
221.535233 -64.705978 91.449089
221.595337 -64.625481 92.301888
221.717712 -64.473145 97.630447
222.351517 -65.362587 -133.633240
221.517044 -65.251343 -95.282066
222.508408 -65.081551 -96.364601
222.796860 -64.947975 -86.224747
222.750610 -64.920662 -86.889069
221.845444 -64.840393 -1.669213
222.430496 -65.097672 1.760964
222.171371 -64.403305 6.781571
222.552536 -64.947014 11.026133
222.008728 -64.463730 19.084061
221.874344 -63.980545 95.565590
221.909882 -64.421349 95.984100
222.342209 -64.477234 97.387672
223.041229 -64.659538 -133.215332
222.714157 -65.169975 -97.269218
222.602905 -65.276390 -0.595907
222.484772 -64.457695 2.752656
222.755188 -65.210480 11.654712
222.404190 -65.773720 11.623077
222.303833 -65.576874 18.720783
222.560577 -63.910656 19.211996
222.876663 -64.688194 25.090004
222.530151 -64.577446 25.527954
222.454376 -65.452339 89.790871
222.637909 -64.019714 90.773537
222.181992 -64.248077 91.795685
222.619232 -64.119545 95.145805
222.559219 -64.093056 95.975395
223.119995 -64.583748 -156.272110
223.587112 -64.941711 -132.701309
223.469391 -65.016479 -97.025391
223.387543 -64.265015 -87.075394
223.604233 -65.383568 -87.737366
223.369629 -65.535736 -0.228861
222.355713 -65.208443 1.840569
222.774200 -64.811256 3.231541
222.777496 -65.166565 7.795747
222.791504 -64.863655 25.395674
222.820114 -64.365509 90.654716
222.147324 -65.462067 97.074501
222.580612 -64.391434 96.310287
223.417175 -64.887810 -132.321014
223.253311 -65.069931 -97.631104
223.791138 -65.041870 -97.737915
223.564209 -64.752541 8.538501
223.351334 -64.668449 8.123570
223.515274 -65.097992 11.923950
222.788834 -64.307709 18.976696
223.286133 -64.505371 24.722389
224.073898 -64.879997 25.554991
223.117493 -65.215187 89.340576
223.196808 -65.033508 89.001724
223.230896 -64.203041 90.624031
223.028488 -64.457832 95.200294
222.733658 -65.118477 96.088402
224.335724 -65.222458 -156.320206
224.136124 -64.899551 -131.882751
224.427917 -64.704506 -116.216431
223.880112 -65.578514 -98.492737
224.069504 -64.950264 -88.981125
223.540100 -65.159851 0.273051
223.778854 -65.429482 12.641127
224.045166 -63.932602 23.450609
223.586899 -64.830734 88.754082
223.395340 -64.235191 89.315361
223.338226 -65.066795 96.323700
223.794647 -64.424446 95.044197
224.754974 -64.990303 -156.134140
224.685654 -65.313988 -122.319664
224.241302 -64.934441 -121.381630
224.709335 -65.391060 -120.075188
224.617523 -64.990501 -119.131805
224.366623 -65.203522 -117.463600
224.322861 -64.935806 -115.194023
224.417435 -65.097420 -114.572205
224.371826 -64.793396 -99.111938
224.541061 -64.583168 -88.741043
224.205551 -64.911293 0.901673
224.803619 -64.681335 0.631529
224.529343 -64.744179 8.658973
224.173523 -65.120018 12.958171
223.995148 -64.578407 18.990494
224.127838 -64.620605 24.428562
223.936768 -65.019379 87.916046
224.019180 -64.871727 88.694885
224.134857 -64.551277 89.727760
224.309372 -64.908836 -131.734863
224.674500 -64.952080 -122.927681
224.954834 -64.227692 -123.162674
225.018280 -65.250862 -113.488312
224.908875 -65.162750 -112.460556
224.673691 -65.394875 -109.982147
225.251709 -64.954468 -107.332390
224.928574 -64.764153 -106.502602
225.516220 -64.924042 -100.322052
224.665070 -64.697479 -89.232224
224.977600 -64.407463 -89.362221
225.114731 -64.914070 -5.497409
224.603195 -65.503441 0.817681
223.845413 -64.945175 3.119575
224.518112 -64.780701 4.497799
224.447159 -64.241043 5.137072
224.905899 -63.836060 7.838275
225.085632 -64.808418 8.304209
224.362549 -64.783295 9.727487
224.759445 -64.548996 19.352526
224.486679 -64.204178 20.786024
224.593262 -63.716850 23.452909
224.835358 -64.633362 24.459782
224.760315 -64.758774 87.897194
224.192703 -64.358406 88.709366
224.094254 -64.173958 93.741379
224.498169 -65.094505 95.493362
224.340683 -64.540565 95.493057
225.050583 -65.509621 -155.800995
224.850250 -65.479530 -130.580521
225.066391 -64.674171 -123.690361
225.372620 -64.598610 -123.763229
225.224731 -64.084595 -113.424423
225.539795 -65.376480 -112.362206
225.448349 -64.554878 -111.115135
225.037231 -65.052650 -109.814514
224.558945 -64.500481 -107.695168
225.187668 -65.126511 -105.846878
225.349213 -65.122643 -90.153679
224.841644 -64.527412 -90.527786
224.484787 -65.148628 -6.468273
225.437988 -65.261696 9.935189
224.976196 -64.912064 13.640787
224.733749 -65.323387 87.416107
224.795197 -63.912155 88.444206
225.869049 -64.647530 -130.686218
225.651581 -65.198036 -123.848099
225.548965 -64.226601 -112.198524
225.849731 -64.195236 -109.629318
225.527359 -64.370514 -108.588844
226.023895 -64.648796 -106.896820
225.590637 -65.040985 -105.517433
225.700745 -64.400597 -105.842087
225.670151 -65.366333 -100.366646
225.598618 -64.703972 -90.483772
225.559082 -64.847725 -5.039954
225.183929 -64.949234 1.294275
225.386795 -64.592491 9.735694
225.353134 -64.937241 10.024146
225.495407 -65.184807 14.490333
224.786758 -64.179123 13.505613
225.428894 -64.623344 20.237181
225.733734 -64.399773 24.889833
225.154968 -64.059250 87.793205
224.884369 -65.285446 95.129738
224.963562 -64.298569 94.535408
226.259171 -64.894646 -156.487762
226.036911 -64.414658 -129.414200
226.183258 -65.329826 -129.429184
226.197952 -64.818771 -127.374985
226.082550 -64.835022 -124.916473
225.959473 -64.912300 -123.730614
226.250916 -63.868549 -112.794029
225.912979 -64.130844 -111.700806
226.360153 -64.524727 -106.663231
225.838028 -64.285065 -105.400391
225.997299 -64.776718 -104.301682
226.310837 -65.167877 -100.638489
225.863892 -64.934845 -91.319984
225.367554 -65.157364 -5.593450
225.858200 -64.815613 -3.627570
225.816269 -64.890411 -2.889986
225.489700 -64.879311 1.333225
226.081528 -65.513611 4.655231
225.936035 -65.273186 4.990954
225.866165 -64.722328 8.956254
226.062134 -64.982117 19.366667
225.640839 -63.924374 23.752439
225.495438 -64.951767 86.940514
225.495972 -64.192574 87.771080
225.521637 -65.151642 94.138008
226.666641 -65.043335 -156.505753
226.507813 -65.162560 -104.448891
226.258499 -63.830418 -104.930305
226.290054 -65.070709 -101.792725
226.685699 -64.848991 -102.198128
226.545944 -64.955032 -91.928062
226.779312 -65.272057 -92.165695
226.163193 -65.298584 -6.679205
226.119766 -64.589935 -2.633201
225.617706 -65.063362 -2.274886
226.195526 -65.412247 -0.847488
226.198273 -65.167244 1.754067
226.028946 -65.050537 5.039041
226.175934 -64.700745 10.793012
226.128433 -65.041512 14.560500
226.024307 -64.361671 22.873823
226.430878 -65.514267 25.747910
225.436920 -64.429810 24.906574
225.725082 -65.047188 85.918777
226.463593 -65.021614 85.555717
226.053314 -64.140953 86.477501
225.451950 -65.248993 94.363052
226.126984 -64.234543 93.702568
226.910141 -64.995605 -103.602180
226.700607 -65.091492 -103.863579
227.070938 -64.992867 -102.985718
226.583069 -64.402763 -102.535789
226.461990 -64.619392 -5.747562
226.258118 -64.526917 -4.655849
226.390442 -64.617241 -3.063807
226.550964 -64.497627 -1.695482
226.341034 -64.915604 1.979827
226.224960 -65.029633 5.108440
226.104004 -64.643051 5.787805
226.543060 -64.097054 6.657482
226.684296 -65.014732 12.437502
227.170303 -64.985550 15.033056
226.820404 -64.297417 20.067289
226.822113 -64.373535 24.031675
225.990402 -64.678650 24.939451
226.610596 -64.633286 86.949600
226.191788 -64.940277 94.183609
226.951675 -65.408455 -156.162979
227.216095 -64.990143 -93.075874
227.536240 -64.949898 -93.496162
226.232758 -64.963890 -6.108345
226.909317 -64.685844 -5.780916
226.628418 -64.633469 -4.442428
227.680618 -64.357788 -3.764783
226.716125 -65.048233 -0.402809
226.905807 -64.613533 -0.923196
227.196472 -65.264023 2.145743
227.324326 -65.132271 2.860540
226.761536 -64.127342 3.713707
227.138535 -64.394028 5.648142
227.907959 -65.098335 5.891715
226.932709 -64.253922 11.609974
227.415070 -64.690239 21.987057
226.980347 -64.017319 22.919924
226.923386 -64.207710 23.903305
226.857941 -65.192482 85.219894
226.932938 -64.453934 93.565231
227.844238 -65.187553 -155.957703
227.320221 -65.071617 -93.488144
227.062256 -64.493332 -4.306183
227.093262 -64.409271 -2.935398
226.951599 -64.140800 -1.515967
227.078735 -64.654381 -0.084954
227.630173 -64.718674 0.820572
227.572479 -64.291000 12.316875
227.724106 -65.230904 15.610416
226.798462 -65.128036 15.053563
226.487152 -64.933380 24.952990
227.013016 -64.157600 85.229752
227.465805 -65.126656 93.483932
226.961395 -64.379181 92.667801
228.423508 -65.592361 -94.116440
227.754547 -64.871979 -5.697201
227.793732 -64.897842 -5.786370
227.057159 -64.167572 -0.919820
227.848373 -63.961338 0.474686
227.843994 -65.458176 3.205314
227.980316 -65.143700 6.139832
227.413940 -64.642326 6.470705
227.316711 -65.006775 12.465662
227.908310 -64.804466 15.910311
227.365158 -65.542061 19.305750
226.873459 -64.228943 20.761375
227.742722 -64.683113 24.107637
228.061096 -65.352425 25.235067
227.564209 -65.153412 84.324394
227.642654 -64.603653 92.518532
228.364380 -65.092705 -156.134628
228.813461 -65.217133 -156.132751
228.273987 -64.081688 -155.867767
228.345001 -64.702164 -95.099869
228.619629 -64.970528 -95.286545
228.322388 -65.017708 -5.991278
228.453293 -64.649185 -5.440981
228.184555 -64.256180 -4.471154
227.960846 -64.950150 1.205286
228.274979 -65.045219 3.502920
228.399673 -64.966682 6.724278
228.697174 -65.104424 7.137223
228.643631 -65.065483 13.859982
228.191086 -65.364143 16.400805
228.022385 -64.626381 20.104855
228.808136 -64.686913 22.099457
228.162491 -64.661751 25.036890
227.427750 -64.420700 84.733124
227.768692 -64.125458 91.647942
228.731628 -65.229996 -95.625053
228.985825 -64.982178 -95.974327
228.603729 -64.335693 -4.823813
228.753616 -64.210663 1.539981
228.333237 -64.988235 2.140901
228.676331 -65.238983 1.953379
228.097992 -65.044685 3.619650
228.711349 -64.456551 8.034356
228.268784 -65.022423 13.290133
228.914902 -64.678619 13.597071
228.250946 -65.061241 16.700287
228.586761 -64.626724 21.127811
227.594910 -63.979694 22.917904
228.675949 -65.044533 83.228996
228.713257 -64.421532 83.669388
228.509811 -65.134361 92.054077
228.160904 -64.002762 91.483955
229.236450 -65.361916 -156.100952
229.756088 -64.966049 -97.427925
228.433060 -64.414169 -3.843343
229.177414 -64.165710 2.172778
229.057404 -64.941330 4.084517
228.897369 -64.895317 7.147089
229.244232 -63.566219 9.025503
229.459717 -65.294159 14.691429
228.600037 -64.675056 20.110561
228.614700 -64.767754 24.737305
228.439728 -63.943684 83.901192
228.368073 -65.019791 91.638802
229.179413 -64.078819 90.702721
230.012512 -65.201721 -156.614105
229.700989 -63.755161 -156.258911
229.234558 -65.430153 -5.702501
229.596420 -64.423027 -4.770266
229.521744 -64.265877 -3.120952
229.701965 -64.131241 2.131983
229.336792 -64.373634 2.642992
229.520523 -64.052559 4.878571
229.300781 -64.880150 7.182836
229.159546 -65.399277 17.045910
229.568359 -64.870110 17.241007
229.055634 -64.938751 20.006990
229.122314 -64.602684 21.323364
229.134094 -64.609489 24.434711
229.141678 -65.182533 24.391970
228.894257 -65.263664 82.447868
228.917221 -65.172493 91.508163
230.399918 -65.328102 -156.115692
230.170380 -64.872337 -98.295059
229.488831 -64.162483 -4.006301
229.889465 -64.247498 2.912116
229.658920 -64.705841 3.491115
229.943878 -64.978111 4.983085
230.045914 -65.518593 8.419333
229.648758 -64.968727 14.594020
229.704819 -64.104202 13.917132
229.554184 -64.840622 20.653109
229.760300 -64.523209 21.914009
229.511902 -64.785934 82.392998
229.557404 -64.782326 91.229866
229.631851 -64.525116 90.533104
230.652405 -65.254608 -98.265312
230.034775 -65.539749 -4.741237
229.957184 -64.845619 5.334900
229.938599 -65.294724 8.428308
230.097748 -64.979691 17.434000
229.488800 -64.670082 23.039179
230.223206 -64.646820 24.157202
229.983170 -64.564804 24.725899
230.359314 -65.082993 81.104591
230.067444 -65.081192 90.737152
230.281097 -65.051651 90.718307
230.520203 -64.144112 -156.278122
230.658890 -64.538818 -99.060661
231.035690 -64.914139 -100.398544
230.628433 -64.224716 -3.962261
229.911575 -64.467728 4.971012
230.436035 -64.836632 8.188992
230.131531 -65.117043 15.209805
230.717758 -65.054855 21.146521
230.063232 -65.137383 22.108719
230.826263 -64.960426 23.949781
230.677353 -65.206512 24.917898
230.787598 -64.687119 80.772453
230.292908 -64.258789 89.473320
230.589127 -64.874420 -156.381241
230.662521 -64.651756 -145.777130
231.394989 -65.033585 -100.307281
230.986191 -65.178246 -4.217309
230.988571 -64.035461 4.845804
231.193481 -64.808258 5.787821
230.937744 -64.110474 6.653512
231.115051 -64.523445 9.007368
231.121277 -65.137978 15.495060
230.940109 -64.410278 17.922234
230.989182 -65.139015 21.077284
231.359055 -64.369461 21.806292
230.769592 -64.643478 22.608246
231.157928 -65.310760 25.111820
231.165482 -64.997406 80.427071
231.031219 -65.466759 80.001907
231.020569 -65.153961 89.799286
230.417770 -64.796143 90.092468
232.337860 -64.911232 -156.709518
231.521255 -65.084724 -156.110748
231.788666 -64.881065 -100.748474
231.547699 -65.005203 9.586846
231.046722 -64.666389 9.532088
231.120895 -65.207092 18.595474
232.300674 -64.719604 -156.266739
232.026047 -64.180000 -145.962494
232.472916 -65.029182 -103.165771
231.143250 -64.853737 -3.589414
232.025970 -64.600266 -2.501241
231.688843 -64.506058 6.778756
231.795486 -64.764458 15.750154
231.683548 -64.889275 18.353970
231.850586 -65.446930 21.191942
231.772598 -64.652809 21.709867
231.424713 -64.472313 23.133184
231.629501 -64.910286 23.870947
231.483292 -64.799652 79.408073
231.115677 -64.986465 89.607399
230.647888 -64.560127 88.674500
232.216583 -64.373657 -156.251984
232.574844 -64.498718 -145.229767
232.355576 -65.261536 -3.478928
232.157364 -64.452164 6.936893
232.995361 -65.474480 10.288908
232.572083 -64.916832 10.184051
232.107803 -65.096031 18.290730
232.518295 -64.749527 22.004730
231.828751 -64.965614 23.397169
231.984497 -65.181664 79.101173
232.446060 -64.174095 79.544266
231.942993 -64.886421 88.788040
232.488815 -65.577660 -112.611061
233.424271 -65.744934 -111.189980
232.911438 -65.596184 -108.671814
232.302094 -64.951973 -103.687737
231.834946 -65.283386 -3.080616
232.547699 -63.762039 7.824114
232.576065 -64.744247 16.608456
232.196640 -65.093513 24.374479
232.315460 -64.945190 78.717834
232.191605 -65.107315 88.166656
232.928024 -64.307983 -156.253052
233.364716 -64.646584 -144.941269
233.074188 -64.122139 -144.453201
233.194458 -65.138641 -129.500626
233.661301 -65.031471 -127.425797
233.601120 -65.209808 -125.078537
233.533173 -65.414551 -124.897202
233.390015 -65.028854 -112.833801
233.499634 -64.482933 -112.644447
233.395508 -65.140465 -111.213882
233.437668 -64.508286 -110.043938
232.954575 -64.355011 -107.733521
233.200516 -64.508713 -106.776764
233.498169 -64.863487 -105.202888
233.344299 -64.637306 -103.983620
233.922241 -64.875099 -1.870848
232.956680 -65.145309 2.776256
233.128464 -64.989578 4.085735
232.565201 -65.171944 5.297023
232.993622 -64.825066 16.792942
232.366806 -65.144997 18.589706
232.779495 -64.706665 21.874393
232.916611 -64.705917 23.017057
233.271133 -64.218781 23.537317
233.238571 -64.907974 77.519402
232.553894 -64.905220 87.966110
233.331467 -65.011566 87.744347
233.116684 -65.203873 -156.950256
233.494263 -64.524040 -145.461273
233.246597 -65.300659 -130.536575
233.386230 -64.940247 -123.676880
233.521194 -66.224236 -113.185669
233.660461 -64.612762 -2.174291
233.203323 -64.796127 2.589441
233.888916 -64.867645 4.083235
233.133713 -64.872307 4.697908
233.257813 -64.959183 11.156888
233.185837 -65.108078 17.161539
233.705002 -65.397285 18.843620
233.126358 -65.200851 22.323090
233.415848 -65.185928 22.700203
233.813217 -64.990082 24.478874
233.467560 -65.085419 23.972387
233.091064 -64.940567 77.433029
234.321716 -65.138847 -156.610519
234.502731 -64.294304 -156.522217
233.662460 -64.203758 -144.805847
233.911377 -64.158669 -143.620850
233.671158 -64.286949 -143.139526
234.176559 -64.922646 -130.505630
233.761856 -64.989700 -123.227333
233.791763 -64.700798 -113.537277
233.718872 -64.740128 -1.353126
233.849258 -65.321159 3.121827
234.171005 -64.639572 4.922272
233.589783 -64.958557 5.889656
234.146881 -64.898483 7.316915
233.812012 -64.611267 11.994196
233.416550 -65.272812 17.051769
233.662506 -65.269142 19.152212
233.864349 -64.659775 76.781548
233.795013 -65.226097 87.393501
233.488678 -63.943928 86.402756
234.275269 -65.421974 -156.298218
234.852936 -64.008247 -144.508865
234.402603 -64.222511 -142.698990
235.226608 -65.288727 -131.825714
234.286392 -64.867538 -131.306198
234.500992 -64.869232 -123.527176
234.484375 -65.254021 -113.396835
234.272491 -65.061813 -1.414969
233.909851 -65.161026 3.366514
234.447769 -64.768860 3.886897
234.179535 -64.163498 5.920375
234.481354 -65.086380 12.130561
234.200592 -65.133232 19.926855
233.795807 -65.210701 21.637091
234.452057 -64.616608 24.079536
233.766037 -65.091995 86.997307
234.963867 -64.164848 -144.128326
235.052643 -64.242706 -143.077164
234.996094 -65.314857 -122.649239
234.852325 -65.389206 -121.823883
234.656815 -64.702904 -120.097664
234.997467 -64.999191 -118.468170
235.150192 -65.180748 -115.381203
234.789047 -65.207756 -113.649467
234.853561 -65.055786 -114.454620
234.936142 -64.594589 -0.726689
234.510223 -64.712463 3.473905
235.093918 -64.577354 3.590173
234.631088 -64.240387 4.622355
234.311066 -64.997520 6.970783
234.580444 -64.556633 6.980945
234.554810 -65.266533 7.943796
234.519608 -64.699524 12.095367
234.532059 -65.063698 17.283009
234.501297 -64.790672 20.247389
234.042236 -65.039063 22.945190
234.718536 -65.382935 75.534401
234.156738 -65.226524 76.268036
235.252625 -64.750145 -156.700668
235.417130 -64.305847 -144.933029
235.692078 -64.694664 -132.373459
235.626175 -64.737274 -131.932343
235.201660 -65.131310 -0.161826
234.593109 -65.140251 4.022717
234.293091 -65.009689 3.846149
234.536987 -64.675072 4.579634
234.864563 -64.448326 5.668561
235.045807 -64.747704 6.962668
234.867889 -64.664604 12.448473
234.627579 -64.907944 75.499725
234.843613 -64.856972 85.747971
235.691498 -65.244987 -156.500565
236.357254 -64.220612 -156.425797
235.316879 -64.164436 -142.340836
235.402374 -65.193237 0.340048
235.490768 -64.590866 5.242492
235.328827 -65.013115 8.691526
235.575867 -63.490311 7.306737
235.090820 -65.028465 12.308128
235.345764 -64.809929 17.747295
235.081619 -64.694565 19.806252
235.018860 -65.232513 74.605438
235.126816 -65.381210 85.820053
235.987259 -64.855148 -156.350220
236.448166 -64.815109 -156.511002
236.258209 -64.090446 -146.306213
235.797440 -64.372231 -141.915573
236.160110 -65.087654 -133.253860
235.958115 -65.280853 0.869100
235.196564 -64.971436 4.205103
235.297226 -64.560410 4.792289
235.518127 -64.990341 8.309769
235.242096 -64.980019 17.477222
235.894379 -65.089584 20.167509
235.786209 -64.781418 74.037910
235.669510 -64.921486 77.862144
235.916504 -64.682129 85.274757
235.740784 -64.855087 85.532555
236.217361 -64.280617 -143.790695
236.730896 -65.229401 -133.657333
235.865753 -65.020958 1.477504
236.007339 -65.205605 5.303643
236.177994 -64.165062 5.974730
236.203064 -64.998642 8.512496
236.541733 -64.930595 9.914571
235.856552 -64.567589 10.041252
235.785828 -65.060478 12.045438
236.048615 -65.103188 18.004068
236.359283 -65.191071 20.294868
236.050751 -65.278549 73.266106
235.721069 -65.265717 79.226486
236.993896 -64.806854 -156.293579
237.363159 -64.489464 -156.060745
236.485580 -64.612892 -145.218063
236.935898 -63.800377 -143.754959
236.748230 -65.043205 1.283220
236.560501 -64.769524 5.521819
236.920700 -64.683571 5.871046
236.455063 -64.411346 5.885552
236.791412 -65.303101 9.599991
236.513947 -64.820610 20.621122
236.097092 -64.930130 73.019676
236.342239 -64.096062 73.692436
236.373428 -64.848671 77.451416
236.527679 -65.003761 78.441040
236.492371 -64.713120 79.273155
237.059738 -64.868752 84.261696
236.686935 -65.299744 84.591591
237.037537 -65.318832 -157.037903
237.209137 -64.525864 -156.278961
237.313614 -64.021599 -145.799927
237.358139 -65.011986 -133.431244
236.974228 -64.704384 -1.595728
236.786545 -64.554794 -0.171405
236.805389 -65.078362 -0.650578
237.185349 -64.890816 1.112901
236.782257 -64.996399 10.056843
236.942947 -64.802460 18.092766
237.120453 -65.234581 20.493092
236.664200 -64.839973 72.129417
237.501038 -64.673401 75.991035
237.136261 -64.880043 76.881393
236.965988 -64.845261 79.200043
237.732452 -65.054878 -156.511719
237.900696 -64.316154 -144.149399
237.928741 -64.507774 -142.013260
237.694550 -65.469543 -133.243881
237.237350 -64.932045 -2.725152
237.570862 -65.060036 6.987649
237.716904 -64.799835 6.459359
237.438828 -65.219322 11.994214
237.944534 -65.066971 18.470848
237.056046 -64.772392 20.366446
236.752670 -64.955444 71.937027
237.254944 -64.624207 77.287704
237.309692 -64.996056 78.522926
236.973282 -65.272736 83.423805
238.064423 -64.105370 -145.573013
238.668213 -63.869873 -144.708084
238.035599 -64.085991 -3.175560
237.811844 -64.918633 7.493720
237.150757 -65.199219 9.998616
237.551422 -64.813232 75.392662
237.813049 -65.231781 76.425003
237.418777 -64.172646 77.159058
237.686432 -64.969376 78.756569
237.454758 -65.120743 78.538940
237.775589 -65.281494 82.964386
238.385239 -65.216034 -157.258087
238.161407 -63.856998 -156.123932
238.343124 -64.412766 -142.556000
237.901520 -63.961750 -142.176910
238.447327 -64.932739 -133.763458
237.891678 -64.676201 -4.329863
238.052307 -64.881767 -4.476893
237.666794 -64.709976 -3.620346
237.802200 -65.271423 7.061821
238.187347 -64.640831 7.572774
238.392090 -65.437447 9.893159
238.228226 -65.591331 18.371725
237.983658 -65.076462 20.728529
238.321350 -65.268791 71.056381
238.340195 -65.228142 70.653343
238.107330 -64.931847 75.201775
238.163940 -64.934784 75.549606
237.982880 -64.632256 77.296066
237.846680 -65.291054 82.735497
238.323090 -65.114105 81.893730
239.170288 -64.883202 -156.786804
239.202423 -63.905891 -156.189804
238.876450 -64.406311 -143.377762
238.791656 -64.259377 -141.917313
238.963638 -64.068871 -4.860741
237.861282 -64.864792 11.766385
238.680588 -65.250633 18.829502
238.715652 -64.785721 20.912647
238.088654 -65.059570 70.348892
238.298538 -65.288658 74.336632
238.410797 -64.920753 75.587013
237.886459 -64.756195 76.247421
238.014725 -64.944908 77.578911
238.633835 -64.698700 77.508156
239.589157 -65.274773 -156.901749
239.735764 -64.373695 -145.574875
239.056961 -64.982903 -134.029297
238.393661 -64.964500 -5.110704
239.000992 -64.570663 -5.724524
239.153046 -65.053986 8.633659
239.185822 -65.180641 8.765951
238.420227 -63.935219 9.932313
238.891861 -64.736282 20.994793
238.957474 -65.367928 69.473190
238.950531 -65.067886 73.997169
238.677475 -64.442085 74.349220
238.795792 -64.327515 75.363823
238.609604 -64.769035 76.547119
239.058380 -65.435249 81.504089
239.031754 -65.200012 81.462006
239.533768 -65.121986 -156.871124
239.552338 -63.807510 -144.745667
239.705338 -64.277832 -144.023361
239.561234 -64.546516 -141.520096
239.539780 -64.462822 -5.636056
239.306351 -64.815536 -4.512644
239.247528 -65.218498 9.663467
239.571335 -63.935425 12.665987
239.414169 -64.944160 18.821896
239.160217 -65.071426 21.360441
239.309937 -65.269310 69.195992
239.039337 -64.933464 73.284256
239.061401 -64.831993 73.491341
239.689758 -64.605385 74.447029
239.498093 -64.645851 75.567574
239.209137 -65.138741 77.081650
239.208511 -65.098351 76.593941
240.517288 -64.808510 -156.712402
240.850815 -64.441467 -144.626083
240.340652 -64.134941 -142.031693
239.563156 -65.057991 -133.565216
240.376633 -65.077904 -5.970974
240.190765 -65.202866 12.499907
239.559814 -64.775101 19.154699
239.604050 -65.095100 21.498741
239.285370 -64.879204 68.340073
239.932251 -64.853165 72.726555
239.555344 -64.608742 73.563332
240.000305 -64.089584 74.531303
239.646255 -65.164841 75.449013
239.251068 -64.993835 76.298691
239.931488 -64.430412 76.678505
239.125916 -65.208046 80.402832
239.599564 -65.178856 80.141548
239.788635 -63.911049 79.876007
240.240921 -64.999718 -134.406616
239.848343 -64.934448 12.659906
239.716736 -64.922050 14.440524
239.918335 -64.279968 15.632423
240.041687 -64.886986 19.382736
240.057541 -65.101250 67.876091
240.221893 -65.131844 67.925697
240.331055 -64.915688 71.985252
239.855576 -64.824730 72.719688
239.986191 -64.267136 74.119514
240.251053 -64.796318 74.324211
239.937271 -65.270035 76.026268
240.280090 -64.496773 75.403099
241.022598 -65.250214 -156.775864
240.975555 -64.327087 -145.954865
240.821381 -64.421295 -144.976074
240.799088 -64.251282 -143.352646
240.744003 -64.061333 -142.066162
241.022354 -65.257446 -133.761063
240.614624 -64.180664 -4.658353
240.726303 -65.154137 11.837330
240.520996 -64.670227 12.477215
240.659164 -65.147903 13.623071
240.581009 -64.604973 14.229568
240.086670 -64.643250 16.425102
240.544312 -64.919281 18.965435
240.074753 -65.061646 21.560106
239.816757 -65.049530 67.635483
240.541122 -64.868782 71.504890
240.295273 -64.233894 73.532333
240.165955 -64.920616 74.481972
240.729019 -65.137772 75.465706
240.257172 -64.836700 79.694489
240.771240 -65.068542 79.107246
241.428375 -65.352219 -156.710831
241.141205 -64.363693 -145.762665
241.486130 -64.661270 -144.283066
241.625107 -64.371635 -142.137146
240.571915 -65.395004 -5.689619
240.832413 -65.082115 -4.834795
240.961853 -64.532600 -3.032716
240.965927 -65.031181 12.055956
240.851166 -65.444336 14.169521
241.006088 -65.196594 13.455460
240.802292 -65.003532 17.348774
241.106064 -64.759506 16.986458
240.656448 -64.853523 19.763977
240.662750 -64.852661 21.982391
240.896347 -64.619453 66.697075
240.720856 -64.840347 71.466728
240.779510 -64.529617 73.949638
240.951828 -65.241394 75.030792
240.993484 -64.514595 74.444626
241.935379 -64.089546 -144.819717
241.592728 -65.131836 -133.942017
241.179749 -64.477455 -3.862299
241.416733 -64.217003 -3.018713
241.195877 -64.515770 18.059355
241.362915 -64.928963 19.860458
240.721313 -64.803528 21.012897
241.120438 -64.924271 20.823679
241.870483 -64.861725 66.175217
241.390549 -65.090370 70.121582
241.667236 -64.645546 69.820442
241.355209 -64.965508 70.497284
241.085556 -64.529205 73.660873
241.217529 -65.338356 74.888565
241.356674 -64.990311 78.480042
241.436234 -65.046333 78.366585
241.774170 -65.036354 -156.582001
242.137054 -64.228493 -146.389236
241.795013 -64.493484 -145.761871
241.876785 -64.663124 -142.970551
242.006271 -64.658371 -141.680252
241.955795 -65.083405 -3.007376
241.322449 -64.312889 -2.768095
241.984406 -65.022461 -1.776306
241.807724 -63.925659 -1.630725
242.080750 -64.610138 -0.551185
242.154739 -65.656128 18.457155
241.647964 -64.687897 18.183596
