# This PCD file was generated using the MATLAB® pcwrite function
# from Computer Vision Toolbox®.
# .PCD v.7 - Point Cloud Data file format
VERSION .7
FIELDS x y z
SIZE 4 4 4
TYPE F F F
COUNT 1 1 1
WIDTH 1487
HEIGHT 1
VIEWPOINT 0 0 0 1 0 0 0
POINTS 1487
DATA ascii
65.104370 -52.971596 -88.467010
64.678589 -51.939499 -17.805983
66.402000 -52.842766 -17.298820
64.164581 -52.830173 77.246895
64.642723 -54.513344 111.234856
64.462990 -54.169975 -17.639910
64.300034 -54.503906 77.814514
66.613228 -53.559315 -19.040541
65.684090 -52.821678 -18.617044
65.436150 -53.471622 77.051186
65.925781 -54.895069 110.016632
65.968361 -53.005871 -88.437408
65.956757 -54.698639 77.063927
65.993851 -52.692501 -88.197151
66.327835 -52.415272 -20.828804
66.056213 -52.788574 -17.428139
65.832703 -52.304756 -18.232250
66.383781 -53.825169 76.317894
67.441978 -52.783707 76.524452
65.986794 -55.076805 111.346176
67.080780 -53.526886 -19.231396
67.767471 -53.906715 113.434486
67.708656 -54.826618 -86.834145
67.576988 -53.421772 -20.619648
67.573410 -51.995029 -20.864187
66.613106 -53.144112 76.311485
68.124023 -53.285385 -88.355736
67.902412 -53.451019 -20.286137
66.820297 -53.696747 76.166222
68.501350 -52.972759 112.080345
68.128799 -53.118896 -88.004898
68.247757 -52.512592 75.796417
66.955139 -53.857559 111.341179
68.020035 -52.177521 -21.231968
69.581772 -53.993126 112.922554
68.801086 -55.193336 75.073105
69.183685 -53.686398 -87.791443
70.363327 -52.491322 -53.489822
71.814049 -51.640026 -22.953501
70.637901 -53.336365 113.230858
70.316963 -53.561680 75.844872
70.169617 -53.755516 114.122711
71.672760 -52.064331 -55.544525
70.537056 -52.324039 -55.585880
71.144714 -53.291557 -23.144613
71.550003 -54.870972 75.931717
71.212982 -54.310936 112.675407
71.210419 -53.007401 113.578232
72.578377 -55.388752 -88.990013
72.714943 -54.031364 -24.925009
72.143295 -53.620926 74.463875
72.034004 -54.470631 113.835236
73.458099 -53.235111 -25.318846
73.285782 -54.686401 113.644142
73.144798 -54.139858 -25.674829
73.281693 -54.518730 74.350975
73.806808 -53.394588 -25.320745
74.236641 -52.722656 73.444229
73.127151 -52.931679 -87.855354
73.441429 -53.852165 -24.691427
74.617607 -53.079868 72.827034
75.277641 -52.773239 -89.190994
73.828247 -52.906616 114.644890
75.154327 -54.392517 -24.443419
75.518967 -54.087654 -25.090797
76.050621 -55.196934 -25.751110
74.597603 -53.364735 73.991264
74.719948 -54.039677 115.697937
76.089935 -53.178211 -88.686790
76.596649 -53.250042 -90.993332
77.268501 -53.326298 -26.038076
75.124161 -53.561119 75.176247
76.212082 -52.977062 115.593987
77.661919 -53.203407 -89.524490
76.556259 -52.618504 -25.900032
76.863808 -54.479115 115.207153
78.422729 -52.629566 -40.538208
77.207108 -52.765209 -40.442535
76.683655 -52.672665 -25.867699
77.228607 -53.304565 74.060379
78.058159 -53.123684 -89.142525
77.606438 -53.557522 -40.851810
77.864578 -53.691917 -38.832336
78.351410 -51.853668 -37.920094
77.690887 -53.196831 -24.730139
78.225731 -53.308235 -90.273636
79.026199 -53.609715 -40.144169
78.661781 -53.716537 -38.418232
78.405022 -53.575577 -38.785877
78.786674 -53.316059 -24.824045
77.443527 -55.139294 74.478859
77.769852 -53.947666 114.946846
79.749496 -52.725761 -89.239502
77.795174 -52.349247 -42.312634
78.639351 -53.064350 -41.506226
78.846100 -52.845177 -26.866386
80.319504 -52.439648 -26.783930
78.980156 -53.798203 73.145531
78.518547 -52.420246 114.740517
79.928230 -54.053005 -39.436951
78.844421 -54.601547 -26.716232
78.048935 -53.587959 74.025368
79.386711 -51.451866 -88.730751
81.029343 -54.832657 -44.856140
78.873627 -54.499454 -43.091412
79.292778 -54.429646 -37.680420
81.013329 -51.875721 -37.101749
80.338623 -53.424503 -29.541147
79.270058 -53.472050 -28.818213
79.542908 -53.017498 115.402359
79.395370 -52.956223 -37.033436
80.093498 -53.127148 -29.053783
79.444016 -52.761578 73.745049
81.238350 -53.626961 116.249756
80.780266 -52.382599 -88.638435
79.249672 -53.208370 -46.647556
79.123550 -52.950073 -44.832787
78.744011 -53.088146 -37.481911
78.657372 -53.829300 -35.548958
81.422989 -51.196232 -34.929897
79.554749 -53.107441 -34.430084
80.261818 -53.318596 -33.239025
81.204903 -53.605629 -33.046070
80.642136 -52.732895 73.914337
80.648857 -53.731915 74.275528
80.865013 -53.666565 -47.062767
79.913727 -54.012199 -45.765469
81.184807 -52.956211 -49.014053
81.639946 -52.705753 -46.632862
80.233612 -53.587791 71.988747
80.386475 -56.062351 114.680153
82.318497 -54.256474 -48.285919
81.181984 -53.437252 -47.617817
82.061943 -52.806477 73.191498
81.209663 -53.797009 72.957069
81.854088 -52.814785 116.466316
80.685677 -53.259323 -89.549866
82.741714 -52.968487 -47.847485
81.657829 -53.993252 73.196976
81.299507 -54.101242 114.595688
82.500008 -53.852402 -50.168915
81.634941 -53.529194 72.868004
81.372795 -54.210941 115.458809
81.764648 -54.328777 -90.198128
83.349030 -53.146240 -49.932362
83.901299 -53.362160 71.132927
83.384392 -54.196011 70.749290
83.536736 -51.737030 -49.183819
83.565308 -53.428539 70.427246
83.006836 -53.898487 115.110123
82.441788 -53.502846 -88.798676
84.393112 -53.882896 72.317307
83.513847 -54.245747 115.656189
83.544228 -54.104225 -49.587185
84.718658 -52.595104 73.403595
84.781006 -54.975883 -89.417801
84.272751 -53.502205 -50.158070
83.449760 -54.440655 69.469612
84.865295 -53.779404 73.272522
84.179192 -52.851406 73.686890
83.732788 -53.406322 115.605003
86.586426 -54.719631 -51.524693
85.700577 -54.360229 70.067764
84.065773 -52.348675 72.221771
84.922119 -53.300076 73.974731
84.352142 -54.137638 72.140274
84.643196 -54.287834 117.236946
85.917496 -52.842110 -50.689583
85.434814 -52.985531 69.202812
84.807693 -54.303013 73.584633
84.693100 -53.004692 115.835335
86.561249 -54.300995 -88.481049
86.829025 -53.763306 -51.405136
86.468582 -54.291103 71.382660
85.451683 -52.669323 73.014870
85.217751 -53.470131 67.741493
86.876839 -53.120598 71.591194
86.618492 -53.065128 73.158257
85.996582 -53.153999 73.147812
86.284729 -53.419315 115.654770
87.477730 -52.604332 71.471046
86.900520 -52.417259 71.770157
87.040199 -53.572865 71.347313
86.789360 -53.710381 73.806488
86.705193 -52.334652 72.501816
87.083229 -54.868954 115.472786
88.413849 -53.520248 -90.040283
87.271149 -54.191250 69.294106
87.145111 -53.379971 70.522339
87.405090 -53.464119 72.595047
87.001289 -54.194309 74.052238
89.454445 -53.016518 73.596359
88.325172 -53.496220 68.275810
88.184036 -55.113308 73.252724
87.197929 -53.495518 116.097939
88.860435 -53.453011 -53.340118
88.782211 -52.668201 67.105972
88.042351 -52.458645 68.299339
88.235306 -53.753559 71.180168
87.587921 -54.628223 74.219833
87.417000 -53.636723 72.921669
88.275864 -54.538731 69.512207
88.224007 -53.206169 72.196274
87.704025 -54.067844 114.615585
88.627434 -53.235466 -54.715561
89.336159 -53.122833 115.819992
90.196999 -53.257484 -54.040730
89.838387 -53.726440 67.840813
90.608604 -54.052830 -55.011463
90.535767 -53.017429 70.242577
90.241379 -53.935314 115.170273
91.366913 -53.593304 -90.818085
89.667511 -53.057766 68.438530
89.001419 -52.469265 70.551399
89.607903 -54.125549 -55.903046
91.223778 -52.974072 69.846909
90.468391 -53.200684 70.562065
90.866058 -53.201336 -88.927963
91.987549 -53.324345 68.308563
91.313637 -53.260899 69.183861
90.501678 -53.462845 70.867104
93.494644 -53.385139 71.453804
91.342979 -52.172287 72.634918
90.834709 -52.799362 72.959290
92.140907 -52.766846 -55.593494
91.641640 -54.304138 69.369781
90.650826 -53.554268 70.257980
91.662003 -52.155308 70.823334
90.654686 -53.275436 70.884682
92.045708 -53.294323 73.872467
90.863632 -53.188183 74.347809
91.011978 -54.320374 74.176491
91.419693 -54.105675 75.190186
92.262032 -53.633678 -90.104973
92.050049 -53.664490 -55.997086
91.991661 -53.496761 74.618454
92.553848 -54.386051 115.222061
92.844307 -51.893948 -88.252663
92.276695 -53.749386 76.528175
91.601936 -55.073208 114.663757
93.133904 -53.643307 -56.652771
92.322380 -53.344299 115.201370
92.092270 -53.170006 76.330826
91.332649 -52.167290 115.700394
92.110626 -52.632156 74.405388
92.412743 -53.690811 114.076447
94.485786 -54.570488 -89.981621
93.301453 -55.423183 -89.508682
94.483376 -54.880642 -58.774708
95.116943 -55.513256 75.790695
93.570488 -52.993870 112.896149
94.708672 -55.488132 -89.219933
94.323059 -53.829731 74.728020
94.891983 -53.703453 -89.144547
93.156815 -53.279572 114.789093
93.734718 -52.220982 113.360085
94.977448 -53.106449 -57.940922
94.862831 -54.499084 75.750237
94.459869 -53.433449 114.726097
94.509735 -53.938801 -59.416481
96.189964 -52.514084 74.949608
95.043297 -53.992603 -59.681938
97.175789 -53.909519 75.282898
95.803726 -54.497787 77.114494
98.479225 -54.911476 -89.994385
97.496704 -55.368797 -89.120544
97.561050 -53.726925 75.922920
96.577225 -52.842045 113.957695
98.846519 -53.217270 -89.586761
97.171211 -53.719948 -59.270203
97.539894 -53.007763 113.400253
97.638809 -52.700962 -62.751404
97.614952 -54.036877 76.796532
99.544975 -53.763344 -90.860764
99.680367 -54.384880 -60.145145
99.466873 -52.819706 76.746651
98.411827 -53.602676 86.314392
99.243629 -51.183365 88.160118
98.500206 -52.915966 88.174950
97.721367 -52.818920 88.211494
98.278046 -51.823154 92.017860
97.562164 -54.168285 113.889946
98.547607 -53.505939 -60.648888
98.696983 -53.198795 75.947266
99.146370 -52.374744 77.289978
98.464447 -52.432083 75.668961
98.234650 -52.111401 87.950020
98.483406 -51.790916 91.108971
97.654785 -53.370926 94.609764
99.444893 -52.752861 94.579079
100.150536 -53.122807 -90.342163
99.016251 -55.702705 -61.804348
98.859863 -54.139885 76.841347
99.326881 -53.729069 75.436356
97.984970 -52.232418 87.105110
98.151192 -53.366871 88.121391
99.225716 -51.760597 92.735847
100.727982 -53.183239 96.623108
100.309418 -52.152897 -89.304771
99.554276 -52.723145 73.408508
99.849846 -52.944855 73.613869
99.440964 -54.081879 75.219940
99.161987 -53.130272 76.306892
99.326462 -53.781742 76.596588
98.912804 -51.904663 86.772354
99.222595 -53.769859 87.457039
100.113243 -53.199215 89.085838
99.721161 -52.805321 93.262009
99.158340 -55.324730 114.067253
100.640137 -54.128010 -61.076286
98.918388 -52.374393 72.311287
100.454239 -53.346874 74.381348
99.799324 -53.809814 75.806168
100.249382 -53.801876 75.090042
100.150459 -54.517792 76.681435
100.173271 -53.853130 78.275475
100.287811 -52.484627 85.506508
100.059761 -54.004044 87.680832
100.525787 -53.165829 91.705940
101.142593 -51.472179 91.314293
100.895348 -53.345726 93.540474
100.292625 -53.657036 113.315117
98.932747 -52.393505 70.094109
101.450180 -52.766132 71.133308
99.364395 -53.142517 71.854584
100.340179 -54.723686 74.201218
100.680923 -53.726936 77.229469
100.197006 -52.050613 77.431557
101.925774 -53.678997 78.524384
99.342308 -52.136688 87.183655
101.176865 -51.525051 88.905228
100.818672 -53.057186 90.259789
99.868935 -54.350933 113.104866
101.763664 -51.998169 71.536682
101.875259 -54.005783 74.860207
101.240097 -53.349232 73.945045
100.504105 -53.242466 75.286247
100.744873 -52.976475 77.294258
100.431572 -53.621284 77.767754
100.059387 -53.452892 79.044754
99.070145 -52.012806 86.582176
100.590981 -53.964474 88.732323
100.589188 -52.908894 91.024597
100.011711 -52.925724 92.693359
102.026817 -53.134579 112.162949
102.605240 -53.304237 -88.584618
101.517242 -53.032169 68.677940
101.898720 -51.291946 69.572037
101.677841 -52.847694 72.561523
100.298485 -53.371666 72.604523
102.064819 -52.902729 74.810791
99.528374 -53.786720 75.049339
101.885994 -51.772892 76.295738
101.465820 -53.018661 80.115402
102.207733 -53.271996 79.263039
101.181892 -52.079533 79.820328
100.279381 -54.143162 112.838516
101.964218 -52.900780 68.197441
101.325706 -53.966488 68.788536
102.092415 -53.612957 70.812057
101.390030 -53.096546 71.675148
101.623940 -52.698177 72.106125
102.503784 -54.708885 71.363289
101.641823 -53.099339 73.690735
102.535522 -52.881393 75.690712
100.174110 -52.926746 76.405579
101.688995 -51.530750 85.684471
99.756668 -53.725719 88.289993
101.436363 -52.355549 89.277321
101.096809 -52.987354 90.808670
100.848953 -52.709743 91.452164
101.759796 -53.374641 -90.051346
102.040085 -54.068031 -63.115849
100.999382 -54.296822 68.686699
101.670486 -53.797272 68.808258
101.555275 -52.349766 71.845009
102.175896 -52.968369 74.272400
102.229706 -52.829445 74.460922
102.877953 -54.546314 79.558762
102.087395 -52.554054 81.392029
102.222862 -52.884407 87.492332
102.311096 -53.238220 88.547501
99.831238 -52.580982 89.323990
102.493828 -53.526817 89.506569
101.629524 -54.873734 -90.692490
102.128639 -52.534199 -62.945042
101.858215 -53.242218 68.318245
103.065605 -54.076721 67.829399
102.855080 -53.453873 68.801010
103.595947 -52.635853 71.334885
103.457603 -51.288654 74.877060
102.398262 -53.625977 79.920776
103.699692 -53.610062 80.923134
101.530128 -52.957516 86.298233
102.596413 -53.943539 89.888809
101.121513 -51.611408 91.350227
101.874092 -52.329567 94.207588
102.413071 -51.989407 95.498055
101.843025 -53.506058 111.533493
103.602890 -55.893002 67.391151
103.521507 -53.901669 69.004768
102.932053 -52.818542 69.909401
103.199875 -53.670807 71.164642
102.644470 -53.815269 71.102562
103.645912 -53.045422 72.536133
103.415382 -52.044022 73.110603
103.398819 -52.519852 86.981430
102.630753 -53.363049 88.392860
102.768433 -54.083752 89.430527
103.430374 -53.823746 112.607567
104.480530 -53.894855 111.032516
103.284813 -55.045761 -89.529617
103.323303 -52.378193 65.460938
103.522003 -52.423313 65.790009
102.408325 -53.181412 68.040077
103.578033 -52.742348 68.421005
104.042564 -54.636780 70.513870
103.934387 -52.989223 72.300056
101.737305 -52.716217 73.479088
102.807770 -53.378429 81.337822
101.735748 -53.185623 85.963348
102.543922 -52.798195 88.195114
104.220421 -53.313255 91.109299
101.837852 -53.560371 93.493538
103.036522 -52.663128 95.472610
103.598785 -53.114124 -87.745338
103.695084 -52.687496 -62.544209
103.547653 -53.807468 65.513763
103.110344 -54.651566 66.084259
103.055611 -53.523987 68.999092
103.016327 -54.404411 69.208443
103.106773 -53.434780 71.278122
103.938995 -52.757523 71.877983
102.613647 -53.234329 80.714508
103.998787 -54.148716 81.322578
102.965981 -52.892891 82.339592
103.447838 -54.642979 88.330200
102.746696 -52.873341 89.503220
102.092987 -53.801998 88.555550
103.715721 -53.804359 89.836166
104.225014 -51.882843 91.512321
103.665749 -52.479427 94.419968
104.864342 -53.501820 94.812592
103.383308 -53.725941 111.883217
103.681320 -52.967018 -89.500252
103.916222 -52.604759 -62.543694
103.038635 -53.116901 65.639809
103.981544 -55.082642 64.849792
104.679192 -53.462856 69.297798
104.863251 -53.074791 87.203316
104.963493 -54.319080 86.674492
104.090378 -53.219418 87.521797
104.500450 -51.911728 92.031006
103.541405 -53.274929 93.023705
103.247742 -53.760818 110.789436
103.187790 -53.964558 109.276978
104.903206 -53.620998 -88.393608
105.504501 -54.159389 -56.029572
104.408180 -54.699554 -53.744564
104.202919 -52.909588 -53.592800
104.754509 -53.617065 -53.871750
104.174858 -51.661068 -52.243340
104.061699 -52.718243 63.119308
104.146164 -55.068108 66.064018
105.915787 -52.835136 64.676514
104.591103 -54.156464 68.396568
105.233742 -54.161396 69.720139
103.705101 -51.863953 71.567253
103.632744 -53.351055 82.393402
104.024345 -53.783886 91.771858
104.769859 -53.308887 92.525604
106.020531 -54.580334 -65.156067
104.680725 -52.332401 -56.446167
104.833023 -52.614033 -55.567535
106.437531 -52.743092 -50.913818
105.268845 -53.394791 63.648972
105.507256 -52.981503 64.960648
105.092239 -54.254013 67.795898
104.944931 -53.947830 70.063484
105.194145 -53.703701 83.003403
103.080605 -53.001766 87.672295
106.223137 -52.455193 92.222290
105.036598 -52.831944 93.900276
104.440048 -52.603054 110.186005
104.833969 -54.795540 108.031548
105.830460 -53.402790 -55.636822
105.469902 -53.721703 -57.016586
104.330704 -53.486740 -50.749916
104.964241 -51.667934 62.229618
104.705826 -52.790966 64.336052
105.283432 -52.483452 63.706860
106.726807 -52.840683 67.519691
105.863113 -53.767559 83.954178
105.171684 -51.770218 84.214264
104.952522 -52.372955 85.406288
105.146614 -52.641453 86.293106
105.487709 -54.958958 88.009552
106.326942 -53.237644 87.164902
105.158638 -53.575382 91.458778
104.855919 -52.086205 92.555473
105.363174 -53.903332 -57.397858
106.420547 -54.629471 -56.983624
105.539238 -53.544067 -55.419735
105.934105 -54.176407 -52.600506
106.173019 -53.021709 63.160305
105.497375 -53.560001 63.298286
106.117599 -54.597893 69.456276
106.363953 -52.530533 69.902733
103.865143 -54.145081 84.763359
105.474983 -54.021431 85.557640
103.923698 -53.216499 85.158447
105.409233 -52.806606 86.419556
105.574135 -54.099239 86.702438
106.404510 -54.086788 91.179733
105.159393 -53.597931 108.595612
107.333481 -54.716915 -88.419319
106.227661 -53.491165 -64.567772
105.544662 -53.625084 -56.884998
105.820808 -53.206570 -55.661278
106.853912 -53.397755 -51.862030
106.316757 -51.785862 62.641838
105.670876 -54.024109 64.301888
106.279350 -53.518749 67.001862
106.287613 -55.038029 69.181496
106.909401 -53.121857 85.570305
106.689980 -53.618423 109.011208
107.394676 -53.549679 -88.102165
106.282921 -53.737522 -64.442856
106.840408 -54.000484 -57.237198
106.769295 -52.894463 -56.639725
106.533951 -53.223145 -55.626972
106.106941 -52.343967 -54.969269
107.403694 -54.809284 -52.723782
106.862816 -54.390865 59.644051
107.108673 -54.527031 60.994286
106.147194 -53.339855 60.547276
106.430222 -53.422489 68.089798
106.823387 -53.907242 92.214806
106.609940 -54.291451 108.143456
106.424507 -54.088486 -65.504051
107.892143 -53.257458 -57.990696
107.244972 -55.490864 -56.841721
107.898376 -52.973209 -55.344162
107.610367 -53.516502 -54.895283
107.177956 -54.248264 -49.788212
106.935341 -53.141342 62.461689
108.162994 -52.940693 60.231316
106.895874 -53.503933 66.095734
107.366402 -53.751644 65.743584
106.563911 -52.265671 67.287231
107.300316 -52.415371 94.571159
107.618973 -54.202305 -89.592026
107.138588 -52.904324 -54.709114
106.837173 -53.719822 61.102066
107.443153 -54.270332 66.142181
107.305710 -53.906353 66.931488
106.019051 -53.094517 93.680023
106.127396 -53.978020 91.998833
107.276634 -54.769066 108.119225
108.588173 -53.304321 106.457581
108.121002 -54.390453 -65.983208
108.240623 -53.918140 -53.555050
107.819336 -54.127796 -53.873440
107.964508 -52.919086 -50.831585
106.591339 -52.413467 -50.965694
107.331779 -54.016491 61.223591
107.279846 -52.610123 58.846352
106.619453 -53.390800 65.578087
107.785347 -53.488567 66.683731
109.033409 -53.440201 94.856300
109.410957 -54.317364 -64.911263
108.328621 -52.144199 -59.595234
107.527473 -55.070339 -58.406544
108.229301 -52.791370 -52.279076
108.864830 -54.275230 -54.566124
107.044762 -52.961536 64.831100
106.445625 -54.449512 65.917030
107.834534 -54.445858 95.548859
107.883957 -54.240959 105.594948
107.456757 -52.868671 -66.583870
108.961670 -53.692112 -58.814369
108.509644 -54.369099 -59.553074
108.303406 -52.031174 -52.532890
109.752548 -54.651917 -49.913921
108.876122 -52.949295 58.134155
108.501595 -53.847000 64.499870
108.324059 -53.866177 94.733810
107.816124 -53.435799 96.777786
108.575012 -52.574696 98.254944
108.982353 -54.690544 102.982109
110.520432 -53.348991 -66.824844
109.573746 -54.822277 -61.625534
108.717194 -52.379719 -61.339825
108.458466 -53.814342 -59.736214
109.346336 -53.321651 -60.320415
109.505371 -53.544827 -53.224621
109.814568 -55.191700 -49.133060
106.459381 -53.720219 64.055099
108.164917 -53.017437 64.340416
108.430649 -54.603333 97.668175
108.243439 -53.326519 99.314552
107.889542 -51.722145 99.506676
109.727165 -53.481533 100.210785
108.825020 -53.915188 101.003090
108.385643 -54.706787 102.148407
108.364388 -53.809021 103.177490
109.021439 -53.837845 102.769081
109.753555 -53.307419 -62.071968
110.075821 -53.522816 -60.409279
109.331001 -53.694572 -61.286560
110.012115 -53.138664 -58.009396
109.087120 -53.526871 -59.913918
110.552513 -53.818081 -52.129608
109.373451 -53.307945 -50.060890
109.073730 -53.659088 -49.552254
109.161972 -51.905426 57.545879
109.985390 -54.254005 64.423264
107.985046 -53.774330 64.085014
109.142838 -54.144009 -66.620987
109.444717 -54.434040 -62.500942
110.059937 -52.735924 -62.447590
109.213570 -53.802807 -60.792271
111.013145 -53.952156 -61.366814
109.428726 -53.088360 -49.618488
110.032951 -52.657822 56.736217
109.093994 -54.684807 64.000862
111.333870 -54.558842 -62.935081
110.717140 -52.769901 -61.729450
110.894920 -52.480625 -59.456615
110.886154 -54.028339 -51.554985
110.310341 -53.334198 -48.957535
109.205727 -54.642658 57.686535
110.632805 -53.997494 63.218552
111.056473 -54.622547 61.928673
109.840233 -55.172375 64.072906
110.685478 -52.825787 -87.544662
109.493698 -53.779488 -67.537811
110.435570 -53.788242 -59.248028
110.959290 -53.556305 -53.950512
111.274933 -52.592442 -51.539963
110.777496 -52.688244 -49.367195
111.647133 -53.010876 56.787418
110.808037 -53.583626 -63.786045
111.329422 -53.840733 -60.412144
110.986839 -54.003056 -48.838726
109.738228 -52.333015 56.858810
111.487343 -54.353313 62.003674
112.109596 -54.292408 -61.700069
112.708580 -52.873241 -49.579140
110.053108 -54.123917 56.746838
111.879944 -53.702755 59.964432
112.198807 -52.814682 61.416698
111.916206 -52.898476 -67.586754
111.662346 -54.575329 -60.263645
111.592018 -53.468189 -60.781124
111.211876 -53.038422 -51.713634
111.295082 -54.817970 -48.666451
111.069038 -54.822426 56.738266
112.932426 -53.453503 -87.437698
112.148186 -51.682831 -68.167725
111.521957 -53.818863 -63.168598
111.788033 -53.139793 -60.024719
112.174484 -52.735012 -52.521416
113.357819 -53.933262 -47.361523
111.895180 -54.779846 61.297874
112.170456 -54.822666 60.346748
112.585098 -53.294865 -68.231873
111.309258 -52.566444 -62.346626
112.069168 -51.974838 -60.793262
112.465256 -52.746727 -46.832596
111.999641 -53.440929 55.576294
112.006058 -55.457993 -70.267784
112.514809 -52.595249 -68.017586
114.406227 -54.260612 -60.088219
113.006554 -54.404030 -51.149235
114.217773 -53.208721 -48.765358
112.899323 -53.741077 54.678959
114.203491 -54.115173 60.281300
110.224960 -54.085339 -88.228676
114.173782 -52.934898 -69.053078
112.779884 -54.269958 -69.010414
114.492851 -53.957012 -62.250278
112.721664 -52.587975 -60.947334
112.821144 -53.893330 -49.165428
113.931549 -53.851273 53.681358
113.643738 -52.452267 60.394714
115.304619 -53.236324 59.853291
113.084190 -51.617565 61.779644
113.938866 -53.152107 -50.070980
114.039406 -54.397873 -47.298290
112.676514 -53.704693 52.984783
113.831329 -54.418785 -68.814964
115.067184 -52.569141 -62.190971
114.098289 -52.238060 -57.714787
113.043114 -53.708721 -50.209076
113.194260 -53.523163 -47.313103
114.249802 -54.035542 51.148651
115.086273 -53.097935 58.607273
115.757416 -51.965851 -87.476814
114.616913 -53.386547 -67.564438
113.650635 -52.212555 -68.844948
116.550400 -54.029507 -49.676228
115.644119 -53.177246 -49.714138
114.807106 -54.335022 -87.665176
114.940521 -53.448429 -67.945549
114.965981 -53.073254 -68.601311
114.673943 -54.316578 -59.893738
114.947029 -53.036259 -59.623779
114.618744 -54.467808 -48.281567
114.920731 -52.979580 58.550793
115.690361 -52.587814 -87.665215
115.155197 -53.226704 -69.766624
115.791542 -53.976257 -60.873035
115.845650 -53.344398 -58.641544
115.040298 -53.982742 -48.787724
115.203094 -54.076057 -49.301865
115.279907 -54.056061 52.375359
115.707253 -53.983318 58.420464
115.981026 -53.059860 59.304745
116.400917 -53.795307 -87.644958
116.450661 -52.223522 -68.914673
116.979897 -53.976906 -68.126556
113.883133 -52.647701 -61.191788
116.558517 -54.064518 -58.054211
115.442810 -53.300091 -48.614845
115.946655 -53.265568 -46.528294
116.970901 -53.566994 50.562763
114.930817 -54.116184 57.800999
116.797432 -54.071926 -87.399445
116.367859 -53.663853 -86.636772
117.001442 -54.054802 -73.970856
117.256042 -53.012196 -67.404709
116.259216 -52.132698 -68.528641
115.696068 -53.570366 -45.865917
115.441116 -52.334805 50.571167
115.752884 -53.241985 57.706730
117.446053 -53.260365 -73.880478
117.636681 -52.944733 -73.109848
117.464310 -52.947994 -69.030495
116.043205 -53.437836 -70.588676
117.923462 -53.584934 -48.996384
117.245621 -52.867458 -45.438381
116.122139 -53.138348 -48.122063
117.151573 -53.350403 49.896584
116.237114 -54.537380 58.889038
118.409485 -53.678413 57.253349
117.096649 -53.149067 -75.341400
115.862022 -53.353935 -72.572533
118.470551 -52.628948 -71.048454
116.758522 -52.810253 -71.730240
118.483383 -53.238323 -69.204857
117.703033 -54.066586 -61.827114
117.363861 -54.185562 -58.064125
115.891068 -53.282066 -46.345898
118.032227 -55.463699 -86.027428
117.528152 -53.008137 -71.199577
117.486229 -52.560005 -70.641685
116.360146 -52.414009 -69.826530
118.608765 -52.430382 -71.468277
116.941330 -54.282734 -59.543365
118.710007 -53.164402 -57.702175
117.525070 -55.215221 -48.230362
118.802155 -53.363735 50.785248
116.331436 -54.340961 48.850670
117.679169 -52.672077 56.195122
118.152046 -54.743530 -87.403145
117.438400 -54.540268 -75.459839
119.415329 -53.118637 -74.175858
117.078972 -52.798851 -71.196953
117.827148 -53.454407 -70.071930
117.833481 -53.261440 -70.481812
117.136665 -53.986336 -59.502800
119.225922 -54.144917 -58.010971
118.442352 -53.435764 -47.615112
117.352631 -55.526783 -46.908573
117.469818 -54.477982 57.000195
117.804070 -52.926601 -76.379616
118.765953 -53.451656 -75.090103
118.889694 -53.399540 -72.293999
118.304367 -52.300354 -71.199303
119.980072 -53.906189 -70.042343
119.019173 -53.792755 -70.169067
119.203407 -53.221714 -70.829964
117.983772 -52.867275 48.357475
117.755325 -54.020988 55.065727
118.184036 -53.262573 -86.944870
118.587662 -52.712112 -75.304642
118.964584 -52.494995 -71.316444
119.594460 -54.243309 -61.221184
119.668182 -53.354702 -46.045013
118.497635 -53.572643 47.736523
118.909607 -53.771370 56.040386
117.989983 -52.372246 56.618370
119.136505 -53.955036 -86.368210
119.918358 -53.258060 -75.600243
119.585030 -54.527798 -76.660728
118.368385 -54.138683 -57.661236
119.907242 -53.655392 -46.193340
120.432732 -52.476181 -45.434624
117.774544 -53.563190 48.011719
118.609375 -53.943550 55.166401
118.810913 -54.438946 -76.920029
117.780701 -53.680634 -59.902283
119.020760 -52.922691 -58.532990
118.777817 -54.095413 -48.487125
119.153214 -54.027905 47.234650
120.343262 -53.106262 55.000942
120.743889 -53.770737 -85.587685
119.824242 -53.283741 -85.848068
119.530937 -52.780876 -77.692833
120.534401 -53.470783 -57.677063
118.604980 -53.535450 -48.998978
121.116562 -53.210083 48.108112
119.434959 -53.626549 55.749500
120.307060 -53.569054 -58.310200
119.462212 -55.614754 -48.222420
119.962677 -54.268223 46.198040
120.223816 -55.297363 54.408001
121.085121 -53.953259 -77.167007
121.395844 -53.279747 -77.654121
121.034668 -53.707829 -59.577274
119.866035 -54.030087 -57.213810
121.952454 -53.721020 -48.427826
120.770721 -53.655022 -43.987011
120.560997 -53.820004 44.976753
120.980118 -54.241058 53.756599
121.296188 -54.166058 -85.619057
121.401382 -53.121124 -57.351097
120.966850 -54.301281 -45.878849
120.770363 -53.512222 45.683743
120.757889 -52.549343 54.676674
120.716774 -53.443462 -87.079773
122.445984 -53.359207 -78.396240
121.803856 -53.228977 -79.405861
122.280624 -53.836811 -58.125835
121.175735 -52.069038 -55.013157
123.064507 -54.395920 -46.910912
121.117554 -53.342400 -45.010574
121.131813 -53.055813 46.621304
121.164436 -53.107098 53.840004
122.153244 -53.370754 -55.452866
122.032387 -53.337078 45.772961
122.640358 -54.060448 54.140163
121.517433 -53.987473 -84.645775
123.087234 -54.096100 -78.646423
122.923668 -53.230484 -55.829689
121.478394 -54.232788 -55.474438
123.696167 -53.170170 -47.444340
122.196701 -53.116909 44.069851
121.799362 -53.895660 53.028694
122.838409 -53.392799 -84.199738
124.166252 -53.345276 -84.006485
122.839241 -54.454952 -81.727905
123.095810 -53.577930 -82.230247
122.128532 -54.047993 -58.298145
123.279076 -53.276333 -44.430202
122.994308 -54.045418 44.342911
122.362846 -53.702511 51.371372
122.177002 -52.329727 -84.006073
123.225075 -53.901752 -57.036087
123.477394 -53.833035 -55.992340
123.658363 -53.152573 -47.527710
123.421440 -53.988419 43.985359
122.859207 -53.505100 51.581436
123.889175 -52.975746 -55.020447
123.365395 -54.942833 -44.533218
121.899261 -54.645519 44.450512
124.086517 -52.857738 -54.564011
123.609909 -52.508282 -47.763470
124.133011 -54.486683 44.267731
123.006271 -53.846653 51.310146
123.858070 -53.718628 50.631268
123.123688 -54.596466 -57.235825
123.504517 -54.035072 -48.349258
123.679268 -53.859329 -45.071182
125.319054 -53.782963 43.215061
125.822617 -54.358105 -57.369518
123.865585 -53.518253 -56.803627
124.141640 -53.265045 -57.295761
124.963852 -53.985424 -54.041779
124.781082 -52.753937 -47.502773
124.653870 -53.557098 51.295254
124.710594 -54.280487 -52.632782
123.397102 -52.076145 -43.859558
123.554741 -53.541698 43.292149
124.943916 -53.872513 -56.174004
125.633484 -53.861877 -47.152184
124.917656 -52.680847 -44.955196
126.324707 -53.744293 42.475132
125.380028 -53.986942 50.160114
126.624039 -53.463203 -54.697563
126.475090 -53.081303 -55.659077
125.525558 -52.826103 -48.378113
125.915909 -53.031723 -43.092361
125.506233 -54.114090 42.593235
125.974663 -53.660271 42.806797
124.917969 -54.203678 50.853462
125.754303 -52.419922 -56.040154
126.203232 -53.836464 -53.963142
127.181343 -54.268486 -52.138622
126.741096 -52.571072 42.422382
125.454498 -53.260529 43.754295
125.491425 -53.394150 49.916191
127.833267 -53.278889 -54.379490
127.755432 -53.241875 -52.450912
126.872948 -52.631397 -49.063129
127.610092 -54.208076 -48.323536
126.634911 -53.774391 -48.482868
125.445190 -53.349323 -45.192913
129.226089 -53.864017 41.296452
127.392723 -53.214184 48.886551
127.464188 -53.785904 -54.530540
128.383682 -52.789360 -52.663963
126.704979 -53.444565 -51.069103
126.752548 -53.492535 -48.877502
126.438194 -53.816593 -45.154785
126.156822 -50.915359 42.121975
125.709023 -52.564327 48.446510
127.353790 -53.783287 -53.049732
127.885498 -54.760502 -51.883015
127.600098 -52.892914 -50.359222
127.753860 -53.003471 -49.827732
128.368683 -53.922539 -44.183743
126.425331 -54.305920 41.840080
126.733322 -54.632191 48.402306
127.564552 -53.486713 -55.242924
125.542496 -52.514030 -52.022572
128.670959 -52.872448 -49.159134
127.858582 -53.647358 -48.963970
127.645287 -54.126610 -48.101105
128.232101 -54.094044 41.854900
128.196991 -53.694641 40.843925
127.056801 -54.019615 48.006500
128.494095 -53.541618 -54.132328
127.887787 -54.007557 -52.061218
127.909325 -54.956852 -49.599472
129.003876 -54.294052 -44.991795
128.491684 -52.755581 40.657108
128.906647 -52.956779 48.136696
127.487755 -53.181519 48.417358
129.523453 -53.305645 -53.219074
129.088486 -54.209393 -50.396328
130.058670 -53.168461 -48.344471
128.471802 -54.586853 -48.722378
129.452148 -53.181328 -45.042866
128.652374 -52.897182 -52.147793
129.641983 -53.438637 -44.921085
129.953033 -52.273972 39.037174
127.186249 -53.338276 47.463112
129.875168 -52.342258 47.218014
129.243698 -53.999630 40.052929
129.642761 -53.026871 41.516808
129.266479 -53.759811 45.833694
128.824478 -54.514786 46.386139
130.141464 -53.125462 -52.101440
130.434952 -53.402523 -52.416454
129.840256 -54.385544 38.522804
128.925674 -53.202610 46.573635
131.232025 -53.227978 39.868500
130.416641 -53.724514 39.093994
130.171463 -53.091961 46.703682
130.888245 -53.643261 -51.378242
131.128052 -53.239174 -52.399235
130.425766 -53.824944 -46.787235
130.089706 -52.668583 -46.403217
130.257370 -52.612148 39.098030
130.923050 -51.750168 40.228550
130.510452 -52.446510 -51.422527
130.791382 -55.634220 38.438156
131.843353 -54.239456 40.695721
130.865799 -54.832302 45.429844
132.022095 -52.681091 -51.313103
130.718796 -53.848469 -50.390293
131.103104 -52.212688 -47.730923
131.616745 -53.806553 -44.999531
132.350189 -53.053299 39.732132
130.467499 -52.797104 40.449272
130.744415 -53.174576 45.452717
131.247421 -53.268185 45.020275
132.202835 -53.867203 -51.506306
131.645050 -53.230785 -48.625523
131.472641 -52.795303 -49.307568
132.444366 -53.316143 -47.056923
131.196060 -52.920479 -45.988972
132.187317 -53.075665 38.462090
131.709747 -53.019089 37.606644
131.702789 -54.662762 44.842949
131.564896 -52.946270 44.250088
133.289307 -54.778454 -50.761845
131.974487 -53.188595 -48.960289
130.835098 -53.302635 -46.569195
132.595230 -52.536457 -46.480862
132.296051 -52.851986 37.370163
131.938995 -54.653908 38.758316
132.506317 -52.920261 39.200279
133.354584 -55.215851 44.353222
131.716370 -53.169041 43.429970
132.703873 -54.915359 -48.020836
132.143997 -52.939026 -46.788750
132.255386 -53.020645 37.733059
131.737396 -52.560745 43.525475
132.592468 -52.083050 39.210548
132.785995 -52.038464 41.467899
132.447083 -54.519840 41.932396
133.135300 -54.411121 42.787415
132.661743 -53.483482 37.928642
132.148743 -52.548069 40.224812
131.913956 -52.037743 40.385326
132.878311 -52.462715 42.178139
132.727142 -52.745758 37.326679
134.340500 -52.270206 38.098839
133.275085 -52.712227 41.527969
134.645737 -54.620018 40.745266
134.423035 -54.337124 42.419708
134.472855 -53.129860 41.554573
134.333389 -53.278542 38.007603
134.938828 -53.347874 38.743011
134.457703 -54.173450 41.745647
134.663651 -53.948086 37.994102
135.152435 -53.418301 40.499077
134.124207 -53.204773 40.686165
134.842148 -53.451355 37.386127
134.486404 -53.433212 39.302734
133.941254 -53.954391 41.195488
134.219971 -53.719063 38.665714
136.453705 -53.917305 36.317032
134.919922 -54.082417 37.996952
135.437256 -53.519375 40.077358
237.711655 -54.156651 12.670732
236.793243 -53.534164 13.351647
238.753906 -54.410988 11.231623
238.008392 -54.818283 14.290215
237.955734 -54.895859 11.372329
238.267029 -52.177731 15.502429
238.439133 -53.666409 8.718814
238.184097 -52.735889 16.107208
238.075928 -53.506680 16.455851
239.162415 -54.154266 7.668998
238.743729 -53.546265 17.345575
238.682312 -53.543819 16.869999
239.689713 -55.023125 15.640940
239.473801 -52.927616 8.720017
241.133926 -54.555412 8.801059
240.780777 -52.488075 10.525066
240.199371 -53.026413 13.785707
239.615768 -54.193459 16.615295
239.716492 -52.291122 8.597489
240.819885 -52.130852 10.129439
240.174026 -52.904358 16.864336
242.387421 -54.062473 28.421703
242.279526 -53.239365 9.740325
241.771912 -54.002811 15.140109
241.876663 -52.570488 28.568657
242.519485 -53.587757 27.935184
241.356659 -53.124485 29.232906
241.101898 -53.693729 31.109509
240.764664 -53.273548 16.613483
241.629852 -54.879345 25.841179
241.418884 -53.402008 29.840647
242.468475 -54.140659 10.585390
242.761032 -54.281803 10.710917
242.525848 -54.959492 16.260622
240.792252 -54.530113 24.819077
242.840332 -52.453594 32.165977
242.969650 -55.095844 12.499392
242.536591 -52.759010 12.448618
243.388611 -54.188858 13.186152
241.891861 -53.463558 16.136801
242.435944 -52.714642 14.403060
242.190155 -53.169903 16.296608
242.236206 -53.342575 24.306221
243.937027 -53.479366 24.280546
241.452957 -52.899147 32.202408
242.477386 -54.516403 32.699142
243.267014 -52.745872 23.031176
244.074158 -51.991680 22.792887
244.140533 -53.244389 32.044250
242.885620 -54.015572 21.061098
243.122498 -52.849430 20.596432
242.692505 -52.721752 20.081364
244.073441 -54.305546 23.458281
244.186661 -52.759224 22.360540
243.526291 -54.005020 32.546707
245.052979 -53.284538 19.193689
244.154266 -52.991711 19.537975
243.127213 -52.242966 23.200930
243.654221 -52.239552 23.105379
245.775818 -53.848423 19.272013
244.715637 -52.394051 19.412399
243.966644 -53.419628 23.184633
245.141327 -53.108959 12.077300
245.231125 -53.607983 13.467216
244.342926 -53.544792 13.214723
245.171997 -54.745884 16.694735
245.292831 -53.427475 18.007738
246.119003 -51.943535 18.368942
245.210800 -53.377110 23.258215
244.133499 -53.306557 33.129513
246.157684 -53.724815 11.752861
245.121887 -53.420113 12.138219
244.157059 -53.413670 12.648494
245.809158 -54.604858 16.131056
245.175293 -53.980740 16.642279
245.413788 -53.780449 17.932396
245.717499 -52.989662 18.054964
246.209290 -52.861996 22.582338
245.156403 -53.713268 23.646944
245.826614 -54.130970 33.054749
245.499573 -52.383583 11.801760
246.098129 -52.877106 13.367020
246.247986 -53.529335 13.249172
245.770706 -54.067173 14.880758
245.806549 -52.880165 22.204912
245.279892 -54.603588 31.535202
246.624481 -54.065647 9.607682
245.739960 -53.021851 34.004070
246.307144 -54.060295 9.454242
246.484879 -52.868439 10.629658
246.970078 -51.805038 12.233324
245.450653 -53.224464 12.759736
246.348633 -54.989571 32.974861
246.405487 -53.292385 11.436392
246.719650 -54.286655 11.854406
247.470367 -53.207729 10.736897
248.378799 -53.519814 32.415222
247.282776 -53.978146 10.562848
248.776428 -52.555218 11.701297
247.252060 -51.707443 12.132792
248.407104 -53.144127 31.221340
248.037964 -52.876572 11.925249
246.974838 -54.117802 11.979243
249.693130 -51.984814 14.426643
248.662430 -53.059750 13.017253
248.304672 -53.207596 31.748537
250.034286 -53.960529 12.436701
249.069977 -52.331432 13.246190
249.280060 -54.110031 32.117214
249.592072 -54.870174 32.159615
250.042053 -54.354507 12.370852
248.900452 -51.978020 14.587211
250.012207 -53.508129 13.482315
250.331802 -52.771709 32.061810
250.735199 -53.559860 14.669732
251.045685 -54.230816 13.318246
250.520065 -51.323978 14.702674
250.716675 -53.737942 32.212811
251.017868 -53.476425 14.515744
251.465714 -52.989162 15.145262
250.779434 -51.788994 17.348562
251.238022 -51.792526 31.282818
251.213318 -52.678986 15.182877
252.296204 -53.600578 15.464536
252.394089 -52.392696 33.465759
253.242706 -52.294807 15.274262
252.197052 -54.492546 16.449997
250.936020 -54.291306 32.335613
253.570648 -53.201740 16.081478
252.184967 -53.453819 32.313316
253.186935 -52.658085 16.348284
253.155518 -53.629383 16.765579
253.353989 -53.609573 17.806931
253.700272 -52.722523 33.241459
253.304810 -53.582722 17.255600
253.802551 -53.776623 33.087612
254.106155 -53.206951 16.889421
253.797516 -53.455326 17.749733
254.388931 -52.170956 19.359398
254.069687 -53.134724 32.748413
254.992798 -54.127266 34.903503
255.055313 -53.180882 33.239025
254.348145 -53.246216 18.309298
255.860779 -52.679676 18.853754
254.047531 -53.165890 34.020828
256.527039 -54.194424 17.927809
254.455856 -54.862396 18.364294
256.404968 -53.107903 18.762623
256.698273 -53.563179 34.192291
256.372375 -54.819336 33.835812
256.607880 -54.034050 19.419666
257.297577 -53.386795 20.107992
257.579163 -54.182343 34.333851
257.386658 -53.333942 18.517979
257.377899 -53.477215 35.062012
257.128632 -52.467808 35.218948
257.753143 -51.970493 20.352726
259.261108 -53.609913 18.487104
258.885406 -53.125370 19.738211
259.005096 -54.351292 35.704285
257.771881 -51.871056 33.556503
258.550385 -53.182590 19.884037
257.500336 -54.325226 34.777313
259.588379 -53.665459 -5.822289
259.717102 -53.590233 19.090530
259.224487 -52.602245 35.102043
259.862457 -53.293270 19.365208
260.162781 -53.124935 20.142496
260.672607 -53.948479 36.760166
259.152252 -54.355965 19.495020
260.040588 -52.676071 -4.002542
260.914520 -52.461609 -4.481561
260.225861 -53.790401 36.904072
259.566345 -54.176842 36.773685
261.019257 -52.495213 -5.590444
259.749359 -53.554535 19.973730
260.831451 -52.938629 20.809870
261.262207 -53.221001 37.688076
261.209381 -52.660702 -3.435528
260.825745 -51.817104 21.682119
261.817047 -54.037560 -6.034740
261.665863 -52.609985 37.664570
261.947968 -52.900875 -5.931327
260.901031 -52.641033 -5.084264
261.179413 -54.027252 -5.330880
261.339905 -52.734520 20.858953
261.722168 -53.435547 -8.010784
262.477356 -53.083271 21.291052
262.359375 -54.037468 37.342941
262.483337 -52.243313 -9.366093
262.618347 -52.731762 -7.394620
262.253815 -52.681873 -5.497064
261.123199 -54.424671 -3.960977
262.689331 -54.288105 20.336063
262.272980 -53.645546 37.075062
262.253204 -51.514217 -6.760693
261.466919 -52.163380 -5.090792
262.980530 -54.037907 -5.338810
264.003296 -52.888042 21.493523
263.279541 -52.664055 -5.179844
262.948212 -53.639832 -6.431844
264.427002 -53.393524 -8.276525
262.977570 -53.239719 -9.069118
264.753845 -53.835381 -6.757630
263.131897 -53.670135 -4.391793
263.323151 -53.448578 20.469841
264.179047 -53.933197 -7.629383
263.582977 -53.530544 -5.574103
265.240112 -53.591152 21.076233
264.563354 -53.197563 -7.016376
264.459717 -54.590782 -7.251833
265.130371 -53.082298 -4.719940
265.148682 -55.116516 37.698631
264.778259 -52.220001 -7.853492
264.562622 -53.529644 -6.900670
263.223541 -53.607254 21.613552
265.420685 -52.190102 -7.279559
264.995667 -53.684341 -6.986995
266.823700 -53.616283 -5.616540
265.304260 -53.810677 -5.649968
265.240906 -52.715813 -3.981793
263.961182 -53.104565 20.297651
264.968842 -54.639339 36.579071
265.112274 -53.429516 -6.942106
267.859070 -54.459187 -6.012927
266.139648 -52.159569 20.197290
266.668213 -52.273922 -9.037308
265.395142 -53.138744 -3.391366
267.012299 -52.582008 36.774105
267.572083 -54.375114 -8.778389
265.907440 -53.066990 -6.453118
267.467712 -54.048420 -4.194935
264.757660 -52.489449 20.990532
265.810181 -53.481709 -6.646607
267.196899 -52.872040 20.158861
266.253326 -54.007545 37.356155
266.728516 -54.515793 -7.420520
267.613556 -53.239117 -7.296917
267.246490 -54.129822 -3.139991
266.388794 -54.701878 37.088245
267.502106 -53.752594 -4.023102
267.337677 -53.379318 20.212667
266.670105 -53.272610 36.035168
268.132629 -53.038822 -4.788991
268.184113 -53.299805 36.654732
267.757141 -54.069427 -7.154601
268.118896 -53.160259 -3.134483
267.308289 -54.780514 -3.003237
268.815002 -52.056355 -7.128939
269.493683 -52.914192 -1.948331
268.704926 -53.024944 21.126186
269.086639 -53.053722 36.117268
269.564697 -53.551800 -7.537915
269.595245 -51.995579 20.877941
269.369965 -53.205978 37.013428
269.762970 -54.022717 -6.436975
269.647827 -52.519520 -6.139538
268.976349 -53.289219 -3.194961
270.536316 -53.971920 20.516642
270.241913 -52.728115 35.852413
271.095825 -53.649426 -3.037652
269.687775 -52.416195 -2.042371
271.527618 -53.374336 -5.678085
271.170288 -53.861950 -6.105487
269.835083 -54.333969 19.973604
270.598602 -54.185490 34.914505
269.903778 -52.446140 -6.800650
271.822937 -53.666138 -3.948145
271.514648 -54.084690 -5.815343
270.514343 -51.727543 -3.491855
271.664978 -53.666588 -2.689432
270.765106 -53.490639 -1.584042
271.736725 -53.626064 35.349216
271.880920 -52.476276 -5.165095
272.128754 -54.679375 -2.791837
270.972534 -53.698574 21.275438
270.384247 -53.544361 -5.266231
271.976563 -53.349083 -4.482848
269.991669 -54.321407 20.201759
271.939972 -52.850445 21.513350
272.667084 -51.352463 -5.702115
273.338623 -53.692287 -1.206132
271.204956 -53.484901 20.582424
271.207001 -52.007362 21.543865
272.756531 -54.181454 35.668976
271.752655 -54.362724 -4.030690
272.095581 -53.201809 -5.389873
272.137177 -53.989376 -0.579547
272.649414 -52.649033 -1.080234
273.804810 -53.772190 -3.446674
272.888000 -54.454056 34.257668
273.754425 -54.080257 -3.934257
272.064941 -52.640015 -4.483952
272.571503 -52.868500 -0.975586
273.457214 -53.777843 -0.885465
273.910919 -51.677521 -3.370029
274.423889 -52.664940 -2.471871
274.332489 -52.929615 -1.656265
272.508606 -52.657696 34.255638
273.527313 -53.063942 -3.939691
274.808563 -53.700851 -0.514697
273.884003 -53.289387 -3.710806
274.449982 -54.335152 -1.088017
274.612396 -53.004051 0.287404
274.234955 -54.105747 19.653933
275.527222 -54.616653 -3.100945
275.517456 -53.286488 -1.184093
274.015564 -52.792992 -1.997493
275.183350 -53.279915 0.057882
274.772552 -53.109486 33.415245
275.207092 -53.880512 0.684575
275.042816 -51.748829 -2.335931
275.884247 -53.388123 -0.185037
276.565796 -53.522469 0.961956
276.669281 -52.688362 22.750257
275.424927 -52.538456 32.297005
276.301544 -52.763371 -1.162321
275.428650 -53.681843 0.031190
276.657562 -53.491676 31.495649
276.126129 -53.191395 -1.471900
276.097351 -53.578678 0.699210
277.354431 -54.246563 1.882553
276.670227 -53.065483 20.293478
276.992981 -55.019192 31.980103
276.817993 -53.951939 -0.797945
276.316864 -53.241970 -0.476206
277.498108 -54.176800 0.568448
277.131378 -54.217793 21.153540
276.980225 -52.607170 31.671391
277.522552 -53.839096 -0.312609
277.670898 -54.004826 0.229059
277.630859 -53.203995 0.742445
278.123627 -54.112583 20.245642
275.883240 -53.180065 32.162037
278.336151 -53.270275 31.637190
277.064392 -52.818558 -0.110833
277.155853 -52.243870 -0.574886
277.821594 -53.753899 1.661392
276.827789 -52.671257 20.884342
277.538727 -54.107883 32.023018
277.686310 -52.675163 1.300745
278.621185 -54.102592 0.297584
277.629395 -55.300018 30.894491
278.916718 -51.778240 0.308019
278.271484 -51.826580 1.588539
278.515808 -53.727356 2.103372
277.893616 -53.246258 20.091434
279.059540 -53.518585 31.399042
279.412750 -51.976913 1.008610
280.325592 -52.696571 1.431284
279.588409 -53.927658 21.355286
278.381958 -53.088825 30.041822
277.449585 -52.399658 30.113775
279.336060 -53.494297 0.194957
278.238403 -52.892059 1.282449
278.023651 -54.668400 20.613956
280.563782 -53.568306 30.993845
280.514618 -53.248138 1.854293
280.082031 -52.565845 19.466745
280.934448 -52.788315 19.686464
280.375946 -54.073975 2.607893
279.352966 -53.079777 2.517210
280.281433 -51.589146 1.614190
280.097168 -52.550591 2.606649
280.675293 -52.483597 19.870077
280.926544 -53.693016 19.615294
280.401001 -52.202541 2.242623
280.789124 -52.296471 3.599387
281.925690 -52.658134 2.566046
280.464264 -54.626549 18.323856
281.368164 -53.435410 4.438535
282.482269 -53.063301 19.189714
281.503235 -51.853836 18.322336
281.655640 -52.561047 30.278545
281.735229 -52.813454 3.918503
282.550018 -54.576199 18.400631
281.451294 -54.297855 28.215557
281.818939 -53.045998 29.075190
282.052032 -51.901642 2.750146
282.599396 -53.432217 3.892860
283.072235 -53.970108 27.164322
283.517334 -53.840023 3.564948
282.434601 -53.956753 19.503090
284.077240 -52.946262 4.242639
283.082458 -53.699852 5.135502
282.086456 -52.741852 28.709379
284.182831 -51.845615 5.984228
283.856323 -54.733833 28.776676
284.396606 -54.683270 17.510353
285.599915 -54.021812 18.915339
285.161835 -54.031902 19.556135
284.476593 -53.473671 27.692688
285.493073 -53.343071 18.530027
285.702454 -54.234978 26.100548
285.614716 -54.514545 25.386013
288.146484 -51.901493 18.458628
287.624664 -52.670975 24.001093
287.628876 -54.101807 24.394405
288.376434 -53.586411 24.418335
287.983490 -52.728886 24.336430
289.007050 -52.742664 20.499191
287.926239 -53.223732 24.385460
289.225830 -52.855766 18.056767
289.508759 -52.832729 24.927372
290.587158 -55.294903 17.576681
289.651917 -53.025925 19.417030
289.655396 -52.891155 20.803202
289.873566 -54.071453 23.060753
290.122467 -52.860794 22.755173
289.197449 -53.072903 18.968000
287.975616 -53.818794 21.011408
289.195892 -54.368961 21.770256
289.622162 -52.820732 19.311916
290.940613 -53.276024 19.771322
289.984161 -54.306908 20.096493
289.941528 -53.076004 20.795422
11.979627 -52.453285 46.766850
12.704626 -53.716637 49.477791
13.814185 -51.939056 49.202335
13.521911 -52.688023 36.699226
14.454254 -53.755020 36.181885
15.139031 -53.441681 36.360146
14.885801 -52.864220 35.116749
15.566683 -52.826214 53.627327
15.974208 -53.922523 35.663536
15.768353 -52.754700 53.697384
15.562743 -51.669563 34.986229
16.787233 -54.437042 54.524502
15.901458 -53.692181 55.065556
15.954039 -54.570793 54.701733
16.975328 -52.933136 33.457230
15.627904 -52.172020 54.830112
17.075842 -53.495739 44.760551
16.001221 -51.891460 44.063091
17.240238 -54.037964 46.522308
16.273479 -51.753464 47.547028
18.485563 -53.789421 55.476254
18.559689 -54.169903 32.773003
18.216965 -54.512749 40.538464
18.520813 -53.199680 40.942844
18.152222 -53.284687 48.509235
17.605543 -53.721638 56.459034
19.291599 -51.226482 40.532635
18.839748 -52.081631 40.194141
18.385811 -51.828377 50.697956
18.251276 -53.364162 57.111561
19.735210 -52.173306 48.760445
17.969118 -55.850754 57.378632
18.523291 -52.758461 30.886923
19.988586 -52.765820 39.773968
19.706594 -51.992210 38.698246
19.155197 -52.727879 31.542295
20.209120 -54.396561 50.993084
19.807379 -52.539371 38.099739
20.377647 -52.027794 49.491714
21.279377 -52.431576 58.069607
20.564299 -52.422710 52.172157
20.391069 -51.297764 31.304483
21.856579 -54.009201 37.202236
