# This PCD file was generated using the MATLAB® pcwrite function
# from Computer Vision Toolbox®.
# .PCD v.7 - Point Cloud Data file format
VERSION .7
FIELDS x y z
SIZE 4 4 4
TYPE F F F
COUNT 1 1 1
WIDTH 1454
HEIGHT 1
VIEWPOINT 0 0 0 1 0 0 0
POINTS 1454
DATA ascii
77.576881 -78.507034 -47.274235
77.728745 -78.659363 -46.128361
77.534859 -79.205124 -44.140842
77.531715 -79.230621 -42.670059
78.155533 -78.522232 -52.619530
77.565796 -78.617149 -51.766457
78.640961 -78.737030 -48.847836
77.125061 -78.429703 -46.318794
77.639687 -79.038177 -44.339771
78.090782 -78.785698 -42.578262
78.347198 -78.843872 -40.932537
77.950066 -78.752434 -54.878460
78.539810 -78.434525 -53.693165
78.140411 -78.786217 -52.729378
77.336754 -79.061966 -49.392166
78.572151 -78.541275 -48.025848
78.535332 -78.111641 -46.486267
78.669273 -79.647263 -44.779976
79.281723 -78.740852 -42.098045
79.317780 -78.797981 -41.233936
78.308220 -78.298180 -39.306446
78.652016 -77.601685 -37.915791
78.476013 -78.556030 -55.321629
79.090698 -78.998756 -52.697933
78.428947 -78.938568 -53.138638
78.241020 -79.262421 -49.180061
77.953667 -79.291687 -45.610748
78.702087 -79.143845 -43.259464
78.541847 -79.162529 -40.830799
79.288872 -79.171509 -37.616184
78.597786 -78.819565 -37.052952
78.762802 -79.588295 -35.913387
79.034714 -79.414047 -34.790634
79.034836 -78.943344 -57.988186
79.188858 -79.435707 -56.226212
79.266296 -78.619110 -54.544636
79.479134 -78.487343 -53.374969
78.851906 -80.005997 -51.655865
78.598030 -78.742897 -49.438358
79.426132 -80.140610 -45.894012
78.895004 -79.107681 -41.207211
79.324135 -78.766899 -39.601852
79.163948 -79.695023 -38.537380
78.768753 -78.985886 -35.849747
79.650406 -78.792488 -34.021759
78.547318 -77.935402 -58.195587
79.141342 -78.402382 -56.251068
78.962357 -77.919006 -54.981113
79.493240 -78.787025 -52.588303
79.086533 -79.422447 -50.492916
79.977959 -78.879333 -49.127342
80.404083 -79.539902 -46.568157
79.395737 -79.922791 -44.868156
78.385704 -79.661148 -43.113476
79.894638 -79.709801 -40.280022
79.219254 -79.984627 -39.749447
79.638123 -79.422424 -37.981781
78.932114 -79.713921 -36.666122
79.457367 -78.957069 -34.483372
79.109108 -79.395172 -33.248611
79.817795 -79.187355 -58.426929
79.968124 -78.878479 -56.455318
80.494637 -79.712128 -53.250679
80.328079 -78.602890 -51.399273
79.406128 -78.934425 -39.231251
80.189522 -78.837852 -37.332153
80.179672 -78.539680 -33.208336
79.606827 -78.701553 -31.270868
80.553749 -78.285034 -58.646206
80.186523 -79.026245 -57.490395
80.068542 -78.892982 -55.261108
80.618217 -79.633430 -54.922905
80.280251 -79.836212 -52.265736
80.616852 -78.574066 -37.476135
80.627235 -79.841774 -34.254978
79.834045 -79.343178 -33.790226
80.752190 -78.130104 -59.734837
80.715904 -79.020668 -58.528133
80.056168 -78.538979 -55.419117
80.886261 -80.249405 -52.616287
80.906158 -79.168068 -53.398129
80.601326 -79.565674 -37.108131
80.209862 -79.332207 -33.228565
80.447533 -78.368210 -33.079212
80.420013 -78.299713 -31.309515
81.137703 -78.763550 -59.874992
81.780113 -79.144661 -57.894100
80.980507 -78.888771 -54.369061
80.045464 -79.299332 -36.126625
81.188019 -79.567841 -34.423485
81.004532 -79.180504 -33.219818
81.432266 -78.927963 -59.107666
82.119072 -78.897827 -57.889484
82.038902 -79.018242 -55.693954
81.123184 -78.345734 -37.228371
81.196472 -79.187599 -60.744019
81.992393 -78.406128 -59.404247
80.603851 -79.455063 -55.969486
81.882538 -79.709572 -36.784004
80.949188 -79.105980 -35.197247
81.298912 -78.695518 -34.108192
81.632652 -79.443680 -33.863991
82.006256 -78.745674 -32.898201
81.081573 -79.052490 -31.139000
82.508080 -79.052307 -61.382622
81.993652 -79.487488 -59.254925
81.846420 -79.889320 -56.630276
82.132591 -79.703133 -37.166214
82.502182 -79.122040 -35.320572
82.052383 -79.034927 -32.409588
82.928612 -78.569923 -61.955582
82.638382 -77.762352 -62.028564
83.215439 -80.136208 -57.916294
83.167351 -79.775009 -36.445919
82.604897 -78.080482 -36.504097
82.973000 -78.596085 -36.696793
82.666710 -79.062256 -35.202835
81.923767 -78.764565 -33.191891
82.851128 -79.305153 -32.708000
82.735069 -78.286690 -61.882786
82.837128 -79.017097 -60.265236
83.246910 -79.460510 -60.614933
83.127899 -79.406609 -37.526546
83.904228 -78.392593 -34.009243
82.886337 -78.737930 -33.554661
83.689217 -78.437042 -63.272568
83.779984 -79.577217 -61.697620
83.351486 -79.359344 -58.698940
83.796402 -79.226692 -37.595387
84.694824 -78.694305 -62.622829
84.488441 -79.119362 -60.835815
83.924217 -78.582710 -36.476883
83.915161 -79.183937 -62.662888
83.982475 -79.369331 -59.578861
85.052574 -79.731804 -38.525925
84.342339 -80.303726 -60.752682
84.560051 -78.683609 -37.056850
84.943771 -78.815796 -62.851089
84.745995 -79.263847 -61.049091
84.718903 -79.759804 -37.216251
85.895493 -77.864105 -65.621750
85.670860 -78.105164 -64.348686
85.772591 -78.863228 -38.238834
85.759308 -79.062279 -63.987591
85.708740 -79.384880 -62.494232
86.254517 -79.173538 -38.306423
85.888130 -77.405693 -65.651550
86.893486 -78.969795 -65.124535
86.341797 -79.051331 -39.375454
85.708786 -78.801880 -39.039822
86.389145 -79.085770 -65.176392
86.042839 -79.077194 -64.128632
86.486000 -79.167740 -38.926437
87.368515 -78.677902 -66.626076
87.554276 -79.396980 -63.928101
87.520256 -78.910103 -65.586037
87.194695 -78.766930 -39.395004
86.912453 -79.125710 -39.346035
87.924171 -79.281456 -68.686081
89.314255 -79.589851 -64.057823
87.335945 -78.676277 -39.341911
88.542885 -79.482391 -40.145493
88.460815 -78.185104 -66.404381
87.865158 -78.628639 -65.829025
89.031044 -79.100792 -40.410614
88.469841 -78.663734 -66.523514
88.535339 -79.911057 -66.669060
88.443802 -79.010300 -41.148869
90.067085 -79.020645 -41.297836
88.240143 -79.604370 -67.137955
90.339935 -79.483208 -69.197701
91.053085 -80.344658 -67.578445
89.362976 -78.845322 -42.204441
89.890129 -79.557327 -67.612602
90.108597 -79.766678 -42.044033
90.146004 -79.317902 -70.159569
90.322357 -79.027252 -69.146645
90.831390 -80.154198 -67.104279
90.824554 -79.777435 -42.738297
91.104019 -78.426361 -69.306885
90.728333 -78.965897 -68.391472
91.055000 -78.670235 -67.642769
91.465042 -79.537796 -42.103546
90.771683 -79.214874 -67.915039
91.319580 -78.187195 -70.301605
91.615669 -78.652702 -69.993759
91.701035 -79.507935 -69.474419
92.148842 -79.758438 -44.280170
92.141434 -78.840614 -71.118965
92.627602 -79.411461 -68.696854
92.799721 -79.773323 -44.213329
93.156067 -78.445679 -43.324066
92.185959 -78.569496 -70.249893
91.996445 -79.198761 -70.129311
92.864555 -80.306343 -45.582413
92.816147 -78.782692 -44.967251
93.768494 -80.052925 -68.341881
93.075584 -79.763329 -47.146961
93.549835 -78.030502 -72.058823
93.946007 -79.072136 -70.506287
93.828506 -79.513672 -46.823277
93.724030 -79.629166 -70.267883
94.460754 -80.151138 -48.389759
94.993210 -78.298943 -72.041328
94.034546 -79.644257 -70.011742
94.299316 -79.402054 -48.884464
94.916862 -80.098000 -50.706036
95.577141 -79.415924 -72.429924
94.359680 -78.762604 -70.928505
94.174782 -78.935867 -50.225037
95.370834 -79.162285 -50.981007
94.905212 -79.957207 -51.468971
95.787018 -78.683426 -72.720947
95.044380 -78.352173 -71.762947
95.723663 -79.185272 -51.714817
96.146904 -78.980385 -52.663872
95.600349 -78.703186 -72.919304
95.838455 -79.260803 -72.029228
97.334167 -79.370308 -71.002190
96.415443 -79.170601 -53.899193
96.852516 -78.149231 -52.751926
97.062325 -78.511696 -52.976097
96.680626 -78.776848 -72.155045
96.700142 -79.448822 -52.386517
97.902092 -78.793404 -53.025913
98.746048 -79.702332 -71.894135
98.067871 -78.855339 -73.127945
97.239868 -79.590714 -53.075790
98.382172 -79.334007 -54.004112
98.551460 -78.247726 -74.653519
98.921890 -79.696327 -73.529831
98.780823 -78.985237 -53.704056
100.324486 -79.642685 -54.876160
99.831932 -79.377663 -55.149052
99.629295 -78.538193 -74.229271
99.056000 -79.522606 -72.190605
101.282166 -78.235382 -63.414337
99.761833 -78.245384 -57.015984
100.339378 -77.746384 -56.126606
100.501198 -79.079773 -72.931480
101.129501 -78.215805 -63.725071
101.109001 -79.120758 -62.825043
100.495834 -79.640533 -61.825611
100.601891 -79.523117 -60.492744
99.857605 -78.567719 -59.535484
100.073860 -79.377594 -57.709827
100.249908 -79.985687 -57.510036
101.075630 -79.412590 -63.782578
101.494194 -79.341278 -64.131226
100.500114 -79.141960 -60.784359
101.520142 -79.280525 -72.987251
100.766853 -78.835197 -63.960506
101.495369 -78.359108 -64.737305
101.347862 -78.875587 -73.991524
101.262230 -79.116676 -64.790291
101.899635 -79.378471 -65.628265
102.858856 -77.983147 -74.438896
101.938324 -79.282684 -73.484024
101.802895 -78.604584 -73.979965
101.438217 -79.866882 -65.524475
103.067917 -79.400864 -65.452560
103.476234 -78.334351 -73.855133
103.513901 -80.021912 -66.466438
103.257271 -79.931145 -73.302475
104.623955 -78.954865 -72.015739
103.334763 -78.489685 -74.589470
103.631485 -79.505638 -68.898788
104.478638 -78.540367 -73.975632
105.074944 -79.871643 -73.573875
104.935295 -79.488121 -68.977623
104.906685 -79.567017 -68.093086
104.741196 -79.279465 -69.838470
105.096306 -79.113327 -70.885284
104.198059 -79.151405 -69.424110
105.370102 -78.389496 -72.980820
105.455872 -78.760391 -73.191170
105.712357 -79.330666 -71.241005
105.938713 -78.937996 -70.429413
105.529205 -78.374847 -74.198364
105.573830 -79.872231 -72.774399
105.615852 -79.466034 -71.250298
106.724274 -78.205734 -72.976936
105.078331 -79.086784 -70.972549
179.611710 -79.440659 -8.702417
178.811447 -78.722023 -7.675118
179.157822 -78.416168 -10.128827
180.533981 -78.931374 -8.375567
179.817123 -79.445946 -7.916608
180.939056 -77.557045 -10.870607
179.967834 -78.366417 -9.400435
180.514877 -79.066483 -8.473778
180.125900 -78.689880 -10.755110
181.339386 -78.950363 -11.534929
179.626007 -78.512436 -8.976101
181.359680 -78.544800 -8.164824
180.436539 -78.677101 -8.115464
180.812408 -78.963577 -9.916685
181.148941 -79.474831 -10.047905
180.678177 -78.414635 -9.010331
181.405075 -78.756874 -7.690410
181.755508 -78.777122 -13.042792
181.617386 -78.714645 -7.958501
181.952408 -78.887756 -12.382515
181.549240 -79.689247 -12.030315
180.967331 -79.531548 -11.066281
181.030121 -79.046677 -9.696056
182.456497 -79.268227 -8.848544
181.815598 -78.050140 -14.876385
182.392990 -79.104065 -13.531561
182.792542 -78.789932 -11.495574
181.772385 -79.040764 -10.452463
182.864685 -79.004646 -9.151756
181.861542 -78.628700 -8.740324
182.758240 -78.888977 -13.405104
182.276611 -79.157417 -12.538780
182.136780 -79.715332 -10.093353
183.042847 -79.707726 -9.578053
182.900330 -79.038925 -15.480749
183.324829 -79.335045 -13.866420
182.737656 -79.205490 -12.977405
182.465683 -79.020859 -12.842902
182.784363 -79.573433 -11.295543
183.241287 -77.842575 -8.842731
183.759155 -79.113647 -10.705482
184.072495 -79.276726 -11.200314
182.684967 -78.457893 -8.925547
183.624374 -79.025261 -16.595366
183.356552 -79.856194 -15.367765
183.565582 -79.288902 -10.861956
184.181763 -79.157578 -16.406658
183.722855 -78.582703 -15.973147
184.229767 -79.296555 -15.710668
184.304047 -79.712624 -12.072781
184.247711 -78.311455 -11.442928
184.561981 -78.556374 -18.916523
185.705933 -79.334244 -15.864568
185.155319 -78.131142 -17.461500
184.484467 -79.682533 -13.477478
183.950974 -79.538712 -12.507315
185.043015 -78.586685 -11.678411
184.326691 -80.077652 -17.469240
184.856033 -79.470573 -18.457214
185.109055 -80.507401 -13.153986
184.042969 -78.975433 -12.610891
184.995560 -78.686371 -11.085709
185.595673 -80.447914 -18.931341
184.883911 -79.130531 -13.493423
185.426437 -78.778755 -12.532850
185.698044 -78.650002 -20.477194
186.882202 -79.515015 -18.826990
185.925262 -78.470627 -14.087900
186.144714 -78.421562 -14.311851
185.267197 -79.070511 -11.654186
186.240036 -77.529259 -21.184502
185.716339 -80.371750 -20.418776
186.308838 -78.843010 -20.144861
186.693954 -79.262505 -13.031427
186.107956 -79.776909 -21.142977
186.314789 -79.359215 -14.553816
186.219254 -79.215538 -13.835123
187.445801 -79.134521 -22.243805
187.065308 -79.643578 -14.828759
187.902557 -79.697693 -14.421897
188.337830 -79.588280 -15.571813
187.886612 -78.997551 -14.317127
187.807404 -79.204735 -23.252102
188.308502 -79.536705 -16.906485
188.060806 -79.905708 -15.591119
188.817230 -78.930740 -23.398888
187.268036 -79.554390 -16.474407
188.274277 -79.120155 -16.152084
188.872986 -79.365707 -17.119976
188.820114 -78.763939 -16.276634
188.897934 -78.881935 -24.233604
190.661072 -79.407455 -24.469818
189.101669 -80.106995 -24.214108
188.080719 -80.183655 -17.963587
189.610962 -79.807541 -25.095303
189.988785 -78.270615 -25.992851
188.896408 -79.343582 -17.417276
189.762589 -78.976341 -17.841961
191.015717 -79.838158 -25.943560
190.406647 -79.807068 -26.543894
190.458313 -80.748405 -26.337641
189.835495 -79.656151 -26.881323
190.953156 -79.726334 -19.551273
190.537125 -78.808220 -18.322805
190.693863 -79.715286 -27.838350
191.494354 -79.417175 -27.678629
191.074982 -79.901138 -19.511253
190.877792 -79.329262 -20.109634
191.044647 -79.311737 -28.636856
191.862610 -79.393990 -20.500980
191.168671 -79.556099 -20.247240
192.169189 -79.382401 -29.079334
191.417953 -78.972198 -29.892704
192.382782 -79.401329 -22.647543
191.643570 -79.051086 -21.724682
192.507462 -79.348129 -29.911358
193.326523 -79.371941 -31.646671
193.183731 -79.061493 -31.263962
192.823334 -79.419388 -22.636780
193.074036 -79.249573 -22.617664
193.425980 -79.811447 -31.831844
194.425674 -78.723312 -32.216911
194.322449 -79.552711 -22.823519
194.895569 -78.304634 -32.449493
194.993271 -79.141663 -33.233986
194.210022 -79.223457 -24.409792
194.295959 -79.209846 -33.656940
193.800659 -78.949516 -23.975822
195.560501 -78.759758 -33.889050
194.817200 -78.985100 -34.257160
195.133057 -79.906471 -24.889593
196.214706 -79.042244 -35.104103
195.284515 -78.904228 -35.543171
195.733307 -78.803871 -26.441343
196.301758 -79.253021 -35.053196
196.097229 -79.115295 -26.489948
196.934875 -79.639732 -36.458443
196.379074 -79.148949 -35.902508
196.193909 -79.188644 -27.416065
196.737564 -78.766663 -36.637566
195.915207 -79.545151 -28.122425
197.237274 -78.649727 -28.599142
197.427353 -79.617477 -36.735939
198.155243 -79.311867 -37.935883
197.455109 -78.580444 -37.972397
197.072098 -79.365479 -28.940222
197.329712 -79.492393 -38.513988
198.356689 -79.466118 -30.579533
198.015274 -80.143539 -39.334053
197.681061 -79.716843 -30.525251
198.496689 -79.326981 -40.185627
197.872665 -78.807701 -30.772738
199.331696 -78.598656 -41.392605
199.309631 -78.684822 -31.639908
199.073700 -79.208305 -32.417301
199.938797 -80.145126 -42.176926
200.407761 -79.161736 -42.765884
200.374435 -78.827751 -32.758801
199.826965 -79.582352 -42.255001
200.495605 -78.573166 -34.843281
200.325546 -78.418488 -33.733406
199.862122 -78.955177 -43.659592
201.530457 -79.762154 -42.321320
200.419876 -80.174278 -43.912102
201.212067 -79.505898 -35.075836
201.940521 -79.400246 -45.070751
201.434158 -80.054543 -35.941948
201.351349 -79.743446 -34.681564
201.910400 -80.074791 -45.504829
201.721588 -79.385231 -45.262733
202.173187 -78.893486 -35.751575
202.478806 -79.395020 -46.443333
202.986053 -78.617722 -46.480286
201.755081 -79.849091 -36.752060
203.050186 -79.407188 -44.763062
201.839828 -79.118553 -46.919441
202.336899 -79.265739 -37.857677
202.710037 -78.733826 -46.318176
203.589981 -79.068863 -47.331036
203.387405 -78.671135 -47.410809
203.410599 -79.643280 -39.583645
203.835281 -79.594208 -39.118675
203.680023 -78.573967 -49.761383
205.156006 -78.814377 -48.398087
203.431854 -79.288055 -41.462986
204.321106 -78.733841 -41.657234
204.178741 -79.078506 -49.852005
204.607986 -79.562599 -47.841656
205.119659 -80.097336 -49.305664
204.238953 -80.286842 -40.053318
205.122345 -78.119095 -39.680767
204.050095 -80.015350 -49.545197
205.633301 -78.565681 -41.484795
204.460205 -78.726974 -42.222351
204.523178 -77.959953 -51.699402
204.844452 -79.431747 -50.191048
204.912537 -78.571510 -41.489170
205.808212 -78.661026 -51.945160
205.541794 -78.535263 -51.739807
205.749039 -79.109581 -49.323593
205.563049 -79.423691 -50.786686
204.992432 -79.577324 -44.518799
204.871948 -79.227272 -42.460350
205.096237 -79.112572 -52.678844
205.288101 -79.493652 -51.147968
205.234482 -79.223061 -50.611706
207.275818 -79.022713 -46.239681
205.248260 -79.373962 -43.699303
205.837952 -79.806770 -44.140980
205.681946 -79.359161 -43.428501
205.592331 -78.895126 -54.238392
207.770279 -79.591690 -51.375137
206.152206 -79.110405 -47.141563
206.092514 -78.637665 -46.864754
206.169510 -78.626968 -45.336857
206.878479 -78.398682 -53.872459
206.468857 -79.112999 -51.812935
206.681305 -79.192451 -47.257847
206.961685 -79.369087 -46.580372
207.489899 -78.889229 -45.753021
206.668396 -78.480225 -55.376019
207.245041 -79.368660 -53.287151
206.506546 -79.435936 -51.574478
206.813141 -79.595558 -49.080650
205.858383 -79.423210 -46.853584
206.912170 -78.421432 -54.251026
207.805756 -78.639084 -52.879814
207.415604 -79.003990 -50.175549
207.318436 -79.085388 -48.896832
207.103226 -78.865898 -46.606125
206.908707 -79.404984 -54.488770
207.803970 -78.598778 -53.802734
208.237045 -78.774292 -53.731812
208.182053 -79.695595 -52.895287
207.218872 -79.416290 -51.946777
208.600967 -79.474983 -50.663609
207.383896 -78.651573 -50.092190
207.563843 -78.741844 -47.962521
207.830872 -79.121277 -135.408356
208.250946 -79.229698 -56.190639
208.738297 -78.953384 -56.054344
207.602982 -79.843872 -54.192478
209.127350 -79.283051 -52.045044
208.731247 -78.863388 -50.708477
208.636581 -79.470238 -50.093506
208.483215 -79.320808 -56.040703
208.342117 -78.413277 -55.372383
207.397797 -78.280304 -54.206779
209.857620 -79.359863 -53.581184
208.930939 -78.339104 -51.082775
208.182999 -78.395416 -49.829060
208.909164 -78.928001 -55.480408
209.295898 -78.149414 -53.861458
208.557800 -78.735626 -53.549862
209.338074 -78.473206 -55.980007
209.906372 -78.716812 -54.213139
216.972122 -78.111000 -136.994583
218.360123 -78.967644 -136.914536
218.004120 -78.251137 -136.839050
217.713272 -78.324181 -136.340897
218.116623 -78.754173 -137.904633
218.402145 -79.117798 -135.993286
219.156570 -79.394844 -136.121567
218.160934 -79.657570 -136.051086
219.452667 -79.197945 -138.564163
219.363678 -79.078629 -135.830276
219.878448 -79.072296 -137.221344
218.237137 -78.838829 -135.985321
219.663757 -78.736443 -135.572647
221.355423 -78.089050 -138.452972
219.833511 -79.344597 -137.300659
220.846466 -79.296089 -136.193146
220.726761 -79.249443 -137.094650
220.964340 -78.840538 -137.000961
221.175751 -79.166924 -136.418808
221.375107 -79.607239 -135.473175
221.311157 -80.070877 -137.768494
222.458740 -78.258842 -137.019989
222.582489 -78.374336 -136.878250
222.502289 -78.518394 -137.994690
222.967270 -79.483147 -137.143402
222.780075 -79.367950 -136.474564
223.483215 -78.214745 -138.026917
223.993240 -78.357788 -137.737762
223.155426 -79.476372 -136.519257
224.124069 -78.368179 -136.538330
224.287811 -78.270798 -137.759872
224.859543 -79.073700 -137.037338
224.659454 -78.542809 -135.778717
225.534119 -78.824837 -137.845169
224.798843 -78.968658 -136.198593
225.197342 -79.253769 -135.776642
224.693588 -79.111725 -138.845764
225.335541 -78.022034 -137.190674
225.622040 -78.089767 -138.152832
226.161652 -78.348030 -138.536560
226.277008 -77.899864 -137.184113
224.815918 -78.396820 -136.466705
225.843781 -78.307037 -134.460236
226.156616 -79.007576 -134.625031
226.403503 -79.317612 -138.888504
226.346024 -78.455643 -137.749222
226.139069 -79.589020 -137.066666
226.076996 -79.061935 -136.856522
226.092041 -78.417763 -135.212418
226.448288 -78.485771 -134.140549
226.737549 -78.332329 -140.120422
227.212204 -78.736679 -139.382950
226.488663 -78.704941 -137.795837
226.190048 -78.221176 -137.025497
226.253967 -78.525581 -136.153961
226.070129 -79.094383 -135.877121
226.958755 -78.558235 -134.302872
226.467407 -78.636719 -135.381210
226.515442 -78.745934 -135.605499
227.084976 -78.408066 -133.170273
227.418823 -78.679657 -140.822144
227.028091 -79.028320 -140.328033
227.711868 -79.483383 -138.989410
227.271423 -78.708130 -140.680267
228.462463 -78.744339 -139.487854
227.861542 -78.697342 -139.467697
227.859116 -78.860588 -139.590240
227.793930 -79.208534 -139.363251
227.967255 -78.787994 -128.246368
228.410797 -79.508736 -141.183105
228.457840 -79.307259 -139.242355
228.022797 -78.349594 -129.275238
228.280823 -79.222519 -126.733658
229.541290 -78.933136 -140.988022
229.451462 -78.263100 -140.438019
228.964264 -78.870850 -129.916565
228.252319 -78.011795 -128.880493
229.646698 -78.992302 -140.787659
229.260086 -78.740967 -129.201691
228.722198 -79.434082 -128.919922
228.168304 -78.595192 -126.829086
229.489182 -79.404022 -127.647591
229.205383 -78.571548 -125.978081
229.005310 -78.418877 -139.057037
229.176361 -79.332436 -130.802444
228.875443 -78.480728 -129.698425
228.851639 -78.932526 -128.376266
230.060104 -79.016304 -127.371620
230.597900 -78.997688 -125.886353
229.343796 -79.119057 -141.431290
230.280212 -79.654327 -139.519699
230.320038 -77.377975 -130.953979
230.008209 -79.395683 -129.129028
230.182022 -79.339432 -128.516205
230.131058 -78.392319 -127.470543
229.321457 -78.842216 -126.099525
230.410370 -78.137955 -141.191849
230.663864 -78.349770 -140.659256
231.081329 -79.032814 -138.815033
230.191772 -79.041679 -129.442947
230.826019 -79.119682 -127.039757
230.523041 -78.268578 -141.698563
231.396057 -79.573639 -140.843246
231.902985 -78.374542 -139.626511
230.788635 -79.080589 -135.771378
230.789520 -79.223000 -135.033310
231.486481 -79.290253 -133.527985
231.275650 -79.618141 -141.037338
231.764709 -78.749207 -139.542297
231.617081 -78.722961 -134.226807
231.243484 -78.416283 -133.384644
231.215790 -77.950851 -139.350098
231.593155 -78.994560 -137.554932
231.545700 -78.464233 -136.745178
231.920685 -78.744530 -133.647934
231.814194 -78.898788 -140.630249
232.340012 -78.706383 -139.235596
232.787979 -78.266724 -138.323288
231.932327 -79.169525 -137.378632
232.522186 -78.933243 -135.713654
232.055374 -78.991837 -135.126587
232.450027 -78.794273 -134.424301
232.303528 -78.728676 -138.969299
232.579895 -78.885956 -137.344345
232.564651 -78.610268 -135.105087
231.559799 -79.554001 -133.938950
233.058258 -78.331062 -139.043823
233.410187 -78.469444 -137.592133
232.516769 -78.989372 -137.634567
233.113556 -79.241028 -135.582336
233.352005 -79.091911 -135.524689
232.697128 -79.008759 -137.607925
233.201050 -79.169647 -136.955856
232.739716 -78.766144 -135.846359
233.729202 -78.434235 -135.520386
234.420059 -78.785408 -138.461609
233.340347 -79.068665 -137.021042
233.554977 -79.226334 -136.101212
233.574692 -79.408379 -135.622269
235.211533 -78.881393 -136.755646
235.224686 -79.162331 -136.216324
234.544037 -78.873871 -135.747864
234.516342 -79.179321 -137.667175
234.778015 -79.413498 -137.351883
234.248291 -79.202553 -136.721588
234.426514 -78.468994 -135.451065
235.565720 -79.273773 -137.414902
235.125137 -79.655937 -136.263992
235.357651 -79.149666 -137.144394
234.439697 -78.474846 -134.532608
236.160156 -79.283737 -137.181046
235.679520 -79.331406 -136.075455
236.433395 -78.463402 -135.662674
235.547989 -79.274879 -135.174377
236.598404 -78.872551 -137.945038
236.280090 -79.398193 -137.926895
236.744827 -79.430878 -136.200272
237.136337 -79.595001 -137.282440
237.043243 -78.088203 -135.063309
238.124115 -79.458038 -137.682907
237.059921 -79.579132 -135.707611
236.550659 -79.183746 -135.183289
237.272125 -78.559799 -138.120407
237.932465 -79.102684 -135.691330
238.548981 -79.555771 -137.147293
238.566483 -79.725937 -136.192978
238.946518 -78.188583 -135.048172
238.834274 -80.132813 -138.839478
239.116486 -80.040131 -136.863693
239.202438 -79.338821 -135.409897
238.032593 -79.849335 -138.142838
238.498566 -79.007698 -135.433502
239.150482 -79.819702 -137.571640
238.956863 -78.438362 -138.726563
240.231781 -79.161240 -137.009293
240.816116 -78.974571 -136.226013
239.216858 -79.540924 -136.295502
239.868973 -78.756187 -135.848038
239.044724 -79.544434 -138.818237
241.055389 -78.934494 -136.256012
240.482330 -79.015831 -135.213455
239.657639 -78.407463 -138.328735
239.324875 -79.194931 -136.415680
240.561752 -79.325989 -134.975189
241.058823 -78.250053 -137.644348
240.970139 -78.874954 -136.854431
240.057358 -78.971031 -136.287552
241.867004 -79.090019 -138.017242
242.402496 -79.163437 -137.524734
241.349197 -79.924149 -135.351440
246.936325 -78.417198 -138.418808
246.350555 -79.042641 -137.553314
246.500732 -78.781792 -138.193604
247.021515 -78.827187 -137.508636
248.028885 -79.723679 -137.330093
248.082779 -79.198242 -138.972610
247.339905 -78.728043 -138.528290
247.674698 -79.561844 -138.173798
247.113358 -79.209549 -139.515533
247.649582 -79.674721 -136.923416
248.550339 -80.067657 -138.844788
248.094788 -78.696564 -135.270264
247.819489 -79.571220 -138.490906
248.096741 -79.099754 -136.414551
248.446365 -78.057899 -135.833481
248.677490 -79.522209 -139.486893
249.027527 -80.064934 -136.376495
249.702972 -79.026527 -139.159119
249.827362 -79.627663 -136.142014
249.062607 -77.558708 -134.900955
250.269302 -79.717323 -135.845352
251.454041 -79.755928 -135.768143
250.938766 -79.083008 -134.689865
250.680206 -79.460556 -135.676376
250.947418 -78.291885 -134.533371
251.611496 -78.978348 -138.916229
252.711014 -78.827011 -135.818115
251.579651 -78.561333 -134.402023
252.706329 -79.495651 -139.353516
252.663116 -78.819534 -135.861954
253.116089 -78.472694 13.206965
252.602341 -79.097794 -139.254257
252.761505 -78.899193 9.172236
253.328339 -78.530312 10.864140
252.995865 -78.041153 10.526440
251.738174 -79.622292 11.734350
252.823166 -78.478119 13.070548
252.556030 -78.071899 14.235074
252.670258 -78.482727 16.676409
252.159607 -78.640121 17.919523
253.082962 -78.948540 -138.782288
253.813324 -79.855659 -135.117233
253.372086 -78.411499 9.393336
253.254791 -79.162758 10.312403
252.575943 -79.317017 12.927124
253.518707 -78.557755 13.913338
253.632690 -79.009148 16.319521
253.001877 -79.174095 17.475679
253.743637 -79.246864 20.033920
253.505753 -78.712997 19.951847
254.891296 -79.592308 -135.733337
253.089691 -79.683037 11.724096
253.783386 -78.974922 12.074671
253.239029 -79.369545 12.217637
253.931641 -79.714241 14.921783
253.807114 -79.175354 16.644560
254.751007 -79.651932 19.111797
254.570740 -79.200851 -139.494476
254.465744 -78.826225 -140.165848
254.285492 -79.151802 -135.211624
253.747482 -78.535240 8.729643
254.390305 -78.927063 9.606378
254.415283 -78.145668 10.678673
253.832977 -79.012466 12.552421
254.123199 -79.130402 12.108018
253.205399 -78.773933 14.389377
253.603668 -80.038864 17.075361
253.848526 -78.700111 20.152325
254.298172 -79.700668 20.979570
255.056076 -78.749542 -140.091034
254.661285 -79.661598 -135.099106
253.859436 -78.483734 9.969413
254.186874 -78.798508 13.181945
254.706329 -79.217957 14.390789
254.919708 -79.161316 18.294504
254.962601 -79.056786 21.321369
254.007370 -78.335716 22.283903
255.672470 -78.687263 -140.550705
255.245300 -79.079834 -134.974350
256.092682 -78.855690 -133.464096
254.372009 -77.935425 6.616971
254.772736 -78.821060 9.126794
254.875809 -79.260056 10.350359
255.289764 -79.008125 11.464336
254.431061 -79.287430 10.617906
255.323166 -78.559952 14.856894
254.665497 -78.961800 20.805792
255.036850 -79.071754 21.965183
255.142426 -79.117790 -140.460037
255.666321 -78.267883 -134.388031
255.646622 -78.632652 8.333187
255.588287 -79.476212 11.634565
255.694687 -79.206772 13.019795
255.095779 -79.458099 11.979820
254.692276 -78.233444 13.668303
254.946411 -78.958633 13.977456
254.390900 -79.272820 17.858793
254.932739 -79.054695 18.904991
256.080383 -78.782738 21.279257
255.648331 -79.307541 21.487188
255.975235 -78.246780 22.297691
256.631561 -78.889465 -134.008881
256.468048 -78.693024 8.101733
255.941666 -79.724121 8.004300
256.402496 -79.081856 -141.806503
257.307953 -79.162155 -139.276184
257.090851 -79.633331 -138.924713
256.558502 -79.459106 -133.188660
256.799042 -79.636833 -133.648010
257.131439 -78.892830 7.735573
255.681595 -79.643211 9.253044
256.809753 -79.113602 21.873865
256.006622 -78.777435 20.533392
256.652557 -78.565056 22.347431
256.015411 -78.936989 23.335960
257.263184 -78.494698 -142.045486
257.236572 -77.901886 -137.148010
256.884827 -79.869156 -137.533554
256.889648 -79.041061 -137.256561
256.344727 -78.994766 -134.915695
256.504730 -78.686005 -131.954834
256.885315 -79.845573 -131.762833
257.924988 -79.415909 -130.359512
255.382080 -78.599480 18.096975
257.203949 -78.923660 -141.614777
257.973755 -78.884644 -139.168549
256.722260 -78.140099 -135.901291
257.172119 -78.811363 -133.388031
257.139008 -79.102798 -133.639755
256.901520 -78.537773 -132.076294
257.769196 -78.696869 -131.253616
258.147552 -78.564491 -130.570084
256.843323 -78.506470 -128.925247
257.871735 -79.074944 -127.531898
257.321167 -80.258484 -126.337616
257.596619 -77.467392 -126.175468
257.240448 -80.039436 8.258200
257.760162 -79.182571 19.666664
257.146484 -78.454933 21.698954
258.088348 -78.797409 -143.403885
258.696655 -79.244675 -143.300735
257.195435 -78.447578 -135.142746
257.271301 -79.957069 -133.857880
257.364655 -79.863388 -132.206833
257.128448 -79.390381 -131.415756
256.957062 -79.848923 -125.897507
256.379517 -78.823578 7.881791
256.776764 -78.798965 21.747671
257.616211 -79.514816 -139.311081
258.235809 -78.251221 -131.999771
258.686584 -78.968536 -125.130432
258.080963 -78.837410 8.266247
257.427338 -78.297913 22.321526
258.277740 -79.500885 -142.785690
259.020233 -79.215584 -139.381332
258.507080 -78.793732 -135.484741
258.721863 -79.931664 -133.344925
258.566345 -79.070328 8.511027
258.073639 -78.346405 6.792209
258.798645 -78.948570 22.083553
259.231995 -79.657616 -140.141129
258.106781 -80.149368 -134.821701
259.535980 -78.812378 -132.331985
257.894714 -79.969704 -126.359550
258.807800 -79.300858 6.508659
257.909515 -79.065475 22.094017
258.763214 -79.130074 -142.728897
259.418213 -79.975357 -138.985703
258.783081 -79.598999 -135.658356
259.071472 -79.658867 -133.380493
259.657471 -79.200821 -132.090042
259.693451 -79.514282 -125.429642
259.357941 -78.900627 6.698639
258.426117 -79.073051 23.082191
259.063934 -78.691032 23.136990
259.356537 -79.819016 -143.271881
259.520050 -79.745880 -140.058395
259.757111 -79.543785 -136.027176
259.742462 -79.175705 6.517224
259.956207 -80.614578 21.680401
258.520172 -79.059113 23.751402
259.362762 -79.341354 -140.015457
260.272400 -78.568825 -139.902512
259.933258 -79.942650 -125.925591
260.734436 -78.446075 23.068235
260.004456 -79.334953 -142.804138
260.872131 -78.474518 -135.154312
260.753113 -78.552582 -135.983292
260.320129 -80.681564 -132.896545
260.427368 -78.645546 -133.552750
260.731049 -79.151009 -132.591766
259.967621 -79.728668 -131.578842
260.437225 -79.055771 -130.763672
260.810791 -79.275864 -129.498123
261.298401 -79.842682 -127.941948
259.638947 -79.430374 -126.228096
260.322357 -78.804253 -125.710152
259.366394 -79.021782 6.124603
259.463745 -79.444183 5.996568
260.859619 -79.611397 -141.947632
261.474060 -79.613831 -142.453735
260.896576 -79.410362 -138.444092
259.788971 -79.052994 -136.782654
261.063904 -79.811646 -136.964569
260.952576 -78.693810 -137.035156
261.123901 -79.411186 -132.951523
260.951752 -78.812492 -132.597977
261.039703 -78.763657 -131.645126
260.319427 -78.998756 -130.774261
261.507324 -78.477371 -128.817535
260.554565 -79.091072 -127.489731
261.378357 -79.446609 21.572128
260.035583 -79.305298 23.156004
261.078674 -79.524490 -137.326416
261.093567 -79.108795 -137.552994
261.288483 -79.794594 -132.527115
260.952576 -79.684616 6.636558
261.366211 -79.263596 20.306665
262.030457 -78.808014 -133.800049
260.734802 -78.523224 5.658806
262.546448 -79.299866 6.613381
261.234863 -78.956551 6.167120
261.824554 -79.544266 23.943964
262.529938 -79.000580 -141.138794
261.185577 -79.047302 -133.644409
261.546051 -79.061409 20.996040
261.595245 -79.417603 23.012323
262.106964 -80.212425 -141.365067
263.354553 -79.089096 -134.730453
262.509094 -78.506912 4.603179
262.371277 -79.090591 5.445423
262.494476 -78.552505 -140.800537
262.505951 -78.449913 -140.921417
262.867279 -78.789925 4.521642
262.399841 -80.016365 22.070940
261.751282 -79.183975 22.784466
263.303680 -79.840454 -140.040024
263.170227 -79.651764 -135.689621
262.502930 -78.572128 7.218871
263.011047 -79.296127 5.943159
262.630188 -78.612808 21.010765
263.067749 -79.332191 -136.004791
263.921478 -78.608101 4.484556
263.637024 -79.367714 6.649114
263.862915 -78.911057 5.680416
263.880219 -78.732880 -139.534332
264.164856 -78.489853 -135.800385
263.919800 -79.361893 5.907392
263.447937 -80.085007 21.412100
264.115051 -79.098167 23.684608
264.264404 -79.254471 -139.114822
264.384186 -78.473167 -140.518005
264.807007 -80.051460 -136.017822
265.243347 -78.340385 -139.902252
264.473907 -80.063789 -140.411560
264.400116 -79.254784 -135.273926
265.518585 -80.106796 5.707326
264.479218 -79.086365 5.072603
264.412506 -79.952774 22.175200
264.150848 -79.247208 22.645561
264.336823 -78.273041 6.113668
264.910095 -79.509010 6.654231
264.135010 -78.374336 23.452274
265.178467 -78.693321 -140.361740
265.495880 -79.711212 9.326618
265.280701 -79.531532 21.458191
264.913635 -79.315651 -139.688065
265.284088 -79.180222 6.126202
265.532837 -78.236404 6.621271
265.462280 -78.808769 22.127144
266.255127 -78.321449 -141.136856
266.617157 -79.910645 -135.199356
265.944092 -79.736305 5.945486
266.005219 -78.560394 7.829055
266.055084 -79.570244 21.820673
265.531067 -79.322121 22.824482
267.158936 -79.030724 -139.952301
266.409210 -78.973434 -135.891449
267.890808 -78.615524 7.256192
265.972534 -79.778076 8.011105
268.648438 -79.001953 -139.973236
267.854675 -79.552979 9.458136
265.468445 -79.088005 9.107340
266.460327 -78.934830 22.909311
266.157471 -79.101715 22.402548
266.835602 -79.794785 -134.815872
267.349426 -79.083801 6.670362
267.372101 -78.310913 7.923326
267.997345 -79.422684 10.291718
266.582031 -80.502319 20.557516
268.143921 -78.952759 -140.442276
267.480377 -78.898613 7.503789
268.018677 -80.305870 9.358493
268.555206 -78.964851 21.146385
268.974518 -78.246002 -140.135010
268.681885 -78.722038 -135.568359
267.482635 -79.145470 19.774982
268.864288 -78.580605 22.274549
267.427521 -78.401955 23.208565
268.895477 -79.794151 -135.625336
268.843079 -79.089035 7.609610
268.826996 -79.287788 6.942726
268.792725 -79.715309 20.705750
267.493134 -79.256485 21.610699
268.352905 -78.624809 23.135826
268.850677 -79.712883 -139.551773
269.478729 -78.874527 -135.900452
268.682190 -79.254501 7.882038
268.913361 -79.803535 8.601351
268.668427 -79.296486 19.288124
268.488525 -78.023720 21.956070
270.389618 -79.889389 -139.117325
268.548645 -79.375381 8.862559
269.656677 -80.113228 10.237385
268.523590 -79.243721 10.350997
269.697815 -78.231567 21.233974
269.697845 -79.525497 -139.903717
269.027496 -79.756966 -135.253601
268.954132 -78.896004 8.899186
270.165466 -78.730103 10.625170
270.967621 -79.325539 20.256374
270.146210 -79.468636 -139.894272
270.390778 -79.852905 -136.241455
270.738007 -78.544228 9.540012
270.485596 -79.146919 9.953755
269.101776 -78.772758 12.158856
271.064392 -78.465897 14.880483
270.356964 -79.125435 19.111572
269.600708 -78.953957 19.459925
271.350159 -79.961639 -139.013153
271.565521 -79.513687 -135.498642
269.952667 -79.182175 9.784888
270.236664 -78.312538 16.583658
271.180786 -78.892860 18.583845
271.151184 -79.793068 -139.138107
271.185669 -78.534225 -136.351059
270.840912 -79.386932 10.667967
271.052338 -78.975166 15.892284
271.264648 -79.442268 14.738849
271.046753 -77.718643 19.935020
271.861969 -79.419777 -138.433228
271.608307 -78.841072 -137.653885
270.017883 -79.223686 10.046649
270.903198 -79.661797 9.873921
271.694000 -79.474518 12.548455
271.529297 -78.416176 14.401865
270.812653 -79.535919 17.562469
271.771301 -79.533852 16.232473
271.795349 -79.155052 16.642817
270.684021 -79.809853 18.295416
271.729797 -78.728951 8.780430
271.699127 -78.869553 11.230786
271.949432 -77.960777 12.060339
271.216095 -79.338943 14.815712
271.991028 -79.510811 15.263864
271.402069 -78.499840 17.812859
271.826630 -78.281143 18.976013
271.919006 -78.515442 8.896482
272.793213 -79.622292 11.128676
272.560852 -79.341583 12.938652
271.115173 -78.941116 15.781936
272.676727 -78.363083 10.958829
272.349213 -78.731346 12.558124
272.414825 -78.856026 12.355035
272.771912 -78.663094 13.730112
272.040924 -78.528282 14.639812
271.545898 -78.553734 17.207777
273.170624 -79.039780 15.420134
272.938812 -77.443428 18.395876
272.767181 -78.835991 16.320179
272.554474 -79.162468 15.630997
273.920135 -78.745697 17.095320
273.228088 -78.464226 17.391251
274.055054 -77.672150 16.034172
274.728729 -78.057007 17.259394
276.834106 -80.008591 -138.717377
276.194916 -78.844833 -136.904526
276.466949 -79.351570 -137.143311
275.798553 -78.511856 -136.305069
275.714203 -79.445885 -139.966980
277.349854 -79.236900 -135.884216
277.246765 -79.480766 -140.037582
276.566772 -79.343346 -136.663284
277.656891 -79.455269 -140.206757
277.034332 -79.469826 -136.274597
278.320526 -78.788933 -135.523956
278.265106 -78.936287 -141.386444
278.259308 -80.395111 -134.823990
279.305206 -79.934448 -140.661392
278.441925 -79.411919 -135.329712
278.683350 -79.425240 -139.893417
280.399750 -79.089775 -135.251373
280.092041 -79.663002 -135.712250
280.093048 -80.090195 -140.504822
280.497864 -78.214638 -134.733734
280.852997 -79.410286 -140.345566
281.492004 -79.766518 -140.764938
279.970490 -78.896996 -135.335861
282.549072 -79.062241 -140.349045
282.073700 -79.726273 -135.709488
282.619934 -79.784332 -134.464828
283.888794 -79.079796 -139.838379
283.172211 -79.055595 -140.031784
284.014221 -79.548088 -140.147308
283.967865 -80.241402 -140.373459
284.367828 -80.221664 -134.999069
284.946350 -79.782295 -141.627487
284.418365 -79.209763 -135.220108
285.053558 -78.885712 -141.286011
284.516022 -79.702843 -134.324493
285.266327 -79.555153 -141.851288
285.255035 -79.726799 -134.897079
286.211212 -80.129211 -141.532898
286.046844 -79.644096 -134.083008
285.585815 -79.377113 -142.098999
285.649048 -78.955429 -142.396561
285.838287 -79.516029 -143.107346
286.284882 -79.405319 -132.158157
286.406036 -79.300568 -132.420700
286.798187 -79.016342 -138.956543
286.259644 -79.129776 -130.083313
287.157166 -79.894348 -128.402252
287.619629 -78.927261 -128.367020
287.316528 -80.146751 -126.005592
287.331360 -79.358879 -143.957794
288.046661 -80.094017 -139.631363
287.786530 -79.620430 -137.596756
287.428192 -80.072121 -125.677376
287.882996 -79.327011 -139.115738
288.434631 -79.340630 -137.275848
287.604279 -79.244804 -125.487053
288.339172 -78.020721 -125.095612
288.435089 -79.605576 -143.813950
287.993439 -77.793007 -143.665131
288.815247 -79.537254 -142.896500
288.179291 -79.214096 -139.195297
288.568481 -79.576767 -136.697876
288.528778 -78.701241 -125.816116
289.028076 -79.028748 -143.844193
289.362427 -78.965416 -123.984673
288.789581 -78.412064 -144.404236
288.863068 -78.738914 -136.614044
289.292877 -79.740967 -124.369095
289.833679 -79.400665 -143.295456
290.024872 -79.033661 -136.928070
290.312317 -78.908928 -124.715729
289.510254 -79.320000 -139.116364
290.373108 -79.231316 -136.745636
290.553619 -80.455421 -143.513153
291.075714 -78.684059 -137.914505
290.962280 -79.068832 -137.633926
291.109314 -78.588852 -137.875290
290.158936 -80.139870 -125.896164
290.704254 -80.104469 -132.278625
290.743347 -80.350815 -128.403778
290.819122 -80.050491 -125.980392
291.518890 -79.424988 -126.827362
291.846893 -79.942101 -143.130661
291.542328 -78.945244 -132.360886
291.293091 -79.415413 -130.744980
290.731689 -79.717751 -128.763763
291.757202 -79.688461 -126.410294
291.069611 -79.382439 -142.608749
292.367554 -79.115883 -134.088348
293.149200 -79.693443 -134.206604
292.234924 -79.315247 -142.235062
292.144257 -79.766075 -142.151077
292.116425 -79.251747 -142.529358
292.457184 -78.691521 -134.393692
293.028107 -80.249771 -142.098099
292.518799 -78.559578 -134.895477
293.440094 -78.808777 -135.790237
292.906036 -78.836746 -141.387009
294.617798 -78.941536 -135.176971
293.667999 -78.997658 -140.939194
294.132416 -79.317551 -136.122421
294.657318 -79.285896 -140.657150
295.217560 -78.612801 -141.101456
294.460236 -80.497505 -135.857010
295.588501 -79.354805 -141.455383
294.943726 -79.540337 -136.393982
295.018707 -79.728493 -136.767380
295.610352 -78.865501 -141.313599
295.727631 -79.333344 -136.454956
296.431549 -78.822937 -141.266968
297.566467 -79.105331 -135.922134
298.242432 -79.931107 -140.813126
298.872009 -78.783127 -136.966446
297.847046 -79.411049 -141.317856
298.922882 -79.205902 -136.326462
298.426544 -79.929039 -141.134750
299.379425 -79.240746 -136.109207
299.672455 -78.862686 -136.362808
299.221313 -79.537735 -140.751114
299.299500 -79.514824 -136.198013
299.990143 -79.565765 -140.932190
299.729340 -79.663300 -141.218430
300.844177 -78.810097 -141.160004
300.563934 -79.875336 -136.486069
300.610931 -79.026863 -140.619965
301.335175 -80.158920 -141.401306
301.139038 -78.927986 -136.248917
302.008240 -78.484596 -139.757248
301.274689 -79.803185 -136.938934
301.948242 -79.232986 -137.711929
302.371460 -78.912704 -139.312988
74.581902 -77.557251 -51.779121
74.612938 -77.277634 -50.523388
75.200935 -77.035011 -48.410122
76.089989 -77.871857 -51.626255
75.311203 -77.678299 -49.589249
74.158707 -77.557060 -45.401485
75.140739 -78.056755 -43.923225
75.807739 -77.474640 -55.873276
76.359344 -77.433647 -55.486042
75.315552 -77.441261 -53.796970
75.382278 -77.778664 -49.868149
74.792870 -78.395721 -46.404861
75.405067 -77.685318 -43.501717
75.843292 -77.845955 -42.745499
75.526657 -78.093216 -53.469967
76.333740 -77.832893 -52.792171
75.827942 -77.992699 -51.599094
75.826401 -78.250397 -48.454910
75.475365 -77.884911 -40.486843
76.266403 -77.163513 -56.621922
76.175575 -77.816032 -55.929726
77.197357 -77.065063 -50.777767
75.826904 -77.502090 -45.792305
76.100388 -77.591034 -42.327187
76.160919 -77.845673 -41.611465
75.955780 -77.506332 -38.053116
75.987724 -77.824287 -37.982662
76.231224 -77.282425 -36.490559
75.994041 -77.469879 -33.374031
76.187454 -78.452011 -58.938805
77.455406 -78.789787 -57.774773
76.294510 -78.235847 -53.920219
76.762985 -77.455696 -47.105522
76.447304 -78.057007 -38.516483
77.034920 -77.564392 -32.351589
77.370483 -77.849930 -56.692871
77.127937 -77.780815 -54.971336
77.462082 -77.913971 -51.155842
77.733086 -78.366753 -49.528690
77.390038 -78.604103 -45.753963
77.657173 -78.477646 -41.816467
76.900490 -77.666191 -41.171917
76.138489 -78.278961 -38.195141
76.968750 -77.372368 -37.731850
76.699219 -77.887985 -34.190987
78.531906 -77.943542 -31.473026
77.310020 -78.079712 -31.797516
76.337044 -76.879944 -30.486042
77.586029 -77.174217 -60.636162
77.376129 -78.005905 -59.568470
77.945648 -77.324265 -58.470627
77.860069 -78.109932 -56.338150
77.922874 -78.145676 -53.019917
77.895767 -77.783791 -53.866440
77.387779 -78.941795 -39.845745
77.903969 -78.098564 -37.855991
77.576263 -78.375793 -37.045753
77.926430 -77.780098 -34.461319
77.048027 -77.468124 -33.321415
77.872696 -77.990555 -32.666431
77.885284 -77.440025 -61.017803
77.999802 -78.016273 -59.906685
77.638954 -77.351189 -56.721611
77.699150 -78.524170 -55.215866
77.824654 -78.993401 -38.401775
77.876884 -78.562332 -33.788425
77.591507 -78.407219 -30.794374
78.556824 -77.392792 -29.113480
78.104263 -78.827896 -59.440670
78.235062 -78.595520 -57.869633
78.079025 -79.269676 -55.852001
78.194962 -78.605797 -35.460083
78.787300 -78.507210 -33.154343
78.601578 -77.670403 -34.808697
77.520081 -78.121506 -32.464211
77.769775 -77.910156 -30.462648
79.320038 -78.170532 -61.686787
78.451935 -79.154526 -60.478352
78.863838 -78.262413 -57.374680
79.138718 -78.508110 -33.027920
79.357208 -77.622452 -61.039608
79.061729 -77.566010 -59.844143
79.417984 -78.796898 -31.257694
78.821732 -77.994469 -29.805456
78.926598 -78.109001 -28.696341
79.757881 -77.455696 -62.008167
79.924637 -76.902985 -61.195850
78.647415 -78.615150 -59.863327
78.788986 -78.678101 -31.564558
79.842773 -78.148933 -30.228626
79.687798 -77.906075 -29.003403
79.399635 -78.865097 -62.237946
79.970993 -77.339638 -62.817093
80.110825 -78.021339 -61.882637
79.918892 -79.060913 -59.255943
80.236931 -79.010574 -30.288147
79.837730 -77.602524 -29.439211
79.859886 -77.350700 -27.898411
80.409431 -77.951508 -63.395161
80.504295 -77.518211 -62.188957
81.225639 -78.539513 -31.022158
81.455040 -77.985649 -29.089497
80.473450 -77.873184 -28.179619
80.447914 -76.408409 -64.549744
79.695503 -77.485359 -63.324696
79.372231 -77.985901 -62.045689
80.795647 -77.900131 -29.856356
80.578178 -77.731438 -64.284157
81.676834 -78.550545 -30.784683
81.094131 -77.774254 -62.840790
82.059608 -79.089386 -61.247635
81.944977 -78.640533 -30.009630
81.320343 -77.748589 -28.283113
82.423759 -77.704033 -65.737007
82.318481 -77.348251 -64.402374
82.628242 -78.273972 -62.796268
82.228043 -78.532623 -29.820957
82.818672 -77.529800 -29.051952
82.384689 -77.887543 -30.970623
82.227158 -77.666435 -65.145370
82.386940 -77.823433 -63.652824
83.075668 -77.872765 -62.774300
82.081223 -77.775307 -62.760860
82.656738 -77.964088 -32.064568
82.426407 -78.041939 -31.104023
83.263916 -77.467598 -29.213634
83.307800 -77.100037 -65.482925
82.823097 -78.781738 -64.696884
83.148796 -78.325630 -36.613113
83.585701 -77.678017 -35.843563
83.525864 -77.807320 -33.858604
82.116859 -78.683151 -32.770096
83.192245 -78.295349 -29.803778
84.116821 -77.287224 -67.017868
83.176666 -77.264992 -65.291946
83.621742 -77.715515 -63.694782
83.083389 -78.845490 -36.006512
83.251747 -77.779526 -34.928501
84.163254 -78.533188 -34.772789
83.531631 -78.517517 -32.179684
82.367004 -78.860374 -32.382095
83.668266 -77.859367 -30.758051
84.345573 -77.390244 -67.403694
84.313484 -78.114662 -64.261932
82.962311 -78.980766 -36.968285
84.578827 -77.471001 -34.371307
84.027306 -77.916771 -33.086132
83.816452 -77.716484 -32.772579
84.021240 -78.005096 -31.593702
83.825111 -78.370132 -65.880226
84.602783 -78.304794 -37.373173
84.483528 -77.864685 -67.126724
84.636871 -78.798599 -37.354507
83.962105 -76.681274 -68.634674
83.973892 -77.687874 -65.674339
85.325874 -78.983467 -64.542984
84.360558 -78.220131 -37.015095
85.666252 -78.686012 -68.104599
85.061493 -77.866989 -67.098450
86.615715 -78.385963 -37.836746
86.403473 -77.489174 -37.476593
86.194664 -76.860130 -68.370522
85.583496 -78.758789 -66.295593
86.402390 -78.530205 -65.742287
86.609703 -78.193504 -66.715752
86.679573 -78.210861 -37.386723
86.408638 -78.496628 -68.974472
86.148445 -78.912964 -67.519386
87.237518 -76.637154 -70.155418
86.968597 -78.627274 -67.261436
87.035912 -78.558006 -38.785519
88.335388 -78.408134 -68.821671
87.871674 -78.488091 -67.189735
88.572189 -78.137482 -69.884079
88.080894 -77.904495 -69.555939
87.881218 -77.400970 -38.837952
88.660515 -78.253410 -70.086739
88.256111 -76.915390 -67.977013
88.325195 -78.224274 -40.141552
88.833153 -77.921936 -38.919334
89.613075 -78.583000 -69.810684
89.713623 -78.674614 -69.182564
88.814407 -78.740273 -40.164490
88.067986 -77.137192 -40.682449
88.368279 -77.780380 -69.332489
89.518394 -78.206772 -70.725395
89.831650 -78.169037 -40.894772
89.465202 -77.593933 -69.549583
89.948738 -78.367371 -40.018372
89.958061 -77.487015 -71.823875
90.156784 -78.485817 -72.001602
89.923256 -78.523605 -41.187328
90.771255 -77.934326 -71.829575
90.919250 -78.477074 -41.567459
91.862175 -77.411568 -73.172974
91.057320 -78.812889 -71.084404
90.990784 -77.704437 -42.095608
91.713272 -77.703056 -73.066002
90.181740 -78.170715 -72.155861
91.051804 -78.823044 -42.830635
93.010674 -78.748093 -72.265305
91.672005 -78.294250 -42.987553
92.538589 -78.478951 -72.049294
93.147896 -78.048553 -72.201073
92.919922 -77.747017 -44.059834
94.040535 -78.869133 -72.847626
93.373291 -78.293388 -71.759209
93.032715 -78.558136 -46.119591
93.100479 -77.585205 -73.419998
93.520752 -78.882278 -72.431427
93.621834 -78.713554 -47.326584
94.079895 -77.350441 -73.706192
94.619431 -77.962921 -71.121246
95.312172 -78.522629 -49.271503
93.930725 -78.482635 -48.123478
94.576180 -78.502060 -72.359779
95.032730 -78.507988 -49.261368
94.797134 -77.644974 -73.665215
95.183731 -78.364494 -72.056015
