9.552407264709 -70.183029174805 -229.349105834961 -0.986679077148 1.222655653954 -0.667645454407 -0.274955749512
-90.010711669922 -73.835350036621 -214.505493164063 -0.770339965820 1.134740114212 -0.241104125977 0.797546386719
-31.229192733765 -67.970085144043 -176.792968750000 -3.131561279297 3.237607955933 0.771272659302 0.283843994141
-77.267295837402 -86.755699157715 -92.594482421875 1.023071289063 1.442834973335 -0.433540344238 -0.920402526855
-8.687972068787 -76.009330749512 -285.349639892578 2.679229736328 3.506678342819 1.305798530579 -1.847541809082
109.210464477539 -69.154548645020 -158.753875732422 -0.675033569336 1.513787865639 -1.348915100098 0.127716064453
-107.676948547363 -74.645294189453 -284.504486083984 3.524719238281 4.510066509247 2.810203552246 -0.140747070313
-61.416042327881 -63.962833404541 -116.741699218750 0.471885681152 1.925954699516 1.616825103760 0.934078216553
-155.875457763672 -72.261459350586 -193.525588989258 1.564453125000 1.814643859863 0.195205688477 -0.898506164551
80.693305969238 -77.027755737305 -88.915130615234 0.891242980957 1.537158489227 0.880851745605 -0.890304565430
-84.684967041016 -67.899314880371 -127.854370117188 0.818191528320 1.930215120316 -1.421394348145 1.017807006836
-8.875530242920 -77.462081909180 -211.378723144531 -0.218887329102 1.342831134796 1.165486335754 0.630020141602
-69.081901550293 -57.788917541504 -91.467315673828 0.548614501953 3.571453332901 -2.403762817383 -2.583839416504
27.035678863525 -70.043945312500 -164.393005371094 1.002716064453 1.930263519287 1.626861572266 -0.271659851074
99.292228698730 -77.350944519043 -188.206954956055 1.288925170898 3.687539339066 -3.408401489258 0.565170288086
-26.079971313477 -67.776908874512 -192.885955810547 -2.009429931641 2.654698371887 0.208415985107 1.722259521484
-107.282127380371 -70.690979003906 -218.063842773438 2.724288940430 4.251974105835 -3.264587402344 0.001853942871
-153.846862792969 -67.312370300293 -258.168762207031 -1.486114501953 2.857006311417 0.487014770508 -2.390975952148
-15.002554893494 -68.744476318359 -60.300815582275 0.351680755615 1.642214179039 -0.790731430054 1.395683288574
-160.595764160156 -64.055404663086 -252.990585327148 -2.830398559570 4.517247676849 1.245605468750 3.292846679688
65.509254455566 -76.415817260742 -235.713882446289 1.281768798828 2.831221580505 -0.397117614746 -2.493026733398
-33.467559814453 -78.452529907227 -190.054153442383 -0.989471435547 2.590001106262 -1.337673187256 -1.984863281250
-31.277305603027 -76.640800476074 -183.039581298828 1.571762084961 1.586627125740 -0.163206100464 0.142524719238
-165.028076171875 -69.338516235352 -274.045043945313 1.127593994141 1.567955493927 0.909576416016 -0.599739074707
-61.216064453125 -80.570014953613 -58.591327667236 1.300338745117 3.262264966965 -2.590961456299 -1.496131896973
41.339523315430 -74.017402648926 -117.640907287598 -1.224670410156 2.969710111618 -2.612922668457 -0.701423645020
43.637084960938 -63.851219177246 -32.422359466553 -0.095008850098 1.628203868866 1.605834960938 0.251625061035
-86.753112792969 -70.929214477539 -247.801544189453 2.704406738281 2.852590084076 -0.521232604980 0.742813110352
24.158748626709 -68.875534057617 -154.802261352539 -1.120147705078 1.202020764351 0.370628356934 0.229690551758
-33.123001098633 -75.747070312500 -75.771408081055 0.763442993164 3.451859712601 1.756820678711 -2.871597290039
102.239501953125 -70.533065795898 -99.050102233887 -0.075698852539 1.621459603310 1.538246154785 0.507148742676
-155.238189697266 -57.433662414551 -219.033203125000 5.324859619141 7.739403247833 -2.509826660156 5.024440765381
-42.314582824707 -72.959396362305 -167.483718872070 -0.916320800781 1.083962559700 0.562435150146 -0.137832641602
-154.583038330078 -59.144496917725 -228.556655883789 -0.229888916016 1.686583638191 0.142745971680 1.664733886719
-39.573757171631 -75.655807495117 -169.808975219727 -0.020217895508 1.357978820801 1.198230743408 -0.638702392578
-88.401046752930 -67.647811889648 -127.256874084473 -0.774604797363 1.304602384567 -0.645935058594 -0.827491760254
99.701019287109 -66.857681274414 -72.715209960938 1.188438415527 1.802621126175 -0.295326232910 1.322814941406
-3.191813945770 -77.017036437988 -236.745666503906 1.112365722656 2.813002109528 -2.350009918213 -1.073814392090
3.373523950577 -61.763092041016 -240.804519653320 -1.074722290039 2.019756078720 1.552259922028 0.717548370361
-26.666378021240 -75.215644836426 -174.654144287109 0.306945800781 1.626069068909 1.536453247070 -0.434967041016
-35.474769592285 -70.040695190430 -47.111053466797 1.245353698730 2.045229196548 0.470233917236 -1.552719116211
11.382051467896 -83.498497009277 -263.914245605469 -1.077606201172 1.493732929230 0.961149215698 0.382354736328
-94.464202880859 -68.026206970215 -143.444900512695 -1.534515380859 2.364601850510 1.457664489746 -1.054428100586
-151.023956298828 -78.229423522949 -193.211364746094 0.826919555664 1.155307531357 0.035247802734 -0.806037902832
-84.757621765137 -72.244895935059 -128.899566650391 -0.800186157227 2.092735052109 0.119384765625 -1.930023193359
25.982467651367 -75.308601379395 -145.108932495117 -0.670288085938 1.329199314117 0.784896850586 0.837509155273
29.543689727783 -71.174942016602 -156.008529663086 0.090759277344 1.634569287300 1.188365936279 -1.118644714355
-147.564025878906 -73.487342834473 -209.453506469727 1.282821655273 2.160279750824 1.712600708008 0.296943664551
88.269889831543 -76.765113830566 -207.976272583008 2.167297363281 2.277899026871 -0.470245361328 -0.520111083984
-162.619873046875 -64.766471862793 -218.140289306641 -1.913970947266 2.927685737610 -1.256927490234 1.824333190918
-153.068298339844 -76.364303588867 -225.353775024414 1.301956176758 1.490639925003 0.465011596680 0.557388305664
42.682102203369 -77.980926513672 -106.210433959961 0.719100952148 1.842650175095 0.224704742432 -1.681594848633
-109.694351196289 -69.206008911133 -289.089202880859 0.415161132813 2.179081678391 0.913078308105 -1.934509277344
0.050976000726 -76.396881103516 -284.908569335938 -0.214691162109 1.654983878136 1.560371041298 0.508056640625
-2.728476047516 -82.803916931152 -275.704193115234 -0.306335449219 0.827566206455 0.211376905441 -0.739151000977
-154.722808837891 -72.278549194336 -214.196014404297 1.252609252930 2.016176462173 1.530776977539 -0.390716552734
-83.558280944824 -68.496368408203 -102.241203308105 1.257804870605 2.018836259842 -1.019676208496 1.205772399902
-30.694284439087 -75.443740844727 -238.446701049805 0.928115844727 2.248571395874 1.016971588135 1.777763366699
97.933303833008 -73.148536682129 -200.960388183594 0.835067749023 1.236655116081 0.826354980469 0.386154174805
-11.498500823975 -63.752101898193 -251.602981567383 -3.539520263672 3.672702074051 -0.758101463318 -0.621143341064
-77.909523010254 -68.597213745117 -125.403877258301 0.675415039063 1.845710277557 0.182556152344 -1.707962036133
-150.419219970703 -71.000740051270 -172.238754272461 2.900985717773 3.431890487671 1.689544677734 -0.712455749512
28.239498138428 -80.755744934082 -135.098754882813 2.731719970703 3.147300958633 -0.027444839478 -1.562835693359
-73.957252502441 -68.749565124512 -143.788345336914 0.035247802734 1.409579634666 -0.909477233887 -1.076347351074
-3.023448944092 -79.634109497070 -232.317993164063 -0.963027954102 1.201540470123 -0.712218999863 -0.094978332520
23.067197799683 -78.535621643066 -151.170043945313 -0.423171997070 2.989759206772 -2.635366439819 1.347007751465
85.993614196777 -68.472389221191 -64.849662780762 0.016288757324 0.531623184681 -0.268821716309 -0.458358764648
-33.606296539307 -80.617713928223 -172.472702026367 -0.425521850586 1.313242912292 -0.717075347900 -1.014564514160
-153.362701416016 -82.051383972168 -286.085174560547 0.536987304688 2.677121162415 0.871795654297 -2.473579406738
-49.485164642334 -67.718276977539 -140.110458374023 0.289291381836 0.756208181381 0.037654876709 0.697669982910
-29.960962295532 -71.294616699219 -191.180404663086 0.682174682617 1.835916996002 -1.270433425903 -1.136322021484
4.493163108826 -82.814109802246 -251.635543823242 1.408828735352 2.003702402115 0.756693124771 1.207244873047
16.461465835571 -75.145141601563 -238.284591674805 -1.069534301758 1.194905281067 -0.448612213135 0.287475585938
-168.618362426758 -73.590232849121 -216.392517089844 1.367355346680 3.761145591736 -3.227447509766 -1.363868713379
-27.831682205200 -70.750457763672 -188.433975219727 0.308776855469 1.585390925407 -1.381628036499 0.713600158691
-169.488128662109 -72.120567321777 -228.085449218750 0.250671386719 2.956902980804 -2.668182373047 -1.249496459961
8.527990341187 -70.635711669922 -222.466476440430 -0.452239990234 0.967608034611 0.521344184875 0.678192138672
-160.607238769531 -83.481224060059 -286.169586181641 2.829406738281 6.227049350739 -4.460891723633 -3.297126770020
45.487155914307 -69.741363525391 -254.050323486328 -2.211441040039 2.405167818069 0.424201965332 0.845230102539
3.184253931046 -69.839927673340 -242.642700195313 0.510360717773 2.107934713364 1.027499914169 1.768379211426
66.945442199707 -72.122222900391 -232.455245971680 1.894790649414 2.110559940338 0.329284667969 -0.869369506836
-150.099853515625 -64.414901733398 -212.804946899414 -1.264785766602 1.326392889023 -0.365798950195 0.160705566406
91.313186645508 -62.488010406494 -60.042762756348 1.114589691162 2.148023843765 -0.048873901367 1.835567474365
-13.741288185120 -82.015754699707 -270.773925781250 -0.364471435547 3.826151132584 -2.417620658875 -2.943077087402
-19.626117706299 -68.210350036621 -54.563610076904 0.151863098145 2.317913293839 -1.652456283569 -1.618347167969
-8.320432662964 -64.466583251953 -289.432037353516 -0.038818359375 3.223623991013 -2.535702705383 1.990089416504
18.858436584473 -68.071037292480 -162.479843139648 -1.740966796875 3.632497072220 -3.150276184082 0.489723205566
-58.612140655518 -66.790519714355 -138.833236694336 -1.419708251953 1.431953787804 -0.175708770752 0.063613891602
38.508003234863 -66.302726745605 -251.650222778320 -0.263122558594 0.916545331478 -0.659118652344 -0.579986572266
-47.436756134033 -85.493957519531 -83.503105163574 1.589591979980 1.789034962654 -0.329082489014 -0.752029418945
28.233375549316 -65.279617309570 -140.991744995117 -0.906646728516 1.780672550201 1.375125885010 -0.676620483398
-123.314178466797 -64.111991882324 -192.268020629883 3.330871582031 3.876081705093 0.170516967773 1.974899291992
-160.436981201172 -73.810867309570 -298.529937744141 -4.050903320313 4.753175258636 -2.482009887695 -0.149948120117
66.052543640137 -67.447471618652 -229.010513305664 2.055099487305 4.664551258087 -4.136520385742 -0.651000976563
20.925239562988 -71.612541198730 -177.327072143555 -1.820266723633 3.053885698318 1.028055191040 2.226196289063
-95.110832214355 -62.317745208740 -58.568397521973 0.884826660156 1.623305678368 -0.947738647461 -0.976726531982
-156.724411010742 -63.916984558105 -238.940383911133 -0.208572387695 3.713175296783 1.501724243164 3.389541625977
-166.522613525391 -74.441017150879 -248.830337524414 -0.032623291016 1.813539028168 -1.744628906250 0.494094848633
-147.445678710938 -71.174156188965 -287.216064453125 0.196929931641 2.164359092712 2.123916625977 -0.366943359375
113.866409301758 -76.564582824707 -142.920028686523 -2.293746948242 2.315930366516 -0.241683959961 -0.209396362305
-19.335067749023 -80.355125427246 -201.286056518555 1.188796997070 1.993384122849 -1.543956756592 -0.420166015625
36.932643890381 -61.452049255371 -126.275787353516 0.599700927734 1.438253641129 1.135963439941 -0.646930694580
-88.448852539063 -66.090583801270 -135.484481811523 1.051193237305 2.979667425156 -1.993553161621 1.949142456055
32.251647949219 -65.114830017090 -35.977451324463 -0.179527282715 2.234175443649 -1.258544921875 1.837219238281
4.927117824554 -67.217422485352 -213.440078735352 -0.025634765625 4.024520397186 -3.390870571136 2.167510986328
-100.689651489258 -61.949096679688 -149.031082153320 -0.731445312500 2.799711227417 -1.919059753418 1.902782440186
-43.024234771729 -78.252960205078 -240.629928588867 0.827072143555 1.611753702164 -0.269248962402 1.356910705566
-137.592376708984 -66.025711059570 -256.280029296875 1.839385986328 2.457863807678 -1.579986572266 0.401741027832
10.363091468811 -78.182846069336 -220.249160766602 -0.382476806641 2.006057739258 1.924208641052 0.418807983398
101.840560913086 -73.547630310059 -178.572937011719 -2.110641479492 3.490069866180 -2.573394775391 -1.050437927246
-3.782974958420 -59.795494079590 -257.978515625000 0.899810791016 5.786507606506 -4.370184898376 3.684494018555
43.077102661133 -78.543067932129 -128.313766479492 -2.307525634766 2.682014703751 0.747344970703 -1.144554138184
-21.794046401978 -71.905937194824 -193.401092529297 0.528701782227 2.570961952209 -0.923553466797 -2.340377807617
-166.905624389648 -66.269760131836 -202.755172729492 -0.215682983398 2.853061437607 -0.987243652344 2.668106079102
-70.230842590332 -62.515289306641 -97.071334838867 -1.451705932617 2.590299844742 -0.885986328125 -1.953773498535
8.325441360474 -70.937110900879 -285.981140136719 1.749450683594 3.823862314224 1.721305370331 2.932312011719
-23.604110717773 -78.221191406250 -236.978897094727 1.663436889648 1.936468482018 -0.863214492798 0.487594604492
22.506633758545 -78.102958679199 -186.194900512695 0.057098388672 0.122936241329 -0.075723648071 0.078224182129
-38.378082275391 -75.094116210938 -204.414794921875 -0.144805908203 0.214418634772 -0.018802642822 -0.157012939453
50.081707000732 -67.407615661621 -99.593910217285 -0.403694152832 0.991941988468 -0.838115692139 -0.344299316406
-78.970794677734 -74.443862915039 -248.455718994141 -0.388320922852 1.030562400818 0.298110961914 -0.906860351563
-1.046627998352 -68.884033203125 -230.878707885742 1.768127441406 1.923319220543 0.625009059906 0.426902770996
-46.449028015137 -82.060020446777 -164.602905273438 0.297424316406 2.801718235016 -1.533451080322 -2.325874328613
-30.172441482544 -75.887153625488 -166.103393554688 -0.640625000000 1.441891908646 0.296548843384 1.257263183594
58.290203094482 -71.323913574219 -235.821334838867 -0.527816772461 3.666713476181 -3.500820159912 -0.954177856445
-57.562679290771 -72.911964416504 -137.792587280273 0.655075073242 1.460963249207 -0.636966705322 1.139984130859
-126.069099426270 -66.209854125977 -193.898086547852 0.857391357422 2.194209814072 -1.706069946289 1.081092834473
-122.779190063477 -70.827735900879 -224.008377075195 -0.433914184570 1.798054575920 0.621978759766 1.630294799805
-43.218070983887 -74.735649108887 -152.226318359375 -2.167388916016 2.453052043915 -0.837284088135 0.786666870117
4.057105064392 -62.336200714111 -245.969497680664 -0.246292114258 2.212310314178 -2.197674751282 0.062313079834
-30.544511795044 -73.226562500000 -76.798828125000 1.925674438477 2.791218996048 -1.828918457031 -0.858917236328
-41.803920745850 -77.249267578125 -56.050464630127 0.086025238037 2.431995391846 -1.978271484375 -1.411964416504
-13.113920211792 -73.030876159668 -231.809997558594 0.602935791016 2.056668519974 -1.960124969482 -0.155769348145
11.069640159607 -65.343208312988 -194.505889892578 -1.289169311523 3.356559991837 -1.863940238953 2.475936889648
-148.703292846680 -64.380508422852 -228.058609008789 -0.571273803711 1.365800023079 0.759124755859 -0.981216430664
90.425498962402 -76.749305725098 -210.313522338867 -0.169952392578 1.767386913300 1.685363769531 -0.504302978516
-32.103195190430 -69.458648681641 -49.034492492676 0.712791442871 1.595559597015 -0.682497024536 -1.253768920898
-22.069877624512 -74.990684509277 -71.822616577148 0.626136779785 2.451331138611 1.132434844971 2.081962585449
41.437484741211 -67.712326049805 -249.809402465820 -0.546417236328 1.857666730881 -1.428962707520 1.053764343262
-149.881958007813 -85.277572631836 -282.724456787109 0.338684082031 0.925868928432 -0.838211059570 0.199821472168
32.014907836914 -62.604057312012 -34.269107818604 1.011421203613 2.399884700775 1.617326736450 -1.456272125244
-40.597480773926 -76.683753967285 -238.485870361328 0.963363647461 1.880149602890 1.557605743408 0.425155639648
21.801542282104 -63.745780944824 -143.938995361328 -0.320770263672 2.722252845764 -0.486385345459 2.659172058105
38.795921325684 -75.613990783691 -107.571380615234 0.530250549316 1.499634742737 -0.143062591553 1.395446777344
-61.703559875488 -78.675712585449 -173.550399780273 -0.443267822266 1.862640142441 1.544944763184 -0.941322326660
-4.664964199066 -73.110046386719 -244.221908569336 1.385421752930 2.886615037918 -2.500547170639 -0.400520324707
-157.345993041992 -66.385528564453 -290.988616943359 -1.115051269531 1.428355455399 -0.879867553711 -0.150642395020
-46.966255187988 -62.295173645020 -40.278892517090 2.764575958252 3.409344434738 1.512329101563 -1.301387786865
4.330691814423 -71.347160339355 -163.178359985352 -0.898086547852 2.012527227402 -0.135344982147 1.795936584473
-59.220245361328 -71.743125915527 -49.465206146240 -0.981369018555 2.677130699158 -2.248287200928 -1.071983337402
-16.549333572388 -72.186393737793 -63.554321289063 1.430786132813 2.508272647858 -2.042738914490 -0.267395019531
-163.413024902344 -68.065826416016 -247.819061279297 -0.067550659180 0.886424005032 0.770675659180 0.432716369629
91.984230041504 -71.400978088379 -212.019973754883 -0.868728637695 1.489963293076 -0.273544311523 -1.179183959961
7.237527847290 -84.262603759766 -239.277084350586 -2.133224487305 4.839279651642 -2.780961990356 -3.336799621582
104.295616149902 -72.203826904297 -116.584632873535 -1.601112365723 2.126538515091 -0.885192871094 1.083992004395
21.022262573242 -70.704391479492 -185.242202758789 -0.469451904297 1.167903423309 0.652595520020 -0.847190856934
-145.247024536133 -79.464759826660 -282.488525390625 -0.049743652344 1.943103671074 1.236022949219 1.498474121094
-149.962982177734 -72.702560424805 -216.647262573242 0.529647827148 0.826108634472 -0.235137939453 -0.588760375977
-153.741928100586 -73.811203002930 -188.342346191406 -1.991287231445 3.568323135376 -1.534774780273 -2.532226562500
-86.609977722168 -65.834388732910 -130.710327148438 -0.083633422852 1.446956038475 -1.434471130371 -0.170234680176
-64.964981079102 -58.606872558594 -114.497817993164 0.064216613770 2.772532939911 1.035873413086 2.570949554443
-152.340270996094 -78.657989501953 -231.995559692383 0.622894287109 0.922674298286 0.453811645508 0.507331848145
-15.265584945679 -68.331802368164 -255.211334228516 -2.056549072266 2.583192825317 -1.549954414368 -0.202812194824
-6.383788108826 -72.507369995117 -240.262664794922 -0.122604370117 1.760293006897 1.572375774384 0.781814575195
-150.466415405273 -65.882987976074 -231.783096313477 -0.590240478516 2.257381439209 -2.176681518555 -0.097183227539
-146.208496093750 -81.892089843750 -183.596603393555 3.239883422852 3.944348096848 -2.214965820313 0.393653869629
-7.196053028107 -78.952377319336 -249.662689208984 1.153442382813 2.355912923813 -0.336462020874 -2.026496887207
-48.029724121094 -74.424224853516 -56.041378021240 -0.100349426270 1.946946740150 1.038101196289 1.644042968750
-77.762344360352 -72.940872192383 -94.309814453125 3.593177795410 3.692441940308 -0.839218139648 -0.137527465820
9.600925445557 -84.024681091309 -240.161102294922 -2.136886596680 3.550374507904 -2.811887741089 0.363540649414
88.133804321289 -69.982994079590 -110.045852661133 -4.255149841309 4.262038707733 -0.204223632813 0.130256652832
105.490776062012 -74.494895935059 -131.941955566406 -2.446716308594 3.383302450180 -2.322517395020 0.257347106934
43.798877716064 -64.237670898438 -25.089750289917 2.126937866211 2.365149259567 -1.018821716309 -0.179077148438
24.342336654663 -72.838851928711 -183.206176757813 -0.738204956055 0.960931420326 0.574182510376 -0.220809936523
50.745861053467 -70.785346984863 -244.498306274414 -0.241470336914 0.824826598167 -0.364803314209 0.699249267578
9.351528167725 -71.470108032227 -238.478195190430 0.177261352539 1.859487414360 1.565852165222 0.987106323242
109.172607421875 -76.814888000488 -138.586227416992 1.242614746094 2.414565563202 -1.571113586426 -1.348197937012
-99.748588562012 -62.075168609619 -89.683288574219 2.788887023926 3.031515121460 -0.930267333984 -0.739456176758
-159.612075805664 -68.187225341797 -192.088043212891 1.516677856445 3.031093358994 -2.486343383789 0.839828491211
-18.278957366943 -68.025680541992 -277.449676513672 -5.246704101563 6.370167255402 -3.145605087280 1.776596069336
-61.674598693848 -64.892707824707 -112.614105224609 1.445777893066 3.086037874222 2.643295288086 -0.668090820313
-8.654124259949 -83.124809265137 -272.270690917969 -3.428009033203 4.280758380890 -2.526853084564 -0.434349060059
-122.744636535645 -75.386451721191 -248.478530883789 5.714996337891 7.107224941254 2.465515136719 -3.431137084961
4.935523033142 -70.819465637207 -223.351226806641 0.679107666016 2.215111255646 2.077397108078 0.360488891602
16.151641845703 -73.633644104004 -219.584350585938 0.809036254883 1.800319790840 -0.020055770874 1.608169555664
15.596446037292 -73.708007812500 -246.205978393555 -0.221282958984 0.743433296680 -0.704279899597 -0.087844848633
36.291748046875 -69.162345886230 -115.535064697266 -0.324279785156 1.896300315857 -1.492977142334 1.123306274414
-45.130016326904 -73.776405334473 -283.661041259766 2.920227050781 3.839264869690 -2.356060028076 0.813148498535
-85.715087890625 -59.360671997070 -49.251056671143 -0.106964111328 2.341447830200 1.691986083984 -1.614967346191
16.183717727661 -75.235870361328 -202.354080200195 0.371215820313 3.151093482971 1.434077262878 2.781188964844
92.722312927246 -75.016510009766 -76.044876098633 0.326881408691 0.983883976936 -0.199371337891 -0.906326293945
29.126703262329 -71.085815429688 -159.722152709961 1.614974975586 2.093940258026 1.323558807373 0.156951904297
16.668277740479 -70.497749328613 -146.440704345703 2.121337890625 2.326591730118 -0.915966033936 -0.271957397461
32.575435638428 -77.966629028320 -124.505767822266 -0.402900695801 1.907234668732 -1.502498626709 -1.103500366211
-0.754168987274 -74.735153198242 -243.258560180664 0.211242675781 1.929383039474 -0.622236013412 -1.814033508301
-22.768779754639 -76.891326904297 -70.425422668457 -1.287582397461 1.695209622383 -1.012041091919 -0.437767028809
-152.032592773438 -67.335601806641 -222.687850952148 -0.993408203125 1.683968544006 -0.057373046875 1.358528137207
9.408485412598 -66.474746704102 -154.095550537109 0.125091552734 1.572572231293 -1.287615776062 0.894081115723
19.952041625977 -78.527473449707 -146.342010498047 4.548797607422 5.085636615753 -0.576879501343 -2.199851989746
30.035692214966 -65.933876037598 -253.251235961914 0.915206909180 2.608220577240 -2.124982833862 1.204017639160
-3.620632886887 -69.665596008301 -221.506973266602 -0.207244873047 1.690331935883 -1.033578872681 1.321357727051
29.856681823730 -67.681228637695 -32.045253753662 0.474388122559 2.288209199905 2.202938079834 -0.397392272949
-30.443328857422 -82.713752746582 -185.950073242188 0.983001708984 2.302942514420 0.919807434082 -1.868476867676
-62.006889343262 -75.316894531250 -167.175338745117 0.117462158203 0.489119768143 -0.472763061523 0.043998718262
-134.428039550781 -65.416664123535 -262.005950927734 0.065460205078 0.699730813503 0.602874755859 -0.349113464355
-30.353078842163 -78.643806457520 -75.643508911133 0.344215393066 1.643988013268 -1.447719573975 0.698799133301
111.694015502930 -73.568443298340 -153.955001831055 0.259536743164 1.237371921539 0.313606262207 -1.168495178223
-148.259689331055 -72.069091796875 -270.967773437500 2.498931884766 3.767574548721 -2.348800659180 -1.559837341309
-87.181602478027 -65.011863708496 -129.324691772461 0.290466308594 1.986309409142 -0.009941101074 -1.964931488037
-151.518676757813 -74.910705566406 -186.964004516602 -0.291046142578 1.581524133682 -1.449676513672 0.561203002930
-134.785934448242 -62.418285369873 -197.688186645508 1.360427856445 2.646720170975 -1.012786865234 2.031902313232
-25.830905914307 -72.978805541992 -207.166503906250 -2.426666259766 4.387469768524 -3.479665756226 -1.119422912598
11.566080093384 -83.096420288086 -263.010803222656 -0.174163818359 1.398963212967 1.145177841187 0.784431457520
-42.288230895996 -78.100097656250 -192.237487792969 -0.036514282227 1.902214765549 1.721542358398 0.808319091797
-152.631469726563 -79.503860473633 -230.828567504883 0.812805175781 1.287268877029 0.176284790039 0.982513427734
8.778448104858 -71.677673339844 -194.788482666016 0.206100463867 1.965997338295 -1.402313232422 1.362419128418
-47.929458618164 -71.691200256348 -285.660064697266 0.311065673828 2.982955932617 1.457386016846 2.584045410156
93.129203796387 -78.086013793945 -203.454025268555 1.005737304688 2.266954660416 -0.988761901855 -1.774803161621
63.321510314941 -70.569236755371 -242.289916992188 1.128204345703 1.649737358093 -0.289543151855 1.168312072754
-28.909048080444 -72.917129516602 -182.092224121094 -1.562026977539 1.962587475777 0.567674636841 -1.043823242188
12.878284454346 -69.362266540527 -211.445190429688 0.610778808594 0.934675693512 -0.678623199463 0.200096130371
40.446357727051 -78.859626770020 -113.008430480957 -0.444610595703 1.089851021767 0.920413970947 0.378067016602
-75.306930541992 -63.218238830566 -121.227272033691 1.824287414551 1.854163408279 0.331474304199 -0.004703521729
-43.813392639160 -68.610946655273 -152.033599853516 0.402084350586 1.722379684448 0.015991210938 1.674713134766
-66.569145202637 -73.501434326172 -168.257308959961 0.519485473633 2.439813137054 -1.374794006348 1.947502136230
-8.199618339539 -62.921463012695 -243.041152954102 0.519805908203 1.687723159790 1.171733856201 1.097839355469
103.355766296387 -74.561454772949 -175.257751464844 1.204544067383 2.613784790039 -1.058189392090 -2.064262390137
-162.373718261719 -66.291648864746 -280.925170898438 0.785949707031 2.960249185562 0.537200927734 2.802993774414
-64.835311889648 -63.115993499756 -94.519645690918 -0.636116027832 0.997904717922 0.625785827637 -0.446723937988
-138.266616821289 -72.457893371582 -248.985656738281 0.061981201172 6.099902629852 6.098999023438 -0.084754943848
-3.697021961212 -63.026214599609 -285.341186523438 -1.083038330078 2.869509458542 0.385694980621 2.629135131836
-164.633209228516 -66.594474792480 -235.795806884766 0.120605468750 1.659377932549 0.740600585938 1.480033874512
-140.968399047852 -74.990745544434 -288.740631103516 -1.143676757813 1.621840476990 1.121536254883 0.254020690918
32.760890960693 -80.801856994629 -126.078460693359 -2.117721557617 2.967123985291 1.729915618896 -1.151725769043
82.862869262695 -69.838630676270 -223.515335083008 0.132858276367 1.247126340866 -0.796607971191 -0.950309753418
32.898059844971 -78.770034790039 -121.545578002930 -1.092285156250 1.802729249001 -0.611984252930 1.297004699707
-73.684562683105 -70.051765441895 -139.009124755859 0.454727172852 1.271332263947 -0.846160888672 0.832778930664
109.892066955566 -73.514793395996 -165.218429565430 -0.863784790039 2.210311174393 -2.033462524414 0.066192626953
79.886909484863 -75.945167541504 -75.794624328613 1.184730529785 1.878201127052 1.384895324707 -0.454002380371
-94.555984497070 -68.003051757813 -136.535415649414 1.645614624023 2.203716516495 -0.705917358398 -1.284523010254
-77.653816223145 -73.287811279297 -138.475479125977 -2.446853637695 2.462098836899 -0.236526489258 -0.137451171875
-82.554550170898 -72.803329467773 -206.983505249023 2.046646118164 4.519550323486 -4.023025512695 0.229866027832
48.728534698486 -67.820701599121 -97.099273681641 0.456809997559 1.130886435509 0.628349304199 0.821830749512
24.140453338623 -78.661048889160 -171.684387207031 0.063461303711 0.896850824356 -0.031856536865 -0.894035339355
-2.037106037140 -83.785278320313 -251.649871826172 -0.482894897461 1.208822011948 0.166830062866 -1.095550537109
-130.901626586914 -65.452293395996 -257.361389160156 0.414733886719 2.875242471695 2.622772216797 -1.102760314941
-54.602645874023 -79.295547485352 -186.874053955078 1.871978759766 1.918431758881 -0.418964385986 0.023338317871
-24.128141403198 -66.678443908691 -205.371871948242 -3.531280517578 4.120083332062 -1.340211868286 1.645896911621
36.093940734863 -76.782295227051 -110.839775085449 -0.577514648438 0.883909940720 -0.330829620361 -0.581657409668
-171.746109008789 -71.938598632813 -229.117675781250 0.691650390625 4.558445453644 -4.207641601563 -1.611457824707
40.892559051514 -71.458915710449 -15.917144775391 -0.015823364258 1.864628195763 -0.122932434082 1.860504150391
-105.482627868652 -61.622440338135 -167.673553466797 1.286926269531 2.296508073807 -1.345695495605 1.344200134277
-20.127130508423 -74.178321838379 -288.871612548828 2.425811767578 2.522356987000 0.661170959473 0.201431274414
-136.537246704102 -73.680870056152 -251.149383544922 4.163406372070 4.227990150452 -0.733383178711 -0.064002990723
-150.250961303711 -73.171028137207 -274.851715087891 2.008087158203 2.542423486710 -0.087661743164 1.556861877441
-47.017898559570 -74.430404663086 -156.770874023438 2.159042358398 2.218041181564 0.014640808105 0.507965087891
-26.693607330322 -65.161888122559 -47.840545654297 0.204608917236 0.685997724533 -0.501710891724 -0.420730590820
-70.911064147949 -63.231075286865 -99.875808715820 -1.059799194336 2.707120418549 -1.852241516113 1.665691375732
-146.550292968750 -63.866416931152 -218.327651977539 -0.226669311523 1.141589760780 -0.752090454102 -0.828376770020
-13.350749969482 -67.236999511719 -231.613922119141 -0.529205322266 1.224412679672 -0.290254592896 1.065307617188
60.961143493652 -65.833244323730 -83.973526000977 -0.262741088867 1.098917603493 0.313011169434 -1.020103454590
-57.227703094482 -82.856224060059 -204.987915039063 0.282989501953 1.731350898743 -1.069179534912 1.332046508789
-11.241307258606 -82.065032958984 -256.169342041016 -0.740478515625 2.989331483841 -2.067175865173 -2.028442382813
-65.586677551270 -79.458114624023 -59.667873382568 1.031421661377 1.516856312752 0.421241760254 -1.029357910156
70.768745422363 -68.487197875977 -105.245521545410 -1.372535705566 2.138191699982 -0.764526367188 -1.450347900391
-8.736449241638 -66.625778198242 -266.505737304688 0.478729248047 1.574704527855 -0.094607353210 1.497184753418
-150.625335693359 -61.129295349121 -171.237045288086 4.904403686523 5.491415500641 -1.580047607422 1.898925781250
-90.725097656250 -68.760528564453 -254.943130493164 -2.271011352539 2.541744947433 -1.045944213867 0.457138061523
-97.610824584961 -72.878082275391 -216.531188964844 0.726730346680 0.821369767189 0.198608398438 -0.327209472656
-158.408737182617 -76.145286560059 -226.387832641602 0.412246704102 3.464431762695 2.636367797852 -2.209503173828
14.052556037903 -75.160415649414 -207.551193237305 -0.802734375000 2.329189062119 -2.049838066101 0.760856628418
28.007940292358 -64.690124511719 -25.523878097534 -1.526395797729 2.353220701218 1.558124542236 -0.883182525635
-26.720315933228 -73.653823852539 -288.812469482422 -0.967376708984 1.330459475517 -0.266059875488 -0.873794555664
-10.851789474487 -75.972801208496 -171.854904174805 1.997970581055 2.079507827759 -0.230157852173 0.528671264648
-17.059320449829 -77.250640869141 -230.810089111328 -1.534225463867 3.307895421982 -2.484290122986 -1.554550170898
-60.111915588379 -77.536911010742 -183.766464233398 -1.901321411133 2.595616340637 -1.765354156494 -0.075668334961
3.635708093643 -72.385246276855 -155.679168701172 2.256225585938 2.891746997833 -0.238501787186 -1.792976379395
-82.080726623535 -71.372436523438 -100.845207214355 -0.924530029297 2.112371683121 -1.898452758789 0.056877136230
-34.875705718994 -68.524879455566 -170.166946411133 0.286148071289 2.425650119781 2.407295227051 -0.082626342773
20.117166519165 -65.397613525391 -255.013397216797 -2.836044311523 4.293455123901 -2.087957382202 2.455818176270
-35.776916503906 -81.989234924316 -69.246650695801 1.108993530273 2.023384332657 0.186103820801 -1.682136535645
-53.187103271484 -79.394355773926 -198.162811279297 0.921127319336 2.750834465027 -0.238101959229 2.581069946289
-74.598899841309 -68.793525695801 -135.792846679688 -0.067794799805 0.701201558113 0.691947937012 -0.091079711914
-98.802322387695 -73.986640930176 -286.695709228516 0.953918457031 1.573434710503 -1.028396606445 0.712837219238
-77.389595031738 -80.516548156738 -69.089942932129 -1.376976013184 2.977710485458 -2.422477722168 -1.049903869629
-58.868324279785 -68.458465576172 -119.342521667480 2.185539245605 2.999837160110 1.723289489746 -1.119247436523
-61.375766754150 -61.941329956055 -134.474884033203 -0.231048583984 1.705220818520 1.688606262207 0.054805755615
47.585533142090 -66.301307678223 -107.577003479004 0.060218811035 1.614327549934 0.658515930176 1.472679138184
-5.007476806641 -66.260200500488 -239.131713867188 -1.036605834961 2.485200643539 0.562833309174 2.187438964844
-92.668724060059 -71.756736755371 -81.402252197266 -1.341217041016 2.394725799561 -0.196784973145 1.974113464355
-149.751998901367 -83.637451171875 -252.928482055664 1.187088012695 1.607784748077 0.525970458984 0.948234558105
-51.601589202881 -78.232025146484 -59.422798156738 0.641723632813 0.959572136402 0.009624481201 -0.713356018066
-63.665657043457 -67.446907043457 -129.326919555664 0.318328857422 0.952657341957 -0.410263061523 -0.798690795898
15.733583450317 -75.875679016113 -163.073165893555 -1.530075073242 3.159967184067 -2.562276840210 -1.038749694824
-144.427841186523 -73.924453735352 -284.444274902344 0.617828369141 0.879496812820 -0.622848510742 -0.062149047852
44.605175018311 -68.847480773926 -29.099943161011 1.227085113525 2.090056180954 1.066074371338 1.313804626465
-142.516067504883 -67.347312927246 -254.927520751953 1.169158935547 2.349200487137 0.498657226563 1.975639343262
-130.376922607422 -63.192459106445 -226.189788818359 -0.068191528320 2.255636453629 -1.571151733398 1.617012023926
-154.786285400391 -78.632888793945 -243.529022216797 3.709152221680 4.891486167908 -3.187377929688 0.097213745117
-153.631011962891 -82.470870971680 -189.149398803711 -1.340667724609 4.275444507599 -4.057189941406 -0.145759582520
-131.113876342773 -70.286140441895 -198.826568603516 -1.075881958008 2.997921466827 2.666992187500 0.846855163574
-156.585281372070 -63.666542053223 -175.141799926758 0.846542358398 4.397893428802 -4.315490722656 -0.037052154541
31.488868713379 -68.256576538086 -126.981246948242 -0.236587524414 0.800818204880 -0.751453399658 0.143714904785
-4.771999835968 -85.715469360352 -249.760772705078 1.406204223633 4.210400581360 -2.568063735962 -3.025741577148
-24.820163726807 -73.688690185547 -53.005012512207 2.432170867920 5.087760925293 3.844379425049 -2.278289794922
15.181685447693 -76.960357666016 -194.980865478516 0.999313354492 1.863035440445 1.146998405457 1.075485229492
9.044876098633 -73.163764953613 -160.799438476563 0.460678100586 1.446967005730 -0.809741020203 1.107162475586
-154.533935546875 -69.060646057129 -290.728942871094 0.733612060547 2.290647506714 2.148910522461 0.301765441895
56.700744628906 -67.943351745605 -244.116149902344 0.064392089844 1.709131121635 -0.826961517334 1.494361877441
-72.112899780273 -68.906875610352 -135.571640014648 0.272369384766 0.474241018295 -0.340637207031 0.186241149902
-67.867988586426 -81.650070190430 -203.312667846680 1.688690185547 2.540984630585 -1.186500549316 -1.482276916504
-16.818740844727 -80.875205993652 -264.942291259766 1.388153076172 5.722342967987 -5.056928634644 -2.290351867676
45.925720214844 -71.226699829102 -247.766128540039 0.609832763672 1.220379471779 0.166061401367 -1.043960571289
13.960541725159 -84.733978271484 -263.548980712891 0.239562988281 2.859038352966 -1.440909385681 -2.457740783691
-12.903953552246 -69.421958923340 -209.310028076172 1.297973632813 1.336888432503 -0.240131378174 -0.211830139160
-40.572998046875 -76.031303405762 -152.287292480469 0.723602294922 0.784382164478 0.181068420410 0.242630004883
-125.609489440918 -70.945251464844 -289.467376708984 -0.854858398438 2.525535106659 -0.493415832520 -2.324668884277
-39.668365478516 -68.781440734863 -156.650726318359 -2.795654296875 2.829110860825 -0.057319641113 0.430000305176
-35.911785125732 -68.464859008789 -44.258209228516 4.098197937012 4.098397731781 0.033218383789 0.023117065430
-36.198070526123 -61.082290649414 -43.192741394043 2.924808502197 3.762825965881 0.841724395752 2.212657928467
45.124336242676 -70.441970825195 -99.886138916016 1.303047180176 1.767009019852 1.192371368408 -0.051376342773
-78.037445068359 -63.281402587891 -101.274414062500 -0.339233398438 1.686661958694 0.048034667969 1.651496887207
-150.744354248047 -80.048507690430 -230.407913208008 -0.478500366211 2.118523836136 -0.494705200195 -2.003608703613
-40.020893096924 -74.217430114746 -176.818511962891 -0.271911621094 1.763018131256 -1.439014434814 0.981597900391
6.845302104950 -83.866302490234 -279.189544677734 1.048950195313 3.941609859467 -0.628897666931 -3.747062683105
10.572990417480 -73.401176452637 -244.017669677734 -0.600433349609 1.243594527245 0.504664421082 0.965049743652
85.095710754395 -71.216598510742 -69.983673095703 0.380737304688 1.817645072937 -0.801025390625 1.586578369141
22.673431396484 -72.991371154785 -29.631034851074 -0.090824127197 1.895161628723 -1.881134033203 0.211479187012
-62.803668975830 -79.394577026367 -91.201286315918 2.744766235352 3.352672100067 1.776279449463 -0.742630004883
32.116561889648 -70.087097167969 -255.340621948242 1.100112915039 1.131507873535 0.253469467163 0.076255798340
-22.063880920410 -72.768791198730 -198.211990356445 0.972503662109 2.266306400299 0.559108734131 -1.969207763672
-6.168288230896 -68.572471618652 -290.966156005859 -0.811950683594 1.804003953934 -1.421717166901 0.757553100586
-75.407379150391 -66.657508850098 -134.804748535156 1.100387573242 1.556209445000 -0.037078857422 1.099800109863
-144.189910888672 -79.998222351074 -286.056060791016 -0.445556640625 1.839212536812 -1.781250000000 0.106445312500
71.698265075684 -73.720573425293 -74.764976501465 -0.779418945313 1.465010046959 -0.820457458496 -0.930381774902
107.005920410156 -80.807296752930 -173.676071166992 0.125671386719 4.589621067047 -2.985038757324 -3.484016418457
-58.502334594727 -63.809104919434 -140.198928833008 -1.029830932617 2.830002069473 -2.240070343018 1.389404296875
20.814374923706 -70.401481628418 -171.103347778320 0.204788208008 2.445135354996 -1.784425735474 -1.659088134766
-62.039001464844 -67.896774291992 -129.812210083008 -0.166961669922 1.751109361649 1.216392517090 -1.248558044434
-152.753250122070 -75.594032287598 -260.875061035156 0.527008056641 2.804076194763 2.753433227539 -0.060920715332
-158.699310302734 -68.982109069824 -274.442718505859 -0.945312500000 1.481617689133 -0.646118164063 0.940269470215
101.112289428711 -77.876281738281 -200.347091674805 0.258193969727 1.685357213020 1.591163635254 -0.491897583008
-161.914428710938 -69.317611694336 -275.264709472656 -1.295593261719 2.590052843094 -1.967880249023 1.075759887695
-147.310989379883 -72.488876342773 -284.613769531250 -1.256622314453 2.975563287735 -1.623764038086 -2.153663635254
-8.350810050964 -67.869094848633 -223.890960693359 0.076141357422 2.261524677277 -2.117999076843 0.789161682129
33.651943206787 -78.681205749512 -155.289672851563 -0.464401245117 2.415425777435 1.310653686523 -1.975044250488
-37.525550842285 -70.599090576172 -168.836135864258 1.764648437500 2.391992330551 0.991397857666 -1.274665832520
14.948568344116 -72.830589294434 -241.104461669922 -0.807159423828 1.106913924217 0.599062919617 0.463546752930
102.781745910645 -59.693725585938 -69.552146911621 -1.281936645508 1.993751525879 1.148223876953 -1.006610870361
37.206901550293 -71.008819580078 -135.616073608398 1.551315307617 1.869396448135 1.042987823486 -0.015495300293
-120.475997924805 -64.327064514160 -201.114852905273 1.100936889648 1.911418080330 1.499465942383 0.439384460449
-66.158622741699 -69.817359924316 -165.306838989258 0.955337524414 3.202200174332 -1.278762817383 2.776000976563
64.665939331055 -76.498527526855 -239.777114868164 1.261642456055 3.114298105240 1.316646575928 -2.524589538574
-24.124076843262 -77.438926696777 -183.056808471680 -0.724212646484 1.994212508202 -1.492397308350 1.106864929199
47.277584075928 -61.455009460449 -19.388912200928 -0.082439422607 1.524611234665 -1.276622772217 0.829383850098
-143.292587280273 -66.998268127441 -183.903839111328 -1.705444335938 3.418679952621 0.283233642578 -2.949340820313
33.710323333740 -83.192367553711 -125.545776367188 -0.070976257324 3.190562725067 -2.912071228027 -1.301727294922
-48.775196075439 -69.014846801758 -82.432945251465 3.149322509766 3.292561769485 0.729900360107 -0.624481201172
4.906797885895 -73.736625671387 -197.278030395508 0.136627197266 5.194767475128 -4.950792789459 1.567352294922
-11.484895706177 -65.143615722656 -252.536376953125 0.266830444336 2.457113265991 1.021563529968 2.218696594238
36.990264892578 -71.227249145508 -40.450061798096 0.655212402344 0.910600185394 0.118957519531 0.621078491211
16.495817184448 -69.753662109375 -184.117095947266 1.781005859375 2.150655746460 1.115531921387 0.457084655762
-25.254949569702 -75.442802429199 -181.410354614258 -1.461013793945 1.648897171021 0.183101654053 -0.742141723633
-11.177047729492 -71.308631896973 -230.837600708008 0.753250122070 1.881938815117 -1.556922912598 0.741821289063
-68.965316772461 -70.121345520020 -156.934906005859 -0.616394042969 1.340067267418 -1.181694030762 0.139419555664
-11.009324073792 -79.507843017578 -288.105255126953 0.128051757813 1.712798833847 -0.337030410767 -1.674423217773
17.238731384277 -68.077003479004 -251.439865112305 -2.323150634766 4.057473182678 -3.315980911255 0.265197753906
-63.404701232910 -61.487682342529 -125.199836730957 0.024719238281 2.581450462341 2.152099609375 -1.425392150879
31.018239974976 -73.867904663086 -118.546279907227 1.228851318359 2.075049877167 -1.633371353149 0.357566833496
-78.271903991699 -62.536201477051 -126.148185729980 -0.465057373047 2.013031005859 -1.953041076660 -0.147125244141
11.244996070862 -82.587585449219 -245.522033691406 2.061172485352 2.341338157654 -0.903966903687 0.645195007324
93.367279052734 -74.812789916992 -80.068222045898 0.168800354004 1.035421013832 0.969871520996 -0.320861816406
11.796863555908 -64.651290893555 -287.347106933594 1.663055419922 2.362867355347 -1.246582984924 -1.124019622803
24.817825317383 -71.372512817383 -163.696395874023 -2.111541748047 2.272404909134 -0.051788330078 -0.838172912598
-88.553604125977 -75.490196228027 -285.524261474609 1.860900878906 2.315402507782 0.801261901855 -1.120765686035
16.615280151367 -62.346881866455 -276.437835693359 1.750213623047 5.357951641083 -5.043525695801 -0.455242156982
-157.746261596680 -79.911483764648 -274.329437255859 1.039916992188 5.220084667206 2.306838989258 -4.565780639648
-151.422241210938 -62.320285797119 -241.487152099609 -0.899063110352 1.293423175812 -0.817474365234 0.443130493164
-38.812648773193 -75.995178222656 -76.424530029297 1.060913085938 1.891775727272 -0.746665954590 -1.376869201660
-13.285185813904 -67.974365234375 -205.382186889648 0.037673950195 0.413455307484 -0.337541580200 -0.235778808594
89.305282592773 -79.018806457520 -206.516159057617 2.452087402344 4.227196693420 -2.795181274414 -2.010826110840
-25.877750396729 -74.678314208984 -223.143707275391 0.551300048828 1.991299033165 -1.884046554565 0.334228515625
82.922599792480 -77.674140930176 -222.232604980469 -0.123001098633 1.506233096123 1.003570556641 -1.116447448730
19.054370880127 -62.733951568604 -144.903060913086 1.270721435547 1.976934313774 0.232810974121 1.496440887451
-19.355043411255 -73.364471435547 -195.817398071289 -0.111892700195 2.575400352478 -2.496452331543 0.622810363770
-21.680412292480 -71.964721679688 -219.835891723633 -0.398651123047 1.136273503304 -0.985546112061 -0.401115417480
-15.369788169861 -73.404388427734 -207.802551269531 2.033111572266 2.567414999008 1.548691749573 -0.244194030762
-68.077049255371 -87.184387207031 -95.738723754883 0.467643737793 0.751338303089 -0.042404174805 -0.586532592773
15.804389953613 -68.638458251953 -169.993148803711 -1.351196289063 3.926097869873 -3.659292221069 0.445075988770
10.415816307068 -66.285240173340 -202.173171997070 -1.547515869141 2.496354103088 -1.532815933228 1.219612121582
-54.054172515869 -80.653099060059 -182.440673828125 -1.456893920898 1.474543571472 0.210540771484 -0.086090087891
-76.459854125977 -79.267478942871 -99.156417846680 2.998321533203 3.161687135696 -1.001564025879 0.056594848633
-75.161247253418 -80.067359924316 -208.082687377930 1.329071044922 1.488603949547 0.475219726563 -0.472946166992
15.961937904358 -76.638481140137 -235.327941894531 -0.875167846680 2.017983436584 0.350539207458 1.784225463867
99.041793823242 -76.991088867188 -195.207794189453 0.562896728516 1.979608893394 -1.879539489746 -0.263305664063
-78.898971557617 -69.046363830566 -245.977905273438 1.747360229492 1.943111658096 0.129745483398 0.839988708496
73.507240295410 -73.116889953613 -231.756072998047 0.103393554688 1.387522220612 -0.808456420898 -1.122909545898
112.558143615723 -71.841934204102 -111.749740600586 -0.030792236328 0.461675792933 0.068435668945 -0.455535888672
2.791112899780 -74.625289916992 -230.483779907227 -2.249267578125 2.580343723297 -1.258562088013 0.122436523438
19.230306625366 -77.890975952148 -155.302703857422 2.164489746094 3.642781257629 -2.802553176880 -0.854713439941
-6.471445083618 -69.829383850098 -234.572921752930 -0.342208862305 0.372765868902 0.037839889526 -0.142883300781
37.789089202881 -70.657089233398 -103.098655700684 0.834342956543 3.443017482758 -3.128852844238 1.169837951660
30.394824981689 -79.851623535156 -152.160568237305 -2.062057495117 2.204291582108 0.227926254272 0.744895935059
-30.705179214478 -62.250011444092 -69.726745605469 0.595481872559 2.692916393280 1.566297531128 -2.108058929443
-165.579818725586 -67.801170349121 -253.374023437500 -1.278381347656 1.556745290756 0.104995727539 0.882141113281
-154.331573486328 -61.400203704834 -235.744064331055 -0.620864868164 2.283442497253 -2.185226440430 0.231132507324
11.453864097595 -68.707199096680 -211.111816406250 0.954055786133 1.569372057915 -0.631617546082 1.074134826660
-99.019889831543 -63.179950714111 -158.539154052734 -0.888580322266 1.421802282333 1.068763732910 -0.299484252930
-17.953382492065 -75.509841918945 -288.579010009766 2.432159423828 2.469298362732 0.424253463745 0.045211791992
-148.942214965820 -68.594841003418 -238.848251342773 -2.475677490234 3.118103981018 1.832641601563 0.484786987305
-62.640243530273 -76.642822265625 -170.587341308594 0.270202636719 1.951349377632 -1.923877716064 0.182891845703
49.359916687012 -77.974555969238 -111.266044616699 0.109008789063 1.462622404099 1.060508728027 -1.001350402832
-13.878797531128 -81.448318481445 -264.002532958984 2.327911376953 4.254436016083 -2.116985321045 -2.863464355469
-168.447662353516 -66.820976257324 -233.877014160156 2.039398193359 3.896031141281 -3.073852539063 1.253532409668
-144.172668457031 -66.312904357910 -283.189361572266 1.355499267578 1.413931608200 0.021423339844 -0.401702880859
50.460071563721 -67.780265808105 -32.405227661133 -0.338081359863 1.953050613403 1.228412628174 1.480239868164
-163.996719360352 -64.805244445801 -206.110992431641 1.054718017578 2.599692344666 1.728866577148 1.630027770996
-113.316726684570 -70.708152770996 -193.045501708984 0.425552368164 0.982739448547 -0.816963195801 0.342422485352
12.814012527466 -83.026626586914 -232.670562744141 -0.051162719727 1.581569433212 0.770217895508 -1.380401611328
-29.810398101807 -72.469268798828 -59.989395141602 1.290554046631 2.198101758957 -0.882320404053 1.545196533203
-131.867645263672 -66.826988220215 -220.474288940430 2.796752929688 4.044177532196 2.806335449219 0.811187744141
-59.001991271973 -60.799308776855 -115.840682983398 1.163284301758 2.018390178680 -0.282260894775 -1.625114440918
-75.000114440918 -69.572982788086 -99.870208740234 -0.283653259277 1.885523676872 1.270416259766 -1.364105224609
38.459041595459 -65.970153808594 -36.984695434570 -0.087917327881 0.337952435017 -0.300411224365 0.127418518066
