-56.152103424072 -75.184829711914 -90.078521728516 0.260444641113 2.172024488449 -2.139110565186 0.272148132324
49.774753570557 -71.570678710938 -94.595474243164 -1.147476196289 2.193919897079 1.329704284668 -1.314712524414
48.666336059570 -73.111824035645 -100.715286254883 -0.328994750977 2.156106233597 2.102546691895 -0.346199035645
54.413604736328 -71.864822387695 -96.108711242676 -2.641448974609 3.331356287003 -1.356712341309 1.509971618652
56.837711334229 -70.487144470215 -98.261665344238 0.633033752441 1.595829844475 -1.464481353760 -0.035148620605
41.116600036621 -71.816085815430 -101.763473510742 2.169525146484 2.178628444672 0.198657989502 0.010841369629
106.018241882324 -70.489181518555 -103.058921813965 -0.423889160156 0.988376319408 0.528434753418 0.719696044922
-82.020095825195 -72.068229675293 -108.027458190918 -2.387458801270 3.136706352234 1.387405395508 1.487976074219
-84.022132873535 -72.529632568359 -106.527336120605 -0.887336730957 1.489627838135 -0.614631652832 1.026573181152
107.563110351563 -68.601013183594 -108.039276123047 -0.633132934570 1.465915203094 -0.335037231445 1.278984069824
48.764881134033 -73.236488342285 -113.492034912109 -0.954177856445 1.280626654625 -0.270862579346 0.810050964355
48.836593627930 -73.201103210449 -118.370590209961 -0.546066284180 3.179130077362 3.069953918457 -0.619728088379
-90.579643249512 -67.860557556152 -110.697425842285 0.733245849609 2.690209627151 -2.586509704590 -0.097702026367
107.496437072754 -71.960220336914 -114.080169677734 -0.397377014160 0.409933924675 -0.083038330078 -0.056938171387
114.646553039551 -72.965980529785 -115.252494812012 2.906547546387 3.315259695053 0.709945678711 -1.427902221680
45.487609863281 -73.880874633789 -125.094604492188 -2.277580261230 2.380527496338 0.435874938965 -0.538101196289
113.425094604492 -69.623313903809 -124.399497985840 -0.012603759766 2.027122020721 -1.656326293945 1.168609619141
108.624732971191 -69.906455993652 -130.103805541992 -1.683105468750 1.968166589737 -0.892562866211 0.494132995605
28.663619995117 -70.886154174805 -133.230056762695 0.552307128906 1.350880384445 -0.797109603882 0.940452575684
115.116760253906 -72.065155029297 -137.181182861328 0.781021118164 2.998532533646 0.837944030762 -2.771110534668
109.756584167480 -75.108558654785 -134.339614868164 -1.710617065430 1.984715819359 0.426826477051 0.911430358887
-56.843589782715 -71.940391540527 -133.004699707031 0.086959838867 0.534010469913 0.203910827637 0.485824584961
-51.638282775879 -72.257331848145 -133.841201782227 -0.009933471680 1.367103219032 1.362697601318 -0.109214782715
27.321300506592 -71.550300598145 -138.590270996094 1.514419555664 1.820508956909 -0.182744979858 0.993675231934
-53.018096923828 -69.260635375977 -135.058654785156 0.146377563477 2.380253076553 -2.056262969971 -1.189941406250
-70.104042053223 -72.553611755371 -136.686798095703 0.125076293945 2.069267749786 1.993194580078 0.541664123535
-72.581939697266 -71.582939147949 -141.047805786133 0.742858886719 0.963505268097 0.451683044434 -0.415313720703
109.415420532227 -70.968940734863 -142.140090942383 -0.613922119141 0.826450765133 -0.527885437012 -0.165702819824
-51.346851348877 -73.403808593750 -146.173538208008 1.277832031250 1.741924881935 1.004241943359 0.626853942871
-71.540847778320 -71.437248229980 -139.766464233398 -0.302612304688 1.442463874817 1.297554016113 -0.552703857422
-40.708251953125 -76.667152404785 -146.182037353516 2.210525512695 2.827542781830 1.593208312988 0.755157470703
112.766944885254 -74.590408325195 -151.466415405273 0.286483764648 0.870262861252 0.787292480469 0.235488891602
22.017978668213 -74.277877807617 -150.480880737305 -0.585830688477 2.123282194138 -1.571117401123 1.302581787109
-74.432861328125 -72.081771850586 -148.980072021484 -0.378692626953 1.301914334297 0.436935424805 -1.166473388672
-49.349533081055 -69.120674133301 -156.642364501953 1.599899291992 2.697618007660 -1.075763702393 1.886848449707
-33.928302764893 -72.739143371582 -155.721603393555 0.384231567383 2.951089620590 1.998165130615 -2.137435913086
-38.168121337891 -77.100318908691 -154.651962280273 -0.671585083008 1.698561787605 -1.218872070313 -0.973876953125
-71.694419860840 -71.825500488281 -154.000167846680 0.265151977539 1.627865076065 -0.992340087891 1.262893676758
8.958642959595 -72.510940551758 -154.718643188477 -0.607131958008 1.798501610756 1.670845985413 -0.272529602051
-50.766498565674 -71.595489501953 -151.645095825195 0.279647827148 0.749820470810 -0.370841979980 -0.588645935059
-46.829071044922 -70.945983886719 -155.437896728516 -0.717010498047 0.883210659027 -0.365848541260 -0.363471984863
28.259258270264 -74.599624633789 -161.344909667969 1.875915527344 2.281260967255 -1.290983200073 -0.135848999023
-35.774394989014 -72.933235168457 -161.477020263672 -1.896560668945 1.940499663353 0.409992218018 -0.022422790527
-68.578857421875 -73.701599121094 -163.933654785156 -0.587387084961 0.612352252007 0.167724609375 -0.042663574219
110.672134399414 -71.618148803711 -158.455856323242 -0.377014160156 2.368798732758 0.112754821777 -2.335884094238
109.122215270996 -69.843322753906 -161.183715820313 0.065216064453 2.244330644608 -2.193916320801 -0.468505859375
28.111818313599 -73.424987792969 -163.621658325195 1.588958740234 1.720211863518 -0.659036636353 -0.003105163574
112.912925720215 -73.302108764648 -169.069213867188 -0.794677734375 0.915379285812 0.453857421875 0.020492553711
107.872337341309 -75.142967224121 -169.402572631836 -0.908004760742 1.834363698959 -1.303375244141 -0.917404174805
18.846076965332 -73.414825439453 -171.574752807617 0.479034423828 1.707460165024 1.592756271362 0.386100769043
-25.264308929443 -68.226440429688 -172.072555541992 -0.460510253906 3.899453878403 1.957075119019 3.341186523438
-50.210765838623 -74.118682861328 -178.621002197266 1.335784912109 2.286148548126 1.770709991455 0.553840637207
110.108551025391 -75.153839111328 -177.513580322266 0.454132080078 0.592832267284 -0.120101928711 -0.361648559570
-38.723304748535 -71.548309326172 -173.365814208984 -1.386688232422 1.614492535591 -0.197746276855 0.802856445313
17.061340332031 -70.143516540527 -173.613494873047 -1.100311279297 1.633225440979 -0.805793762207 0.898574829102
-38.055953979492 -74.446296691895 -178.818267822266 -2.271667480469 2.450239658356 0.525924682617 0.752731323242
-49.718505859375 -70.147407531738 -182.161209106445 3.291931152344 4.892399311066 0.015819549561 3.619186401367
-146.988037109375 -71.519363403320 -184.748077392578 0.718719482422 2.397984981537 0.470581054688 2.238822937012
-150.315505981445 -70.801155090332 -185.455520629883 0.895538330078 2.146772384644 1.891647338867 0.477821350098
103.736457824707 -75.838821411133 -183.868270874023 -0.119140625000 1.846613287926 1.837867736816 -0.134269714355
22.611614227295 -74.391960144043 -185.225982666016 1.377014160156 1.965112209320 -1.247493743896 -0.639732360840
-50.827701568604 -75.605545043945 -182.688934326172 0.403945922852 1.032886862755 0.534297943115 0.786262512207
-51.416248321533 -76.294624328613 -187.474990844727 1.309188842773 1.830811142921 -0.097175598145 -1.276107788086
-43.660434722900 -74.966751098633 -187.958969116211 2.195678710938 2.445928335190 1.074638366699 -0.081932067871
-47.729301452637 -75.494163513184 -188.904617309570 -0.949722290039 2.461357116699 2.068809509277 -0.936126708984
11.143452644348 -75.829788208008 -185.463119506836 -0.463897705078 2.927473306656 -2.033895492554 -2.053817749023
12.162059783936 -70.707801818848 -189.790115356445 0.183303833008 2.145320177078 -0.351132392883 2.108436584473
103.365806579590 -72.027198791504 -190.155746459961 -0.967926025391 2.078652858734 -0.725776672363 1.690315246582
-26.018194198608 -73.032630920410 -196.496810913086 -0.390960693359 1.390877962112 0.085811614990 -1.332038879395
-45.702423095703 -73.058700561523 -196.814743041992 -1.475189208984 2.088777542114 -0.250690460205 1.457382202148
24.865802764893 -74.606689453125 -196.206802368164 0.183746337891 1.199016094208 1.131996154785 -0.349945068359
-44.157314300537 -74.372886657715 -196.262908935547 -0.923355102539 1.596436262131 1.294418334961 0.143196105957
96.402412414551 -73.559226989746 -198.198257446289 0.351867675781 1.027394771576 -0.279037475586 -0.924049377441
-35.136592864990 -74.676879882813 -200.181182861328 2.091171264648 2.463701486588 -0.446647644043 -1.223655700684
92.838928222656 -74.167335510254 -199.528152465820 -2.262680053711 3.821880817413 -3.064819335938 -0.306488037109
16.643421173096 -73.531768798828 -202.613769531250 -0.751983642578 3.061256170273 0.217142105103 -2.959503173828
-38.525493621826 -76.999412536621 -203.375915527344 -0.485229492188 1.466433525085 -1.050682067871 0.900581359863
17.473165512085 -73.922126770020 -204.713607788086 0.444473266602 2.018735408783 -1.325752258301 1.456062316895
-24.291233062744 -74.279472351074 -205.458770751953 -2.390304565430 3.065748214722 -1.283891677856 1.427192687988
-40.970951080322 -70.218826293945 -204.083770751953 -1.231399536133 4.155985832214 -3.274085998535 2.244155883789
95.062881469727 -74.397903442383 -209.393981933594 0.684341430664 0.793342173100 0.387702941895 -0.103706359863
7.895568847656 -71.629554748535 -205.482055664063 1.950088500977 2.709267377853 -1.405338287354 1.249923706055
88.318550109863 -75.076377868652 -213.907669067383 -1.541412353516 1.759159922600 -0.728256225586 0.433975219727
-9.295690536499 -71.858291625977 -210.647247314453 0.910400390625 1.257461667061 -0.814848899841 -0.297325134277
-26.126836776733 -73.292678833008 -208.534561157227 3.126876831055 3.353133916855 0.880456924438 -0.831230163574
-80.463775634766 -72.791221618652 -213.626464843750 -0.446136474609 1.208734035492 1.060440063477 0.370765686035
89.245025634766 -73.084335327148 -217.820190429688 1.158615112305 2.266000509262 1.814437866211 -0.707237243652
-19.344110488892 -75.313056945801 -214.981460571289 -0.694488525391 2.301937103271 -1.325643539429 -1.749076843262
20.351682662964 -73.954238891602 -215.058807373047 -3.120620727539 3.469151020050 0.717805862427 -1.334724426270
-29.285440444946 -74.788490295410 -214.477905273438 0.942703247070 1.032345056534 -0.377134323120 0.186592102051
-30.712896347046 -75.124031066895 -213.904510498047 -1.044357299805 2.159313917160 0.248350143433 1.873573303223
-95.265151977539 -73.693176269531 -218.901077270508 0.857254028320 1.212456345558 -0.856185913086 0.045951843262
-12.867498397827 -72.525169372559 -222.268417358398 1.598312377930 1.674067378044 -0.436514854431 0.239486694336
-22.029674530029 -73.030807495117 -222.068572998047 -1.987213134766 2.019508600235 -0.346429824829 0.096878051758
5.515454769135 -74.200553894043 -222.503143310547 1.209838867188 1.682306647301 1.095599651337 -0.407562255859
15.832612037659 -74.519691467285 -219.672836303711 0.720550537109 1.075003504753 -0.339085578918 0.722122192383
-16.502973556519 -75.450355529785 -221.701507568359 0.031631469727 0.759826123714 0.724201202393 -0.227745056152
-16.187189102173 -74.598388671875 -224.391036987305 1.274139404297 1.667926311493 0.931152343750 -0.539909362793
18.017732620239 -74.204345703125 -222.087966918945 0.491287231445 0.806887209415 0.588453292847 -0.251846313477
10.289983749390 -75.180351257324 -228.300720214844 -0.612533569336 2.925215244293 1.574170112610 -2.388236999512
8.290520668030 -74.473678588867 -227.269073486328 0.419113159180 1.784429430962 -0.425292968750 -1.681564331055
-129.225143432617 -77.187385559082 -228.268478393555 1.399017333984 2.491624116898 -0.588714599609 -1.975944519043
-14.393144607544 -73.901039123535 -226.816574096680 -0.028656005859 1.556975245476 1.418160438538 -0.642005920410
84.226196289063 -73.611625671387 -229.375900268555 0.527954101563 2.610778570175 1.286750793457 -2.209457397461
-18.702825546265 -74.482131958008 -228.011917114258 0.452056884766 1.274832487106 0.081945419312 -1.189170837402
-150.187973022461 -77.849754333496 -228.739440917969 -0.196243286133 1.174588680267 -0.794570922852 -0.842498779297
-127.769859313965 -76.620971679688 -230.896331787109 -1.228836059570 2.061008930206 0.866569519043 -1.409530639648
-10.331979751587 -75.197662353516 -232.649673461914 0.441040039063 1.183930039406 -0.677470207214 0.864990234375
78.432846069336 -74.237876892090 -228.737854003906 -0.797973632813 1.751566529274 -1.266021728516 0.910171508789
-9.174958229065 -73.895164489746 -231.993789672852 -0.402938842773 1.939972400665 0.445166587830 -1.844711303711
-2.793333053589 -74.522994995117 -231.086624145508 0.825134277344 1.308769106865 0.024453878403 1.015594482422
65.568122863770 -74.305786132813 -235.350921630859 0.817749023438 1.613357067108 1.107322692871 -0.841453552246
-4.163836002350 -76.646827697754 -235.532318115234 -1.318801879883 2.462868928909 -0.547286987305 -2.006729125977
69.904670715332 -76.880371093750 -236.320037841797 -0.640670776367 2.149791479111 -1.883338928223 -0.814971923828
-150.432281494141 -73.167663574219 -239.902374267578 0.406387329102 2.284322738647 -0.969238281250 2.028190612793
61.475639343262 -75.640045166016 -236.785751342773 -0.617080688477 3.745090007782 -2.985160827637 -2.175712585449
-31.153114318848 -77.252105712891 -239.647796630859 -0.272979736328 0.622074425220 0.558141708374 -0.030601501465
-37.660564422607 -74.251434326172 -238.314437866211 0.662597656250 2.486920356750 -2.391323089600 -0.165260314941
7.822566986084 -74.849220275879 -240.166030883789 -1.164459228516 1.960370182991 1.516143798828 -0.434043884277
-46.047164916992 -73.807128906250 -239.177520751953 1.873168945313 2.601961612701 -1.198890686035 1.350593566895
-26.136392593384 -75.079086303711 -240.847579956055 -2.581558227539 2.619920015335 -0.433820724487 -0.106475830078
9.149710655212 -75.249244689941 -239.106246948242 -1.774459838867 1.988359093666 -0.786026954651 -0.432464599609
-44.572875976563 -76.341262817383 -242.719314575195 -1.668624877930 2.064199924469 0.275398254395 -1.183540344238
-145.322448730469 -75.724617004395 -243.023666381836 0.224578857422 1.740744113922 1.615341186523 -0.608627319336
10.632328987122 -72.427398681641 -242.484588623047 -0.160766601563 1.549486517906 1.117307662964 -1.061454772949
-151.530014038086 -74.881423950195 -240.647338867188 -0.338577270508 2.117987155914 -2.066970825195 0.314430236816
-72.046928405762 -76.575210571289 -243.445419311523 2.411758422852 3.229525804520 -1.316528320313 -1.697059631348
-8.713454246521 -77.796829223633 -243.618789672852 -1.622833251953 4.642950057983 -3.133940219879 -3.016921997070
-12.894292831421 -75.971191406250 -246.621551513672 1.733535766602 3.596318483353 -1.165516853333 -2.927444458008
-81.209617614746 -72.553466796875 -247.856719970703 0.866775512695 2.014898538589 -0.274383544922 1.798118591309
-152.251373291016 -76.016105651855 -248.851272583008 -1.261535644531 2.629528045654 -2.246231079102 -0.526679992676
-145.876052856445 -76.432159423828 -249.697555541992 1.906402587891 2.383293390274 1.104766845703 0.908409118652
-89.005645751953 -76.335861206055 -250.899642944336 2.103958129883 2.133402585983 -0.238677978516 -0.260383605957
-163.491119384766 -74.375900268555 -256.039764404297 -0.798614501953 1.962058424950 0.831176757813 -1.587776184082
-128.370849609375 -73.864715576172 -252.701828002930 1.979949951172 3.324015140533 -2.150848388672 1.582000732422
23.263353347778 -74.832084655762 -256.680938720703 -0.189270019531 1.457103848457 1.437213897705 -0.147460937500
-154.608367919922 -75.602645874023 -253.563903808594 -0.767700195313 2.227630376816 -1.700393676758 -1.217224121094
-148.140823364258 -74.192001342773 -258.589569091797 1.424713134766 1.523226261139 0.532714843750 0.081398010254
-163.933181762695 -72.857696533203 -259.869445800781 -0.193878173828 1.036079049110 0.026763916016 1.017425537109
-136.422073364258 -72.816558837891 -258.220123291016 -0.740600585938 1.004836559296 -0.251174926758 0.630966186523
-123.427024841309 -75.071212768555 -261.226989746094 0.202056884766 1.171881556511 0.169418334961 -1.141830444336
-161.830581665039 -74.091499328613 -263.804626464844 1.467895507813 2.044653415680 -1.148483276367 -0.840759277344
-144.064544677734 -76.115936279297 -259.489746093750 1.208953857422 2.065395593643 -1.063949584961 -1.293174743652
-167.265350341797 -73.217048645020 -264.005218505859 -1.455841064453 1.529184222221 -0.285903930664 0.370391845703
-153.540603637695 -73.084640502930 -262.861083984375 2.086151123047 2.271638870239 0.498855590820 -0.747970581055
-161.343750000000 -74.344261169434 -261.833038330078 -1.284484863281 1.666195273399 1.009796142578 0.326522827148
-167.015182495117 -72.700996398926 -259.758056640625 0.589965820313 1.893039584160 0.042602539063 -1.798255920410
20.080665588379 -76.389030456543 -275.444030761719 -0.653594970703 3.582393169403 3.325277328491 1.161415100098
19.338638305664 -78.261703491211 -271.608123779297 -1.096710205078 1.139334440231 0.082122802734 0.297599792480
-160.731094360352 -76.800285339355 -266.684906005859 -1.412384033203 3.820536851883 -0.048995971680 -3.549545288086
-158.113723754883 -75.763435363770 -267.262573242188 1.879425048828 3.515383720398 -0.798889160156 -2.861373901367
-163.758789062500 -74.996528625488 -275.422332763672 0.980682373047 2.368077754974 2.150909423828 0.140151977539
-154.202224731445 -73.632354736328 -268.572937011719 -2.063629150391 2.296031236649 -0.935775756836 -0.370834350586
-154.015991210938 -74.719955444336 -271.685882568359 1.754425048828 2.160125255585 -0.713424682617 -1.038825988770
-151.110702514648 -77.739486694336 -274.722564697266 -1.515563964844 2.016019105911 -1.325424194336 0.103195190430
-148.444671630859 -77.623840332031 -278.495910644531 -2.049407958984 2.504351854324 -0.050781250000 1.438446044922
-163.661193847656 -73.997802734375 -278.734985351563 -2.331970214844 3.433788061142 2.248504638672 1.138877868652
-153.468597412109 -76.811492919922 -277.911010742188 -0.668487548828 3.057783603668 -1.290237426758 2.690437316895
14.872722625732 -76.158439636230 -280.217254638672 0.445770263672 1.949045658112 1.882265090942 0.239051818848
-152.292404174805 -74.164611816406 -279.138275146484 -2.278472900391 3.168881177902 -2.129104614258 0.563278198242
-161.809494018555 -77.467102050781 -277.773498535156 -2.404144287109 3.655839204788 -1.756393432617 -2.121398925781
-161.315994262695 -74.533279418945 -281.570739746094 0.533081054688 4.018577098846 -0.613250732422 -3.935569763184
-129.248214721680 -75.784736633301 -282.399963378906 2.370941162109 3.987258195877 3.059219360352 -0.958145141602
-30.242113113403 -75.102203369141 -286.956237792969 -1.464630126953 1.736541032791 0.905305862427 0.225509643555
-38.751426696777 -75.969329833984 -283.794647216797 2.154876708984 3.330609083176 0.566280364990 -2.475639343262
-66.962226867676 -76.337142944336 -288.239898681641 0.787567138672 0.890139877796 -0.404296875000 0.092903137207
-19.743021011353 -74.086318969727 -285.412139892578 3.404663085938 5.100887775421 -0.801210403442 3.712867736816
10.877701759338 -76.822303771973 -285.990539550781 2.867767333984 3.106528520584 1.168850898743 -0.245391845703
-1.842761993408 -74.161354064941 -286.036224365234 -0.254333496094 2.035562276840 1.911257982254 0.652626037598
-112.981338500977 -75.548149108887 -284.570343017578 1.876586914063 3.069835424423 1.525360107422 -1.890922546387
-92.498107910156 -74.807067871094 -287.788482666016 -0.133972167969 1.555405497551 -1.509506225586 -0.350326538086
-114.169624328613 -75.849899291992 -291.052398681641 -0.190002441406 1.038649439812 -0.346740722656 -0.960449218750
-101.078254699707 -75.603378295898 -288.001007080078 2.156799316406 2.428226947784 1.050514221191 -0.375396728516
-92.202667236328 -74.803535461426 -288.476623535156 -0.822113037109 1.506682157516 -1.214065551758 -0.346794128418
-49.437183380127 -75.112388610840 -289.667297363281 0.948516845703 3.589956045151 2.611419677734 2.273452758789
-119.272926330566 -77.910995483398 -286.671020507813 2.867370605469 3.831851720810 -2.194252014160 -1.283172607422
-88.211585998535 -73.230377197266 -288.288391113281 -0.903228759766 1.849419951439 1.143280029297 1.139053344727
-120.438209533691 -77.974548339844 -289.055084228516 2.254486083984 3.214915275574 -2.263359069824 -0.360801696777
-137.857391357422 -77.182090759277 -290.814147949219 1.197357177734 2.093234777451 1.045440673828 1.361991882324
-7.869472980499 -73.296936035156 -291.643890380859 0.243286132813 1.278664469719 -0.163904190063 1.244560241699
6.375276088715 -74.951995849609 -290.472747802734 -1.615020751953 2.392504692078 -1.756499767303 0.174629211426
-154.056396484375 -74.974250793457 -294.160614013672 0.565155029297 1.756030917168 -1.604461669922 -0.435829162598
-154.606124877930 -78.344390869141 -304.159149169922 2.055389404297 2.330213546753 -0.899688720703 -0.629150390625
-66.722084045410 -68.315841674805 -53.167453765869 -0.673698425293 4.386081218719 1.811340332031 3.937370300293
-59.506221771240 -68.778587341309 -51.166187286377 -2.967170715332 3.986721038818 2.640056610107 0.346328735352
-49.199672698975 -70.434417724609 -52.479827880859 -2.407852172852 2.901393890381 1.618312835693 -0.037391662598
-68.872406005859 -70.685981750488 -52.147647857666 0.346107482910 1.640399217606 -0.338981628418 1.567230224609
-40.024089813232 -71.672416687012 -55.532470703125 -0.419895172119 2.499964237213 -1.509544372559 1.948020935059
-77.361328125000 -68.997032165527 -50.295536041260 0.551910400391 1.196185231209 0.679870605469 0.814880371094
-84.433441162109 -69.100883483887 -61.771530151367 -3.467090606689 3.500283718109 -0.097869873047 0.470840454102
-19.168735504150 -68.329078674316 -66.876892089844 3.396476745605 4.616150856018 -2.906183242798 -1.151908874512
-16.573579788208 -68.782485961914 -70.289527893066 -0.016159057617 1.635249018669 -0.311027526855 -1.605316162109
72.492965698242 -68.942710876465 -75.136123657227 1.088668823242 3.050226926804 1.622352600098 2.342361450195
-37.223331451416 -67.716949462891 -74.643501281738 1.853561401367 2.764080524445 -1.923995971680 -0.709007263184
-31.993185043335 -68.005897521973 -75.995422363281 2.107978820801 2.473129987717 1.236009597778 -0.380889892578
73.926086425781 -67.348159790039 -79.754104614258 -3.529312133789 6.106655597687 3.055473327637 3.936912536621
95.902458190918 -71.265853881836 -84.170417785645 -0.425140380859 1.708451747894 -0.290908813477 1.628936767578
-56.652744293213 -66.207046508789 -87.442008972168 0.977249145508 1.006438493729 -0.180240631104 -0.159423828125
59.479881286621 -71.496070861816 -90.233551025391 -0.961257934570 1.390750288963 -0.301906585693 0.958656311035
45.255794525146 -70.025131225586 -92.288528442383 1.159469604492 3.401323318481 -3.189254760742 0.230834960938
50.159481048584 -68.832901000977 -97.208549499512 0.347534179688 2.097073793411 2.059295654297 -0.190368652344
46.553741455078 -69.210617065430 -97.569725036621 -0.013641357422 1.647542119026 -1.546443939209 -0.568084716797
104.078552246094 -67.034362792969 -99.689590454102 -0.775833129883 2.469550609589 2.343025207520 -0.083641052246
58.605812072754 -68.934265136719 -94.382987976074 0.402931213379 1.839064717293 0.809062957764 1.601631164551
-92.904319763184 -68.461021423340 -99.554817199707 -0.817733764648 4.624779701233 4.411888122559 1.120330810547
-74.938888549805 -66.503242492676 -98.891426086426 0.695129394531 2.272810220718 1.331642150879 1.705635070801
56.137512207031 -66.636077880859 -100.620399475098 -1.365089416504 2.825835943222 -1.580947875977 1.903282165527
42.256259918213 -70.363868713379 -102.881263732910 1.051734924316 2.244500160217 1.338317871094 1.463058471680
43.429073333740 -71.200698852539 -104.353958129883 -0.514732360840 1.273215889931 -1.022762298584 -0.556854248047
-88.555252075195 -68.227935791016 -110.007797241211 1.422874450684 1.599014878273 -0.562118530273 -0.465080261230
38.948299407959 -67.866233825684 -111.228675842285 -0.930534362793 1.822010159492 -1.081989288330 1.132751464844
50.182922363281 -66.777290344238 -112.990081787109 -0.057357788086 4.825182437897 3.139343261719 3.663825988770
43.982330322266 -73.128196716309 -120.662879943848 2.154144287109 2.414540767670 -1.069404602051 0.214576721191
43.459251403809 -73.539390563965 -119.845100402832 1.934051513672 3.030617952347 1.146240234375 -2.032295227051
114.298622131348 -69.699897766113 -127.396064758301 0.133308410645 2.080418825150 0.986740112305 -1.826667785645
-56.546646118164 -73.071098327637 -129.176773071289 0.652206420898 0.664752662182 -0.002063751221 0.128524780273
40.455036163330 -68.157897949219 -137.801498413086 -1.314224243164 4.361891746521 1.493347167969 3.881858825684
38.063652038574 -71.793373107910 -139.549331665039 0.879898071289 1.609411358833 0.640094757080 1.185859680176
112.297378540039 -70.487182617188 -139.254272460938 -1.292068481445 2.649361133575 -1.981437683105 -1.193138122559
-74.023208618164 -71.957672119141 -134.180923461914 0.370346069336 2.066554784775 2.006172180176 0.329795837402
-53.342273712158 -71.829154968262 -135.803497314453 -1.972229003906 2.026796817780 -0.341293334961 0.318962097168
117.225173950195 -70.416587829590 -138.773254394531 2.796478271484 2.972228527069 0.810867309570 0.596946716309
-74.455291748047 -71.840850830078 -139.536178588867 -0.072326660156 1.879916548729 -1.616889953613 -0.956306457520
-41.059803009033 -67.740707397461 -144.012313842773 2.633773803711 4.070899009705 2.051185607910 2.329826354980
-58.221446990967 -71.918807983398 -139.153259277344 0.659408569336 1.337328314781 -0.568767547607 -1.014953613281
107.618041992188 -69.655570983887 -142.315307617188 -0.789138793945 2.710485458374 -2.325263977051 1.147666931152
21.896709442139 -69.039779663086 -147.600112915039 0.877014160156 2.146984100342 0.533229827881 -1.885749816895
33.888492584229 -72.868934631348 -144.715026855469 -0.383193969727 2.138920068741 -1.990489959717 -0.682708740234
-40.032276153564 -70.355316162109 -150.911804199219 2.943267822266 3.185704231262 -0.421230316162 -1.143875122070
-69.999984741211 -74.881896972656 -148.734542846680 1.692199707031 1.852146148682 -0.422187805176 -0.623428344727
22.178806304932 -70.515510559082 -151.457504272461 0.548889160156 0.930218636990 0.041496276855 0.749870300293
-71.918380737305 -70.052803039551 -150.281982421875 -0.738906860352 1.865602970123 -0.754394531250 -1.537979125977
32.738349914551 -72.986839294434 -150.374114990234 -0.530136108398 1.654255270958 1.226079940796 -0.975830078125
-37.937988281250 -71.085258483887 -151.674331665039 2.097793579102 3.034088134766 0.132263183594 2.188026428223
23.054513931274 -72.066528320313 -148.473922729492 -0.096374511719 1.089698553085 1.033683776855 0.331138610840
12.193913459778 -74.427154541016 -152.733032226563 -0.111816406250 0.874922096729 -0.865448951721 0.063117980957
-69.055831909180 -72.857307434082 -156.859985351563 -1.364532470703 2.260778427124 -1.789558410645 0.215988159180
-47.334407806396 -71.640861511230 -154.068588256836 0.115554809570 1.419721364975 -0.307739257813 -1.381141662598
-61.543270111084 -68.988441467285 -158.888809204102 -0.012557983398 4.123929500580 2.808231353760 3.020011901855
-45.956176757813 -72.670867919922 -160.083831787109 0.964843750000 1.467757940292 -0.946151733398 0.572875976563
4.403248786926 -72.178421020508 -165.488159179688 -1.330764770508 2.504538774490 -0.104368209839 2.119171142578
-33.546470642090 -69.627235412598 -166.066375732422 1.730590820313 2.655904531479 -0.810447692871 1.844467163086
-42.388660430908 -72.970420837402 -165.242080688477 1.325317382813 1.420252680779 0.488357543945 -0.148857116699
20.600187301636 -70.318946838379 -167.006744384766 1.577163696289 1.645969510078 0.441659927368 0.163421630859
-41.912033081055 -71.525825500488 -163.600173950195 -0.899139404297 1.654906272888 0.869331359863 -1.083755493164
29.160320281982 -71.003768920898 -166.053939819336 1.901809692383 2.042864084244 0.189357757568 -0.721496582031
117.946434020996 -70.283248901367 -168.760086059570 -2.670501708984 4.238308906555 2.997222900391 1.359535217285
-29.241615295410 -73.260620117188 -169.979858398438 0.344100952148 1.576139926910 1.483781814575 -0.405220031738
27.196008682251 -73.279312133789 -168.422164916992 1.649795532227 2.110711812973 -1.262397766113 0.373672485352
-65.057701110840 -71.102622985840 -166.208496093750 0.053680419922 1.502267837524 -0.177841186523 1.490737915039
-60.698135375977 -73.998756408691 -171.561737060547 -0.177474975586 1.722179055214 -0.288028717041 -1.688621520996
-37.529479980469 -70.604187011719 -170.757339477539 -0.156555175781 1.624006032944 0.987468719482 -1.279762268066
-62.264617919922 -74.630317687988 -173.415344238281 1.304870605469 1.493406295776 -0.688377380371 -0.231758117676
106.498794555664 -70.705192565918 -175.820114135742 1.925628662109 2.258113145828 1.103370666504 0.416656494141
-147.107055664063 -70.372520446777 -173.694198608398 1.873504638672 2.076753139496 -0.114715576172 -0.888664245605
-147.772949218750 -75.387603759766 -176.441406250000 0.185409545898 2.136033535004 0.949462890625 -1.904411315918
-54.062614440918 -72.495582580566 -180.821228027344 -0.675003051758 1.179444670677 0.483921051025 0.837425231934
110.061241149902 -71.148361206055 -178.783035278320 0.249893188477 2.282663822174 -2.206497192383 0.528656005859
112.663803100586 -70.830383300781 -180.024444580078 -0.991516113281 1.362630009651 0.396064758301 0.846633911133
107.573745727539 -73.227241516113 -179.752334594727 1.231872558594 1.246531844139 0.190322875977 -0.010429382324
24.117193222046 -72.595245361328 -182.826751708984 -0.358779907227 0.501069843769 0.349039077759 0.022796630859
-35.548393249512 -76.284629821777 -180.945175170898 -1.798339843750 2.496645450592 -1.407371520996 1.009216308594
-143.913528442383 -72.597213745117 -180.749679565430 0.881072998047 1.334646463394 0.996383666992 0.110504150391
108.727485656738 -72.660232543945 -182.836441040039 -0.435256958008 1.277753233910 0.795135498047 0.900535583496
20.978687286377 -71.360847473145 -193.020858764648 -1.470046997070 1.599992513657 -0.167358398438 0.609039306641
106.130699157715 -71.285865783691 -192.723434448242 -2.042434692383 2.890338420868 -0.775863647461 1.892234802246
102.665306091309 -71.879234313965 -190.742843627930 2.130325317383 2.583513736725 1.391960144043 -0.445762634277
10.189060211182 -73.387054443359 -195.277908325195 -0.283325195313 0.448023051023 0.008298873901 -0.346961975098
-126.923080444336 -74.316741943359 -195.946472167969 -1.283172607422 3.497991085052 -2.117950439453 -2.470565795898
-123.109069824219 -71.331321716309 -195.493988037109 -0.045776367188 0.680134594440 -0.152412414551 -0.661254882813
-144.117462158203 -80.291603088379 -197.925674438477 -1.135833740234 1.490883469582 -0.853393554688 0.452033996582
-130.645385742188 -70.862907409668 -197.103424072266 -0.643844604492 1.732416629791 0.845443725586 1.368194580078
-125.112487792969 -76.420814514160 -198.168685913086 0.318832397461 2.644291639328 -0.736343383789 -2.519607543945
-25.101535797119 -71.188087463379 -201.505584716797 0.107025146484 2.769715785980 -1.179994583130 2.503494262695
-27.469629287720 -75.432846069336 -199.466354370117 -0.808731079102 2.772874832153 -2.176549911499 -1.515724182129
-131.824768066406 -70.763626098633 -200.064498901367 0.336914062500 2.570128917694 1.372589111328 2.146636962891
-146.701278686523 -71.219299316406 -199.016494750977 -0.790466308594 0.895330607891 0.165100097656 0.386680603027
-11.168841362000 -72.214401245117 -205.424957275391 -0.254348754883 0.983046710491 -0.207411766052 -0.926643371582
96.746330261230 -74.543830871582 -198.505096435547 -1.239624023438 1.647142887115 0.842582702637 -0.682983398438
-18.209480285645 -72.200538635254 -205.189407348633 -0.233245849609 1.919735074043 1.828926086426 -0.534797668457
90.511245727539 -75.362312316895 -211.526626586914 0.839630126953 1.694543480873 1.464439392090 0.148040771484
15.388583183289 -72.746383666992 -208.315017700195 0.463928222656 1.956345319748 -1.778702735901 -0.669532775879
-9.725344657898 -73.522148132324 -212.865615844727 -1.307968139648 2.665671110153 -1.244503021240 -1.961181640625
16.232303619385 -74.407516479492 -210.818466186523 -2.039520263672 3.235094547272 -0.934982299805 -2.330665588379
-25.971927642822 -73.547203063965 -209.156158447266 2.505279541016 2.920149087906 1.035366058350 -1.085754394531
-85.988975524902 -72.496360778809 -212.982376098633 -0.049026489258 0.817842245102 0.233734130859 0.782196044922
-88.732543945313 -72.259841918945 -212.315475463867 0.617874145508 2.778275728226 -2.509834289551 1.018714904785
-14.817116737366 -72.474662780762 -209.954544067383 -0.118881225586 2.213552236557 2.101363182068 0.685531616211
-94.584129333496 -75.692428588867 -213.620208740234 1.566894531250 2.914278030396 -2.393096923828 -0.557624816895
-98.874984741211 -72.268211364746 -214.746566772461 2.511352539063 2.742660999298 -1.065551757813 0.282661437988
86.370422363281 -75.910949707031 -219.032302856445 -1.664016723633 2.441239118576 0.125396728516 1.781845092773
-26.110210418701 -72.354804992676 -220.805557250977 0.525390625000 2.973125219345 0.524433135986 2.878959655762
-25.004255294800 -73.508819580078 -222.473068237305 1.221939086914 2.185299158096 -1.010551452637 1.503723144531
-19.389520645142 -71.823081970215 -218.287567138672 -1.274581909180 1.750532507896 1.104341506958 -0.469291687012
-18.723583221436 -73.014343261719 -222.279037475586 0.293731689453 0.658549964428 -0.589107513428 0.019027709961
-21.385885238647 -73.534301757813 -221.854293823242 -1.772933959961 1.843109965324 0.297359466553 -0.406616210938
17.898305892944 -71.883689880371 -221.968414306641 0.610839843750 2.207506179810 0.469026565552 2.068809509277
-143.348587036133 -73.782608032227 -223.754135131836 -1.791748046875 2.325268030167 0.414550781250 1.422904968262
77.736099243164 -73.023200988770 -224.928665161133 0.043457031250 1.212808489799 -1.186157226563 0.249092102051
-7.364058017731 -70.074150085449 -226.578445434570 -0.542190551758 1.059494614601 -0.903204917908 -0.113044738770
7.614932060242 -73.311996459961 -229.971527099609 -0.828506469727 2.240908145905 0.716410160065 -1.954994201660
77.874168395996 -75.667411804199 -226.816131591797 1.514938354492 2.139213085175 1.331909179688 0.712188720703
-121.716300964355 -72.384597778320 -228.917984008789 -0.842010498047 0.909814536572 0.089660644531 0.332778930664
-164.256027221680 -72.477432250977 -234.069152832031 -1.124313354492 1.694079875946 -0.839080810547 0.949615478516
-139.094604492188 -75.393112182617 -227.495635986328 -0.009597778320 2.098917722702 -0.783218383789 1.947288513184
14.372193336487 -73.600074768066 -232.169860839844 0.385528564453 2.045206069946 0.523648262024 -1.939079284668
9.151069641113 -73.424781799316 -230.219253540039 -2.531066894531 2.644998311996 0.435256004333 -0.632667541504
-129.929397583008 -76.883430480957 -232.365524291992 -2.698028564453 3.427342176437 -1.292968750000 -1.671989440918
2.769083976746 -74.823623657227 -233.772735595703 1.433654785156 2.574317932129 0.124103069305 2.134559631348
-143.237045288086 -73.691406250000 -234.946502685547 -0.389190673828 0.823053538799 -0.521133422852 0.504348754883
-3.033499956131 -77.441337585449 -232.985305786133 -0.804595947266 1.067885875702 0.663398027420 0.230018615723
11.357010841370 -72.918647766113 -237.256469726563 0.075317382813 2.372466325760 1.421273231506 1.898132324219
-1.376942038536 -76.332336425781 -236.013702392578 1.844329833984 1.959422111511 -0.535138010979 -0.389114379883
-5.160196781158 -74.555648803711 -236.581924438477 -1.741500854492 2.251072883606 -0.452538013458 -1.352668762207
6.176372051239 -75.839134216309 -237.134429931641 1.325332641602 1.437481641769 -0.484400749207 -0.274230957031
-159.345565795898 -73.480911254883 -236.290756225586 -0.508453369141 1.957351684570 -1.213424682617 1.449241638184
-157.857833862305 -74.746414184570 -237.649917602539 -1.867614746094 1.896573066711 0.274307250977 0.183738708496
15.090688705444 -70.973312377930 -241.419235229492 0.063537597656 1.152603983879 1.142342567444 0.139686584473
-0.429589003325 -72.892906188965 -239.886367797852 -1.733245849609 1.826107859612 0.549973964691 -0.167503356934
63.614139556885 -74.112266540527 -239.382202148438 1.656555175781 1.683286547661 0.264846801758 -0.138328552246
61.815216064453 -75.807685852051 -237.906036376953 -1.737365722656 3.938128948212 -2.645584106445 -2.343353271484
-164.486663818359 -75.462936401367 -244.485382080078 -2.299102783203 3.746587276459 1.438079833984 -2.585144042969
-161.688049316406 -76.083679199219 -240.745071411133 -0.542266845703 1.625858306885 0.480346679688 -1.455551147461
-153.572937011719 -70.558853149414 -241.673355102539 1.712875366211 1.811057567596 -0.584579467773 -0.065223693848
-58.226642608643 -73.577476501465 -239.940734863281 3.365615844727 4.968482017517 1.169296264648 3.462829589844
-7.244874000549 -74.802581787109 -244.729278564453 -0.832641601563 3.154378414154 1.458600044250 -2.670074462891
-48.680271148682 -72.657737731934 -245.594573974609 -1.796966552734 2.240701675415 -0.821723937988 1.056610107422
-153.927719116211 -77.618377685547 -245.844024658203 1.394149780273 2.933078527451 -2.328811645508 1.111724853516
-61.039455413818 -74.704597473145 -242.481033325195 1.897201538086 2.106459140778 0.746986389160 -0.528968811035
16.823726654053 -76.457099914551 -248.704162597656 0.190017700195 0.303533613682 -0.229728698730 0.057014465332
-11.300635337830 -70.348388671875 -250.390319824219 -2.301422119141 2.646916151047 0.574309349060 1.174644470215
-7.968038082123 -75.978912353516 -248.608139038086 -0.652999877930 2.186506748199 -0.194087028503 -2.077674865723
-155.929916381836 -77.417564392090 -247.811264038086 2.084518432617 4.121071815491 1.606307983398 -3.171401977539
-163.555801391602 -70.960868835449 -249.960632324219 -0.268737792969 3.158257722855 1.323410034180 2.854988098145
-87.904365539551 -75.864196777344 -247.786697387695 3.451324462891 3.723275423050 -0.745025634766 -1.181556701660
-164.503509521484 -74.243209838867 -247.545303344727 1.252410888672 1.456913948059 0.274475097656 0.691902160645
-146.824691772461 -76.162918090820 -247.032089233398 0.356262207031 0.364518404007 -0.071884155273 -0.027992248535
-77.713439941406 -71.521873474121 -252.262741088867 1.212844848633 1.659574508667 0.303710937500 -1.091308593750
-92.482597351074 -75.353981018066 -251.753738403320 0.534149169922 1.858049631119 -1.463005065918 -1.013236999512
-88.112838745117 -73.151283264160 -254.457839965820 0.219436645508 2.112615346909 -0.126037597656 -2.097404479980
-136.014160156250 -73.706687927246 -253.950302124023 1.362487792969 1.381544589996 -0.210296630859 -0.089820861816
18.423973083496 -72.915069580078 -256.870452880859 0.533508300781 3.258980035782 -2.294542312622 2.251976013184
-98.637992858887 -73.794860839844 -256.047546386719 -0.821334838867 1.908678650856 -1.713981628418 -0.175300598145
-101.367103576660 -72.218666076660 -258.384826660156 -0.437286376953 0.739458024502 -0.398872375488 0.443260192871
-104.687515258789 -71.595352172852 -251.785095214844 4.284851074219 4.441452980042 -1.093902587891 -0.412231445313
-116.337959289551 -76.837409973145 -257.549865722656 -1.280670166016 2.596874713898 1.712631225586 -1.473274230957
-107.977828979492 -73.884834289551 -257.342315673828 1.506927490234 2.581091880798 1.106788635254 -1.779388427734
-116.882820129395 -75.970695495605 -259.899230957031 0.909332275391 3.072165250778 -0.616905212402 -2.868927001953
-143.484970092773 -79.482299804688 -256.834960937500 1.276275634766 2.430653095245 -1.831314086914 -0.962020874023
-136.517440795898 -73.487136840820 -257.108734130859 0.370788574219 0.509062707424 -0.346542358398 -0.039611816406
-153.895904541016 -78.467063903809 -263.785614013672 -0.201354980469 2.273667335510 -2.264572143555 -0.027061462402
-143.982086181641 -75.718383789063 -270.817047119141 0.805847167969 4.097866535187 3.508758544922 1.957481384277
-170.729248046875 -76.980888366699 -273.588043212891 3.280334472656 5.724247455597 -3.602386474609 -3.004867553711
-11.146116256714 -75.440589904785 -275.942474365234 -0.814086914063 2.060347557068 0.280135154724 -1.871849060059
-130.050598144531 -75.082824707031 -279.384765625000 5.386138916016 5.845464706421 2.256835937500 -0.256233215332
-138.123657226563 -74.950317382813 -283.022644042969 1.047790527344 3.933229684830 -3.571243286133 -1.272262573242
-49.573261260986 -75.899200439453 -284.509674072266 1.461456298828 2.192677497864 -0.186416625977 -1.623954772949
-87.677238464355 -75.079437255859 -284.386566162109 1.924774169922 3.222648859024 -1.367118835449 -2.193557739258
-28.478435516357 -76.884513854980 -283.988067626953 2.293395996094 2.752420902252 -0.500844955444 -1.437118530273
-34.738388061523 -72.711608886719 -284.013580322266 2.209442138672 3.807381391525 -3.050825119019 0.554061889648
-115.062759399414 -76.051040649414 -285.715362548828 0.731567382813 2.564125537872 -0.556060791016 -2.393814086914
-17.434570312500 -73.893608093262 -288.263977050781 1.671783447266 2.084618330002 -0.493343353271 -1.143409729004
13.394583702087 -74.963409423828 -288.356018066406 -0.133178710938 1.353751897812 -1.280599594116 0.418296813965
-51.111507415771 -76.890792846680 -290.767059326172 -0.151245117188 1.070558905602 0.937095642090 0.495048522949
-114.268188476563 -73.908355712891 -289.046661376953 -1.132293701172 1.895778059959 -1.477630615234 -0.358459472656
-76.383110046387 -73.445274353027 -288.401763916016 0.629608154297 2.355505943298 0.344543457031 2.243499755859
-70.139785766602 -71.687973022461 -293.444305419922 -2.887390136719 3.272127866745 -0.411796569824 -1.483314514160
-32.191360473633 -73.097610473633 -291.060852050781 -0.300201416016 1.727865576744 -1.700906753540 0.048110961914
-105.299537658691 -71.452987670898 -287.000091552734 0.451324462891 1.180492281914 1.089584350586 -0.051712036133
-112.345985412598 -71.703178405762 -292.660736083984 -0.663208007813 2.096954584122 1.974205017090 -0.244720458984
-8.524673461914 -74.926460266113 -291.286499023438 0.600677490234 1.086251854897 -0.819104671478 -0.384963989258
-160.255798339844 -72.651817321777 -291.871398925781 1.338012695313 1.437150835991 0.414215087891 -0.321792602539
-154.095764160156 -77.761215209961 -293.665710449219 -0.137451171875 2.394007205963 1.560134887695 -1.810623168945
-153.124908447266 -79.265251159668 -310.565277099609 0.274993896484 2.189049482346 -0.755691528320 -2.035987854004
30.239580154419 -66.996902465820 -16.146286010742 2.166852951050 2.731274366379 -1.124479293823 -1.224807739258
24.593067169189 -67.335716247559 -16.440443038940 0.056470870972 2.278751373291 -0.089349746704 -2.276298522949
25.901405334473 -70.373291015625 -21.092821121216 0.168779373169 0.713337004185 -0.366468429565 0.588272094727
25.468353271484 -68.232879638672 -24.624746322632 0.706869125366 0.988550484180 0.130035400391 -0.678718566895
23.817941665649 -67.828987121582 -27.294651031494 0.270826339722 1.635581731796 -1.600147247314 -0.203247070313
31.790987014771 -67.741897583008 -35.625160217285 -0.244537353516 1.095050811768 0.596940994263 0.884872436523
30.674364089966 -68.893653869629 -40.997070312500 0.174438476563 1.506767153740 -1.289676666260 0.759376525879
-54.720672607422 -70.086921691895 -53.232433319092 -3.550682067871 4.636428833008 0.600685119629 2.920326232910
-27.497575759888 -64.891021728516 -52.941082000732 -2.251384735107 3.521877288818 -2.490365982056 1.064407348633
86.913970947266 -69.409446716309 -68.322700500488 -0.428878784180 1.814027547836 -0.695030212402 1.619781494141
-90.786705017090 -67.080787658691 -71.870223999023 -1.171180725098 3.774128913879 0.694229125977 3.520004272461
73.111549377441 -69.654922485352 -76.559616088867 -0.334823608398 2.791288375854 2.240936279297 1.630149841309
-39.674095153809 -72.410171508789 -78.762687683105 -0.701812744141 2.683284759521 0.599788665771 -2.519470214844
-90.075691223145 -69.730613708496 -78.376518249512 -0.355232238770 4.847308158875 4.441635131836 1.908424377441
-43.292972564697 -71.322433471680 -84.230567932129 -2.631462097168 2.709012031555 -0.089736938477 -0.637260437012
101.124984741211 -73.497406005859 -85.394302368164 1.749557495117 2.411462068558 1.400337219238 -0.890647888184
-91.239898681641 -69.810821533203 -90.481758117676 -1.095924377441 4.661845684052 4.401695251465 1.075561523438
68.985565185547 -72.792304992676 -90.843124389648 -0.228599548340 0.788045942783 0.593521118164 -0.465286254883
-95.554382324219 -70.050376892090 -93.806190490723 -1.730606079102 2.331682443619 0.862953186035 -1.302711486816
59.453578948975 -69.519882202148 -94.848541259766 0.833404541016 1.402559280396 -0.793865203857 -0.801490783691
105.981307983398 -70.869918823242 -96.320098876953 -0.293411254883 1.008279204369 0.882385253906 0.389785766602
-68.155570983887 -70.551307678223 -95.675270080566 2.661987304688 3.570907592773 -0.794456481934 -2.243667602539
41.409336090088 -71.294746398926 -100.260437011719 0.928749084473 2.836145639420 -2.522628784180 -0.904151916504
82.399299621582 -67.190170288086 -103.398094177246 0.819587707520 2.035691261292 -1.218093872070 1.410163879395
83.757972717285 -70.631637573242 -101.832969665527 -0.164970397949 0.380042850971 -0.263557434082 0.218528747559
44.406608581543 -70.769210815430 -102.472137451172 1.367088317871 1.373569250107 -0.045227050781 -0.125366210938
109.596618652344 -70.774497985840 -101.330825805664 -0.835739135742 2.082739353180 -0.085266113281 -1.905799865723
-96.754333496094 -73.181816101074 -109.948440551758 -0.331809997559 2.949435710907 -1.342903137207 -2.604934692383
99.444686889648 -69.207878112793 -105.209068298340 -1.624771118164 3.293138265610 1.886413574219 -2.155532836914
110.063919067383 -69.638252258301 -110.036636352539 0.116928100586 0.958314776421 0.578330993652 0.755134582520
35.094242095947 -72.383781433105 -112.680305480957 1.274787902832 1.520562171936 -0.770973205566 -0.304344177246
48.016738891602 -71.132835388184 -112.837837219238 0.094886779785 1.197713971138 0.973159790039 -0.691719055176
44.945804595947 -72.610931396484 -117.213165283203 0.611358642578 1.023915648460 -0.820835113525 -0.029556274414
31.631778717041 -69.713241577148 -115.365509033203 -1.410415649414 5.050756454468 -4.233436584473 2.366195678711
43.888584136963 -69.797401428223 -118.734458923340 -0.800758361816 1.441370725632 0.043842315674 1.197669982910
43.898284912109 -72.119445800781 -120.656921386719 1.122230529785 2.036533117294 1.585273742676 -0.612350463867
109.484260559082 -72.263778686523 -119.852066040039 -0.590866088867 0.907159805298 -0.684654235840 0.071166992188
113.963699340820 -71.421043395996 -129.555557250977 -1.042816162109 1.994865894318 1.664413452148 0.348930358887
29.578739166260 -67.061775207520 -124.073783874512 2.670875549316 4.001152992249 -2.661582946777 1.338516235352
30.351249694824 -70.305519104004 -131.315994262695 0.854660034180 1.164949536324 -0.352327346802 0.708892822266
-74.601219177246 -72.352394104004 -135.151077270508 -0.599807739258 1.550364613533 1.428161621094 -0.064926147461
-54.636051177979 -68.636077880859 -132.249359130859 1.145843505859 1.949820160866 0.504608154297 1.494728088379
114.222839355469 -73.983848571777 -138.909606933594 -0.857391357422 1.721576452255 1.492340087891 0.040328979492
25.790023803711 -70.761695861816 -135.054214477539 -0.425170898438 2.125828266144 0.725095748901 1.952590942383
36.960315704346 -74.136627197266 -132.463256835938 -0.741638183594 2.280613422394 -1.564270019531 -1.484664916992
-78.536529541016 -71.562507629395 -135.274810791016 0.753814697266 2.083796977997 -1.119239807129 1.587852478027
28.693866729736 -66.401504516602 -139.594329833984 0.490768432617 2.616290092468 1.835617065430 -1.798507690430
25.204051971436 -71.777626037598 -139.351562500000 0.266784667969 1.324834823608 -0.575384140015 -1.163162231445
-46.676223754883 -70.322601318359 -140.433883666992 -1.757522583008 2.218929767609 1.349498748779 -0.116691589355
