-38.599708557129 -69.048370361328 -155.747955322266 -1.892883300781 2.152301549911 1.011337280273 0.163070678711
-71.721443176270 -69.020294189453 -155.401977539063 -0.177459716797 2.929550886154 -1.679718017578 2.393600463867
-45.747055053711 -72.055839538574 -159.189193725586 1.797607421875 2.258634090424 0.219120025635 -1.349822998047
108.261322021484 -70.308685302734 -159.698867797852 -0.724594116211 2.251180887222 0.295783996582 2.110755920410
30.419361114502 -70.114189147949 -160.626815795898 2.087570190430 2.339161157608 -0.214578628540 1.033287048340
109.672370910645 -71.484642028809 -159.579376220703 -0.605102539063 2.037959098816 1.706832885742 0.934799194336
-37.152328491211 -69.007118225098 -162.248977661133 0.657745361328 0.802184462547 -0.450542449951 -0.088783264160
15.928325653076 -69.017120361328 -163.672363281250 0.494354248047 3.585758924484 -2.606773376465 2.412055969238
1.028027057648 -69.028244018555 -160.736068725586 -0.030395507813 2.474710702896 -2.359149932861 0.746780395508
-32.271183013916 -69.431327819824 -162.392990112305 1.839431762695 2.777226686478 -0.597459793091 1.993118286133
-61.512569427490 -72.408340454102 -165.172882080078 -1.244308471680 2.247813463211 1.857604980469 0.231658935547
-33.509574890137 -72.679290771484 -168.293594360352 -0.496627807617 1.517659664154 -0.773551940918 -1.207588195801
-60.953899383545 -70.702766418457 -171.276855468750 0.107406616211 1.700258851051 -0.543792724609 1.607368469238
-39.495746612549 -67.454444885254 -169.733215332031 0.867568969727 2.282004833221 -0.978797912598 1.869979858398
29.409427642822 -72.920745849609 -171.254867553711 0.412765502930 1.335612416267 0.768829345703 1.011131286621
-38.014976501465 -69.118133544922 -172.873245239258 -2.272460937500 2.336367130280 0.501972198486 0.206291198730
-153.414627075195 -70.856895446777 -177.025787353516 0.181655883789 1.925727963448 -1.338958740234 -1.372085571289
113.520927429199 -68.294998168945 -177.089141845703 -1.385559082031 3.650087356567 1.921516418457 2.776893615723
-152.883285522461 -72.006698608398 -182.474014282227 -0.681579589844 2.597297430038 -0.129699707031 -2.502914428711
-142.101348876953 -72.494392395020 -182.106338500977 1.060867309570 1.937270164490 1.398101806641 -0.820297241211
15.162194252014 -69.783470153809 -181.313827514648 0.592651367188 0.596144735813 0.052872657776 0.036842346191
25.836582183838 -70.487998962402 -184.587860107422 -2.670822143555 2.694540500641 -0.032751083374 0.355224609375
-35.198104858398 -69.879074096680 -184.142044067383 -1.404861450195 1.428745865822 -0.125354766846 -0.227958679199
-149.749679565430 -70.032432556152 -191.670715332031 -0.006881713867 2.135536193848 0.667053222656 -2.028671264648
-34.495147705078 -68.709007263184 -187.361785888672 -1.143035888672 3.372568130493 -0.917949676514 3.037277221680
-145.120513916016 -69.665428161621 -188.169174194336 -0.067626953125 2.438837528229 1.135589599609 2.157264709473
-16.022970199585 -71.799438476563 -191.411224365234 1.677459716797 2.118891239166 0.639478683472 1.125564575195
13.820034027100 -71.864318847656 -190.535995483398 -0.562576293945 1.711864113808 1.306841850281 0.951919555664
99.552589416504 -71.264045715332 -197.471099853516 -0.110610961914 1.480618000031 1.475326538086 0.058364868164
11.401524543762 -71.738861083984 -196.395736694336 0.830902099609 1.500934243202 1.218442916870 -0.278930664063
-128.391204833984 -70.758705139160 -196.569335937500 -2.954421997070 3.206968069077 -0.933105468750 -0.827857971191
-131.529891967773 -71.317276000977 -195.846847534180 0.612731933594 1.100928783417 -0.039062500000 0.913825988770
-140.421264648438 -72.418235778809 -198.300903320313 -0.054611206055 1.175556540489 -0.012115478516 -1.174224853516
96.585914611816 -69.364524841309 -198.284698486328 -0.924209594727 2.628992080688 -1.491348266602 1.957885742188
-130.988250732422 -72.054183959961 -199.390548706055 1.010864257813 2.575824022293 2.209106445313 0.856079101563
10.626909255981 -70.618522644043 -205.729965209961 -0.565765380859 2.489292860031 -1.824795722961 -1.595809936523
-26.432596206665 -71.311477661133 -200.178955078125 -2.493362426758 2.891281843185 -1.463340759277 0.035896301270
-129.678802490234 -70.603485107422 -206.110549926758 -0.866119384766 2.315782785416 -1.515335083008 -1.521987915039
-149.278152465820 -74.139572143555 -205.088546752930 0.510040283203 1.586802363396 0.454376220703 -1.432250976563
97.512969970703 -71.835609436035 -205.883255004883 0.409118652344 1.246803045273 -0.758781433105 -0.900772094727
-11.346916198730 -67.771896362305 -200.952377319336 0.442367553711 2.212126493454 2.167147636414 0.035850524902
99.425781250000 -73.511596679688 -201.674850463867 -0.744171142578 1.209811210632 0.324424743652 0.896995544434
-11.461806297302 -71.501678466797 -205.333862304688 -0.163253784180 0.568146705627 -0.500376701355 -0.213920593262
95.101844787598 -70.186386108398 -207.989654541016 -1.908981323242 2.193445205688 0.576942443848 0.913307189941
-143.433242797852 -73.072166442871 -206.410079956055 0.039154052734 1.131287693977 0.962661743164 -0.592926025391
-17.786094665527 -70.413803100586 -210.214920043945 -0.283294677734 1.733445525169 0.938224792480 -1.429794311523
-151.240615844727 -69.276298522949 -213.870864868164 1.428924560547 2.884896039963 -1.920822143555 -1.609733581543
-146.600830078125 -71.462280273438 -208.330947875977 0.864395141602 1.745406985283 -1.318969726563 0.748054504395
-16.293968200684 -72.403732299805 -214.848892211914 2.022094726563 2.140746831894 -0.199687957764 -0.673835754395
-85.688018798828 -69.342002868652 -213.031158447266 2.071701049805 3.399924993515 0.688842773438 2.606346130371
-160.426788330078 -68.195198059082 -214.472564697266 -1.392929077148 1.404981851578 -0.139358520508 0.119590759277
-161.501663208008 -71.842323303223 -213.457870483398 -1.226547241211 3.552578687668 3.321792602539 -0.286514282227
-155.875991821289 -73.787719726563 -211.389862060547 0.743774414063 1.327182888985 0.588500976563 -0.928375244141
-27.013261795044 -68.618560791016 -216.169952392578 1.465820312500 4.802301406860 -2.838800430298 3.585342407227
-24.238882064819 -72.679618835449 -217.465606689453 0.170166015625 0.509324908257 -0.064420700073 -0.475715637207
-16.687200546265 -70.148628234863 -213.426361083984 -0.520706176758 0.588955283165 -0.054883956909 0.269668579102
-14.294174194336 -69.392601013184 -214.963760375977 -1.560409545898 1.636913657188 0.429181098938 0.245788574219
-143.398696899414 -72.448822021484 -215.653945922852 1.225006103516 2.932008504868 1.817260742188 1.947715759277
18.465719223022 -73.655235290527 -220.018676757813 0.362411499023 2.350853204727 0.101799011230 2.320518493652
-152.151733398438 -71.457160949707 -221.453933715820 1.844436645508 1.960172653198 0.421554565430 0.512466430664
-94.044197082520 -72.749038696289 -219.486587524414 0.271743774414 1.089577078819 0.364768981934 0.990089416504
-164.897109985352 -73.008186340332 -221.675949096680 -2.953552246094 3.684989213943 -2.146026611328 0.500244140625
-25.315032958984 -73.991798400879 -223.334991455078 0.360015869141 1.708051800728 -1.321329116821 1.020744323730
-18.586900711060 -72.457435607910 -219.655075073242 -0.217834472656 2.299978494644 2.107965469360 -0.893829345703
-158.812469482422 -72.008514404297 -216.782546997070 -1.333923339844 2.888217687607 -2.558883666992 -0.120681762695
13.183340072632 -67.096534729004 -215.199600219727 -0.350585937500 0.809381663799 0.696809768677 0.215972900391
-156.521682739258 -70.419357299805 -219.540084838867 2.309249877930 2.893748044968 1.730026245117 -0.219436645508
6.809339046478 -69.878944396973 -222.539703369141 1.340270996094 1.869127392769 -0.774857997894 1.047332763672
-159.882369995117 -70.811187744141 -223.878997802734 -0.491592407227 1.499155044556 -1.086807250977 0.908103942871
-154.580429077148 -71.002265930176 -225.059143066406 1.702194213867 2.775336980820 0.835205078125 -2.026687622070
-106.247207641602 -70.831642150879 -221.322082519531 0.951660156250 2.246026277542 0.271667480469 -2.016227722168
4.978541851044 -68.459449768066 -225.395812988281 0.925994873047 2.259110689163 1.908689737320 -0.776542663574
-159.912841796875 -70.605361938477 -228.971374511719 0.800811767578 1.929783582687 -0.908294677734 -1.502586364746
-164.201232910156 -71.921264648438 -223.511383056641 1.379058837891 1.928875327110 -1.124282836914 0.744812011719
4.897488117218 -69.845252990723 -222.162216186523 1.868118286133 3.070878028870 2.039362192154 1.334701538086
-114.474220275879 -70.806671142578 -227.142517089844 -0.605697631836 1.080527901649 -0.567687988281 0.691665649414
-158.222946166992 -69.111892700195 -224.092880249023 -0.104003906250 1.338783264160 -1.232116699219 -0.513236999512
16.968458175659 -73.517181396484 -222.985870361328 -0.406616210938 0.753123223782 -0.460821151733 0.435317993164
-109.173202514648 -73.580551147461 -224.663421630859 0.640640258789 2.561156272888 -0.340583801270 -2.456237792969
-117.088912963867 -72.140754699707 -230.680282592773 -0.296768188477 2.468796014786 -2.082832336426 1.291778564453
-119.812782287598 -73.019104003906 -231.032608032227 1.073303222656 1.875972270966 1.493858337402 -0.368347167969
79.748115539551 -71.619049072266 -226.520309448242 0.311752319336 0.743834972382 0.405097961426 -0.540367126465
-164.296997070313 -72.347755432129 -229.195266723633 -0.829071044922 1.948068737984 -0.504577636719 1.689086914063
-155.186126708984 -74.971313476563 -227.685272216797 1.108642578125 2.380133390427 0.747909545898 -1.968902587891
-3.611239910126 -70.839141845703 -228.161041259766 -1.000961303711 1.566666841507 -0.841562986374 -0.862724304199
-163.258285522461 -70.996040344238 -231.687118530273 1.257720947266 2.741684198380 0.158660888672 2.431007385254
8.238656997681 -67.136283874512 -230.413314819336 0.704437255859 2.085278987885 1.168497085571 1.576950073242
-163.342361450195 -72.091857910156 -229.070541381836 -0.704345703125 2.116983652115 0.450057983398 1.944984436035
-159.804122924805 -72.581336975098 -232.784866333008 1.427124023438 2.182731389999 1.405105590820 0.867935180664
72.359428405762 -73.877784729004 -230.346633911133 -1.780731201172 1.896451115608 0.276634216309 0.590759277344
-165.589141845703 -73.233932495117 -233.201492309570 -0.256652832031 2.195813655853 -2.172195434570 0.193115234375
-165.124038696289 -70.482795715332 -235.759445190430 0.438812255859 2.026427745819 1.951995849609 0.321815490723
5.314321994781 -73.390769958496 -233.233291625977 -1.147079467773 1.515948772430 -0.971788883209 -0.194770812988
-154.656265258789 -73.874290466309 -238.854446411133 0.241088867188 3.685831785202 3.453292846680 -1.265701293945
75.546623229980 -69.496612548828 -236.218856811523 -1.548355102539 1.664164423943 0.570716857910 -0.215225219727
70.621551513672 -72.424797058105 -234.154617309570 -0.521408081055 0.744756639004 -0.322608947754 0.422752380371
-143.189010620117 -73.327033996582 -240.626480102539 -0.336898803711 3.001212358475 1.066131591797 -2.785163879395
9.989266395569 -71.173660278320 -241.167770385742 1.156051635742 1.264253497124 0.474245071411 0.192283630371
-10.137575149536 -70.062950134277 -240.949447631836 0.316894531250 1.501665353775 -1.125397682190 -0.942367553711
65.810272216797 -73.427284240723 -238.822982788086 -1.827331542969 1.895758986473 -0.096099853516 0.495506286621
-166.996185302734 -72.471969604492 -238.736785888672 -0.485855102539 2.229799270630 0.819534301758 -2.016014099121
11.037213325500 -70.723030090332 -241.325286865234 -1.693283081055 1.928201079369 -0.922360420227 -0.001792907715
19.067985534668 -71.786674499512 -239.487533569336 -0.464904785156 2.173019886017 -0.245319366455 2.108482360840
61.220333099365 -69.892578125000 -247.225128173828 -0.514434814453 1.730454683304 0.182266235352 -1.642135620117
17.478057861328 -72.787338256836 -245.913833618164 -0.325012207031 0.467086642981 0.334968566895 0.018249511719
15.898030281067 -73.314170837402 -244.334136962891 1.650558471680 1.726307749748 -0.402695655823 0.305992126465
-71.302848815918 -73.084815979004 -249.928375244141 0.825210571289 2.426945686340 0.526367187500 -2.220817565918
16.771991729736 -68.859146118164 -246.206008911133 -0.215072631836 2.225299835205 -2.198846817017 -0.266036987305
-12.862162590027 -69.623672485352 -244.766647338867 0.684020996094 0.907852590084 -0.449379920959 -0.392898559570
-145.449401855469 -72.497039794922 -248.497604370117 0.550033569336 1.221671223640 -1.083786010742 -0.123901367188
-66.452705383301 -74.512481689453 -252.263641357422 -1.896286010742 2.683952808380 1.201606750488 -1.471000671387
-146.241806030273 -75.826416015625 -252.690643310547 -1.086685180664 2.004914999008 0.739013671875 1.514152526855
-130.641967773438 -73.389503479004 -257.098754882813 1.447692871094 2.338891506195 -0.946472167969 1.574417114258
-97.462562561035 -69.863403320313 -254.610733032227 -1.604080200195 2.324665069580 -1.485366821289 0.790367126465
-135.014694213867 -73.953659057617 -255.384582519531 -0.071792602539 0.861029148102 0.789169311523 -0.336791992188
-111.085868835449 -71.796676635742 -256.689056396484 -0.964340209961 1.507662415504 -0.915481567383 -0.710624694824
-113.540443420410 -74.344245910645 -256.412902832031 -0.888442993164 2.376380920410 1.415878295898 -1.689125061035
-94.025604248047 -70.599456787109 -258.301269531250 -0.208709716797 0.572311103344 0.228340148926 -0.481498718262
-101.736625671387 -73.921272277832 -261.591400146484 -1.078552246094 1.863018631935 -0.584899902344 -1.401947021484
-115.119148254395 -71.405815124512 -259.697967529297 -0.968414306641 1.488190770149 -0.833824157715 0.762641906738
25.500165939331 -71.371444702148 -264.165466308594 1.631958007813 2.233335256577 0.713874816895 -1.347175598145
-16.508378982544 -72.161087036133 -264.571044921875 0.203979492188 1.309836030006 -0.783590316772 -1.029586791992
-171.572631835938 -74.836380004883 -267.292541503906 0.976867675781 5.361254215240 -4.304351806641 -3.043243408203
-143.123855590820 -73.165657043457 -276.464477539063 -0.502929687500 3.367161035538 3.326156616211 0.146690368652
13.609999656677 -70.348098754883 -283.936920166016 2.571228027344 2.587524652481 -0.251477241516 0.144325256348
-127.854148864746 -69.462692260742 -281.180969238281 3.195709228516 3.543742418289 -1.447570800781 0.500091552734
-125.981941223145 -71.624557495117 -286.043426513672 -0.024627685547 0.821830034256 0.126998901367 0.811584472656
-79.592468261719 -71.646522521973 -285.741607666016 1.250762939453 1.551764249802 0.701667785645 -0.592643737793
-47.729667663574 -72.746635437012 -286.712371826172 -0.741241455078 2.373251676559 1.657176971436 1.528610229492
-106.522735595703 -72.256980895996 -285.570312500000 1.881103515625 2.070901870728 -0.133613586426 -0.855705261230
-35.354804992676 -70.678596496582 -285.417999267578 2.768829345703 4.516471862793 3.360179901123 1.200538635254
-32.532897949219 -70.251365661621 -285.807373046875 0.415649414063 3.158067703247 -0.845335006714 3.014305114746
-6.305171012878 -72.606536865234 -285.727752685547 1.544921875000 1.964836120605 -0.795872211456 -0.916725158691
-40.710853576660 -75.923706054688 -289.019226074219 -0.056030273438 2.104595661163 -0.927001953125 1.888610839844
-58.838062286377 -67.451469421387 -289.296173095703 0.008880615234 3.154085874557 0.167259216309 3.149635314941
-30.027612686157 -69.190986633301 -292.630279541016 -2.705627441406 4.230625629425 0.266441345215 3.241416931152
-19.206039428711 -72.909561157227 -291.949066162109 -0.651641845703 2.256026268005 1.582262039185 1.470191955566
14.619876861572 -71.457962036133 -291.487731933594 -0.592437744141 1.631766438484 0.501735687256 1.435249328613
-114.906059265137 -71.304962158203 -295.449981689453 -3.452453613281 3.505173206329 -0.585868835449 0.153495788574
-119.959480285645 -76.778450012207 -292.776489257813 -1.466918945313 2.456516981125 -1.784629821777 0.835296630859
12.873139381409 -74.232284545898 -291.964630126953 -1.069335937500 2.118165731430 -1.245001792908 -1.339073181152
-135.055343627930 -74.810859680176 -291.952453613281 -1.604003906250 1.678259253502 -0.478713989258 0.120658874512
-144.285812377930 -73.177925109863 -299.933868408203 0.551177978516 1.752881050110 1.141448974609 -1.210739135742
-141.943923950195 -76.517234802246 -306.623840332031 0.285919189453 3.362380981445 3.207885742188 -0.966087341309
-153.453643798828 -71.980697631836 -317.421600341797 -5.366882324219 5.552008152008 1.326828002930 0.510780334473
26.301589965820 -66.104919433594 -14.167871475220 1.569545745850 2.068894863129 -0.761312484741 -1.112319946289
46.353824615479 -67.689529418945 -14.684828758240 0.011630058289 2.149964094162 2.148170471191 -0.087028503418
35.209556579590 -68.752265930176 -16.147493362427 0.923873901367 1.110873460770 0.493621826172 0.369911193848
48.519855499268 -67.777420043945 -16.853191375732 1.174983978271 3.399249315262 0.396999359131 3.164916992188
45.887062072754 -69.304718017578 -24.969655990601 1.799177169800 2.055110931396 -0.222690582275 0.967910766602
43.025749206543 -66.033187866211 -20.346591949463 -0.027301788330 1.231678247452 1.230613708496 -0.043312072754
22.736371994019 -67.678443908691 -26.479234695435 -1.147619247437 2.846506357193 -2.601945877075 -0.124282836914
25.192865371704 -69.919960021973 -27.778244018555 -1.724893569946 1.969294190407 -0.873058319092 -0.375007629395
40.954521179199 -65.983764648438 -30.234060287476 2.093290328979 3.013149738312 -1.076728820801 -1.880920410156
36.396701812744 -71.029396057129 -37.252857208252 0.867599487305 1.445765614510 0.907730102539 -0.716613769531
37.752849578857 -69.033035278320 -35.395195007324 0.413814544678 1.597768306732 1.195060729980 -0.976448059082
37.085971832275 -66.537559509277 -36.156742095947 -0.347732543945 1.645399808884 0.528182983398 1.519027709961
-65.264411926270 -70.846282958984 -48.781360626221 -1.354610443115 1.383607149124 0.273910522461 -0.066123962402
-49.228729248047 -67.520790100098 -48.238727569580 -1.301910400391 1.869695663452 -1.272056579590 0.427391052246
-77.938735961914 -64.929725646973 -53.248813629150 -3.463005065918 4.935410022736 2.349296569824 2.616615295410
-75.160545349121 -68.926063537598 -55.180713653564 -1.582382202148 3.919216871262 -1.203834533691 3.377441406250
-76.659538269043 -67.928215026855 -54.660789489746 -3.813343048096 4.472011566162 1.381660461426 1.883697509766
-27.339437484741 -66.058441162109 -54.279331207275 -2.724040985107 3.930363416672 1.904544830322 2.097633361816
-21.464921951294 -67.581848144531 -60.770633697510 -1.295757293701 2.948580503464 -2.301340103149 1.311096191406
-17.807865142822 -66.969879150391 -63.806457519531 0.608352661133 4.766387462616 -4.656018257141 0.818443298340
76.916191101074 -70.333099365234 -65.438850402832 1.769668579102 2.330514431000 -1.360931396484 0.668907165527
76.806838989258 -67.598320007324 -65.434265136719 -1.616771697998 2.465917825699 -1.824302673340 -0.372451782227
70.713783264160 -67.257637023926 -70.632347106934 -0.915077209473 1.815293431282 1.411643981934 -0.682044982910
73.049934387207 -70.962844848633 -76.193794250488 0.030998229980 2.203232288361 2.179321289063 0.322227478027
-31.587827682495 -65.930282592773 -76.867004394531 0.728614807129 0.856107711792 0.437356948853 0.103729248047
-50.243740081787 -69.652839660645 -85.557418823242 0.024848937988 1.462891936302 -0.738643646240 -1.262474060059
96.227798461914 -66.895065307617 -83.490898132324 -0.176223754883 5.440813064575 -4.244018554688 3.399955749512
54.037204742432 -65.410408020020 -82.486167907715 4.454895019531 4.545021057129 -0.473506927490 0.766105651855
-62.715599060059 -70.842834472656 -90.077339172363 2.685379028320 3.252076625824 1.820838928223 -0.222007751465
53.894168853760 -68.511352539063 -89.346183776855 1.655288696289 1.679228067398 0.281276702881 -0.026641845703
-65.639106750488 -65.394950866699 -91.579910278320 -1.000274658203 2.196181058884 -1.656093597412 -1.039237976074
57.022270202637 -65.305740356445 -93.964080810547 0.004570007324 1.788952827454 -0.585792541504 -1.690319061279
105.385894775391 -66.152763366699 -93.080421447754 -0.852264404297 1.348190307617 0.616935729980 -0.843002319336
73.400657653809 -68.053054809570 -98.345466613770 0.233367919922 2.672507286072 1.528114318848 2.180068969727
94.867843627930 -70.594253540039 -99.940406799316 0.038673400879 0.826488852501 -0.490188598633 0.664306640625
105.239761352539 -67.523468017578 -105.799736022949 -0.797607421875 2.426294326782 -0.599311828613 -2.211685180664
-94.782516479492 -72.942497253418 -101.643882751465 1.940765380859 2.530305147171 1.512313842773 -0.590576171875
54.473022460938 -68.613716125488 -102.110641479492 -0.322349548340 1.168548703194 1.039905548096 -0.424491882324
39.110210418701 -66.917533874512 -105.916587829590 -1.158393859863 2.709165096283 -2.193756103516 1.088638305664
41.236057281494 -68.682785034180 -104.734123229980 0.024070739746 0.680438101292 -0.067909240723 -0.676612854004
-95.987426757813 -67.567863464355 -109.172721862793 0.284423828125 2.291325807571 1.672119140625 -1.540550231934
-84.270683288574 -72.961311340332 -111.621643066406 -0.294639587402 1.752322077751 1.211006164551 1.231781005859
38.768974304199 -70.367721557617 -111.711418151855 -0.622932434082 0.907857000828 -0.649452209473 -0.119880676270
-92.762397766113 -69.190147399902 -116.217094421387 1.295059204102 2.119259119034 1.651649475098 0.293487548828
45.187656402588 -70.898300170898 -116.007904052734 1.925796508789 2.349782228470 1.342914581299 0.096771240234
109.306518554688 -71.129997253418 -115.245933532715 1.366355895996 1.715327978134 0.726165771484 -0.740341186523
107.877883911133 -65.985084533691 -116.630203247070 -1.510490417480 1.727155804634 0.742294311523 0.387924194336
110.605094909668 -68.302078247070 -116.696037292480 -2.352066040039 2.493054389954 -0.249557495117 -0.787925720215
110.496803283691 -66.055084228516 -119.787956237793 1.249900817871 2.890820980072 -2.533103942871 0.614799499512
44.492008209229 -67.413116455078 -123.597404479980 -3.896163940430 4.887841224670 2.040107727051 2.132804870605
32.612976074219 -67.910202026367 -124.801139831543 1.943519592285 2.038707256317 0.372653961182 0.490089416504
39.466705322266 -70.572029113770 -126.082679748535 -2.480606079102 2.625319004059 0.198848724365 0.836273193359
32.316581726074 -69.167655944824 -126.750526428223 -0.005867004395 0.771166801453 0.076259613037 -0.767364501953
-61.264678955078 -70.337432861328 -130.715240478516 -1.261642456055 1.842256307602 -1.316120147705 -0.264564514160
-55.284976959229 -70.485748291016 -130.894638061523 2.500564575195 2.529749870300 -0.144317626953 -0.354942321777
-61.321342468262 -71.441909790039 -135.168853759766 1.181015014648 2.299704074860 -1.969539642334 -0.121475219727
-53.866741180420 -69.868110656738 -136.631683349609 -3.236480712891 3.488077402115 1.273918151855 0.262695312500
29.954584121704 -68.126014709473 -132.605667114258 -0.889892578125 2.545607328415 0.848821640015 2.228836059570
-78.499053955078 -67.229217529297 -130.974136352539 -0.816955566406 1.510190606117 -0.131744384766 -1.263290405273
116.948554992676 -71.747093200684 -141.880813598633 -0.311080932617 0.959323167801 0.534248352051 -0.733558654785
35.589321136475 -68.941879272461 -135.721893310547 0.037109375000 1.706983089447 1.263263702393 -1.147422790527
35.502017974854 -65.637695312500 -144.294692993164 1.192657470703 4.238127231598 3.299274444580 2.377830505371
-70.903533935547 -68.890800476074 -141.524108886719 -0.084213256836 1.065047860146 0.022003173828 -1.061485290527
-70.906852722168 -68.278457641602 -145.243072509766 0.317062377930 1.920292496681 -1.037994384766 1.584159851074
-75.232810974121 -69.009246826172 -145.053588867188 1.973648071289 2.368214368820 -0.796585083008 1.038558959961
106.500633239746 -66.967773437500 -145.590072631836 -2.453308105469 5.461852550507 -4.345817565918 2.219680786133
-69.291351318359 -67.332344055176 -152.425628662109 -1.339050292969 2.763010740280 -0.703987121582 2.312049865723
-71.255249023438 -71.069458007813 -148.403762817383 -0.770172119141 1.412104725838 -1.136650085449 -0.330001831055
-37.781642913818 -70.607986450195 -150.976852416992 2.878219604492 3.685268163681 1.829402923584 -1.396545410156
21.592956542969 -66.210670471191 -153.476333618164 -1.151290893555 3.135565996170 -1.203987121582 2.656448364258
31.163551330566 -67.433837890625 -151.441543579102 -2.177459716797 2.410459995270 0.381288528442 0.961044311523
9.776545524597 -70.975067138672 -154.992568969727 -1.393341064453 2.761770725250 0.219745635986 -2.374382019043
14.354648590088 -66.934257507324 -155.338256835938 -0.307128906250 2.176190376282 1.888785362244 1.036323547363
24.834751129150 -70.101684570313 -149.561721801758 -0.570297241211 1.392105579376 -0.400356292725 -1.205169677734
-37.542453765869 -72.026245117188 -154.106018066406 -0.333892822266 1.394690990448 0.527797698975 1.247039794922
-67.125793457031 -67.712547302246 -156.100387573242 0.218124389648 2.640782356262 0.657829284668 2.548217773438
-37.900997161865 -66.589202880859 -156.718505859375 -2.863433837891 4.242599964142 1.710048675537 2.622238159180
27.098926544189 -69.429702758789 -159.086318969727 2.250808715820 2.974771499634 -0.704217910767 1.813064575195
-64.227996826172 -66.688758850098 -163.816711425781 -1.515853881836 4.061314582825 -0.176902770996 3.763664245605
-63.025505065918 -71.381507873535 -163.013031005859 -0.712173461914 1.556349039078 1.025588989258 -0.929084777832
-42.391250610352 -70.131935119629 -153.553298950195 1.095397949219 1.448145866394 -0.395965576172 -0.860488891602
24.274578094482 -67.661964416504 -162.913436889648 -1.034515380859 1.895136952400 -0.866260528564 -1.330757141113
17.627202987671 -71.845230102539 -163.481750488281 0.684967041016 1.211014389992 -0.907896041870 -0.416053771973
112.407562255859 -68.527526855469 -170.171325683594 1.452621459961 3.131423950195 2.360336303711 1.457572937012
-28.421417236328 -72.216880798340 -172.156631469727 -0.544586181641 1.469076037407 -1.200033187866 -0.649253845215
111.920494079590 -71.358963012695 -175.356613159180 0.346969604492 0.553075134754 0.321083068848 -0.287071228027
-144.047317504883 -68.794067382813 -176.289642333984 -0.504150390625 2.025316476822 0.345062255859 1.930976867676
15.584390640259 -67.808952331543 -173.463867187500 1.807815551758 2.862827062607 -1.600093841553 1.538597106934
110.771476745605 -68.956626892090 -175.487136840820 0.216445922852 2.281812667847 -0.827934265137 2.115264892578
25.107463836670 -70.210304260254 -181.585937500000 0.331100463867 1.044346451759 -0.761869430542 0.632919311523
104.094924926758 -68.237617492676 -179.689453125000 -1.943710327148 3.713232994080 -1.300498962402 2.884231567383
-22.110277175903 -66.599205017090 -186.393524169922 0.232131958008 0.996851861477 0.624748229980 0.741294860840
-29.852876663208 -70.939971923828 -184.988601684570 -0.049041748047 1.769422531128 -1.760759353638 -0.167861938477
16.183917999268 -72.125671386719 -190.921707153320 -0.527847290039 2.981376171112 2.288410186768 1.836616516113
-26.126495361328 -71.919929504395 -189.445968627930 -0.703216552734 0.898344457150 0.323558807373 -0.455871582031
-148.755599975586 -68.584037780762 -189.337356567383 2.326477050781 2.916946887970 1.661132812500 -0.580276489258
100.985168457031 -69.036926269531 -193.108078002930 -0.234909057617 2.425213098526 -0.288177490234 2.396545410156
-130.962570190430 -70.139213562012 -193.948913574219 0.835388183594 1.279672026634 0.866958618164 0.433670043945
20.155061721802 -68.449455261230 -191.223281860352 1.303802490234 1.974577188492 1.418731689453 -0.431571960449
103.166221618652 -72.867973327637 -192.605834960938 0.397033691406 1.215250611305 0.147262573242 1.139083862305
-121.562423706055 -71.005950927734 -200.577926635742 1.191864013672 1.364309906960 -0.662216186523 0.047660827637
105.348556518555 -69.970680236816 -196.934814453125 1.243911743164 2.574577093124 1.769042968750 1.397003173828
11.848213195801 -72.177429199219 -198.135848999023 0.614166259766 1.536075592041 1.095416069031 -0.884529113770
-156.768020629883 -70.164276123047 -194.867599487305 -0.836929321289 1.375469446182 -1.047561645508 -0.306724548340
20.804634094238 -70.824356079102 -201.391586303711 -0.500640869141 0.647477149963 -0.410585403442 -0.002243041992
-158.541381835938 -70.681686401367 -200.521560668945 1.928497314453 2.983844280243 -1.576629638672 -1.642700195313
9.491897583008 -69.999084472656 -203.115188598633 -1.281387329102 1.601057052612 0.803110122681 0.525779724121
-122.254623413086 -71.265052795410 -200.087554931641 -0.674468994141 1.173281431198 0.359313964844 0.890266418457
7.556392192841 -69.003967285156 -205.538055419922 2.683151245117 3.840575456619 -2.575318813324 0.958358764648
-22.546350479126 -68.715507507324 -199.360656738281 -0.176162719727 2.092911720276 0.076639175415 2.084075927734
-159.129669189453 -73.615699768066 -200.765029907227 -1.486587524414 3.912882089615 -3.290283203125 -1.508224487305
-155.350158691406 -69.194091796875 -208.010803222656 -0.445831298828 3.374735116959 -2.702835083008 1.970977783203
-151.122421264648 -72.057693481445 -205.412506103516 0.045608520508 0.492579728365 -0.417816162109 0.256874084473
-22.151903152466 -69.356689453125 -202.093902587891 -0.253311157227 1.238725066185 0.636026382446 -1.032348632813
-152.943710327148 -69.966377258301 -207.080810546875 0.484161376953 1.326318383217 -0.296386718750 1.198692321777
-160.976684570313 -70.886558532715 -204.540115356445 -0.619125366211 2.299708366394 2.020263671875 0.907676696777
-149.187316894531 -70.586082458496 -209.532882690430 1.203445434570 3.418298721313 0.089309692383 3.198204040527
10.241730690002 -70.218154907227 -210.748321533203 -1.630828857422 1.884108304977 0.919019699097 0.213691711426
18.022718429565 -67.069114685059 -206.022018432617 0.400741577148 1.669927000999 -0.857580184937 1.375724792480
96.914581298828 -70.139961242676 -208.080795288086 -1.788421630859 2.381636142731 -1.357170104980 0.794876098633
-149.629592895508 -72.983863830566 -209.411804199219 1.324523925781 1.587332725525 -0.352966308594 0.800422668457
-165.144973754883 -70.255081176758 -216.105514526367 -0.910964965820 1.701592922211 -0.496719360352 1.348640441895
85.055107116699 -73.160896301270 -212.169250488281 0.903167724609 3.144045352936 -3.007575988770 -0.154258728027
-144.837051391602 -72.542030334473 -215.251770019531 1.627182006836 2.496094703674 0.378906250000 1.854507446289
-3.824630975723 -70.139549255371 -213.619277954102 0.559356689453 2.032427310944 0.200714826584 1.943603515625
4.825531005859 -71.858940124512 -215.759811401367 -2.278244018555 2.405527353287 -0.770750999451 -0.045928955078
17.391222000122 -71.430984497070 -216.487380981445 2.220260620117 2.269011497498 0.256078720093 0.391510009766
14.677528381348 -68.473617553711 -216.701004028320 -0.092117309570 0.655916988850 -0.649353027344 0.009063720703
-141.928131103516 -72.235115051270 -218.532012939453 3.271499633789 4.230092525482 1.348327636719 -2.317970275879
-13.754824638367 -69.689102172852 -219.322082519531 -1.216278076172 1.416861057281 0.726203918457 -0.028121948242
-24.928180694580 -67.706504821777 -221.632080078125 0.932586669922 4.138936996460 -1.578500747681 3.710716247559
-95.336181640625 -73.387847900391 -220.336380004883 -0.578048706055 1.147722482681 -0.927215576172 0.351280212402
4.932213783264 -68.177856445313 -218.668533325195 0.373870849609 4.730840682983 -1.361791133881 4.515151977539
80.561927795410 -67.583259582520 -226.944900512695 0.529205322266 3.422153711319 -1.898971557617 2.797317504883
78.885002136230 -73.170455932617 -221.685760498047 -0.400955200195 0.894887864590 -0.607528686523 0.520545959473
-101.294342041016 -71.017662048340 -223.045578002930 0.562210083008 1.316097021103 -0.467750549316 1.094184875488
12.071061134338 -70.068374633789 -229.375045776367 -1.012619018555 2.115969181061 1.851008415222 -0.160301208496
89.399978637695 -69.603004455566 -224.026885986328 0.396408081055 2.707762479782 1.726661682129 2.047798156738
-106.347778320313 -71.626502990723 -225.381210327148 -1.313842773438 1.609283924103 0.130401611328 0.920112609863
78.463745117188 -69.957641601563 -226.212097167969 -1.376876831055 1.499408960342 0.074417114258 -0.588981628418
-4.421671867371 -68.446395874023 -226.891571044922 -0.304641723633 1.223821282387 -1.185147762299 0.018890380859
-14.615944862366 -68.314094543457 -227.590530395508 0.098831176758 2.276826858521 -1.652935028076 1.562683105469
-8.469470024109 -72.301666259766 -227.772735595703 -0.059112548828 1.061218857765 0.351251602173 -0.999656677246
74.761016845703 -73.114036560059 -233.188461303711 -1.328994750977 1.794174671173 0.445320129395 -1.120056152344
12.308274269104 -70.957527160645 -233.951812744141 1.410202026367 1.972349643707 -0.892253875732 -1.051368713379
-127.883201599121 -71.943153381348 -234.903823852539 -2.606109619141 3.215861797333 0.447517395020 1.830215454102
-164.932281494141 -69.838310241699 -232.649948120117 2.290451049805 2.695416688919 -1.046051025391 -0.961708068848
77.611831665039 -69.186218261719 -232.444229125977 0.281646728516 1.964392304420 -1.824180603027 -0.672218322754
-127.021163940430 -71.147552490234 -235.183990478516 -1.690811157227 2.609493732452 -1.902473449707 -0.575508117676
-10.419014930725 -71.531692504883 -233.616210937500 0.824234008789 1.346861243248 0.858782768250 0.630210876465
69.178504943848 -70.694183349609 -238.739196777344 1.007705688477 1.591895461082 -0.264320373535 -1.203659057617
13.086362838745 -67.999343872070 -237.698974609375 0.948089599609 2.118572950363 -0.178039550781 1.886207580566
0.720146000385 -73.457000732422 -242.805374145508 0.664428710938 1.206098079681 0.852079033852 -0.535881042480
-9.814144134521 -70.314712524414 -239.771057128906 1.495285034180 2.074843168259 -0.801966667175 -1.194129943848
71.492919921875 -70.125602722168 -239.832366943359 -0.588790893555 1.735006451607 -0.532714843750 1.542655944824
14.540097236633 -69.990943908691 -241.053756713867 0.429016113281 1.339115977287 0.591751098633 1.122055053711
-145.721511840820 -72.362991333008 -245.480438232422 -0.812301635742 2.629173040390 -0.949508666992 -2.313255310059
47.904636383057 -70.597023010254 -242.969680786133 1.287155151367 3.566955327988 -3.206027984619 0.887573242188
-11.551583290100 -72.744628906250 -245.583419799805 0.007812500000 1.166063785553 -1.125592231750 -0.304443359375
-70.266464233398 -68.310455322266 -246.990585327148 -0.443374633789 3.065562963486 -2.045127868652 2.240211486816
60.156402587891 -69.924263000488 -245.774047851563 0.372009277344 1.673813104630 -0.923435211182 1.345558166504
-69.154876708984 -69.092086791992 -249.195892333984 2.002807617188 3.100090980530 1.241188049316 2.014640808105
51.099121093750 -72.289428710938 -247.505020141602 0.833953857422 1.483540177345 1.183078765869 0.325172424316
-92.706901550293 -73.346496582031 -249.190093994141 1.480102539063 1.879269480705 0.589195251465 -0.996894836426
23.548040390015 -70.370536804199 -251.483795166016 -0.394424438477 2.194921731949 1.852846145630 1.108634948730
44.895397186279 -68.146774291992 -251.887451171875 -0.048568725586 2.446048259735 -0.167556762695 2.439819335938
-134.346282958984 -71.888732910156 -253.831558227539 0.903640747070 1.917913317680 -0.804336547852 1.488243103027
-167.899047851563 -68.916664123535 -259.723449707031 0.769592285156 1.604156374931 -1.381149291992 0.271057128906
-104.695381164551 -72.436157226563 -259.849700927734 -0.067382812500 1.123704433441 -0.144798278809 1.112297058105
-142.381454467773 -71.872917175293 -264.050476074219 -1.836547851563 2.416892528534 0.710479736328 1.401313781738
-142.691055297852 -72.350669860840 -261.118682861328 1.095245361328 1.487693309784 0.400878906250 0.923561096191
-13.060608863831 -71.536155700684 -263.804931640625 -1.218292236328 2.576410055161 -1.723091125488 -1.478042602539
23.476991653442 -66.220046997070 -273.731964111328 3.132720947266 3.460089921951 1.443016052246 0.275657653809
-7.414989948273 -70.998184204102 -278.166168212891 -1.869049072266 3.490863800049 2.084624767303 -2.084976196289
-156.417785644531 -70.507987976074 -281.055236816406 -0.530670166016 1.908556818962 -1.665206909180 0.766853332520
-126.415283203125 -70.652946472168 -281.408233642578 2.968444824219 3.047632694244 -0.008705139160 -0.690162658691
-156.312301635742 -70.460411071777 -285.330627441406 0.393249511719 0.727823674679 -0.562820434570 -0.241485595703
-90.483192443848 -69.011154174805 -284.553771972656 3.474487304688 3.576251745224 0.278076171875 0.800117492676
-80.279975891113 -73.511886596680 -289.053222656250 -1.426635742188 1.984544754028 1.337158203125 0.339317321777
-45.535121917725 -70.353210449219 -287.959930419922 1.718688964844 3.568403244019 -2.804782867432 1.383041381836
-13.925644874573 -69.088981628418 -285.799224853516 1.448822021484 2.791636228561 1.453403472900 1.892555236816
-38.605266571045 -71.037361145020 -287.088165283203 1.098663330078 1.388410091400 0.109718322754 0.841773986816
-14.006310462952 -71.045852661133 -288.564056396484 0.683715820313 0.813761353493 0.248440742493 -0.364715576172
-35.701229095459 -70.606384277344 -285.640991210938 2.545837402344 4.145347595215 3.013755798340 1.272750854492
-13.042845726013 -69.929138183594 -288.834838867188 0.412933349609 1.484833717346 1.211905479431 0.751998901367
-43.735080718994 -74.346130371094 -290.786193847656 0.609161376953 1.558977365494 0.465641021729 1.357391357422
-6.675567150116 -70.549247741699 -288.376953125000 0.112548828125 1.468559265137 -1.258231163025 -0.748901367188
-71.579536437988 -71.599510192871 -287.735137939453 -1.286254882813 2.865193128586 -1.409042358398 2.137634277344
-81.825248718262 -71.518325805664 -289.647552490234 0.194244384766 1.271984338760 -0.935676574707 -0.839477539063
-106.151382446289 -70.615104675293 -291.587890625000 1.111938476563 2.056266069412 1.337928771973 1.096252441406
-115.199394226074 -71.820907592773 -292.918395996094 -0.920867919922 1.323769927025 -0.879203796387 -0.362449645996
-131.753753662109 -68.713165283203 -295.208770751953 -2.047210693359 2.469655990601 -0.517227172852 -1.280860900879
-153.077468872070 -70.060852050781 -294.789581298828 -0.426849365234 1.168992757797 1.063720703125 0.229873657227
-154.895446777344 -71.682914733887 -305.444946289063 -0.112457275391 1.214555263519 -0.219726562500 1.189208984375
-148.764266967773 -73.070610046387 -309.523254394531 3.347930908203 3.361522912979 0.289047241211 0.087440490723
40.033477783203 -65.931648254395 -13.135516166687 -0.671127319336 2.840108633041 2.323219299316 -1.489448547363
23.491994857788 -65.350547790527 -19.226440429688 0.753280639648 2.244988441467 1.256168365479 -1.701347351074
44.373912811279 -67.548027038574 -19.206041336060 1.641712188721 2.828889369965 1.178817749023 1.979339599609
25.034765243530 -69.312934875488 -21.960741043091 0.633024215698 1.879021525383 -1.590835571289 -0.774108886719
41.884101867676 -64.833885192871 -31.110809326172 1.216541290283 1.426900863647 -0.147148132324 -0.731040954590
26.683618545532 -65.989456176758 -32.450080871582 0.069561004639 1.619074344635 -0.970125198364 1.294380187988
36.094524383545 -64.470092773438 -39.619537353516 -0.544475555420 1.758693575859 1.311286926270 -1.037822723389
-59.144950866699 -69.557991027832 -46.101528167725 0.800136566162 1.995152115822 -1.707191467285 0.652618408203
-47.460903167725 -65.330810546875 -44.546474456787 -0.612472534180 2.020521402359 1.471019744873 -1.242370605469
-45.748355865479 -64.622741699219 -48.607646942139 -2.051349639893 2.762653112411 0.020595550537 1.850349426270
-43.802837371826 -66.214614868164 -51.005050659180 -3.935504913330 4.415090084076 -0.714817047119 1.869186401367
-36.578838348389 -68.232444763184 -52.645053863525 -1.287288665771 3.292907238007 -1.770439147949 2.460014343262
-28.720188140869 -66.889389038086 -52.971946716309 -1.416656494141 1.971235156059 0.523794174194 1.266685485840
-15.732536315918 -68.209243774414 -66.939811706543 1.118713378906 2.801280260086 -2.549085617065 -0.312751770020
78.398544311523 -70.139259338379 -72.439430236816 -1.903610229492 3.734556198120 0.123939514160 3.210578918457
98.187393188477 -64.991485595703 -69.640808105469 -1.318328857422 1.383194446564 0.171470642090 0.381881713867
-20.083646774292 -66.014831542969 -70.338233947754 0.554801940918 3.224909543991 2.630224227905 1.781616210938
68.108444213867 -69.877822875977 -72.035789489746 -0.846351623535 1.128936052322 -0.674568176270 -0.321159362793
-41.855159759521 -68.945549011230 -77.753952026367 0.031486511230 0.343977272511 0.056797027588 -0.337791442871
69.670188903809 -66.528869628906 -79.685997009277 -1.377868652344 3.216510057449 2.892791748047 0.281372070313
57.340763092041 -65.312683105469 -82.905960083008 1.314727783203 1.916403412819 -1.388885498047 0.122840881348
56.978443145752 -66.452903747559 -85.498466491699 -0.293556213379 1.642180442810 -0.865921020508 1.364097595215
54.222034454346 -69.670906066895 -92.511543273926 -1.510070800781 2.014554023743 0.609142303467 -1.186195373535
-61.892307281494 -67.642326354980 -87.490516662598 0.835388183594 3.392173528671 -1.787414550781 -2.759368896484
-98.316886901855 -65.958236694336 -94.704322814941 -0.040588378906 1.066578507423 -0.368392944336 -1.000114440918
45.857166290283 -68.092506408691 -94.224327087402 1.096885681152 1.222113370895 0.397201538086 -0.364189147949
106.979125976563 -69.962585449219 -97.799858093262 -1.010185241699 1.302781462669 -0.342498779297 -0.747970581055
61.543838500977 -67.827568054199 -96.705818176270 -1.023872375488 1.876837611198 1.296394348145 0.890823364258
69.000244140625 -67.835159301758 -100.172821044922 0.123550415039 1.654491662979 -1.621383666992 0.305274963379
-75.462539672852 -68.673660278320 -98.183151245117 -0.053314208984 1.168347954750 0.389587402344 1.100189208984
51.971889495850 -70.337135314941 -104.144256591797 0.492530822754 1.566564917564 -0.446456909180 1.418525695801
103.899269104004 -67.601745605469 -105.725234985352 -1.925201416016 2.334546804428 -0.211334228516 -1.303474426270
73.775604248047 -64.544120788574 -101.047035217285 1.643760681152 4.313951969147 1.714691162109 3.601119995117
105.894432067871 -67.291725158691 -103.958686828613 -0.158653259277 2.047966480255 1.783828735352 -0.993453979492
90.712615966797 -68.592590332031 -99.895584106445 4.212394714355 4.394914150238 -0.723953247070 1.023178100586
102.388656616211 -65.490150451660 -107.020065307617 -3.220031738281 3.739888191223 -1.721946716309 0.808120727539
56.794021606445 -66.658645629883 -106.483757019043 0.300872802734 5.630526542664 3.055908203125 4.719505310059
-86.791839599609 -72.214103698730 -112.442398071289 0.746582031250 1.794270634651 -0.577278137207 1.526031494141
42.361232757568 -66.230728149414 -110.178153991699 -0.243980407715 1.168493509293 0.526870727539 1.014030456543
-98.209075927734 -70.045341491699 -111.920005798340 -2.303375244141 3.662634611130 -2.797645568848 0.531539916992
44.913215637207 -69.166473388672 -112.478538513184 0.707832336426 0.768364310265 -0.222091674805 -0.200080871582
-79.683822631836 -66.948738098145 -118.528366088867 -0.713417053223 2.391310691833 -1.981544494629 1.132644653320
43.480743408203 -66.904960632324 -116.684471130371 0.141090393066 1.691047430038 1.564086914063 -0.627189636230
113.040557861328 -66.481452941895 -112.265037536621 2.078933715820 3.188513278961 2.185905456543 1.032699584961
35.420024871826 -72.113670349121 -124.274818420410 -0.327743530273 1.564589500427 1.226898193359 0.913917541504
-77.641090393066 -65.435935974121 -119.059417724609 0.183982849121 0.883341193199 -0.622535705566 -0.599075317383
-84.841964721680 -64.352722167969 -120.500892639160 -1.072410583496 1.525002002716 -1.019668579102 0.368568420410
36.296894073486 -71.134681701660 -129.215988159180 2.274093627930 2.670176506042 -1.088733673096 0.879203796387
-84.632995605469 -68.780082702637 -124.761642456055 -0.181945800781 2.399672508240 0.493049621582 2.341415405273
34.841480255127 -63.091190338135 -120.622444152832 2.508682250977 3.217341184616 -1.107906341553 -1.682361602783
-77.936088562012 -66.762619018555 -129.221542358398 -1.084671020508 1.254214525223 -0.621376037598 -0.102149963379
-51.024219512939 -65.845176696777 -132.911911010742 1.711791992188 2.615485191345 1.667854309082 -1.062446594238
-56.375476837158 -69.108879089355 -129.482391357422 0.021804809570 0.876250505447 0.208393096924 -0.850830078125
-52.271713256836 -65.212287902832 -128.237884521484 1.347747802734 1.453101515770 -0.358581542969 0.408042907715
31.212234497070 -68.032455444336 -134.224853515625 1.880538940430 2.619610071182 -0.161725997925 1.816528320313
-62.462493896484 -70.698173522949 -132.439590454102 -0.083282470703 2.509133815765 -2.405948638916 -0.707267761230
33.650268554688 -72.581382751465 -135.583358764648 2.944259643555 3.262786149979 -1.183799743652 0.758766174316
-71.667350769043 -67.139915466309 -139.957550048828 1.482345581055 1.795245885849 -0.741813659668 0.689399719238
114.454421997070 -67.912925720215 -143.984573364258 -1.373031616211 2.430753231049 2.002426147461 0.116767883301
23.084634780884 -67.635925292969 -138.754760742188 2.694458007813 3.348685741425 1.873058319092 -0.667266845703
29.866256713867 -67.335380554199 -140.838333129883 0.270797729492 0.806814134121 -0.291807174683 0.701759338379
-70.988235473633 -67.768898010254 -141.348907470703 0.090988159180 0.125937148929 -0.062698364258 0.060417175293
-53.580554962158 -73.942611694336 -148.603485107422 -1.152114868164 1.687215924263 -1.229461669922 0.088050842285
33.939361572266 -69.063446044922 -143.315505981445 -1.364105224609 2.177429676056 1.690017700195 -0.155746459961
-54.334030151367 -66.316284179688 -147.414596557617 0.178207397461 1.309569954872 -1.237346649170 0.390113830566
24.908712387085 -68.408752441406 -153.029327392578 0.652786254883 1.472049593925 1.120592117310 0.696472167969
-71.570190429688 -70.825195312500 -150.285659790039 -0.132369995117 1.430930018425 -1.202911376953 0.763572692871
-50.690628051758 -69.226829528809 -146.896194458008 1.914733886719 2.447210550308 1.364036560059 0.679733276367
-45.355918884277 -66.776748657227 -148.557601928711 -0.534301757813 1.973037481308 -1.466217041016 1.207313537598
12.865634918213 -69.063743591309 -148.930358886719 -0.316436767578 0.513845920563 -0.329639434814 -0.235038757324
115.874374389648 -67.297561645508 -152.585998535156 -3.120422363281 4.240576267242 1.729370117188 2.292320251465
-51.742530822754 -69.401268005371 -151.822860717773 0.977905273438 1.079659461975 0.299732208252 0.345726013184
28.679935455322 -67.366981506348 -154.289398193359 -1.596679687500 1.948178768158 1.076398849487 0.295600891113
-38.217105865479 -66.505149841309 -155.571899414063 -1.716827392578 3.494935989380 1.393939971924 2.706291198730
30.918018341064 -65.027565002441 -159.011123657227 -0.985351562500 4.196328163147 0.837219238281 3.992156982422
-40.119411468506 -66.217620849609 -155.218109130859 -1.363037109375 3.328552961349 -0.508365631104 2.993820190430
-37.802803039551 -69.769531250000 -152.725738525391 1.129333496094 2.203769683838 1.808242797852 -0.558090209961
-44.381031036377 -67.326148986816 -158.819290161133 0.387771606445 0.709342479706 0.539752960205 0.247924804688
-43.188831329346 -70.045860290527 -159.882263183594 -0.066162109375 1.671746134758 -1.535270690918 -0.658256530762
8.689855575562 -65.164619445801 -157.063583374023 1.063858032227 2.427477121353 -0.621086120605 2.091674804688
-45.827827453613 -68.365745544434 -161.078643798828 1.095626831055 1.898010492325 -1.477100372314 0.469276428223
25.671623229980 -71.315719604492 -161.945556640625 -0.360702514648 1.176384210587 0.802009582520 -0.781379699707
-40.096271514893 -67.369956970215 -160.147262573242 -0.522308349609 2.458386182785 2.212085723877 0.936767578125
-32.845645904541 -64.719490051270 -162.019592285156 1.479843139648 4.908456325531 2.065952301025 4.199386596680
