-75.882232666016 -74.838546752930 -104.155326843262 -2.490249633789 3.753379583359 -2.028297424316 1.942298889160
-130.174896240234 -71.199668884277 -257.769561767578 0.776885986328 3.873366355896 -0.479400634766 3.764251708984
-84.242263793945 -83.491989135742 -84.278259277344 -0.271293640137 3.097517728806 0.401512145996 -3.059379577637
-153.041061401367 -83.138473510742 -288.069305419922 2.403503417969 2.881008148193 1.523864746094 -0.448570251465
-160.666595458984 -84.690505981445 -285.905059814453 3.093933105469 7.093150615692 -4.520248413086 -4.506408691406
-85.127113342285 -82.121902465820 -83.979415893555 0.027549743652 1.757294654846 -0.483337402344 -1.689292907715
-146.248184204102 -84.170135498047 -293.915435791016 -1.620605468750 1.786534070969 0.323226928711 0.678871154785
-164.343139648438 -72.279685974121 -282.722351074219 -1.011230468750 3.635704040527 -1.432220458984 -3.185043334961
-147.563568115234 -73.163558959961 -310.053741455078 0.842285156250 3.133929014206 -2.941345214844 -0.678642272949
-65.850227355957 -85.516220092773 -82.661537170410 -0.029251098633 1.524060368538 0.713035583496 -1.346656799316
-129.908172607422 -71.917953491211 -266.309509277344 -1.393463134766 2.302889108658 1.819671630859 0.224395751953
-127.577362060547 -70.953468322754 -266.032287597656 -0.928497314453 1.449197769165 -1.013938903809 0.458251953125
-55.547767639160 -85.055664062500 -79.311668395996 0.116317749023 0.802004933357 -0.670719146729 0.424049377441
116.952919006348 -73.803596496582 -143.339462280273 -0.973770141602 1.066308259964 0.427330017090 0.078575134277
115.467994689941 -77.441108703613 -139.249816894531 1.376464843750 2.218831777573 1.359901428223 -1.085922241211
-40.904834747314 -84.883064270020 -82.159248352051 0.312202453613 1.199719190598 -0.993576049805 -0.595535278320
10.910602569580 -80.613861083984 -290.868621826172 0.121124267578 2.485953092575 -0.898002624512 -2.314926147461
12.002395629883 -72.612121582031 -286.746734619141 -1.425354003906 2.097305536270 -0.670969009399 1.384506225586
-107.243194580078 -66.584449768066 -167.217941284180 0.997390747070 1.420580863953 -0.918014526367 0.424865722656
-63.339256286621 -84.688789367676 -212.541046142578 -1.919448852539 2.427431106567 -1.095146179199 -1.004386901855
-66.091957092285 -83.804428100586 -205.270095825195 1.599975585938 2.699758052826 1.777969360352 -1.252037048340
46.636070251465 -73.418876647949 -110.708007812500 0.978652954102 2.772397518158 1.792732238770 -1.874710083008
-75.477714538574 -61.131057739258 -108.951705932617 0.025337219238 2.503870010376 0.685684204102 -2.408020019531
42.367259979248 -82.172470092773 -113.145019531250 0.395133972168 1.733596682549 -0.878681182861 -1.441230773926
103.111793518066 -77.722366333008 -168.044082641602 0.962600708008 5.865895271301 -3.461662292480 -4.636703491211
-85.530334472656 -87.272842407227 -89.064521789551 2.962043762207 5.852118492126 -3.765243530273 -3.361030578613
-73.274375915527 -83.722312927246 -89.108787536621 0.408073425293 3.048479080200 2.666259765625 1.420478820801
-152.899337768555 -72.497558593750 -175.819610595703 -0.679870605469 2.442974090576 -0.790573120117 -2.209274291992
-150.169906616211 -70.740432739258 -172.944595336914 2.195144653320 2.963489294052 1.938858032227 -0.452148437500
-82.625259399414 -69.922264099121 -108.654991149902 -0.037300109863 1.984958648682 1.981475830078 0.111457824707
-155.007492065430 -66.982025146484 -181.647827148438 0.396606445313 0.766146481037 -0.653121948242 0.055816650391
-5.139700889587 -68.822036743164 -267.432556152344 -0.781188964844 1.730154156685 -0.325747013092 -1.508995056152
-149.934066772461 -64.866561889648 -174.849822998047 0.589935302734 1.963801145554 -1.403259277344 1.240707397461
-66.230285644531 -80.276214599609 -77.359375000000 -0.196975708008 3.174601793289 0.401733398438 3.142913818359
-118.631645202637 -75.492424011230 -252.756500244141 2.744796752930 3.525009632111 -1.588676452637 -1.538795471191
-56.262725830078 -76.967674255371 -55.624347686768 -0.341690063477 1.943904876709 -0.358448028564 -1.879768371582
89.709564208984 -79.399208068848 -206.927749633789 2.040496826172 3.949430227280 -2.390899658203 -2.391227722168
-45.071388244629 -81.599647521973 -199.297531127930 0.678894042969 1.553826570511 -1.288742065430 -0.540946960449
-56.776935577393 -84.309402465820 -182.735778808594 -1.751998901367 4.835935115814 -2.512222290039 -3.742393493652
-93.876907348633 -78.009643554688 -88.399894714355 2.467727661133 4.281279563904 -2.664299011230 -2.267417907715
58.357982635498 -75.847183227539 -92.528381347656 0.819824218750 1.521702885628 0.008197784424 -1.281951904297
-143.155380249023 -74.242897033691 -294.718994140625 0.400024414063 2.294030666351 1.503097534180 -1.686195373535
-125.399177551270 -76.454231262207 -256.328796386719 -0.253723144531 0.306524902582 -0.159828186035 -0.063537597656
-83.996505737305 -86.061416625977 -102.201515197754 -1.403442382813 2.415828227997 -0.829711914063 -1.782737731934
-160.810760498047 -79.269660949707 -288.692962646484 1.261779785156 4.304518222809 2.968551635742 -2.850349426270
-147.790054321289 -78.483673095703 -304.536285400391 0.993652343750 1.441983580589 1.009780883789 0.268913269043
-152.253845214844 -70.364295959473 -287.687438964844 -0.274444580078 2.734354257584 -2.684249877930 0.442916870117
-147.127349853516 -74.166404724121 -294.617584228516 -0.023162841797 1.275159239769 -1.156173706055 -0.537361145020
-156.421981811523 -70.023796081543 -286.335571289063 -0.611694335938 0.929786264896 -0.672500610352 0.195129394531
57.840244293213 -60.398246765137 -85.241577148438 -0.023788452148 0.469013601542 0.266086578369 0.385494232178
55.979576110840 -63.025161743164 -96.040115356445 -0.092437744141 0.174206450582 0.124645233154 -0.079162597656
51.728282928467 -63.838855743408 -95.451004028320 0.041801452637 1.643748879433 1.596923828125 0.387294769287
-145.934494018555 -68.416488647461 -288.222839355469 1.627380371094 2.482991456985 1.433364868164 1.209274291992
-153.987823486328 -69.493827819824 -298.732025146484 0.520019531250 1.566839933395 -1.433227539063 -0.361145019531
62.559799194336 -62.301879882813 -86.619743347168 -0.066848754883 1.556775212288 -1.050708770752 1.146774291992
46.887195587158 -67.507865905762 -97.369651794434 0.186431884766 1.671397328377 -1.212989807129 1.134666442871
87.339935302734 -61.145092010498 -68.148513793945 -2.571723937988 7.468457698822 -0.824020385742 6.963123321533
-109.920471191406 -78.235015869141 -261.204833984375 -1.195129394531 5.670785903931 -2.732391357422 -4.823226928711
-88.345306396484 -84.883064270020 -104.348571777344 -0.338684082031 3.987788438797 -0.245605468750 -3.965782165527
-85.786125183105 -82.500984191895 -105.721946716309 1.889579772949 2.352844238281 -0.450294494629 -1.327629089355
26.790916442871 -63.629970550537 -254.562103271484 1.038421630859 2.313569307327 0.796875000000 -1.907688140869
-12.027252197266 -79.779006958008 -292.009918212891 -1.197570800781 3.174840688705 -0.270524024963 -2.927841186523
-13.273452758789 -71.808547973633 -286.104644775391 0.536926269531 2.113505601883 -1.868927001953 0.828086853027
-6.664144992828 -70.027702331543 -293.262298583984 -3.108093261719 3.718075752258 -1.917573928833 -0.697677612305
25.782302856445 -74.690505981445 -258.213562011719 -0.013366699219 2.534136295319 1.601650238037 -1.963768005371
-11.581909179688 -68.525741577148 -286.920349121094 1.775543212891 3.769987583160 1.596002578735 2.917709350586
112.216949462891 -77.843093872070 -165.167388916016 -1.980102539063 2.040857553482 0.016166687012 -0.493995666504
-23.726984024048 -84.740608215332 -182.765319824219 2.795608520508 3.277878761292 1.481500625610 -0.856864929199
27.207462310791 -75.231346130371 -143.334426879883 1.104217529297 2.468958139420 2.009891510010 0.914764404297
31.273277282715 -62.383365631104 -134.169677734375 -0.222656250000 0.935621738434 -0.474262237549 0.775169372559
-40.968475341797 -71.858772277832 -152.916137695313 1.285476684570 2.496640920639 -1.364269256592 1.649101257324
-24.870109558105 -86.974624633789 -185.308044433594 -0.079803466797 2.896086692810 1.213031768799 -2.628593444824
-114.229949951172 -71.992660522461 -230.759689331055 1.406967163086 1.520919919014 -0.289207458496 0.500000000000
-24.823402404785 -84.783119201660 -185.125488281250 0.435440063477 1.070875048637 0.385082244873 -0.899375915527
-45.587928771973 -72.472816467285 -156.962844848633 0.256332397461 2.503801584244 2.198211669922 -1.170974731445
-117.910430908203 -69.894294738770 -235.781082153320 -2.065902709961 2.083336830139 -0.259635925293 -0.070198059082
-43.194469451904 -85.277389526367 -194.014785766602 -0.229690551758 1.945662736893 -1.228691101074 -1.491027832031
-54.318450927734 -88.692481994629 -201.037490844727 0.977355957031 4.218689918518 -0.931724548340 -3.996749877930
-53.240310668945 -84.978141784668 -205.145355224609 -0.438018798828 1.500734329224 -0.936271667480 -1.087997436523
-43.211444854736 -76.661552429199 -64.373245239258 -1.092601776123 2.581728935242 -1.416446685791 1.861511230469
-51.463130950928 -82.718528747559 -75.621444702148 -1.611282348633 1.644865751266 0.111186981201 -0.311431884766
-154.622039794922 -87.524841308594 -228.839828491211 -0.625518798828 4.727255821228 -3.522796630859 -3.089591979980
-135.538116455078 -79.964202880859 -197.807083129883 -0.529953002930 1.821136713028 -1.303512573242 1.156089782715
-148.615936279297 -85.908699035645 -219.990219116211 1.069122314453 2.361997604370 -1.522491455078 -1.455345153809
-53.543624877930 -59.048561096191 -137.964874267578 -1.332931518555 1.879722952843 0.674510955811 1.140914916992
-48.872184753418 -68.925170898438 -143.572448730469 0.365325927734 0.593652963638 -0.145721435547 -0.444664001465
-22.335817337036 -74.661346435547 -245.093948364258 -1.975555419922 2.655174732208 0.742195129395 1.611297607422
-142.797500610352 -84.746620178223 -221.178863525391 1.654891967773 2.445046663284 1.567535400391 -0.884544372559
5.907268047333 -76.091812133789 -215.442504882813 0.558639526367 1.990904808044 0.428802013397 -1.862190246582
10.531484603882 -80.658699035645 -212.107406616211 1.580368041992 1.688273906708 0.224992752075 -0.549621582031
-34.013519287109 -81.837913513184 -241.293807983398 -0.640701293945 2.075705051422 0.623382568359 -1.873352050781
-149.024063110352 -88.746124267578 -223.182846069336 -2.123504638672 5.163762092590 -1.930618286133 -4.292770385742
-147.220809936523 -83.838600158691 -225.068969726563 0.153549194336 0.973948538303 -0.961593627930 0.018333435059
-142.892807006836 -84.163627624512 -225.870819091797 1.147079467773 1.322912216187 0.465194702148 -0.466796875000
-26.047342300415 -79.042724609375 -216.266220092773 -1.432113647461 1.938558459282 -0.413928985596 1.239242553711
-157.743804931641 -85.044670104980 -231.865264892578 -0.741683959961 5.200251102448 -4.572967529297 -2.362304687500
-169.887283325195 -69.685287475586 -229.058471679688 0.750854492188 2.548076629639 -2.348815917969 0.641853332520
15.826041221619 -73.173225402832 -184.837692260742 0.819152832031 0.924611687660 0.147418975830 0.402694702148
30.144737243652 -73.142669677734 -153.648147583008 -0.156585693359 1.699898362160 -0.858688354492 -1.458694458008
-147.052230834961 -87.291641235352 -228.225875854492 1.399673461914 3.961865663528 -1.394577026367 -3.434013366699
-150.325592041016 -86.855773925781 -234.656890869141 -3.574707031250 3.911157369614 0.016632080078 -1.586929321289
-146.368133544922 -85.887405395508 -237.493133544922 -0.564483642578 0.579474806786 -0.129974365234 0.015998840332
-154.161499023438 -87.089401245117 -232.351135253906 -1.268951416016 4.417185306549 -3.819274902344 -1.820556640625
-169.758666992188 -72.363533020020 -235.211349487305 0.304489135742 2.502696752548 -2.429443359375 0.518249511719
5.257702827454 -70.576622009277 -216.643676757813 2.398727416992 3.362574338913 -1.036302089691 2.116386413574
-27.197341918945 -84.568222045898 -222.889816284180 -3.278137207031 7.230604648590 -2.788789749146 -5.810173034668
-148.776229858398 -83.986579895020 -250.359283447266 -0.972457885742 0.981201410294 0.093994140625 -0.090812683105
-82.214759826660 -74.082382202148 -212.568283081055 0.612045288086 1.303294777870 -0.690544128418 -0.920394897461
0.564616978168 -69.356071472168 -161.790206909180 1.937835693359 2.821764469147 -0.677346050739 1.936065673828
-50.249404907227 -74.832199096680 -240.400131225586 1.193405151367 2.525257349014 -1.750743865967 1.373901367188
-59.475715637207 -79.652343750000 -243.795440673828 -0.489089965820 2.658630132675 -0.079776763916 -2.612037658691
17.254570007324 -69.399566650391 -179.550415039063 0.216232299805 1.641807436943 1.044017791748 1.248519897461
-171.437820434570 -76.661781311035 -261.628936767578 0.920440673828 5.493257999420 -4.458374023438 -3.074340820313
98.028945922852 -73.397735595703 -103.701263427734 -1.466026306152 4.298609733582 3.370346069336 -2.229255676270
-135.029052734375 -77.942321777344 -298.277648925781 -4.173370361328 5.164008617401 1.942749023438 -2.340019226074
-156.333847045898 -71.256210327148 -274.767089843750 -1.269683837891 2.519395112991 1.719345092773 -1.333831787109
8.116476058960 -73.722419738770 -150.436676025391 1.879898071289 2.107421636581 -0.835085868835 -0.458084106445
29.818326950073 -75.151779174805 -168.740371704102 1.331588745117 2.422580718994 1.359920501709 -1.498794555664
65.694664001465 -74.415344238281 -92.628799438477 -2.014274597168 3.961598873138 -2.697380065918 -2.088325500488
-146.811553955078 -85.740440368652 -252.768981933594 -2.138824462891 2.152307987213 0.240539550781 -0.000534057617
23.918872833252 -70.608947753906 -172.387771606445 -0.386367797852 2.186964273453 1.234859466553 -1.763137817383
12.563552856445 -69.833038330078 -156.395675659180 -0.681533813477 1.434567689896 -1.163298606873 -0.490135192871
64.549697875977 -68.713340759277 -88.497604370117 -1.336982727051 1.604426980019 -0.315567016602 -0.828903198242
-145.132415771484 -86.522178649902 -263.669036865234 -1.242370605469 3.030770540237 1.234954833984 -2.473251342773
-168.443374633789 -75.843177795410 -254.950515747070 0.360015869141 2.871253013611 -1.020797729492 -2.659408569336
-156.546447753906 -89.042633056641 -256.273559570313 -1.192291259766 6.857134342194 -5.027191162109 -4.508445739746
7.474988937378 -62.216461181641 -279.106750488281 -0.881652832031 2.431262731552 2.257929801941 -0.188362121582
67.412933349609 -59.755161285400 -67.181312561035 0.377838134766 0.845565676689 0.741325378418 0.150520324707
-50.937217712402 -80.131164550781 -70.512016296387 -0.127601623535 2.422959327698 -2.362369537354 0.523124694824
8.737663269043 -88.697357177734 -255.647949218750 1.890899658203 4.122422695160 1.034888267517 -3.513954162598
-75.609245300293 -75.490203857422 -246.570678710938 0.876358032227 0.900352656841 0.104835510254 0.177879333496
25.863189697266 -71.532577514648 -259.312072753906 -0.707397460938 1.870939731598 -0.214799880981 -1.718681335449
106.960975646973 -77.475982666016 -157.864166259766 1.048614501953 3.211095333099 -1.105171203613 -2.826683044434
14.966082572937 -71.333847045898 -173.824539184570 1.365280151367 2.036145448685 -1.507903099060 0.090148925781
-166.990386962891 -75.139503479004 -264.671325683594 -2.121948242188 2.629008054733 -0.010940551758 -1.552062988281
-152.526275634766 -88.356628417969 -263.664611816406 -0.411590576172 4.189959526062 -2.619750976563 -3.243957519531
14.634138107300 -68.799140930176 -183.694717407227 1.439346313477 1.951652765274 1.050711631775 0.795761108398
-6.110571861267 -82.382553100586 -269.375610351563 -0.532928466797 0.615709662437 0.016699314117 0.307907104492
6.499296188354 -78.052581787109 -295.110992431641 -3.640625000000 3.700861215591 0.053040981293 -0.662879943848
81.788261413574 -75.406478881836 -98.954452514648 -1.119216918945 1.534322142601 -0.815299987793 -0.660896301270
78.378204345703 -66.601501464844 -110.141899108887 -0.382148742676 2.125587463379 -1.551696777344 -1.401542663574
-6.223690986633 -85.341896057129 -274.566955566406 -0.837585449219 4.380523681641 -2.475442886353 -3.515625000000
7.421735763550 -87.039520263672 -271.342041015625 -0.397979736328 3.561510801315 2.662762641907 -2.331451416016
43.523277282715 -76.950317382813 -116.408576965332 -1.010246276855 1.379419565201 0.652698516846 0.675415039063
-85.065078735352 -79.467895507813 -218.639801025391 -1.280456542969 2.426594734192 0.706375122070 -1.936447143555
20.079912185669 -70.502265930176 -269.733276367188 0.902191162109 2.844802856445 -2.615825653076 0.660614013672
59.551143646240 -73.589172363281 -235.374755859375 -0.081237792969 3.922809362411 -2.239879608154 -3.219436645508
38.212253570557 -73.329772949219 -106.986755371094 -1.178321838379 1.407104372978 -0.713176727295 -0.287887573242
-91.074409484863 -81.481864929199 -104.699104309082 -0.689216613770 3.105263948441 -2.974708557129 -0.564582824707
-5.100074768066 -84.301803588867 -274.116302490234 -0.386932373047 2.847000837326 -1.351826667786 -2.475532531738
38.374629974365 -80.421806335449 -110.367973327637 2.195846557617 2.747614860535 -1.151313781738 -1.184112548828
-1.049767017365 -60.831752777100 -250.192398071289 0.945236206055 2.099644184113 1.408269882202 1.237663269043
-57.387485504150 -80.453285217285 -94.437385559082 -0.738296508789 1.265967249870 0.631690979004 0.811515808105
-162.862777709961 -80.094024658203 -268.558227539063 0.125457763672 5.532179355621 1.758163452148 -5.243865966797
-157.330657958984 -74.628707885742 -259.381134033203 -1.460540771484 2.462787628174 -1.542633056641 -1.245964050293
-149.883773803711 -89.736846923828 -277.082641601563 0.234771728516 2.778390884399 -0.979660034180 -2.589324951172
-171.319580078125 -74.456161499023 -280.486877441406 -1.796173095703 3.417872905731 -1.867675781250 -2.228767395020
70.593551635742 -68.501152038574 -106.879089355469 -1.608406066895 2.959260702133 -2.382408142090 -0.703125000000
-155.782333374023 -70.767868041992 -259.492675781250 -0.979522705078 1.568634986877 1.146041870117 0.433288574219
-87.056579589844 -60.681251525879 -53.399253845215 -0.907852172852 2.484831571579 2.243736267090 0.561996459961
-150.585876464844 -65.089599609375 -261.252746582031 0.765319824219 1.389442205429 -1.151748657227 -0.135314941406
26.734668731689 -70.947349548340 -158.216796875000 -0.654296875000 2.201962709427 2.099716186523 -0.108291625977
-155.463882446289 -80.946647644043 -269.349761962891 0.231933593750 4.237517356873 -3.483993530273 2.400947570801
-149.476806640625 -81.843467712402 -271.992126464844 -0.984954833984 2.329011917114 -1.260696411133 1.692573547363
-149.460556030273 -73.774101257324 -252.402816772461 -0.839172363281 0.887094259262 -0.089019775391 -0.273498535156
20.620552062988 -69.466033935547 -164.675491333008 -0.612579345703 2.062896013260 -1.488037109375 1.290748596191
28.151044845581 -71.849395751953 -153.305084228516 0.946319580078 2.301532030106 -0.496791839600 -2.038314819336
-163.230773925781 -70.842369079590 -272.214630126953 0.560150146484 3.323521852493 -2.722976684570 -1.821380615234
-164.276687622070 -72.739540100098 -269.043548583984 -0.359863281250 2.168576240540 0.344253540039 2.110618591309
-126.814483642578 -76.615592956543 -259.294525146484 -1.674499511719 1.701289892197 -0.249572753906 -0.167785644531
47.020038604736 -73.185691833496 -107.016120910645 -0.395179748535 3.295855760574 -2.167839050293 2.450912475586
-158.701477050781 -77.005355834961 -306.491790771484 1.385345458984 4.103753566742 -2.523971557617 -2.924240112305
29.659938812256 -75.993537902832 -123.936912536621 2.089393615723 2.448935031891 0.230592727661 1.256401062012
-36.191474914551 -79.472305297852 -179.389373779297 -2.599105834961 2.946169376373 -0.125816345215 -1.381568908691
-93.466697692871 -79.070388793945 -108.077445983887 -1.644432067871 3.399364471436 -2.810485839844 -0.976058959961
-152.186523437500 -80.998710632324 -293.230621337891 -0.834564208984 1.535677433014 0.218170166016 1.270515441895
-33.331607818604 -80.185104370117 -176.287490844727 1.988464355469 2.113385677338 -0.328350067139 -0.636077880859
-142.508911132813 -83.124069213867 -287.883697509766 0.494689941406 2.420636653900 -1.032821655273 2.132614135742
-70.245704650879 -84.158973693848 -215.993331909180 -4.119247436523 4.540248394012 -1.513641357422 -1.163848876953
-144.850463867188 -81.851409912109 -294.515594482422 0.831634521484 1.440668702126 1.154037475586 -0.228271484375
-63.033500671387 -83.160697937012 -206.217575073242 -0.186111450195 1.236173510551 -0.471645355225 1.127403259277
-59.622657775879 -81.038192749023 -202.001342773438 0.891189575195 1.284781813622 0.550212860107 0.744117736816
-49.107925415039 -81.011009216309 -193.493515014648 -0.626220703125 1.772605061531 0.563938140869 -1.559471130371
-155.737594604492 -82.254783630371 -297.773162841797 0.619506835938 3.777146816254 -2.822143554688 2.432807922363
-62.579204559326 -82.715965270996 -213.432678222656 -2.811080932617 2.992045164108 -0.335094451904 0.968437194824
-155.864120483398 -67.176208496094 -310.247314453125 0.347747802734 2.143317461014 -2.071502685547 -0.426330566406
-82.994384765625 -69.485816955566 -99.260536193848 0.660140991211 3.481513023376 -2.812110900879 1.943496704102
-63.406959533691 -83.210845947266 -78.102378845215 0.541725158691 1.221608996391 0.981857299805 0.484580993652
-48.093002319336 -78.164817810059 -62.514583587646 0.262622833252 1.365978360176 -1.340011596680 -0.035987854004
-89.129768371582 -80.769531250000 -110.295532226563 1.645675659180 2.607878923416 -0.746604919434 -1.880256652832
8.648653030396 -82.981658935547 -253.337478637695 -1.646179199219 1.827451229095 -0.792443275452 0.041297912598
-53.148082733154 -80.470451354980 -79.870018005371 1.627601623535 3.888147830963 -0.045959472656 3.530792236328
-48.851428985596 -85.233421325684 -74.993415832520 1.643424987793 3.711201429367 -1.500541687012 -2.969940185547
-136.609207153320 -84.146438598633 -256.655090332031 -0.117828369141 1.050004005432 -1.042907714844 0.031120300293
-35.743125915527 -77.021690368652 -163.186828613281 -0.259887695313 0.993757307529 0.541542053223 -0.791671752930
-18.937294006348 -81.080642700195 -178.955612182617 -1.452957153320 1.516403555870 0.312063217163 -0.301681518555
-11.547428131104 -77.718185424805 -177.883743286133 -0.056045532227 1.584627032280 1.053695678711 1.182212829590
87.063041687012 -70.676063537598 -74.133094787598 0.192451477051 2.700860023499 0.835418701172 2.561187744141
-134.563262939453 -81.409767150879 -262.577972412109 -3.129272460938 3.401025056839 0.171890258789 -1.321014404297
28.438558578491 -78.656028747559 -138.826339721680 -0.995864868164 1.144307374954 0.171615600586 0.536880493164
-152.598739624023 -86.420433044434 -302.008209228516 -0.643859863281 2.421358585358 -2.228164672852 -0.695487976074
-9.735475540161 -75.207557678223 -173.409118652344 0.443756103516 1.629848957062 0.886156082153 1.293914794922
-153.467849731445 -80.970428466797 -313.714050292969 -0.666015625000 3.350477933884 -0.215972900391 -3.276504516602
29.928897857666 -77.989830017090 -134.839813232422 -1.475311279297 2.088759660721 -0.844816207886 -1.213531494141
19.910270690918 -75.276435852051 -141.732498168945 1.379486083984 3.769953012466 -3.302406311035 -1.184768676758
82.398185729980 -74.127876281738 -82.634712219238 -0.064094543457 3.136306285858 -2.512817382813 1.875648498535
-8.004960060120 -76.577354431152 -166.140502929688 1.940551757813 2.350574731827 -1.306509971619 -0.229110717773
66.383377075195 -65.544990539551 -73.085289001465 1.731300354004 1.948443055153 0.404136657715 -0.797309875488
90.237533569336 -77.390182495117 -80.116851806641 0.888275146484 1.348876476288 0.782997131348 -0.646026611328
-53.011405944824 -80.247299194336 -67.836685180664 0.593826293945 1.225912213326 0.371341705322 1.006149291992
-41.088603973389 -82.519927978516 -74.822547912598 0.887496948242 1.507435560226 -1.092842102051 -0.538894653320
-167.828674316406 -77.375366210938 -285.236206054688 -1.670532226563 2.652944803238 -1.317321777344 -1.584960937500
-141.088424682617 -78.897300720215 -252.533843994141 2.430236816406 2.592604398727 0.618698120117 0.657844543457
-100.712203979492 -78.407562255859 -220.991790771484 0.931777954102 3.278153896332 -1.246810913086 -2.885055541992
-43.004638671875 -83.865562438965 -77.589508056641 -1.153175354004 1.428318500519 0.192821502686 -0.820426940918
-41.173957824707 -79.715675354004 -210.245849609375 -2.770507812500 3.863539218903 -2.094963073730 -1.691848754883
75.309829711914 -76.095642089844 -229.403121948242 -1.072052001953 1.657953619957 -1.232429504395 0.283958435059
-6.701587200165 -79.801918029785 -251.867889404297 0.555526733398 1.466155052185 -0.785643100739 -1.106239318848
104.734786987305 -67.147827148438 -127.653366088867 1.568176269531 5.315149307251 -4.980270385742 0.994255065918
-69.080268859863 -60.477287292480 -96.262626647949 -0.642997741699 0.700390636921 0.264587402344 0.084228515625
62.734802246094 -59.720138549805 -72.199409484863 -1.439384460449 2.919717550278 -2.507354736328 -0.407546997070
96.372817993164 -73.342117309570 -81.582054138184 -1.464576721191 1.632150173187 0.642440795898 0.325881958008
-40.712074279785 -83.064216613770 -85.374862670898 0.167114257813 1.782601118088 0.319564819336 -1.745742797852
-41.451129913330 -79.868606567383 -247.534744262695 -1.758239746094 2.875810384750 -0.215026855469 -2.265533447266
-139.448532104492 -81.663825988770 -286.461853027344 0.372375488281 2.455928564072 -2.175689697266 -1.076705932617
-73.136741638184 -81.216644287109 -208.871719360352 -1.021636962891 1.929490447044 -1.511932373047 -0.627098083496
-133.097579956055 -77.222747802734 -283.736755371094 1.034149169922 2.726785659790 -0.790145874023 -2.396156311035
-76.060676574707 -85.517845153809 -78.975822448730 2.189186096191 4.409633636475 -3.579971313477 -1.355041503906
21.640094757080 -66.509811401367 -145.134643554688 -1.516418457031 1.652333974838 -0.647832870483 -0.104858398438
-75.313919067383 -83.988555908203 -83.500953674316 -0.035713195801 1.467624664307 1.118484497070 -0.949546813965
-88.097450256348 -70.651031494141 -107.006370544434 0.685195922852 3.037088871002 -2.367729187012 -1.774337768555
52.259929656982 -64.097457885742 -99.339729309082 1.210800170898 1.679319262505 -1.150325775146 -0.175575256348
-26.887786865234 -72.911338806152 -294.148620605469 -2.212097167969 3.014599323273 1.801624298096 0.973953247070
-74.420860290527 -85.782363891602 -84.968688964844 -1.503448486328 3.719228267670 2.011543273926 -2.743354797363
-78.109031677246 -67.549194335938 -103.565773010254 0.918037414551 1.855568528175 -1.429794311523 -0.745674133301
-85.279716491699 -66.069717407227 -109.082260131836 -2.307174682617 2.393630743027 0.623458862305 -0.133087158203
50.173194885254 -64.217750549316 -104.137374877930 1.005699157715 2.404196262360 1.380210876465 1.692260742188
-144.648330688477 -69.395492553711 -268.787475585938 -1.982574462891 2.137043476105 -0.024765014648 0.797332763672
-133.088027954102 -73.153671264648 -280.410919189453 3.659515380859 3.976362228394 1.464385986328 0.524383544922
-161.112060546875 -78.416114807129 -254.182785034180 -1.612548828125 5.344529151917 0.366485595703 -5.082260131836
-163.009445190430 -76.622619628906 -250.771530151367 -1.973815917969 3.141872644424 1.768539428711 -1.687507629395
-46.361061096191 -82.022109985352 -88.315849304199 -1.733024597168 2.917126893997 2.156219482422 -0.925727844238
-157.772781372070 -81.312011718750 -255.925704956055 0.263076782227 3.240328550339 -2.359436035156 -2.205352783203
-128.571624755859 -72.069213867188 -287.340576171875 -1.321777343750 2.818962097168 -2.462684631348 0.366928100586
-129.095382690430 -68.196662902832 -288.994140625000 -1.794555664063 3.383997201920 -1.774848937988 -2.254089355469
-151.574111938477 -66.412025451660 -274.534454345703 -0.416778564453 1.150408864021 0.392181396484 0.997962951660
-154.700790405273 -70.904182434082 -267.785278320313 -1.275970458984 3.040144443512 -1.434341430664 2.357337951660
-151.573303222656 -82.177589416504 -261.906005859375 -0.881500244141 1.088228702545 -0.024536132813 0.637649536133
89.429443359375 -75.779975891113 -98.188125610352 1.348602294922 1.671222090721 0.222694396973 -0.961593627930
-66.553245544434 -82.405990600586 -101.409225463867 -1.717124938965 2.452300071716 0.725440979004 1.593421936035
-49.782680511475 -81.438911437988 -66.653816223145 -0.731948852539 3.218034505844 -2.915313720703 -1.149322509766
-80.374595642090 -84.480735778809 -102.948204040527 1.401741027832 2.041087627411 0.503112792969 1.395721435547
46.825466156006 -69.930450439453 -99.516555786133 0.657012939453 2.081386804581 -0.454864501953 -1.921875000000
53.452026367188 -67.475425720215 -94.472259521484 -1.712791442871 1.835990428925 0.661109924316 0.011833190918
-36.430835723877 -72.310821533203 -176.325500488281 0.672515869141 2.369098663330 -1.352348327637 1.825241088867
-158.475234985352 -76.436157226563 -298.086883544922 -3.441131591797 4.271805763245 -2.265686035156 -1.128540039063
-153.537841796875 -83.731872558594 -304.157653808594 -3.481262207031 3.990545749664 -1.949188232422 0.077033996582
-153.025695800781 -83.552131652832 -301.742858886719 -1.066467285156 1.807865142822 -1.437042236328 0.256774902344
72.774673461914 -71.220329284668 -69.212348937988 -1.182067871094 1.913714528084 -0.536491394043 -1.406127929688
65.525611877441 -67.763336181641 -79.318939208984 0.227714538574 0.745189428329 0.086235046387 -0.704284667969
59.082866668701 -70.112121582031 -91.029129028320 -1.327796936035 1.926965951920 0.953029632568 -1.020729064941
37.647296905518 -72.011238098145 -111.406547546387 -1.090866088867 1.210624456406 -0.477668762207 0.217842102051
-33.435092926025 -70.557960510254 -179.690536499023 0.862915039063 2.839091777802 2.574756622314 0.828521728516
-124.426795959473 -72.083923339844 -264.161743164063 -0.630249023438 1.975297927856 -0.628654479980 -1.763343811035
-152.699234008789 -71.851371765137 -295.560089111328 0.886444091797 2.176623344421 1.546035766602 -1.249671936035
78.206085205078 -71.524681091309 -65.740585327148 1.467933654785 1.559828281403 -0.071037292480 -0.522674560547
-32.796882629395 -74.742416381836 -175.051773071289 1.946243286133 3.059615612030 2.281604766846 -0.606353759766
-115.971969604492 -70.309112548828 -256.709533691406 -0.857910156250 1.060329198837 0.605247497559 -0.148200988770
-119.450119018555 -71.334983825684 -257.011016845703 -1.760833740234 2.069027900696 -1.018585205078 0.377922058105
49.642787933350 -70.998054504395 -96.733695983887 0.393653869629 1.933556318283 1.869457244873 0.298004150391
57.343982696533 -64.749870300293 -84.096946716309 0.123741149902 1.550968289375 -1.385665893555 0.685653686523
82.403495788574 -65.658523559570 -63.499008178711 -0.689193725586 1.498639345169 0.336219787598 1.287590026855
-155.897659301758 -69.073028564453 -287.337280273438 -1.613403320313 1.984466314316 -0.148178100586 1.145896911621
-156.682785034180 -70.697937011719 -292.775482177734 -1.312927246094 1.872807025909 0.000061035156 -1.335525512695
-148.219284057617 -66.882240295410 -294.576263427734 0.207122802734 1.275436639786 0.349670410156 -1.208953857422
-17.818510055542 -84.103828430176 -177.413238525391 2.131835937500 2.133626937866 0.070283889771 -0.051956176758
-38.753616333008 -83.455871582031 -163.475234985352 2.357223510742 4.188089847565 -2.045677185059 -2.792633056641
-21.061716079712 -85.032318115234 -182.414703369141 -1.503601074219 1.709276437759 -0.800886154175 -0.139251708984
13.292516708374 -79.038040161133 -222.603775024414 -1.545196533203 1.693918347359 0.596773147583 -0.354385375977
-153.039123535156 -81.316787719727 -186.818878173828 0.989852905273 3.742304086685 -3.465301513672 1.008323669434
-43.778751373291 -75.597930908203 -160.447814941406 2.093597412109 2.115537643433 -0.261569976807 -0.154693603516
-60.496360778809 -74.897834777832 -175.075546264648 -0.355331420898 1.241642594337 1.079879760742 -0.499275207520
-16.381139755249 -82.182563781738 -211.837829589844 -0.004516601563 3.887556552887 -1.871838569641 -3.407241821289
21.674865722656 -84.388130187988 -246.954162597656 -2.177337646484 3.782695531845 2.556261062622 -1.741699218750
-34.254707336426 -83.659072875977 -194.164184570313 0.394409179688 0.817315697670 -0.715721130371 -0.013771057129
-4.067904949188 -68.167434692383 -237.155532836914 -0.130096435547 1.243527412415 -0.277689933777 -1.205123901367
-91.881454467773 -69.849708557129 -143.543518066406 -1.082260131836 1.614334225655 -0.386451721191 -1.133773803711
-45.749359130859 -72.892280578613 -200.985275268555 -2.008224487305 2.879820823669 -1.564052581787 1.346900939941
-48.739864349365 -84.245422363281 -186.646057128906 -3.287948608398 4.051319122314 -0.473289489746 -2.319175720215
-45.930107116699 -82.109169006348 -194.287200927734 -0.531692504883 1.172346830368 0.710948944092 -0.765670776367
-94.259567260742 -77.336059570313 -221.099380493164 -1.986831665039 2.803456783295 1.609924316406 -1.148918151855
-43.630428314209 -72.402999877930 -61.580276489258 -1.782062530518 4.677064895630 0.561050415039 4.287704467773
12.116851806641 -79.579231262207 -252.410430908203 -1.710647583008 2.161700725555 -0.522187232971 1.214065551758
-127.775650024414 -78.128822326660 -227.949478149414 1.718017578125 3.493370532990 0.860778808594 -2.917381286621
-150.839553833008 -77.691032409668 -203.301284790039 0.238739013672 0.865660607815 0.309753417969 -0.772285461426
-31.932394027710 -77.109863281250 -72.188072204590 0.746315002441 2.639014720917 -1.474172592163 2.057723999023
-154.709457397461 -83.272468566895 -191.952728271484 4.617523193359 5.030682563782 -1.512710571289 -1.303054809570
-156.903961181641 -71.018913269043 -198.511856079102 0.766586303711 1.704682469368 -1.064575195313 1.088562011719
-131.563781738281 -68.954986572266 -224.053771972656 -0.157501220703 1.055877804756 1.042785644531 -0.051666259766
-140.140289306641 -65.798927307129 -202.042007446289 0.228363037109 1.811573505402 1.549148559570 -0.910926818848
-147.007354736328 -64.326049804688 -196.361297607422 1.387222290039 2.478875160217 1.158996582031 1.696220397949
-68.472839355469 -74.768356323242 -153.034622192383 1.477523803711 1.510030031204 0.263290405273 -0.166709899902
8.436094284058 -79.309303283691 -245.880538940430 0.838912963867 1.292320013046 -0.568943023682 -0.801635742188
-71.003112792969 -73.269371032715 -151.214233398438 -0.787490844727 1.905250906944 -1.425315856934 0.989097595215
-8.633559226990 -70.764396667480 -212.294601440430 -0.736953735352 1.095877289772 -0.152717590332 0.796569824219
-73.196929931641 -74.465927124023 -251.360778808594 0.561782836914 2.384856939316 1.334861755371 1.894752502441
-13.061285018921 -82.193374633789 -217.424957275391 -2.456436157227 3.885920524597 -2.078664779663 -2.178405761719
-87.568397521973 -59.821685791016 -116.106925964355 0.853668212891 1.670110106468 -1.429306030273 -0.132675170898
-43.435974121094 -77.537727355957 -287.823181152344 -0.617614746094 1.895274400711 -1.790054321289 0.079513549805
-24.614679336548 -74.933235168457 -64.465942382813 -0.673168182373 1.710328459740 -1.499679565430 -0.472259521484
-141.545776367188 -69.785385131836 -184.030639648438 -0.863433837891 2.851243019104 1.953674316406 1.888710021973
-149.885726928711 -66.107032775879 -183.822555541992 -0.890350341797 3.586073875427 -0.383132934570 -3.452594757080
-23.034420013428 -80.093078613281 -203.609313964844 0.896911621094 3.898383617401 -3.760046005249 -0.504974365234
-153.134765625000 -77.187911987305 -193.370651245117 0.667633056641 2.192974567413 -2.075561523438 0.235473632813
-154.555068969727 -85.232421875000 -200.013778686523 0.724838256836 3.622341394424 -1.970199584961 -2.951995849609
-159.292221069336 -69.921630859375 -195.273925781250 2.015579223633 2.804163932800 1.613449096680 -1.094329833984
-165.063247680664 -66.804298400879 -202.998443603516 -2.001770019531 2.175721406937 -0.383056640625 0.761543273926
-149.186950683594 -63.029178619385 -195.674240112305 1.035110473633 1.664814352989 -0.267135620117 -1.276241302490
-118.750633239746 -74.710540771484 -228.657806396484 -0.581832885742 3.694084882736 3.055328369141 -1.993164062500
36.658031463623 -76.371696472168 -141.312805175781 1.297027587891 1.727298259735 -1.105274200439 0.282218933105
-52.005039215088 -81.319656372070 -193.302627563477 -0.435333251953 3.020445346832 -2.333175659180 -1.868118286133
-48.611595153809 -84.427902221680 -196.673736572266 0.233901977539 0.602898180485 0.228038787842 -0.506729125977
-149.470489501953 -85.080337524414 -204.961090087891 -0.859710693359 2.260177135468 -1.725112915039 -1.180374145508
-150.695343017578 -86.020568847656 -205.743301391602 -1.641921997070 3.986875534058 -2.949966430664 -2.120605468750
-149.291549682617 -84.374816894531 -213.668579101563 2.973495483398 3.815804958344 -0.942337036133 -2.197883605957
-16.709737777710 -62.163417816162 -54.641220092773 0.401039123535 2.481093645096 -2.447497367859 0.068920135498
-52.450740814209 -74.893608093262 -289.712188720703 0.260101318359 1.744318127632 0.948417663574 1.440658569336
-83.822723388672 -74.396377563477 -252.529342651367 -0.129684448242 0.862302720547 -0.832405090332 0.183982849121
-109.810928344727 -72.963325500488 -227.217208862305 -0.486373901367 1.792855739594 -1.603248596191 -0.638252258301
-146.364608764648 -83.942848205566 -199.553634643555 0.846954345703 1.732438802719 -1.221755981445 -0.889564514160
-148.470489501953 -68.130279541016 -192.282180786133 -0.618347167969 2.046026229858 1.946243286133 -0.126518249512
-31.702548980713 -62.268512725830 -72.679222106934 2.447891235352 2.851001739502 1.453689575195 -0.151081085205
-151.696670532227 -69.698928833008 -192.988906860352 1.027862548828 1.033861875534 -0.032623291016 -0.106323242188
-36.723133087158 -59.206237792969 -74.529190063477 1.904251098633 2.670035600662 -1.761169433594 -0.633403778076
-40.271270751953 -81.819038391113 -200.185668945313 -0.008651733398 0.745820820332 -0.280536651611 -0.690994262695
-53.318260192871 -77.438644409180 -183.357040405273 -1.086776733398 1.309265017509 0.131366729736 0.718215942383
79.067413330078 -78.402091979980 -74.339454650879 -0.605308532715 3.268115043640 -0.512237548828 -3.170455932617
93.567955017090 -65.673988342285 -72.893791198730 -1.482131958008 4.364094734192 -2.737258911133 3.058761596680
48.862297058105 -71.875259399414 -249.055725097656 0.747055053711 1.168953180313 0.834690093994 -0.334144592285
-68.469703674316 -85.028778076172 -71.577575683594 0.986778259277 3.416010379791 -1.426422119141 -2.942909240723
2.449049949646 -82.608100891113 -280.419097900391 -0.553771972656 2.166051149368 -0.781543970108 -1.942756652832
9.428638458252 -77.700706481934 -278.986389160156 0.965209960938 2.492000579834 -0.231070518494 2.285835266113
-72.952011108398 -84.117530822754 -208.005081176758 0.703109741211 2.213088512421 -1.762603759766 -1.138694763184
-85.888031005859 -81.037109375000 -89.755584716797 0.850738525391 1.303420424461 -0.704360961914 -0.692115783691
-83.787094116211 -82.561851501465 -80.331588745117 1.627456665039 3.586418390274 -3.138954162598 -0.600624084473
-103.695205688477 -73.845100402832 -225.604797363281 0.022705078125 0.066443465650 0.037361145020 -0.050033569336
-51.695102691650 -69.431076049805 -50.725048065186 -0.653072357178 1.459074139595 -0.877117156982 0.965950012207
93.079109191895 -73.730613708496 -201.260894775391 2.347717285156 2.633581638336 -1.155883789063 -0.296493530273
-116.282981872559 -68.287895202637 -204.765609741211 -0.126602172852 1.942986369133 -1.059906005859 -1.623504638672
-142.103698730469 -83.946571350098 -225.760665893555 1.257232666016 1.793399095535 1.254302978516 -0.249740600586
-154.474487304688 -78.366775512695 -215.276321411133 1.541564941406 4.409739017487 -4.108215332031 0.438110351563
15.794191360474 -78.065048217773 -195.048980712891 0.931198120117 1.990939021111 1.759504318237 -0.029205322266
-166.371887207031 -69.774971008301 -217.796554565430 1.894348144531 2.130956649780 0.670989990234 0.708656311035
-12.333545684814 -66.756729125977 -247.504684448242 0.817489624023 0.917498886585 -0.114100456238 -0.400619506836
-70.835014343262 -64.143653869629 -115.375274658203 -1.873252868652 4.158854484558 -1.089118957520 -3.549762725830
-147.829040527344 -84.449691772461 -221.479614257813 -0.420272827148 0.847197532654 -0.735595703125 0.003662109375
16.080778121948 -72.727241516113 -203.141571044922 -1.279785156250 2.530047893524 -0.345500946045 -2.154975891113
-32.490329742432 -82.249008178711 -239.643005371094 1.010101318359 3.293443918228 2.146572113037 -2.284446716309
99.539283752441 -69.081817626953 -85.038291931152 -1.723617553711 2.304851055145 -0.932533264160 1.213203430176
-8.206054687500 -75.335121154785 -245.447494506836 1.954620361328 2.576421737671 0.690586090088 -1.529869079590
-148.827102661133 -81.942558288574 -220.854461669922 1.569046020508 2.311708688736 1.392425537109 0.971206665039
-116.087791442871 -63.033168792725 -201.505172729492 0.110198974609 1.872563004494 1.384025573730 1.256511688232
-164.660675048828 -76.287704467773 -227.417266845703 0.948928833008 2.592433929443 -0.868255615234 -2.250862121582
-157.101928710938 -81.833969116211 -227.167724609375 1.312347412109 3.799568891525 -2.403961181641 -2.633522033691
-104.114517211914 -75.074653625488 -292.712219238281 -0.509887695313 2.494864225388 -0.679786682129 -2.345687866211
-154.790588378906 -78.035392761230 -250.750808715820 1.780029296875 3.041524410248 -2.450759887695 0.275939941406
-145.394119262695 -83.023559570313 -234.321929931641 -0.460845947266 0.856148004532 -0.258819580078 0.673515319824
-155.191467285156 -73.603988647461 -244.304672241211 0.802459716797 1.472028613091 1.220443725586 -0.182876586914
-0.216948002577 -79.300735473633 -248.583770751953 0.600585937500 2.049019336700 1.164786934853 1.575134277344
10.409897804260 -82.741706848145 -237.947418212891 -0.803558349609 2.023958683014 0.391407966614 -1.815902709961
6.174786090851 -77.420478820801 -241.264053344727 -0.685562133789 1.368128776550 -1.036459922791 -0.572303771973
-33.452301025391 -66.583145141602 -51.494060516357 -1.907409667969 2.727156400681 -1.686006546021 -0.978034973145
-35.045257568359 -87.357551574707 -211.280426025391 0.033081054688 7.310324668884 -3.224231719971 -6.560798645020
-62.767898559570 -79.754867553711 -167.000839233398 1.106842041016 2.008544206619 1.492965698242 -0.761711120605
10.222997665405 -84.998886108398 -238.192230224609 -0.168014526367 2.279568433762 -2.189815521240 -0.610664367676
-12.487045288086 -74.265663146973 -207.122726440430 0.180374145508 2.351472616196 -2.342577934265 -0.096008300781
35.813713073730 -83.977462768555 -123.378593444824 2.096206665039 3.066411018372 -0.808681488037 -2.086822509766
31.601409912109 -75.736732482910 -115.963760375977 -0.967857360840 3.392879724503 -3.180011749268 -0.680007934570
12.809771537781 -88.768600463867 -246.562515258789 1.020690917969 5.667784690857 0.660808563232 -5.535820007324
14.261753082275 -83.181343078613 -242.516723632813 2.890869140625 4.001644134521 1.409298896790 -2.381156921387
-98.037078857422 -71.963340759277 -145.470520019531 3.527420043945 4.677365779877 -1.563850402832 -2.643753051758
-2.283899068832 -68.856086730957 -239.296722412109 -0.605484008789 0.877306997776 0.572891950607 0.273590087891
-147.817092895508 -81.999794006348 -207.677581787109 1.916152954102 2.066695690155 0.769790649414 0.083732604980
-159.866119384766 -72.591506958008 -210.342590332031 -0.539550781250 3.640861272812 3.599472045898 0.092506408691
48.885971069336 -78.555488586426 -117.828102111816 -1.909049987793 2.047304630280 0.685550689697 0.277496337891
-134.204345703125 -69.366233825684 -233.972427368164 -0.347549438477 1.068325519562 -0.192749023438 -0.991653442383
37.213611602783 -80.086174011230 -128.506317138672 -2.693756103516 2.696550846100 -0.105705261230 0.062377929688
-138.974212646484 -83.383285522461 -229.436584472656 0.834014892578 1.163250327110 0.297943115234 0.754188537598
12.254965782166 -87.463439941406 -245.576965332031 2.006240844727 4.683451652527 0.106002807617 -4.230659484863
-92.064994812012 -71.241935729980 -144.144454956055 -1.683197021484 3.088482379913 -0.569992065430 -2.526000976563
1.560711026192 -69.167579650879 -236.826278686523 -0.752822875977 0.849633634090 -0.347831964493 0.184791564941
-5.347682952881 -81.279739379883 -229.535186767578 -1.437347412109 3.700406074524 -1.095233917236 -3.229164123535
-71.644058227539 -73.893432617188 -160.889633178711 -0.778732299805 1.933260083199 -1.400794982910 -1.081130981445
-17.275056838989 -78.222274780273 -211.287445068359 1.831100463867 2.709949016571 -1.144464492798 -1.637405395508
102.588188171387 -78.678298950195 -193.506744384766 -0.343048095703 1.595535397530 0.694839477539 -1.394721984863
18.641771316528 -79.637603759766 -249.990753173828 -1.378356933594 2.867922544479 -2.291461944580 1.036491394043
35.371883392334 -69.131484985352 -134.511260986328 1.247741699219 2.106717109680 1.045825958252 -1.337028503418
-78.820854187012 -63.613780975342 -120.212539672852 1.355842590332 1.946685194969 0.926933288574 -1.045021057129
17.704147338867 -86.874633789063 -250.398986816406 -2.950805664063 5.221672058105 1.843255043030 -3.893714904785
-84.694679260254 -66.044128417969 -126.545036315918 -0.471458435059 1.067680120468 0.007034301758 -0.957923889160
6.373431205750 -77.890945434570 -294.125244140625 -2.654876708984 2.702761411667 -0.072824001312 -0.501243591309
-9.225983619690 -85.528861999512 -257.240966796875 -0.191101074219 3.852766752243 -2.412849426270 -2.997573852539
-169.222961425781 -77.924751281738 -274.503265380859 1.899749755859 4.728646755219 -3.313262939453 -2.788070678711
91.260498046875 -72.754745483398 -84.478034973145 0.052665710449 3.591013669968 -1.322036743164 3.338386535645
-153.617248535156 -77.666069030762 -259.758575439453 1.131713867188 3.073135852814 1.284118652344 2.552337646484
79.592094421387 -72.223060607910 -99.250129699707 1.725601196289 1.767584085464 -0.003067016602 0.382942199707
80.866569519043 -69.287651062012 -107.263458251953 0.646896362305 2.603235006332 0.890769958496 -2.359001159668
-159.512207031250 -72.518371582031 -259.082702636719 -0.203948974609 1.840910315514 0.489807128906 1.762794494629
21.039878845215 -80.983352661133 -152.995300292969 1.161788940430 4.204063892365 -2.711141586304 -2.995681762695
-141.640640258789 -85.505187988281 -256.826477050781 0.627319335938 0.656120836735 0.191482543945 0.017303466797
28.035902023315 -79.872169494629 -151.541671752930 -0.602325439453 1.813143134117 0.160860061646 -1.702590942383
86.478614807129 -79.305641174316 -94.646957397461 1.511940002441 2.285395860672 0.011116027832 -1.713752746582
-64.606155395508 -74.105270385742 -244.937362670898 0.581802368164 2.235009193420 2.010856628418 -0.783088684082
18.894590377808 -80.005714416504 -159.730697631836 -0.903030395508 4.294232368469 -3.971120834351 -1.362045288086
-154.821884155273 -84.050460815430 -261.157745361328 -0.340209960938 0.672412395477 -0.573013305664 -0.089729309082
-165.676437377930 -69.585922241211 -263.960327148438 -1.109405517578 1.469089150429 0.082260131836 -0.959518432617
-148.003097534180 -81.864898681641 -264.691223144531 -0.631042480469 1.762169480324 -1.190841674805 1.135307312012
-115.519187927246 -78.440322875977 -291.186004638672 0.123565673828 2.784069061279 2.655662536621 -0.826576232910
-163.966690063477 -65.505813598633 -255.200363159180 -3.964981079102 4.414729118347 -0.497085571289 1.876609802246
-161.860076904297 -76.125564575195 -253.566726684570 -0.996490478516 2.988679170609 -0.381530761719 -2.791709899902
85.601760864258 -75.789703369141 -222.221130371094 -1.363113403320 1.900672554970 0.898468017578 0.973258972168
-155.564071655273 -82.569641113281 -259.144958496094 -0.019500732422 2.404947042465 -0.180068969727 -2.398117065430
