15.414726257324 -73.638908386230 -219.119216918945 -1.442581176758 1.796895623207 -0.359463691711 -1.009246826172
-145.084075927734 -73.103591918945 -221.092590332031 0.794296264648 2.370918750763 2.178344726563 0.495140075684
-3.774444103241 -77.495109558105 -220.315078735352 1.067153930664 1.155203342438 -0.398909091949 0.191177368164
-19.572362899780 -74.514762878418 -217.849914550781 0.484375000000 1.925556182861 1.520053863525 1.078231811523
-14.768277168274 -70.527877807617 -220.030807495117 -0.143157958984 1.665532350540 -1.154894828796 1.191520690918
90.073120117188 -74.479721069336 -217.470230102539 0.179656982422 1.228401660919 0.811607360840 0.904426574707
-20.936212539673 -72.275619506836 -216.466308593750 0.232192993164 0.506919264793 -0.108324050903 -0.437400817871
-31.933839797974 -72.878387451172 -216.906417846680 0.587142944336 2.155704975128 -2.073816299438 -0.040161132813
-107.664726257324 -68.585952758789 -225.421401977539 -1.548919677734 2.469952583313 0.063545227051 -1.922882080078
-16.255714416504 -71.998710632324 -222.834991455078 -0.200988769531 1.691433191299 -0.690730094910 -1.530830383301
92.258537292480 -72.536132812500 -217.354461669922 0.299331665039 1.547072410583 -0.327255249023 1.482139587402
77.330780029297 -75.151641845703 -219.012069702148 2.272735595703 3.460052490234 -2.161750793457 -1.460639953613
7.015889167786 -74.951385498047 -218.670379638672 0.427215576172 1.834190964699 -0.627020835876 1.669906616211
-11.276774406433 -71.537467956543 -224.975051879883 -0.399398803711 1.149626970291 1.020290374756 0.348037719727
78.481788635254 -74.946914672852 -220.574020385742 0.710784912109 1.761854648590 -1.010742187500 -1.255912780762
-122.513565063477 -75.743782043457 -225.986923217773 1.123428344727 2.320213079453 1.525650024414 -1.339286804199
-20.154380798340 -71.678802490234 -222.881668090820 -0.308898925781 2.451589345932 -2.019905090332 1.354568481445
-97.271965026855 -72.186882019043 -224.170608520508 -0.736785888672 1.239315629005 -0.844703674316 0.528701782227
-102.634399414063 -72.857337951660 -224.778488159180 0.849014282227 1.675151467323 1.098167419434 0.937728881836
-131.663970947266 -74.452812194824 -229.612304687500 0.269073486328 1.806464076042 1.109664916992 1.399841308594
81.188720703125 -74.504051208496 -222.176376342773 -0.891571044922 2.081587791443 1.696189880371 -0.813049316406
-123.286445617676 -73.164573669434 -228.131576538086 -0.625976562500 1.205739974976 0.224723815918 -1.005714416504
4.659392833710 -73.178253173828 -228.187957763672 -1.132354736328 1.214495062828 -0.388628959656 0.204299926758
81.121528625488 -73.052345275879 -222.995223999023 -0.254196166992 2.046288251877 -1.947196960449 0.575416564941
-15.786620140076 -74.608840942383 -230.192352294922 -0.242309570313 1.745131254196 -0.944301605225 -1.447433471680
-13.638739585876 -74.327438354492 -227.055221557617 0.624038696289 1.535361289978 -1.387285232544 -0.208206176758
-1.961091995239 -78.599815368652 -229.393981933594 -0.290679931641 1.786476612091 -1.203881978989 -1.287506103516
10.186532020569 -75.623832702637 -226.778076171875 -0.667877197266 2.390188455582 1.838553428650 1.373558044434
88.782409667969 -75.708183288574 -224.957061767578 -0.533767700195 4.239968299866 1.109092712402 -4.057380676270
9.929431915283 -72.381996154785 -230.798599243164 0.434661865234 1.916328310966 -1.859581947327 -0.159179687500
5.491488933563 -73.492095947266 -228.877212524414 -1.238739013672 1.533247351646 -0.517302036285 0.740791320801
-9.061800003052 -74.205513000488 -230.845352172852 0.745498657227 2.347717523575 0.558324813843 -2.155059814453
-6.811508178711 -74.507568359375 -229.704437255859 0.331893920898 0.954149544239 -0.511940956116 0.733596801758
18.726873397827 -72.718452453613 -232.042129516602 -1.894424438477 2.081699848175 0.708614349365 -0.492439270020
-12.461934089661 -71.243469238281 -232.888153076172 -0.475219726563 2.144598484039 -1.308138847351 1.631637573242
71.078773498535 -74.921157836914 -238.480117797852 -0.152465820313 2.900217771530 2.855262756348 0.485275268555
-9.075523376465 -72.225242614746 -238.445281982422 1.694778442383 2.292861223221 -1.119359493256 1.063941955566
19.013044357300 -74.928153991699 -235.042602539063 -0.254425048828 0.293384760618 0.062734603882 -0.131935119629
-162.807830810547 -71.002487182617 -241.717681884766 -0.584442138672 2.661819458008 -0.958969116211 -2.413314819336
-5.538066864014 -71.640129089355 -236.671600341797 -0.117462158203 1.658187389374 -1.594616889954 -0.439300537109
-8.046374320984 -74.471946716309 -239.810684204102 0.329376220703 1.231077909470 -0.090210437775 -1.182762145996
-167.512680053711 -72.827079772949 -252.106140136719 0.168685913086 1.241514563560 -1.170059204102 -0.379295349121
-10.736337661743 -72.142601013184 -244.065307617188 -0.881744384766 1.537589550018 -0.634537696838 -1.088150024414
15.693177223206 -71.406021118164 -244.871963500977 1.212020874023 1.452803254128 -0.068898200989 0.798057556152
-147.494445800781 -74.331367492676 -252.907669067383 -1.421997070313 1.459349870682 -0.279769897461 -0.171333312988
-73.132171630859 -72.521263122559 -250.724670410156 0.028915405273 2.108330011368 -1.302955627441 -1.657264709473
-61.530258178711 -74.051551818848 -247.208007812500 0.715621948242 1.566330313683 -1.264469146729 -0.585144042969
52.455307006836 -72.127998352051 -245.775085449219 0.609817504883 1.111015796661 -0.264907836914 0.890113830566
-74.575035095215 -72.689376831055 -247.147232055664 0.788009643555 0.994849205017 -0.440147399902 -0.418373107910
17.002782821655 -74.587417602539 -248.864944458008 0.571670532227 1.074601292610 -0.906085968018 0.083480834961
-72.949272155762 -73.488822937012 -251.612548828125 0.657485961914 2.315607786179 1.684852600098 -1.446037292480
-15.259631156921 -72.036369323730 -245.644592285156 2.555938720703 3.251622438431 -1.663203239441 -1.128707885742
-145.370529174805 -75.111633300781 -253.802398681641 -0.480957031250 1.818073511124 0.814331054688 -1.552719116211
46.758819580078 -71.005065917969 -249.030456542969 -0.654495239258 1.450140476227 0.999160766602 -0.822326660156
-79.886367797852 -75.189529418945 -256.090972900391 -1.281677246094 2.043403863907 -1.557830810547 -0.325523376465
-102.575202941895 -70.028381347656 -255.646820068359 0.423126220703 1.596752047539 1.018409729004 1.154739379883
-99.206748962402 -74.445549011230 -255.160430908203 -0.727584838867 2.186935186386 0.739967346191 -1.925033569336
-119.743721008301 -70.830741882324 -253.817367553711 1.432815551758 2.133778095245 -1.312187194824 0.882164001465
-105.648406982422 -70.468925476074 -257.795227050781 -0.918701171875 2.221299409866 -0.990165710449 1.763442993164
-105.658325195313 -72.542228698730 -258.769439697266 0.862854003906 1.754743099213 0.609054565430 1.401306152344
21.781814575195 -71.587928771973 -257.853149414063 0.347045898438 2.678012609482 -2.398838043213 1.138809204102
-129.112167358398 -70.364479064941 -265.980773925781 -1.201202392578 2.659049749374 2.237304687500 -0.788749694824
-13.543519973755 -74.583564758301 -275.248931884766 -0.120544433594 2.351005077362 -2.117268562317 -1.014823913574
-147.304351806641 -70.160156250000 -284.407775878906 -1.050628662109 1.936378955841 -1.617126464844 0.175056457520
-168.371505737305 -73.958442687988 -286.835662841797 -0.331756591797 2.110244989395 -1.977722167969 0.657028198242
-124.639579772949 -73.691299438477 -284.966033935547 -1.647369384766 1.793617486954 0.707344055176 0.053871154785
-113.831733703613 -69.865135192871 -287.603088378906 -0.373046875000 1.288012266159 -1.219436645508 -0.181068420410
-75.251472473145 -69.091186523438 -284.863464355469 1.914520263672 2.872188568115 -0.420028686523 2.099441528320
-57.223175048828 -73.921714782715 -286.838500976563 -1.066680908203 2.175064563751 1.182308197021 -1.481636047363
-41.619998931885 -72.388923645020 -286.061584472656 0.212341308594 0.988921880722 -0.140399932861 0.955596923828
-15.075700759888 -76.606422424316 -289.506622314453 1.485870361328 1.722283959389 0.868673324585 -0.062110900879
-13.496764183044 -71.353691101074 -291.443725585938 -0.352508544922 0.890056848526 -0.801316261292 0.160720825195
-38.135402679443 -75.275756835938 -290.136260986328 1.027191162109 2.266249656677 -2.017448425293 -0.103286743164
-34.137649536133 -73.278266906738 -288.695739746094 1.039123535156 1.978948235512 1.597423553467 -0.533569335938
-18.736131668091 -70.652542114258 -288.528686523438 0.959655761719 2.308941364288 -1.576971054077 1.386878967285
-71.543128967285 -72.187126159668 -293.320373535156 -2.855804443359 2.928537130356 0.058387756348 0.645988464355
-55.302707672119 -72.621833801270 -291.213745117188 -0.342834472656 1.944298148155 1.842498779297 0.517646789551
-17.384078979492 -70.249717712402 -291.257141113281 0.150604248047 2.122047185898 -2.116598129272 0.020378112793
-13.536279678345 -75.166595458984 -289.417327880859 0.879547119141 1.364060401917 -0.616349220276 0.840934753418
-3.476702928543 -72.934814453125 -291.989929199219 -0.918334960938 2.583787202835 -2.411925792694 0.123413085938
2.721446037292 -70.569641113281 -291.758422851563 -0.870788574219 1.214985251427 0.184443950653 0.826980590820
-91.931304931641 -73.078132629395 -293.479309082031 -1.159973144531 1.623466491699 1.061698913574 -0.403610229492
-139.549026489258 -74.216140747070 -296.011871337891 -1.907592773438 3.493199348450 -2.577224731445 1.386161804199
-116.107269287109 -73.718208312988 -293.408416748047 -1.084442138672 1.395588874817 -0.123664855957 -0.869689941406
-153.331069946289 -71.341964721680 -296.086944580078 0.359588623047 1.230064034462 0.914199829102 -0.740264892578
-151.721252441406 -73.185081481934 -300.654815673828 -1.293914794922 2.255283117294 1.425781250000 1.174407958984
-146.465988159180 -71.004005432129 -301.130950927734 -0.645904541016 1.556875944138 -1.038726806641 0.963180541992
42.258438110352 -70.492820739746 -20.117021560669 -0.798122406006 1.247043013573 0.689598083496 0.665260314941
17.666564941406 -75.165489196777 -22.611797332764 0.831819534302 3.645194292068 -2.323354721069 -2.682823181152
47.334812164307 -70.028381347656 -23.886404037476 -0.952346801758 1.617546558380 -0.866188049316 -0.979393005371
44.982769012451 -73.563896179199 -33.915725708008 -0.306152343750 1.594048023224 1.036281585693 -1.171913146973
85.826629638672 -72.924880981445 -68.574058532715 1.790351867676 1.795852661133 -0.070106506348 -0.121704101563
93.813667297363 -74.784385681152 -72.212913513184 -0.042686462402 3.367974758148 -1.410469055176 -3.058105468750
99.511772155762 -72.811431884766 -76.364700317383 -0.478652954102 1.362114071846 1.107116699219 -0.632881164551
96.642265319824 -73.728538513184 -81.746047973633 0.085823059082 1.842610478401 -1.670822143555 0.772140502930
55.091896057129 -73.851417541504 -88.146499633789 0.182807922363 1.290517926216 0.102237701416 -1.273406982422
43.937416076660 -77.866485595703 -90.037284851074 4.101104736328 6.590599536896 -4.470493316650 -2.575195312500
61.733356475830 -71.894927978516 -89.457252502441 -0.184959411621 2.038677215576 1.951568603516 0.559799194336
-66.762382507324 -69.542098999023 -93.339035034180 1.479797363281 2.462162017822 -1.955520629883 -0.219955444336
69.194313049316 -72.464340209961 -86.421813964844 1.521942138672 1.976789355278 -0.600830078125 1.109230041504
99.374557495117 -67.217536926270 -97.199600219727 1.008689880371 2.054295063019 -0.266761779785 1.769607543945
73.039077758789 -73.804344177246 -99.672584533691 1.468536376953 2.183176040649 -1.561759948730 -0.412994384766
92.828773498535 -72.196662902832 -100.911170959473 1.324066162109 2.481647729874 -1.829826354980 -1.028182983398
-86.035636901855 -72.720817565918 -103.880455017090 1.759544372559 3.271233320236 -2.628135681152 0.835388183594
43.625999450684 -71.849708557129 -97.043647766113 1.491912841797 1.545837521553 -0.348228454590 -0.206268310547
-87.980834960938 -73.123588562012 -102.718940734863 2.921058654785 5.443815231323 -4.573333740234 0.432617187500
49.748184204102 -74.267951965332 -109.203788757324 0.635467529297 1.179053306580 0.216587066650 -0.969245910645
36.259475708008 -77.793975830078 -102.613479614258 5.488151550293 6.157521724701 -2.679508209229 -0.784538269043
100.677711486816 -72.374458312988 -101.552154541016 -0.995933532715 2.314766168594 0.497276306152 -2.029525756836
35.737178802490 -72.548782348633 -104.983871459961 0.824562072754 3.329864978790 -3.188251495361 0.493103027344
41.250637054443 -73.886978149414 -117.520965576172 -1.104728698730 2.974262475967 -2.701808929443 -0.570999145508
41.353855133057 -72.625373840332 -112.023315429688 -1.334403991699 3.188494205475 1.189662933350 2.640182495117
108.693504333496 -72.094779968262 -110.584999084473 -1.390945434570 1.731982707977 -0.443023681641 -0.932075500488
-82.661094665527 -75.759017944336 -121.931182861328 -0.646018981934 5.129343032837 -1.229156494141 -4.937812805176
110.907455444336 -76.506393432617 -122.170936584473 1.721328735352 2.354284524918 1.517822265625 -0.525260925293
38.752075195313 -69.449409484863 -123.779029846191 0.829109191895 1.956916689873 -0.714141845703 -1.622375488281
39.204719543457 -72.116622924805 -119.246665954590 0.741676330566 1.422128558159 0.635787963867 -1.033508300781
33.654853820801 -73.178352355957 -119.957656860352 0.868873596191 1.068132400513 -0.024227142334 0.620788574219
-57.034809112549 -76.132339477539 -129.680038452148 0.148941040039 2.977134704590 -0.490226745605 -2.932716369629
28.863483428955 -71.884086608887 -122.606445312500 2.859344482422 3.414807558060 -1.865171432495 -0.078712463379
-78.588310241699 -70.324485778809 -138.203628540039 1.848327636719 1.853514194489 -0.135192871094 0.030372619629
-56.624870300293 -75.298843383789 -132.729217529297 0.362442016602 2.926084041595 0.422630310059 -2.872627258301
-80.731513977051 -69.922729492188 -135.297073364258 -0.612899780273 1.789223670959 0.186187744141 -1.670631408691
34.307941436768 -71.001136779785 -129.840118408203 -0.796066284180 1.892292857170 1.267463684082 -1.157836914063
-60.887916564941 -73.144645690918 -133.793838500977 -0.393249511719 1.998972535133 -1.663200378418 -1.036827087402
33.885326385498 -72.103965759277 -132.478576660156 -0.420379638672 1.975533962250 0.114284515381 -1.926902770996
-73.178665161133 -70.225547790527 -139.964340209961 -0.500488281250 0.894731342793 -0.340263366699 0.658996582031
-60.439594268799 -69.795112609863 -140.954116821289 0.856857299805 1.362285137177 -1.011009216309 -0.315399169922
24.491859436035 -73.478111267090 -141.853698730469 -1.167602539063 1.587187409401 0.744024276733 -0.776077270508
109.689338684082 -75.945365905762 -141.374145507813 -1.545303344727 1.931014060974 -1.054382324219 -0.478675842285
114.046234130859 -69.629287719727 -135.373626708984 -1.288070678711 1.679563403130 -1.077774047852 -0.014495849609
29.509613037109 -72.816032409668 -140.677749633789 -0.573059082031 2.103500127792 2.005567550659 -0.272056579590
-49.431983947754 -73.479553222656 -140.286544799805 0.062789916992 1.401741385460 -1.362918853760 0.321540832520
105.696502685547 -71.368179321289 -150.558517456055 -2.101440429688 4.430843830109 -3.740592956543 1.106475830078
-76.773742675781 -71.826744079590 -143.462310791016 1.161560058594 1.230788707733 0.387565612793 -0.124145507813
-59.849155426025 -72.136199951172 -142.509475708008 -0.750122070313 2.231178045273 -2.101264953613 -0.012550354004
30.449678421021 -69.015541076660 -146.625823974609 -1.138473510742 2.317194461823 -1.753065109253 -1.000015258789
-78.749771118164 -73.224716186523 -146.580368041992 -1.956497192383 2.944136142731 -1.588462829590 -1.522117614746
-71.797065734863 -71.947425842285 -150.600265502930 -0.446975708008 1.540361166000 -1.429786682129 -0.358657836914
113.716812133789 -76.959861755371 -147.811889648438 -0.918228149414 1.084700942039 0.549133300781 -0.178565979004
-65.771690368652 -71.446754455566 -155.391326904297 1.029922485352 2.042300462723 0.873458862305 1.532096862793
-40.481361389160 -69.677978515625 -152.238113403320 1.616958618164 1.894640207291 -0.870315551758 -0.466537475586
24.501619338989 -71.239807128906 -145.237335205078 1.438873291016 1.704946994781 0.912197113037 0.066215515137
-74.414413452148 -72.393081665039 -146.417938232422 1.607299804688 1.965124368668 -0.787025451660 -0.811721801758
11.214845657349 -72.206588745117 -149.179306030273 1.876251220703 2.474487304688 0.735950469971 -1.435668945313
30.734136581421 -72.236557006836 -156.133483886719 -0.642135620117 1.801930904388 -1.611330032349 -0.488090515137
29.821872711182 -70.569511413574 -149.443603515625 0.336120605469 1.920529842377 1.883636474609 0.165443420410
14.046754837036 -76.844253540039 -153.519668579102 -0.898452758789 2.706175804138 0.987392425537 -2.353981018066
-51.079208374023 -73.585937500000 -153.365905761719 1.938293457031 2.082889795303 0.762485504150 -0.008010864258
23.590515136719 -74.013641357422 -152.439132690430 1.786514282227 2.203832149506 0.997694015503 -0.818443298340
-47.390998840332 -71.328285217285 -150.261444091797 0.712814331055 1.661183238029 -0.349300384521 -1.459251403809
3.558876991272 -72.780647277832 -153.567687988281 0.543823242188 3.807178497314 -3.728919982910 -0.542236328125
19.259717941284 -71.909599304199 -149.303100585938 -0.741058349609 2.488290309906 1.675474166870 -1.683807373047
-70.038925170898 -71.386466979980 -157.752151489258 -2.527633666992 2.527784109116 0.002799987793 0.027427673340
-47.815010070801 -69.432685852051 -154.209121704102 -0.024978637695 1.142843604088 -0.788341522217 0.827033996582
-69.369590759277 -71.521148681641 -154.098754882813 1.125762939453 1.315526604652 0.672134399414 -0.107254028320
16.994886398315 -71.535209655762 -157.848159790039 0.942276000977 1.282724142075 -0.603170394897 -0.627441406250
23.002344131470 -71.885894775391 -149.396987915039 -1.019439697266 1.504838109016 0.981513977051 0.511772155762
1.423745989799 -72.575538635254 -164.066192626953 -0.338150024414 1.339593172073 0.181782960892 -1.283401489258
20.129575729370 -72.491203308105 -152.912979125977 0.704650878906 1.254207372665 -0.150449752808 1.026580810547
29.663902282715 -72.468040466309 -166.400375366211 -0.964233398438 1.571312427521 -0.365478515625 1.185623168945
-48.459396362305 -73.455345153809 -163.320571899414 -1.689132690430 2.505828857422 -1.768924713135 -0.544898986816
-37.980632781982 -78.211502075195 -163.195327758789 1.942276000977 2.257317543030 0.637832641602 0.957191467285
-42.018299102783 -72.961471557617 -160.861389160156 0.187286376953 3.010843276978 2.991725921631 0.282272338867
26.646303176880 -73.016838073730 -157.954483032227 -0.391983032227 2.990302324295 2.011350631714 -2.177780151367
-45.390018463135 -70.583030700684 -166.862686157227 -0.096618652344 2.455820798874 -0.621307373047 2.373962402344
-40.900970458984 -70.801872253418 -166.406585693359 0.517059326172 2.038253068924 -1.874290466309 -0.611686706543
20.229204177856 -71.392639160156 -165.105422973633 -0.454162597656 1.231300354004 0.218036651611 1.123519897461
-40.923645019531 -72.755500793457 -175.217239379883 -2.140121459961 2.281189203262 -0.783962249756 -0.095436096191
26.837503433228 -69.350776672363 -169.377548217773 -1.313781738281 1.970394492149 -1.202966690063 -0.842201232910
110.548728942871 -70.287185668945 -163.269317626953 -2.020385742188 2.345907449722 -0.767402648926 -0.912368774414
-34.625267028809 -72.180442810059 -171.959259033203 0.460968017578 0.945965886116 -0.181407928467 -0.805885314941
101.684135437012 -70.985694885254 -171.704681396484 2.332489013672 4.818527221680 -3.819213867188 1.786422729492
-35.630638122559 -71.886161804199 -177.367965698242 -1.281188964844 2.233703374863 -0.911869049072 -1.586341857910
-38.456794738770 -75.083396911621 -181.387619018555 -1.322814941406 3.533489227295 -1.801666259766 -2.736732482910
20.073638916016 -75.369644165039 -176.346099853516 -0.086593627930 0.732239425182 0.646045684814 0.333618164063
104.800559997559 -73.608497619629 -180.423522949219 0.097732543945 1.798582077026 -1.643608093262 0.723808288574
-32.498062133789 -70.773078918457 -182.822860717773 0.763778686523 0.932239413261 0.472190856934 0.250495910645
-36.246112823486 -71.717628479004 -177.460922241211 -0.322219848633 2.126135349274 -0.083000183105 -2.099937438965
-24.204244613647 -75.703346252441 -186.642868041992 0.601852416992 1.659565210342 -0.952075958252 1.218803405762
-150.003067016602 -72.086196899414 -190.101394653320 0.157577514648 0.561623692513 -0.102508544922 0.529228210449
11.927057266235 -72.339080810547 -182.793746948242 2.205474853516 2.914103269577 -1.250290870667 1.436889648438
104.052833557129 -71.895935058594 -189.541854858398 -0.354034423828 1.856068968773 -0.038749694824 1.821578979492
-159.879119873047 -71.067962646484 -194.363113403320 -0.758392333984 3.510215044022 -2.753387451172 -2.040908813477
-23.918733596802 -69.420669555664 -189.354461669922 0.714797973633 1.393028736115 0.653438568115 -1.001304626465
-116.524452209473 -73.347709655762 -198.172531127930 -1.667266845703 2.897972822189 -1.993698120117 -1.282043457031
-131.705749511719 -73.017875671387 -196.571838378906 -0.112258911133 0.823289453983 -0.214920043945 -0.786773681641
-108.741371154785 -72.306686401367 -200.545501708984 0.768508911133 3.457877397537 2.972579956055 -1.590621948242
-114.497131347656 -70.977424621582 -201.040084838867 -0.237594604492 1.024820327759 -0.865798950195 0.494163513184
-13.220519065857 -73.212051391602 -196.065246582031 0.672851562500 1.738742470741 0.023026466370 1.603111267090
19.223340988159 -71.486770629883 -195.469696044922 1.729782104492 1.830758810043 -0.594934463501 -0.074729919434
-16.616952896118 -68.833457946777 -201.636642456055 -1.619918823242 2.170461177826 0.351169586182 1.401229858398
-127.513870239258 -71.704536437988 -206.514511108398 -1.270080566406 2.985869407654 0.649597167969 -2.623039245605
-21.640216827393 -68.799407958984 -202.817138671875 -0.976547241211 1.580056309700 1.147712707520 -0.475067138672
-130.169219970703 -70.550186157227 -203.914581298828 1.243682861328 2.273871421814 1.901992797852 -0.078536987305
-16.257719039917 -72.514869689941 -200.000625610352 0.016098022461 2.388338565826 0.710403442383 -2.280181884766
-146.888412475586 -70.403114318848 -203.987091064453 -3.001068115234 3.315660238266 0.855270385742 1.120582580566
91.069213867188 -69.441154479980 -205.049728393555 1.030944824219 3.969304800034 -3.455688476563 1.658538818359
-165.325119018555 -66.752891540527 -202.867813110352 -1.871139526367 2.139622211456 -0.644927978516 0.812950134277
-3.407735109329 -74.102798461914 -217.455932617188 1.500885009766 1.703596353531 0.756958723068 0.276763916016
10.734663009644 -73.699234008789 -209.335678100586 -1.903533935547 2.520138263702 1.433755874634 -0.819755554199
9.668237686157 -74.646804809570 -216.475601196289 -0.284011840820 1.834576606750 1.741268634796 -0.502983093262
82.010391235352 -72.987503051758 -215.378890991211 1.705139160156 1.716415286064 0.180313110352 0.077903747559
7.830197811127 -73.514991760254 -212.544418334961 -0.866378784180 1.673168301582 1.195182800293 0.787666320801
11.968915939331 -71.691169738770 -214.201629638672 0.706680297852 1.410634636879 -0.390831947327 -1.156608581543
-16.499717712402 -75.567062377930 -215.646194458008 -1.665023803711 2.282469272614 -1.070827484131 1.136085510254
-91.126922607422 -72.255584716797 -215.027038574219 -1.180419921875 1.392842173576 0.725013732910 0.144821166992
-98.630760192871 -71.940017700195 -217.245697021484 0.012222290039 1.023656010628 -0.821327209473 0.610855102539
-0.590048015118 -71.453277587891 -218.720062255859 2.451431274414 2.494111537933 -0.458944022655 0.021148681641
-167.046142578125 -73.208442687988 -223.373489379883 2.118255615234 2.862885713577 -1.683288574219 -0.935760498047
14.559740066528 -70.586067199707 -219.045028686523 0.927993774414 2.185964822769 -1.597139358521 1.168937683105
-145.200378417969 -70.882194519043 -222.427322387695 -0.505477905273 1.876552939415 -1.280975341797 -1.274772644043
12.431708335876 -72.880279541016 -224.391998291016 1.304107666016 2.379298448563 -0.414115905762 -1.946502685547
-135.182540893555 -72.931228637695 -225.923477172852 0.793731689453 1.498559951782 -1.265991210938 0.113746643066
-116.432037353516 -72.675956726074 -228.045135498047 -0.600799560547 1.796980381012 -1.487747192383 -0.809188842773
16.198818206787 -71.830001831055 -220.287979125977 -0.314956665039 0.326467603445 0.041938781738 -0.074996948242
77.833236694336 -73.009101867676 -220.085632324219 1.199172973633 2.157836914063 -1.659294128418 0.681900024414
6.203553199768 -72.509887695313 -222.984573364258 0.895401000977 2.283800125122 -1.380643844604 -1.583610534668
-110.332572937012 -71.068954467773 -231.702911376953 1.112182617188 1.978973627090 0.698783874512 -1.480232238770
71.867149353027 -73.858764648438 -226.589523315430 1.976379394531 2.079521417618 -0.215644836426 0.609779357910
83.535461425781 -74.097785949707 -228.143951416016 -2.433303833008 2.648368597031 -0.318840026855 0.995605468750
-125.615493774414 -71.458068847656 -236.049804687500 -2.556625366211 2.751033544540 -0.496803283691 -0.886024475098
-117.496910095215 -71.732093811035 -231.324096679688 2.391082763672 3.062908887863 0.153884887695 -1.907997131348
-10.505858421326 -69.298080444336 -227.526473999023 0.860153198242 1.053160786629 0.454652786255 0.403205871582
71.536613464355 -73.665435791016 -230.188598632813 -1.622695922852 1.891147375107 -0.546180725098 0.803108215332
64.221328735352 -73.511215209961 -232.078231811523 1.974090576172 2.817213058472 -0.368934631348 -1.975738525391
72.822525024414 -72.478370666504 -228.280715942383 -0.026702880859 1.500072836876 0.947860717773 -1.162353515625
-135.660903930664 -68.342262268066 -235.177902221680 -1.553024291992 2.265644073486 -1.649307250977 0.032318115234
69.731895446777 -74.043632507324 -231.176895141602 -1.502700805664 2.158557891846 0.105834960938 -1.545982360840
65.783958435059 -70.791671752930 -234.202621459961 0.147415161133 0.962795436382 -0.832199096680 0.461181640625
-166.586868286133 -70.001380920410 -231.958374023438 -2.149047851563 2.372776269913 0.951599121094 0.325759887695
1.055376052856 -78.818595886230 -240.522583007813 0.812637329102 2.360696792603 -0.589211940765 -2.136665344238
18.997720718384 -73.866188049316 -238.883056640625 0.139572143555 0.346284508705 -0.315584182739 0.028968811035
-6.353110790253 -69.934738159180 -240.367156982422 -1.655776977539 2.825176954269 -0.837641716003 2.130348205566
15.430798530579 -67.783309936523 -238.744216918945 -0.097152709961 3.020286560059 2.166396141052 2.102241516113
65.850646972656 -73.894996643066 -237.015762329102 -0.020111083984 0.065438844264 -0.055725097656 0.027793884277
8.613022804260 -70.797546386719 -242.910034179688 0.207122802734 0.632074236870 -0.034127235413 -0.596199035645
-11.243955612183 -66.564216613770 -240.551925659180 0.352325439453 0.844936311245 0.752779960632 0.152008056641
-0.901277005672 -69.397811889648 -237.097900390625 -1.607162475586 2.005670309067 -0.881401002407 -0.814170837402
64.619056701660 -73.584503173828 -241.336776733398 -0.298019409180 1.361166954041 1.269763946533 0.389434814453
2.728409051895 -73.049552917480 -242.154174804688 0.684555053711 1.417385458946 0.742817044258 -0.994277954102
-7.318589210510 -73.208564758301 -242.838607788086 1.058029174805 2.048226356506 1.384884834290 -1.076057434082
13.939843177795 -74.958946228027 -242.357284545898 -2.059982299805 2.680101394653 -0.409662246704 -1.664810180664
-167.835037231445 -72.977783203125 -242.566619873047 -0.380340576172 1.950353503227 -1.910293579102 -0.099990844727
55.745422363281 -73.214271545410 -246.261154174805 0.123748779297 3.034085273743 3.025207519531 -0.196159362793
49.743247985840 -67.392349243164 -249.929260253906 0.503494262695 1.335984468460 -0.862731933594 0.887153625488
57.867378234863 -73.618370056152 -241.791351318359 -0.026901245117 1.634693503380 0.434585571289 -1.575637817383
-12.427813529968 -70.751785278320 -247.676635742188 0.412261962891 1.034624099731 -0.552868843079 0.771247863770
56.893001556396 -72.717346191406 -244.681869506836 -1.512207031250 1.535332441330 0.039787292480 -0.262474060059
-74.146636962891 -71.527565002441 -250.295043945313 -1.527267456055 1.842413783073 0.442115783691 -0.930847167969
50.506690979004 -73.254234313965 -247.720657348633 0.618316650391 1.067853927612 0.590648651123 -0.639633178711
-88.980270385742 -71.707313537598 -253.080902099609 -0.816009521484 1.350082278252 0.958709716797 0.487571716309
-123.411994934082 -72.740219116211 -257.623779296875 -0.080474853516 0.562372982502 0.237785339355 0.503234863281
-132.633850097656 -71.551887512207 -253.991683959961 0.546203613281 0.832424461842 0.058181762695 -0.625465393066
45.871364593506 -74.367202758789 -250.978347778320 1.407989501953 3.419774532318 -1.150131225586 -2.896484375000
-132.812942504883 -74.074661254883 -254.234832763672 0.500366210938 1.126311540604 0.729003906250 -0.697685241699
-109.400985717773 -69.993209838867 -255.897628784180 -0.172912597656 1.347657680511 0.769401550293 1.092842102051
-116.253402709961 -69.480232238770 -258.336853027344 -1.117034912109 1.635404467583 -1.191047668457 0.090476989746
-83.971694946289 -72.323532104492 -255.205307006836 1.127395629883 1.369504690170 0.371025085449 -0.683273315430
-111.161254882813 -70.040824890137 -259.966369628906 1.687164306641 2.669382333755 -1.093070983887 1.756210327148
-124.240562438965 -74.836509704590 -263.378479003906 1.721069335938 1.730133056641 0.002227783203 -0.176849365234
-146.583374023438 -69.006401062012 -268.818267822266 -2.013366699219 3.049933910370 -1.959808349609 1.186424255371
-15.409266471863 -71.054710388184 -265.417327880859 -0.642303466797 0.719725430012 0.315522193909 0.076789855957
-171.472686767578 -73.271286010742 -265.930664062500 2.338745117188 5.033059597015 -4.204406738281 -1.478149414063
-14.620093345642 -71.822250366211 -273.566589355469 -1.363616943359 2.490618467331 0.513258934021 -2.019973754883
-159.081085205078 -68.200744628906 -268.623321533203 -1.119415283203 2.771744251251 1.192260742188 2.237854003906
-152.741607666016 -71.644180297852 -274.697448730469 0.050659179688 1.190742492676 0.738616943359 -0.932601928711
-169.935409545898 -71.239379882813 -278.977661132813 -0.286956787109 1.136790990829 -0.483505249023 0.988014221191
-14.225367546082 -72.423042297363 -279.121185302734 0.366241455078 4.023113250732 -3.328018188477 -2.230606079102
-130.165283203125 -73.854064941406 -284.177673339844 0.593231201172 2.426219701767 2.142150878906 0.972526550293
-157.970108032227 -71.091117858887 -287.543518066406 1.591644287109 2.027472972870 -1.150695800781 -0.503204345703
-143.943252563477 -70.514656066895 -282.134002685547 -0.191986083984 1.116617321968 1.054611206055 0.312683105469
-134.893661499023 -74.290771484375 -281.570129394531 2.500305175781 2.596805334091 -0.341247558594 -0.612716674805
-8.120907783508 -66.754714965820 -284.190521240234 1.824951171875 1.902533054352 -0.212049961090 -0.494186401367
-125.858322143555 -74.991676330566 -284.391479492188 -1.072814941406 1.722276568413 -0.511398315430 -1.246505737305
-140.971054077148 -69.463905334473 -286.745819091797 -0.781982421875 2.213118553162 2.067733764648 0.104278564453
-115.701774597168 -74.482818603516 -286.586456298828 -0.139526367188 1.459204077721 -1.195075988770 -0.825592041016
-78.915306091309 -70.015159606934 -288.517089843750 1.236480712891 2.159870624542 -1.751571655273 -0.261062622070
-60.655635833740 -72.642440795898 -287.332855224609 -1.561035156250 2.746082305908 -2.250152587891 -0.202362060547
-6.952396869659 -73.319946289063 -287.537353515625 -0.155334472656 1.496173739433 -1.376115798950 0.566314697266
-53.879581451416 -70.872253417969 -285.917510986328 -0.266326904297 1.761629700661 -0.245109558105 1.724044799805
-57.133014678955 -69.736312866211 -288.864990234375 0.440063476563 2.108803749084 1.872306823730 0.864791870117
-70.315162658691 -70.202529907227 -290.698944091797 -0.142028808594 0.604110419750 -0.587173461914 0.002128601074
-87.939041137695 -70.879905700684 -294.346984863281 -1.818237304688 2.597225189209 0.639717102051 1.740791320801
-94.962951660156 -69.521705627441 -289.628265380859 1.241546630859 1.421435356140 0.550117492676 -0.420013427734
-160.243759155273 -70.420722961426 -292.804565429688 0.403289794922 0.697507560253 0.543777465820 0.167869567871
-160.991485595703 -72.211105346680 -295.057250976563 -1.847839355469 1.879360675812 -0.321472167969 0.118919372559
-124.538414001465 -74.282775878906 -294.835998535156 -0.182952880859 1.353196978569 0.676132202148 -1.157806396484
-144.545471191406 -71.592277526855 -296.152465820313 -1.033447265625 1.418061256409 0.113006591797 0.964424133301
-152.879653930664 -73.590560913086 -304.984497070313 0.347991943359 1.965478181839 1.796066284180 -0.718437194824
-150.221954345703 -73.684074401855 -313.366546630859 -0.495361328125 1.373973727226 -1.168640136719 -0.526023864746
45.279117584229 -70.856498718262 -13.746053695679 -0.031862258911 0.679822683334 0.610610961914 -0.297149658203
14.234766960144 -73.747428894043 -29.212713241577 1.200803756714 6.686012268066 -6.222090721130 -2.132232666016
39.510353088379 -68.930694580078 -33.833034515381 0.853164672852 2.787297725677 -1.429637908936 2.235458374023
-17.647052764893 -74.990303039551 -66.133941650391 -0.183982849121 1.931902647018 -0.935426712036 -1.680290222168
79.652832031250 -70.675628662109 -63.872776031494 1.910228729248 2.260271072388 -1.027511596680 -0.635665893555
86.546554565430 -68.587287902832 -64.643882751465 0.222068786621 0.677245914936 0.284118652344 -0.573257446289
75.734458923340 -75.458847045898 -64.252410888672 2.956108093262 5.921751499176 -2.542663574219 -4.456840515137
70.611991882324 -73.588653564453 -68.064277648926 -0.033996582031 4.640385627747 -2.699172973633 -3.774452209473
89.129562377930 -74.805366516113 -73.578056335449 -1.121223449707 1.217316508293 -0.264053344727 0.393692016602
-98.217582702637 -68.337951660156 -70.880134582520 -0.752983093262 4.221157550812 -4.150695800781 -0.151367187500
65.759857177734 -72.945060729980 -74.287345886230 0.136657714844 5.237224578857 -2.877342224121 -4.373870849609
-38.591548919678 -72.778419494629 -77.357643127441 -0.971862792969 1.493360757828 -0.630893707275 -0.942115783691
96.965591430664 -72.373878479004 -84.431137084961 -0.685859680176 1.156755566597 0.772224426270 0.520912170410
59.574386596680 -69.660980224609 -89.350143432617 0.351188659668 1.592007279396 1.444549560547 -0.569587707520
105.207710266113 -76.822578430176 -92.114425659180 4.448699951172 6.426643371582 -1.657974243164 -4.331504821777
99.686584472656 -75.834152221680 -96.936912536621 1.076721191406 3.248942852020 0.268829345703 -3.053527832031
70.487297058105 -72.080162048340 -99.481613159180 -0.902778625488 2.479005098343 -1.385246276855 -1.847038269043
-82.000801086426 -70.279632568359 -101.963523864746 1.535484313965 1.726395487785 0.537803649902 -0.577491760254
52.552017211914 -72.039482116699 -103.260025024414 1.376762390137 1.412054181099 0.133670806885 -0.283821105957
105.337837219238 -69.792526245117 -104.503578186035 -1.520835876465 1.747973918915 0.857582092285 -0.083808898926
45.332542419434 -72.686660766602 -111.498229980469 0.188430786133 1.257028341293 0.489204406738 -1.142494201660
78.109703063965 -71.116966247559 -104.172477722168 -0.711349487305 1.886488795280 1.665016174316 -0.529663085938
39.849739074707 -71.628234863281 -106.605522155762 -0.014160156250 0.621624767780 0.164138793945 -0.599395751953
102.424552917480 -71.939414978027 -101.734375000000 0.927711486816 2.415582418442 -2.026153564453 0.932250976563
45.770874023438 -71.449310302734 -106.882438659668 0.601158142090 2.036517858505 0.333881378174 -1.916908264160
105.455596923828 -76.975242614746 -108.369308471680 -0.586540222168 3.635592699051 -1.326721191406 -3.333663940430
108.368942260742 -75.124420166016 -109.762344360352 -1.078475952148 1.457159519196 0.073661804199 -0.977127075195
-81.160598754883 -69.410018920898 -114.594451904297 0.271720886230 0.827450811863 -0.780578613281 0.039237976074
-84.649414062500 -69.577735900879 -119.824897766113 -0.600517272949 1.233830928802 0.519744873047 -0.944236755371
42.223503112793 -74.858833312988 -119.173583984375 -0.601676940918 2.860154628754 -0.759887695313 2.690917968750
112.117584228516 -73.786033630371 -119.693580627441 -1.079658508301 1.181761145592 -0.370033264160 -0.306549072266
112.027839660645 -71.923812866211 -121.983352661133 -1.090774536133 1.770783782005 1.283012390137 0.547508239746
-88.885261535645 -70.357452392578 -127.478103637695 0.988494873047 1.980226635933 0.496223449707 -1.642539978027
104.327728271484 -73.953109741211 -124.247528076172 -0.300155639648 3.846688985825 -3.322845458984 -1.914581298828
-60.966331481934 -75.504089355469 -132.000946044922 1.399642944336 4.065326690674 -1.741615295410 -3.396270751953
-87.818168640137 -71.546318054199 -127.781532287598 0.317848205566 3.204359531403 -2.941162109375 -1.231445312500
-74.191833496094 -71.462959289551 -127.490783691406 2.404190063477 2.982713937759 1.708816528320 0.443168640137
-60.831657409668 -67.640106201172 -126.973419189453 0.867897033691 0.898231089115 0.218585968018 0.076118469238
30.019351959229 -71.448097229004 -129.420867919922 0.395950317383 2.617533683777 -0.326467514038 2.566734313965
40.821983337402 -70.281204223633 -133.841033935547 -1.506317138672 3.164150953293 2.528694152832 -1.161277770996
-74.687873840332 -70.922996520996 -136.955322265625 -1.707794189453 2.202812671661 -0.349327087402 -1.346771240234
27.141847610474 -69.870742797852 -130.221420288086 1.494354248047 2.514839410782 -1.963914871216 0.484107971191
110.209999084473 -72.103843688965 -141.317016601563 0.209152221680 1.344040632248 0.266693115234 -1.300605773926
-41.597213745117 -71.431648254395 -148.274398803711 -0.356033325195 1.129169225693 -1.054855346680 0.188529968262
28.969942092896 -72.529312133789 -148.097351074219 -0.496917724609 2.244742631912 1.683052062988 -1.399742126465
112.481185913086 -70.509231567383 -146.078781127930 0.709045410156 1.903895616531 -1.311882019043 1.183654785156
34.078144073486 -72.293014526367 -141.938400268555 -0.719940185547 1.616083145142 -0.220596313477 -1.429946899414
108.890480041504 -70.896080017090 -139.226943969727 -1.872924804688 2.289080858231 -0.689788818359 1.120819091797
-53.740989685059 -71.551361083984 -149.508529663086 0.571578979492 1.108900666237 -0.673946380615 0.669891357422
-72.650604248047 -68.722915649414 -151.295562744141 -1.752487182617 2.307497978210 -1.486618041992 -0.208091735840
-56.489212036133 -71.765258789063 -152.696365356445 -2.408981323242 2.731091499329 -1.194641113281 0.478019714355
-43.337299346924 -74.688133239746 -164.963684082031 -0.628829956055 0.656830728054 -0.037704467773 0.185951232910
3.363226890564 -72.828483581543 -155.372222900391 2.704437255859 3.256282806396 0.348008871078 1.779968261719
108.479309082031 -72.249855041504 -151.916732788086 -0.689453125000 2.088643789291 -1.728477478027 -0.948394775391
107.682785034180 -71.903297424316 -158.033767700195 0.940505981445 1.109461665154 -0.282752990723 0.516143798828
8.732313156128 -70.969512939453 -156.894073486328 0.373016357422 2.241650819778 0.342600822449 -2.183685302734
2.031049013138 -71.572860717773 -160.826461791992 -0.228912353516 0.281204164028 -0.093118906021 0.134178161621
17.894466400146 -70.882705688477 -154.603240966797 -1.937164306641 2.521311998367 1.528860092163 0.516716003418
24.327934265137 -70.339622497559 -154.942703247070 -0.000091552734 0.013356917538 0.012931823730 0.003341674805
107.510818481445 -71.580268859863 -164.035644531250 0.237930297852 1.228705286980 -1.011940002441 -0.655044555664
108.351501464844 -75.030334472656 -166.115173339844 -0.897628784180 1.093570590019 0.228797912598 0.581214904785
22.814104080200 -69.006103515625 -173.685470581055 -1.684066772461 1.696672797203 0.130090713501 -0.160293579102
23.733833312988 -73.630867004395 -163.104721069336 -1.071990966797 2.074715852737 1.146078109741 1.357124328613
110.971252441406 -70.121688842773 -160.359100341797 0.889831542969 1.211841344833 -0.344879150391 -0.746871948242
-30.207033157349 -70.195426940918 -177.036758422852 0.116439819336 2.296420574188 -2.263656616211 -0.368576049805
109.008758544922 -72.210182189941 -166.147964477539 -1.874389648438 2.323929786682 0.486000061035 -1.284957885742
16.327964782715 -72.049026489258 -166.960632324219 -2.793914794922 3.614085674286 -2.207134246826 -0.619850158691
20.426786422729 -71.461433410645 -167.042098999023 1.541809082031 1.845997333527 0.268259048462 -0.979064941406
107.394172668457 -72.152694702148 -171.259231567383 -0.400100708008 1.214648723602 0.927124023438 0.675079345703
25.576515197754 -70.748878479004 -169.639984130859 2.189315795898 2.772451877594 -1.290306091309 -1.108375549316
111.269470214844 -71.294136047363 -182.069061279297 0.670410156250 0.859906792641 -0.508392333984 0.177558898926
-39.368774414063 -70.623664855957 -177.654861450195 -0.516159057617 3.399216175079 -3.205661773682 -1.005973815918
23.956747055054 -71.184486389160 -170.382827758789 0.925308227539 2.943472623825 1.357946395874 -2.442092895508
106.468978881836 -71.792053222656 -182.270294189453 -1.529113769531 1.629170656204 0.002227783203 -0.562141418457
22.023418426514 -72.523338317871 -177.861373901367 1.783859252930 3.187651157379 -1.712581634521 -2.011474609375
-152.842895507813 -69.241668701172 -187.626266479492 1.005798339844 1.438883185387 -0.980865478516 0.310897827148
-29.164272308350 -68.346183776855 -189.171020507813 -0.209106445313 1.944842219353 -1.928228378296 -0.143600463867
23.594097137451 -69.493919372559 -184.180297851563 1.224548339844 1.775563240051 0.719585418701 -1.065505981445
-114.696975708008 -72.223426818848 -192.612182617188 0.858871459961 2.634574413300 -2.197212219238 -1.172851562500
-111.781738281250 -68.459625244141 -192.035034179688 -0.379791259766 1.411522865295 0.693740844727 1.169136047363
22.809526443481 -72.044281005859 -187.819595336914 -1.216598510742 2.344955444336 -1.049581527710 1.707946777344
10.675205230713 -69.603698730469 -184.444427490234 0.689636230469 2.988883733749 -2.908221244812 -0.008796691895
-27.829563140869 -68.715934753418 -190.044281005859 -1.082366943359 1.336904287338 -0.593519210815 -0.513351440430
-30.616123199463 -74.987670898438 -189.061737060547 -0.724182128906 1.524896144867 0.782747268677 -1.090034484863
-28.990232467651 -71.576919555664 -187.022216796875 -2.082656860352 2.406613588333 -0.898115158081 -0.804809570313
13.757308959961 -69.496459960938 -179.366760253906 0.399887084961 2.739444494247 -2.453243255615 1.151626586914
-151.744491577148 -70.558319091797 -196.215225219727 -0.546890258789 1.598853230476 0.472640991211 1.426132202148
-146.267868041992 -70.276588439941 -193.928634643555 0.824295043945 2.050833463669 -1.593292236328 0.993919372559
-145.261154174805 -73.466567993164 -199.394821166992 0.446945190430 1.663193106651 1.062347412109 1.199111938477
-23.849470138550 -70.310859680176 -191.171203613281 -1.101943969727 2.305283308029 0.722702026367 -1.891494750977
12.808088302612 -69.264900207520 -198.966186523438 1.145645141602 1.748915433884 1.107192993164 0.721336364746
97.944030761719 -71.017921447754 -191.858840942383 0.080841064453 2.349919319153 -0.949752807617 2.147918701172
-114.578521728516 -69.645957946777 -199.095794677734 -0.562042236328 1.431110143661 -1.009101867676 0.844924926758
20.390588760376 -74.652275085449 -197.679290771484 -1.345840454102 2.017094373703 -0.369533538818 -1.456306457520
-16.204795837402 -70.216796875000 -195.261627197266 -0.034118652344 1.211281538010 0.903100967407 0.806503295898
-18.572814941406 -70.607521057129 -198.459854125977 -1.556762695313 1.765620589256 -0.092094421387 -0.827903747559
100.119110107422 -70.686981201172 -198.032501220703 0.906661987305 1.514542937279 -0.517486572266 -1.097274780273
7.072689056396 -73.207382202148 -198.747695922852 1.501190185547 2.851102352142 -2.420563697815 -0.126823425293
-22.840581893921 -69.521064758301 -196.270614624023 -0.665863037109 1.673545598984 -1.375869750977 -0.681442260742
-122.167427062988 -73.593719482422 -203.921005249023 0.345077514648 2.055836200714 0.546211242676 -1.951675415039
-134.986740112305 -70.761817932129 -204.264816284180 -1.430358886719 2.826786994934 -2.425338745117 -0.250061035156
-114.851478576660 -66.376625061035 -205.699661254883 -1.060653686523 1.160120606422 0.371597290039 0.287765502930
-142.990219116211 -73.313537597656 -204.440841674805 0.771850585938 1.555967688560 0.351638793945 -1.304466247559
16.646051406860 -71.030815124512 -197.126373291016 -0.919692993164 1.751776456833 -0.724536895752 -1.303047180176
92.982643127441 -73.006576538086 -200.437622070313 3.170989990234 3.436037063599 -1.252349853516 0.427543640137
-166.731765747070 -66.040443420410 -202.770950317383 -0.231460571289 3.018315315247 -0.813385009766 2.897422790527
99.178680419922 -71.460639953613 -200.707504272461 -0.984710693359 1.312510490417 -0.225051879883 0.838081359863
-22.432628631592 -74.751861572266 -205.850753784180 -2.782287597656 2.997176885605 0.574712753296 0.954803466797
93.877449035645 -69.756896972656 -209.139312744141 -0.582962036133 2.438846588135 0.045768737793 2.367706298828
87.337974548340 -73.133590698242 -210.188140869141 0.089767456055 1.956146121025 -1.115371704102 -1.604492187500
11.346687316895 -73.013854980469 -205.425582885742 2.006561279297 2.868721246719 2.045780181885 -0.134376525879
19.054723739624 -70.812637329102 -211.374588012695 -1.071426391602 1.129193425179 0.309190750122 0.177551269531
12.088178634644 -68.567489624023 -207.305618286133 1.002563476563 1.201975226402 0.331540107727 -0.574188232422
-11.477972030640 -71.551094055176 -222.108566284180 1.758163452148 2.339252471924 0.953011512756 1.213562011719
-95.081649780273 -72.689056396484 -219.177215576172 0.581115722656 1.375808715820 -0.672683715820 1.050071716309
-11.161776542664 -73.247512817383 -211.987747192383 -2.074691772461 3.100826025009 -2.168908119202 0.778854370117
88.381790161133 -71.963134765625 -214.985931396484 1.738418579102 1.858275771141 0.603950500488 -0.257553100586
-94.212898254395 -72.898147583008 -218.245727539063 1.512603759766 1.741740822792 0.196067810059 0.840980529785
-101.753143310547 -68.523330688477 -221.863693237305 -0.951385498047 2.252868413925 1.838699340820 -0.888519287109
-95.089996337891 -71.411781311035 -220.079879760742 0.970413208008 1.052884936333 0.047271728516 0.405746459961
87.608596801758 -73.315216064453 -220.663940429688 -1.685134887695 1.936861395836 0.178009033203 -0.938117980957
-135.875885009766 -70.980499267578 -226.169418334961 0.292556762695 0.888687491417 -0.714492797852 0.440086364746
-133.029800415039 -74.417884826660 -227.699768066406 -0.602172851563 1.047492623329 0.289672851563 -0.806671142578
-117.240768432617 -70.558746337891 -225.640747070313 -0.363128662109 1.485377430916 1.013038635254 1.023834228516
-113.703521728516 -68.096084594727 -223.973419189453 1.987960815430 3.342670440674 2.103584289551 1.672241210938
-133.901000976563 -69.174720764160 -228.200119018555 -2.312194824219 2.351760864258 -0.428985595703 0.022491455078
-112.292251586914 -77.224617004395 -228.273147583008 2.110366821289 5.118438720703 2.713829040527 -3.792083740234
-112.760253906250 -70.554908752441 -228.833831787109 -2.304397583008 2.321043729782 -0.099822998047 0.258903503418
-7.468798160553 -74.439712524414 -224.326126098633 0.347869873047 0.874831140041 -0.524282932281 -0.607818603516
-16.555767059326 -73.439384460449 -222.950729370117 -0.377960205078 1.673326611519 1.578708648682 -0.406013488770
-1.492001056671 -69.380348205566 -230.081085205078 -0.999038696289 2.541782855988 0.682085037231 2.235473632813
-10.710931777954 -68.481575012207 -226.730758666992 1.655868530273 2.071686744690 0.249579429626 1.219711303711
