-71.754585266113 -75.624702453613 -243.440979003906 2.416198730469 2.728426456451 -1.024185180664 -0.746551513672
-8.415497779846 -76.507980346680 -243.615325927734 -1.619369506836 3.694779872894 -2.835983753204 -1.728073120117
-12.605770111084 -74.685081481934 -246.606582641602 1.748504638672 2.553500890732 -0.876994132996 -1.641334533691
-80.938224792480 -71.623107910156 -247.826965332031 0.240432739258 2.550966024399 -1.669319152832 1.913894653320
-151.960464477539 -75.457344055176 -248.851913452148 -1.262176513672 2.327531814575 -1.955322265625 0.032081604004
-145.582946777344 -75.833923339844 -249.700195312500 -2.311843872070 2.608409166336 1.169860839844 0.301002502441
-88.713775634766 -75.427024841309 -250.895355224609 0.342666625977 1.757213592529 -1.554435729980 -0.744384765625
-163.208236694336 -73.830146789551 -256.030792236328 -0.789642333984 1.717694640160 1.114059448242 -1.042022705078
-128.091430664063 -73.153770446777 -252.685729980469 1.507797241211 3.465763568878 -2.881278991699 -1.198455810547
23.546058654785 -73.287902832031 -256.654327392578 1.545867919922 1.762760043144 -0.634593963623 -0.561164855957
-154.319259643555 -75.025703430176 -253.562026977539 -0.765823364258 1.728633165359 -1.411285400391 -0.640281677246
-147.858932495117 -73.547897338867 -258.577667236328 -1.691040039063 1.752055764198 0.457473754883 0.028297424316
-163.658081054688 -72.289360046387 -259.850555419922 -0.174987792969 1.623694658279 0.301864624023 1.585762023926
-136.147705078125 -72.112525939941 -258.197967529297 -0.718444824219 1.516220092773 0.023193359375 1.334999084473
-123.140609741211 -74.278297424316 -261.218017578125 0.211029052734 0.611603736877 0.455833435059 -0.348915100098
-161.548660278320 -73.486251831055 -263.793457031250 1.479064941406 1.730326056480 -0.866561889648 -0.235511779785
-143.772415161133 -75.444190979004 -259.489898681641 1.208801269531 1.563035964966 -0.771820068359 -0.621429443359
-166.987976074219 -72.639465332031 -263.988952636719 -1.439575195313 1.723689794540 -0.008529663086 0.947975158691
-153.264221191406 -72.441452026367 -262.842468261719 2.104766845703 2.245443582535 0.775238037109 -0.104782104492
-161.060623168945 -73.749282836914 -261.823486328125 -1.274932861328 2.036238670349 1.292922973633 0.921501159668
-166.740875244141 -72.149803161621 -259.738494873047 0.609527587891 1.423769950867 0.316909790039 -1.247062683105
20.373125076294 -74.739341735840 -275.427551269531 -0.864166259766 3.324038743973 -1.150571823120 -2.996437072754
19.640789031982 -76.640922546387 -271.604003906250 -1.092590332031 2.240893602371 0.384273529053 1.918380737305
-160.434539794922 -76.170303344727 -266.691223144531 -1.418701171875 3.255433559418 0.247558593750 -2.919563293457
-157.822677612305 -75.115791320801 -267.261840820313 1.880157470703 2.948473691940 -0.507843017578 -2.213729858398
-163.471130371094 -74.325729370117 -275.417022705078 0.985992431641 2.752532958984 2.438568115234 0.810951232910
-153.922485351563 -72.955413818359 -268.557861328125 -2.048553466797 2.172707080841 -0.656036376953 0.306106567383
-153.730224609375 -74.021682739258 -271.677795410156 1.762512207031 1.845350146294 -0.427658081055 -0.340553283691
-150.808670043945 -77.005821228027 -274.733764648438 -1.526763916016 2.019572734833 -1.023391723633 0.836860656738
-148.143005371094 -76.851379394531 -278.505981445313 -2.052276611328 2.950221061707 -1.071655273438 1.828529357910
-163.378601074219 -73.304916381836 -278.723083496094 -2.320068359375 3.891597509384 2.531097412109 1.831764221191
-153.171234130859 -76.069618225098 -277.916351318359 -1.056549072266 3.458930492401 -3.007934570313 -1.341728210449
15.164389610291 -74.505348205566 -280.199737548828 -1.192840576172 2.599069356918 -2.162016868591 0.811157226563
-152.009063720703 -73.408561706543 -279.126220703125 -2.266418457031 3.206887245178 -1.845764160156 1.319328308105
-161.508529663086 -76.770507812500 -277.784057617188 -2.414703369141 3.158976793289 -1.455429077148 -1.424804687500
-161.030364990234 -73.809394836426 -281.562011718750 0.541809082031 3.273501873016 -0.327621459961 -3.211685180664
-128.956314086914 -74.884674072266 -282.395843505859 0.922821044922 3.895865201950 -3.609390258789 -1.139503479004
-29.954917907715 -73.645362854004 -286.936645507813 -0.861572265625 1.445077180862 -0.177030563354 -1.146560668945
-38.459732055664 -74.578384399414 -283.781707763672 2.167816162109 2.571402072906 0.857975006104 -1.084693908691
-66.667839050293 -75.067375183105 -288.232391357422 0.795074462891 1.581485152245 -0.109909057617 1.362670898438
-19.461502075195 -72.583694458008 -285.384796142578 4.103546142578 4.736676216125 -2.302341461182 -0.544273376465
11.173397064209 -75.152793884277 -285.977661132813 -0.656280517578 2.004327058792 -1.499967575073 -1.156166076660
-1.561050057411 -72.559364318848 -286.007385253906 -0.168304443359 3.040943622589 -1.995477080345 2.288467407227
-112.690773010254 -74.547340393066 -284.562866210938 1.884063720703 2.763979911804 1.815925598145 -0.890113830566
-92.211532592773 -73.676246643066 -287.773834228516 -0.119323730469 1.455668330193 -1.222930908203 0.780494689941
-113.876945495605 -74.813117980957 -291.046875000000 -0.184478759766 0.206837356091 -0.054061889648 0.076332092285
-100.787307739258 -74.516815185547 -287.992462158203 0.293060302734 2.408993721008 2.326354980469 -0.552665710449
-91.916061401367 -73.666648864746 -288.461914062500 -0.807403564453 1.461618304253 -0.927459716797 0.790092468262
-49.149456024170 -73.740051269531 -289.649841308594 -3.678710937500 3.725010156631 0.237388610840 0.535194396973
-118.969535827637 -76.929893493652 -286.679595947266 0.272735595703 3.145237922668 1.065849304199 -2.946540832520
-87.933425903320 -72.073532104492 -288.262969970703 -1.020538330078 1.408677220345 -0.944061279297 -0.227203369141
-120.134277343750 -76.984100341797 -289.064147949219 2.245422363281 3.045936584473 -1.959426879883 0.629646301270
-137.557296752930 -76.272926330566 -290.819915771484 1.191589355469 2.896291017532 1.345535278320 2.271156311035
-7.591854095459 -71.690475463867 -291.609954833984 1.055084228516 2.775896310806 1.592130661011 2.014328002930
6.661417007446 -73.277282714844 -290.448089599609 0.806457519531 1.753123044968 -1.112549781799 -1.088714599609
-153.767578125000 -74.129570007324 -294.153717041016 0.572052001953 1.491750836372 -1.315643310547 0.408851623535
-154.298599243164 -77.437301635742 -304.174072265625 2.040466308594 2.142757654190 -0.592163085938 0.277938842773
-66.488189697266 -68.578506469727 -53.112590789795 -0.618835449219 4.250812053680 2.045234680176 3.674705505371
-59.270122528076 -69.015876770020 -51.113590240479 -2.629753112793 3.864850044250 -2.298164367676 1.655265808105
-48.954803466797 -70.608207702637 -52.436862945557 -2.364887237549 3.018068313599 1.863182067871 -0.211181640625
-68.625938415527 -70.966651916504 -52.108505249023 0.385250091553 1.346184730530 -0.092514038086 1.286560058594
-39.772525787354 -71.777397155762 -55.496505737305 -0.383930206299 2.264225006104 -1.257980346680 1.843040466309
-77.123878479004 -69.335044860840 -50.246353149414 0.601093292236 1.195906519890 0.917320251465 0.476867675781
-84.194473266602 -69.401679992676 -61.723560333252 -3.419120788574 3.426253080368 0.141098022461 0.170043945313
-18.934413909912 -68.249153137207 -66.816581726074 3.456787109375 4.498596668243 -2.671861648560 -1.071983337402
-16.336622238159 -68.666465759277 -70.231811523438 0.041557312012 1.491715788841 -0.074069976807 -1.489295959473
72.729881286621 -68.320907592773 -75.069519042969 1.155273437500 3.684807777405 1.859268188477 2.964164733887
-36.991424560547 -67.682495117188 -74.581016540527 1.916046142578 2.643751144409 -1.692089080811 -0.674552917480
-31.759712219238 -67.934768676758 -75.934219360352 1.661399841309 2.538424968719 0.265472412109 -1.900756835938
74.154838562012 -66.688652038574 -79.676841735840 -3.452049255371 6.620412349701 3.284225463867 4.596420288086
96.152084350586 -70.460403442383 -84.116188049316 -0.370910644531 2.462827682495 -0.041282653809 2.434387207031
-56.427631378174 -66.192596435547 -87.371559143066 1.047698974609 1.058633089066 0.044872283936 -0.144973754883
59.731712341309 -70.844970703125 -90.184715270996 1.270858764648 1.821238994598 -0.490783691406 1.208702087402
45.500152587891 -69.436401367188 -92.231620788574 1.216377258301 3.289935588837 -2.944896697998 0.819564819336
50.397792816162 -68.186012268066 -97.143226623535 1.221748352051 2.102899312973 1.362110137939 -1.036422729492
46.794143676758 -68.580558776855 -97.507247924805 0.048835754395 1.308422923088 -1.306041717529 0.061973571777
104.306709289551 -66.084304809570 -99.606529235840 -1.642829895020 2.132322788239 1.225036621094 -0.589233398438
58.844333648682 -68.260833740234 -94.317451477051 1.364494323730 2.009955883026 -1.403110504150 0.457557678223
-92.665779113770 -68.560470581055 -99.502807617188 -0.765724182129 4.822345733643 4.650428771973 1.020881652832
-74.711074829102 -66.511444091797 -98.824676513672 0.761878967285 2.427682638168 1.559455871582 1.697433471680
56.364303588867 -65.935188293457 -100.540008544922 -1.284698486328 3.204044342041 -1.354156494141 2.604171752930
42.503265380859 -69.721992492676 -102.826675415039 -1.637489318848 2.273671627045 -1.428699493408 0.668601989746
43.680629730225 -70.542945861816 -104.304672241211 -0.465446472168 0.906410217285 -0.771205902100 0.100898742676
-88.317214965820 -68.236053466797 -109.953559875488 1.477111816406 1.584551811218 -0.324081420898 -0.473197937012
39.182682037354 -67.187606811523 -111.157981872559 -0.859840393066 2.176891088486 -0.847606658936 1.811378479004
50.411483764648 -66.027404785156 -112.911003112793 0.021720886230 5.551945686340 3.367904663086 4.413711547852
44.245376586914 -72.361038208008 -120.625755310059 1.153396606445 2.406985282898 1.932365417480 -0.853942871094
43.724430084229 -72.780342102051 -119.810729980469 -1.877029418945 2.593242406845 -0.120311737061 -1.785270690918
114.542922973633 -68.514602661133 -127.328674316406 0.200698852539 1.402533650398 1.231040954590 -0.641372680664
-56.281829833984 -72.783592224121 -129.150192260742 0.678787231445 0.838375031948 0.262752532959 0.416030883789
40.692962646484 -67.297904968262 -137.731979370117 -1.244705200195 5.199207305908 1.731273651123 4.741851806641
38.321102142334 -70.934570312500 -139.503753662109 0.925476074219 2.417175531387 0.897544860840 2.044662475586
112.546798706055 -69.235160827637 -139.191986083984 -0.279296875000 1.551229834557 -1.128723144531 -1.026786804199
-73.763687133789 -71.730606079102 -134.148895263672 -1.921035766602 2.120458126068 0.322776794434 -0.837722778320
-53.083614349365 -71.481407165527 -135.768310546875 -1.937042236328 2.050234794617 -0.082633972168 0.666709899902
117.474113464355 -69.141471862793 -138.709976196289 -0.747772216797 3.285173654556 3.195297241211 0.152572631836
-74.195991516113 -71.581153869629 -139.503326416016 -0.039474487305 1.526392102242 -1.357589721680 -0.696609497070
-40.822467803955 -67.274169921875 -143.948944091797 2.697143554688 4.509053230286 2.288520812988 2.796363830566
-57.961986541748 -71.575180053711 -139.119140625000 0.693527221680 1.013572454453 -0.309307098389 -0.671325683594
107.863327026367 -68.408523559570 -142.248046875000 0.888717651367 3.208672523499 -2.983123779297 0.778930664063
22.140338897705 -68.214630126953 -147.538177490234 0.938949584961 1.615552425385 0.776859283447 -1.060600280762
34.152122497559 -71.998626708984 -144.676803588867 -0.344970703125 1.770944356918 -1.726860046387 0.187599182129
-39.780509948730 -69.838211059570 -150.865219116211 2.989852905273 3.059539079666 -0.169464111328 -0.626770019531
-69.723854064941 -74.538368225098 -148.720840454102 1.705902099609 1.734871268272 -0.146057128906 -0.279899597168
22.430580139160 -69.663650512695 -151.405090332031 0.919952392578 1.270825505257 -0.366363525391 -0.796531677246
-71.667823791504 -69.709571838379 -150.236968994141 -0.693893432617 1.470633506775 -0.503837585449 -1.194747924805
33.003051757813 -72.085739135742 -150.336669921875 -0.492691040039 1.571864962578 1.490781784058 -0.074729919434
-37.682304382324 -70.552001953125 -151.632263183594 2.222808837891 3.233887195587 1.928741455078 -1.340560913086
23.314308166504 -71.229415893555 -148.431579589844 -0.054031372070 1.743793368340 1.293478012085 1.168251037598
12.466753959656 -73.619987487793 -152.707214355469 -0.085998535156 1.056397914886 -0.592608451843 0.870285034180
-68.789886474609 -72.455825805664 -156.832809448242 -1.337356567383 2.119242429733 -1.523612976074 0.617469787598
-47.075454711914 -71.141990661621 -154.031127929688 0.153015136719 0.896769464016 -0.048786163330 -0.882270812988
-61.297874450684 -68.533866882324 -158.835510253906 0.040740966797 4.625910758972 3.053627014160 3.474586486816
-45.691303253174 -72.125381469727 -160.052825927734 0.995849609375 1.645171999931 -0.681278228760 1.118362426758
4.665192127228 -71.329605102539 -165.448257446289 -1.290863037109 3.240386486053 0.157575130463 2.967987060547
-33.297527313232 -68.976768493652 -166.014007568359 -2.514572143555 2.988586425781 1.614070892334 -0.057891845703
-42.121852874756 -72.372291564941 -165.212509155273 1.354888916016 1.614881992340 0.755165100098 0.449272155762
20.852115631104 -69.374061584473 -166.952880859375 -0.533370971680 1.843492984772 -1.203340530396 -1.290718078613
-41.653049468994 -70.935913085938 -163.561172485352 -0.860137939453 1.502269268036 1.128314971924 -0.493843078613
29.415699005127 -70.019508361816 -166.003631591797 1.952117919922 2.019306659698 0.444736480713 0.262763977051
118.196914672852 -68.808692932129 -168.695220947266 -2.605636596680 5.036764144897 3.247703552246 2.834091186523
-28.973091125488 -72.561576843262 -169.950622558594 -1.127243041992 1.736409544945 0.973941802979 -0.892120361328
27.463710784912 -72.289978027344 -168.386871337891 1.357162475586 2.212085247040 -1.438257217407 -0.991386413574
-64.800445556641 -70.618934631348 -166.169235229492 0.092941284180 1.978207230568 0.079414367676 1.974426269531
-60.425113677979 -73.456832885742 -171.540771484375 -0.156509399414 1.157426714897 -0.015007019043 -1.146697998047
-37.274921417236 -69.944297790527 -170.711685180664 -0.110900878906 1.392542004585 1.242027282715 -0.619873046875
-61.988067626953 -74.084625244141 -173.398620605469 1.321594238281 1.419425129890 -0.411827087402 0.313934326172
106.752227783203 -69.245506286621 -175.759109497070 0.621139526367 2.264900922775 -2.085311889648 0.628837585449
-146.851943969727 -70.276840209961 -173.659057617188 1.908645629883 2.071584701538 0.140396118164 -0.792984008789
-147.490921020508 -75.277366638184 -176.439010620117 0.187805175781 2.184239387512 1.231491088867 -1.794174194336
-53.796989440918 -71.857994079590 -180.789520263672 -0.643295288086 1.775193929672 0.749546051025 1.475013732910
110.317199707031 -69.650367736816 -178.724472045898 -2.344223022461 2.781176090240 1.479660034180 0.223976135254
112.918128967285 -69.310447692871 -179.963485717773 -0.930557250977 2.624804019928 0.650390625000 2.366569519043
107.840888977051 -71.736091613770 -179.707580566406 1.033599853516 1.792428970337 1.374137878418 -0.506179809570
24.382387161255 -71.528358459473 -182.787017822266 -0.319046020508 1.290923237801 0.614233016968 1.089683532715
-35.262851715088 -75.547531127930 -180.936126708984 1.931930541992 2.724323749542 -1.591487884521 1.075523376465
-143.646087646484 -72.438423156738 -180.728561401367 0.902191162109 1.575982451439 1.263824462891 0.269294738770
108.991821289063 -71.142845153809 -182.787796020508 -0.345321655273 0.976089537144 -0.266532897949 -0.873191833496
21.238124847412 -70.244216918945 -192.973205566406 -1.422393798828 2.238217830658 0.092079162598 1.725669860840
106.388504028320 -69.717849731445 -192.665908813477 -2.918945312500 3.030099630356 -0.765205383301 0.275177001953
102.926170349121 -70.342575073242 -190.689605712891 2.183563232422 2.947852134705 1.652824401855 1.090896606445
10.459609985352 -72.313064575195 -195.244628906250 -0.250045776367 0.817831873894 0.278848648071 0.727027893066
-126.645584106445 -73.968299865723 -195.934371948242 -1.271072387695 3.083229780197 -1.840454101563 -2.122123718262
-122.847549438477 -70.965637207031 -195.462005615234 -0.013793945313 0.315367519855 0.109107971191 -0.295570373535
-143.807754516602 -80.021583557129 -197.954406738281 -1.164566040039 1.474167466164 -0.543685913086 0.722053527832
-130.386138916016 -70.526870727539 -197.069168090820 -0.609588623047 2.120458364487 1.104690551758 1.704231262207
-124.823638916016 -76.048164367676 -198.170059204102 0.317459106445 2.215955257416 -0.447494506836 -2.146957397461
-24.841720581055 -70.261436462402 -201.461715698242 0.378875732422 2.848498582840 -2.053791046143 -1.937095642090
-27.187334060669 -74.531951904297 -199.450485229492 -0.792861938477 2.143559455872 -1.894254684448 -0.614830017090
-131.565795898438 -70.414550781250 -200.029663085938 2.804794311523 2.977843284607 0.995605468750 0.097206115723
-146.439758300781 -70.956237792969 -198.986312866211 -0.760284423828 1.087291240692 0.426620483398 0.649742126465
-10.903463363647 -71.187965393066 -205.386154174805 -0.215545654297 0.244496524334 0.057966232300 0.099792480469
97.022056579590 -72.987953186035 -198.469726562500 0.080398559570 0.496917963028 0.340606689453 -0.352775573730
-17.944093704224 -71.213127136230 -205.151306152344 0.259490966797 1.130407691002 -0.745361328125 -0.809272766113
90.792396545410 -73.754653930664 -211.497009277344 -1.312728881836 1.415808320045 -0.218437194824 0.483261108398
15.656635284424 -71.559692382813 -208.276702880859 -0.398727416992 0.887479722500 -0.175322532654 -0.773239135742
-9.452460289001 -72.439453125000 -212.835021972656 -1.277374267578 1.829608321190 -0.971618652344 -0.878486633301
16.509376525879 -73.199951171875 -210.790832519531 -2.011886596680 2.396223306656 -0.657909393311 -1.123100280762
-25.698959350586 -72.575195312500 -209.127609252930 2.533828735352 2.853938579559 1.308334350586 -0.113746643066
-85.720458984375 -71.818939208984 -212.953521728516 -0.020172119141 1.543744206429 0.502250671387 1.459617614746
-88.465293884277 -71.601387023926 -212.285385131836 0.647964477539 2.874359130859 -2.242584228516 1.677169799805
-14.549957275391 -71.438095092773 -209.917755126953 0.185317993164 1.741566061974 0.631517410278 -1.612419128418
-94.298423767090 -75.056495666504 -213.613128662109 1.573974609375 2.631468534470 -2.107391357422 0.078308105469
-98.607368469238 -71.647895812988 -214.717605590820 2.540313720703 2.811629772186 -0.797935485840 0.902976989746
86.655120849609 -74.276351928711 -219.006561279297 -1.035644531250 1.657720923424 0.113456726074 -1.289421081543
-25.842706680298 -71.307579040527 -220.768997192383 1.795669555664 3.074350833893 -2.493026733398 0.109642028809
-24.730499267578 -72.444786071777 -222.443878173828 0.120788574219 1.725439548492 -1.380819320679 -1.027565002441
-19.125135421753 -70.756523132324 -218.246841430664 -1.233856201172 1.937147855759 1.368726730347 0.597267150879
-18.452562332153 -71.918159484863 -222.245941162109 0.326828002930 1.204861998558 -0.318086624146 1.115211486816
-21.112089157104 -72.455039978027 -221.824890136719 -1.743530273438 1.954115748405 0.571155548096 0.672645568848
18.162761688232 -70.594612121582 -221.923904418945 -1.950881958008 3.029193878174 2.005882263184 1.160392761230
-143.071578979492 -73.340240478516 -223.739761352539 0.626068115234 2.103633642197 -0.731674194336 -1.870285034180
78.005996704102 -71.396209716797 -224.884918212891 -0.150283813477 1.418921113014 1.410270690918 -0.043457031250
-7.108528137207 -68.889549255371 -226.524826049805 -0.488571166992 1.344030261040 -0.647675037384 1.071556091309
7.887743949890 -72.025398254395 -229.937301635742 -0.794281005859 1.433944106102 0.989222049713 -0.668395996094
78.158279418945 -74.027282714844 -226.789581298828 -1.817459106445 2.111119985580 -0.763977050781 -0.754989624023
-121.446662902832 -71.793434143066 -228.891998291016 -0.816024780273 1.284002304077 0.359298706055 0.923942565918
-163.984909057617 -72.079132080078 -234.048355102539 -1.103515625000 1.832267642021 -0.567962646484 1.347915649414
-138.808807373047 -74.903633117676 -227.491226196289 -0.005187988281 2.487024545670 -0.497421264648 2.436767578125
14.646610260010 -72.263160705566 -232.136718750000 0.418670654297 1.083880066872 0.798065185547 -0.602165222168
9.424478530884 -72.128395080566 -230.185592651367 1.047668457031 2.587962865829 -2.364535331726 0.094421386719
-129.635421752930 -76.313339233398 -232.369720458984 -0.072006225586 2.856375932693 -1.304702758789 -2.539970397949
3.050301074982 -73.537979125977 -233.748825073242 1.183639526367 3.271263122559 2.974280118942 0.673660278320
-142.959686279297 -73.175437927246 -234.931289672852 -0.373977661133 1.113702058792 -0.243774414063 1.020317077637
-2.738322019577 -76.191627502441 -232.979110717773 -1.067352294922 1.253799915314 0.079464912415 -0.653038024902
11.628227233887 -71.564620971680 -237.219100952148 -0.661865234375 1.317883968353 -0.289539337158 -1.102233886719
-1.087463021278 -75.054092407227 -236.000030517578 0.920593261719 1.490579843521 -1.124289035797 -0.332130432129
-4.880081176758 -73.293899536133 -236.557083129883 -1.716659545898 1.727690935135 -0.172422409058 -0.090919494629
6.463201999664 -74.513389587402 -237.116683959961 1.343078613281 1.717141628265 -0.197570800781 1.051513671875
-159.069000244141 -73.041938781738 -236.275909423828 -0.493606567383 2.164879798889 -0.936859130859 1.888214111328
-157.574447631836 -74.290611267090 -237.643142700195 -1.860839843750 2.045179843903 0.557693481445 0.639541625977
15.351808547974 -69.572334289551 -241.368667602539 1.131042480469 2.004045248032 -1.561153411865 -0.547485351563
-0.158142998815 -71.584480285645 -239.850067138672 -0.997161865234 1.475590944290 1.036494970322 -0.329719543457
63.891128540039 -72.466133117676 -239.346801757813 -0.384338378906 1.759113550186 -0.106208801270 -1.713325500488
62.101146697998 -74.180694580078 -237.881942749023 -1.713272094727 3.002738714218 -2.359653472900 -0.716361999512
-164.198852539063 -74.997810363770 -244.483856201172 -2.297576904297 3.570999383926 1.725891113281 -2.120018005371
-161.397247314453 -75.628028869629 -240.747390747070 -0.544586181641 1.375153064728 0.771148681641 -0.999900817871
-153.311599731445 -70.054145812988 -241.638717651367 1.747512817383 1.830691814423 -0.323242187500 0.439483642578
-57.950725555420 -72.576362609863 -239.915298461914 2.006271362305 5.082455158234 -4.456123352051 1.396133422852
-6.962797164917 -73.498779296875 -244.706100463867 -0.809463500977 2.356244087219 1.740676879883 -1.366271972656
-48.408958435059 -71.568954467773 -245.561950683594 -1.764343261719 2.831708431244 -0.550411224365 2.145393371582
-153.628479003906 -77.088096618652 -245.855377197266 1.382797241211 2.954229593277 -2.029571533203 1.642005920410
-60.757305145264 -73.701850891113 -242.463195800781 1.915039062500 2.225075721741 1.029136657715 0.473777770996
17.114570617676 -74.999168395996 -248.689041137695 0.747573852539 1.139094948769 -0.794298171997 -0.328269958496
-11.041787147522 -69.029411315918 -250.338409423828 2.464797973633 3.316581487656 1.464672088623 -1.667098999023
-7.679392814636 -74.653610229492 -248.592636108398 -0.637496948242 0.990660548210 0.094558238983 -0.752372741699
-155.631561279297 -76.885124206543 -247.821487426758 2.074295043945 3.859347105026 1.904663085938 -2.638961791992
-163.291549682617 -70.455230712891 -249.929534912109 -2.178024291992 3.060776233673 0.892150878906 -1.956687927246
-87.615257263184 -74.969818115234 -247.779281616211 3.458740234375 3.500459432602 -0.455917358398 -0.287178039551
-164.221954345703 -73.758255004883 -247.535781860352 1.261932373047 1.812907934189 0.556030273438 1.176856994629
-146.533218383789 -75.587120056152 -247.033142089844 0.355209350586 0.688828229904 0.219589233398 0.547805786133
-77.447250366211 -70.544197082520 -252.225784301758 1.249801635742 1.378297090530 0.569900512695 -0.113632202148
-92.195846557617 -74.458114624023 -251.743408203125 0.544479370117 1.301463723183 -1.176254272461 -0.117370605469
-87.837669372559 -72.214591979980 -254.432601928711 0.244674682617 1.195558905602 0.149131774902 -1.160713195801
-135.735397338867 -73.028305053711 -253.933990478516 1.378799438477 1.500726699829 0.068466186523 0.588562011719
18.696554183960 -71.395484924316 -256.831878662109 0.572082519531 4.317438602448 -2.021961212158 3.771560668945
-98.359123229980 -72.903808593750 -256.027618408203 -0.801406860352 1.792791128159 -1.435111999512 0.715751647949
-101.096412658691 -71.326957702637 -258.354888916016 -0.407348632813 1.401607871056 -0.128181457520 1.334968566895
-104.420593261719 -70.764389038086 -251.751602172852 4.318344116211 4.416710376740 -0.826980590820 0.418731689453
-116.042526245117 -76.030677795410 -257.551727294922 -1.282531738281 2.474164009094 2.008064270020 -0.666542053223
-107.698249816895 -73.035057067871 -257.324005126953 -1.442535400391 2.133206367493 -1.520317077637 -0.397865295410
-116.591812133789 -75.151573181152 -259.895446777344 0.913116455078 2.267529487610 -0.325897216797 -2.049804687500
-143.175109863281 -78.824661254883 -256.857086181641 1.254150390625 1.995084881783 -1.521453857422 -0.304382324219
-136.239593505859 -72.790840148926 -257.091003417969 0.388519287109 0.766094803810 -0.068695068359 0.656684875488
-153.590774536133 -77.819549560547 -263.802124023438 -0.217864990234 2.066843032837 -1.959442138672 0.620452880859
-143.691207885742 -74.972320556641 -270.814392089844 0.808502197266 4.732871055603 3.799636840820 2.703544616699
-170.431060791016 -76.359092712402 -273.596496582031 3.271881103516 5.225128650665 -3.304199218750 -2.383071899414
-10.858224868774 -73.953926086426 -275.923217773438 -0.794830322266 1.050131917000 0.568026542664 -0.385185241699
-129.762649536133 -74.206726074219 -279.376220703125 3.942443847656 5.937552452087 -4.415725708008 -0.461555480957
-137.836029052734 -74.093475341797 -283.014038085938 1.056396484375 3.474287748337 -3.283615112305 -0.415420532227
-49.281730651855 -74.561210632324 -284.497497558594 1.473632812500 1.504798531532 0.105113983154 -0.285964965820
-87.389541625977 -73.945129394531 -284.373199462891 1.938140869141 2.458363771439 -1.079421997070 -1.059249877930
-28.182001113892 -75.437591552734 -283.979980468750 1.112365722656 1.738939285278 0.589920043945 -1.199394226074
-34.464080810547 -71.297988891602 -283.978942871094 2.244079589844 4.076360702515 -2.776517868042 1.967681884766
-114.769401550293 -75.053825378418 -285.711364746094 0.735565185547 1.600174069405 -0.262702941895 -1.396598815918
-17.153892517090 -72.360099792480 -288.235046386719 1.253295898438 1.293681979179 0.005268096924 -0.320678710938
13.680523872375 -73.265136718750 -288.330688476563 -0.107849121094 2.341120481491 -0.994659423828 2.116569519043
-50.814201354980 -75.520133972168 -290.761352539063 -0.145538330078 2.241827964783 1.234401702881 1.865707397461
-113.986000061035 -72.885253906250 -289.028503417969 -1.114135742188 1.764122962952 -1.195442199707 0.664642333984
-76.103973388672 -72.224700927734 -288.376434326172 -1.598449707031 2.289908170700 -1.272529602051 -1.034072875977
-69.869712829590 -70.401336669922 -293.406738281250 -2.849822998047 2.860115289688 -0.141723632813 -0.196678161621
-31.914501190186 -71.624443054199 -291.028320312500 -0.267669677734 2.100915670395 -1.424047470093 1.521278381348
-105.030700683594 -70.395576477051 -286.964965820313 0.486450195313 1.758798718452 1.358421325684 1.005699157715
-112.075294494629 -70.646347045898 -292.627929687500 -0.630401611328 2.469106674194 2.244895935059 0.812110900879
-8.238395690918 -73.325759887695 -291.263275146484 0.623901367188 1.466687560081 -0.532826900482 1.215736389160
-159.979431152344 -71.855163574219 -291.850067138672 1.359344482422 1.596939086914 0.690582275391 0.474861145020
-153.792144775391 -76.919876098633 -293.677001953125 -0.148742675781 2.105995178223 1.863754272461 -0.969284057617
-152.812011718750 -78.308448791504 -310.585906982422 0.254364013672 1.193905234337 -0.442794799805 -1.079185485840
30.462266921997 -66.984909057617 -16.072904586792 2.240234375000 2.702368974686 -0.901792526245 -1.212814331055
24.817661285400 -67.351852416992 -16.369888305664 0.127025604248 2.299931049347 0.135244369507 -2.292434692383
26.142505645752 -70.352012634277 -21.041835784912 0.219764709473 0.659973859787 -0.125368118286 0.609550476074
25.698329925537 -68.190933227539 -24.559774398804 0.771841049194 1.063403010368 0.360012054443 -0.636772155762
24.045993804932 -67.778427124023 -27.227169036865 0.338308334351 1.421411514282 -1.372095108032 -0.152687072754
32.019092559814 -67.594558715820 -35.556053161621 -0.175430297852 1.333018302917 0.825046539307 1.032211303711
30.909023284912 -68.717178344727 -40.935485839844 0.236022949219 1.429890871048 -1.055017471313 0.935852050781
-54.477516174316 -70.285209655762 -53.187797546387 -3.506046295166 4.518176555634 0.843841552734 2.722038269043
-27.282495498657 -64.946464538574 -52.859558105469 -2.169860839844 3.302004098892 -2.275285720825 1.008964538574
87.152648925781 -68.755294799805 -68.257690429688 -0.363868713379 2.347643613815 -0.456352233887 2.273933410645
-90.557632446289 -67.349609375000 -71.809562683105 -1.110519409180 3.557517051697 0.923301696777 3.251182556152
73.352348327637 -69.020515441895 -76.497550964355 -0.272758483887 3.370700836182 2.481735229492 2.264556884766
-39.416851043701 -72.361724853516 -78.731010437012 -0.670135498047 2.699915647507 0.857032775879 -2.471023559570
-89.832031250000 -69.953102111816 -78.332923889160 -2.721031188965 4.693692207336 0.731071472168 3.753967285156
-43.041057586670 -71.257629394531 -84.192077636719 -2.592971801758 2.660359144211 0.162178039551 -0.572456359863
101.386512756348 -72.656089782715 -85.354026794434 1.789833068848 2.442894220352 1.661865234375 -0.049331665039
-90.994873046875 -69.960548400879 -90.438560485840 -1.052726745605 4.853598594666 4.646720886230 0.925834655762
69.244209289551 -72.086578369141 -90.801681518555 -0.187156677246 0.904999852180 0.852165222168 0.240440368652
-95.307769775391 -70.201377868652 -93.764961242676 -1.689376831055 2.489660739899 1.109565734863 -1.453712463379
59.695240020752 -68.838890075684 -94.786720275879 0.895225524902 1.058715343475 -0.552204132080 -0.120498657227
106.229606628418 -69.931579589844 -96.261917114258 0.527755737305 1.408924460411 -1.092018127441 -0.716964721680
-67.906539916992 -70.544235229492 -95.634239196777 -0.815406799316 3.430218696594 -3.099678039551 -1.222091674805
41.661109924316 -70.674446105957 -100.212066650391 0.977119445801 2.488396406174 -2.270854949951 -0.283851623535
82.628875732422 -66.331329345703 -103.318359375000 1.519767761230 2.281749010086 -1.309562683105 -1.087074279785
84.005737304688 -69.775650024414 -101.775566101074 -0.107566833496 1.080002427101 -0.015792846680 1.074516296387
44.655712127686 -70.118545532227 -102.419967651367 -1.230781555176 1.453493714333 0.723747253418 0.272048950195
109.844734191895 -69.784225463867 -101.271522521973 -0.776435852051 1.211430072784 0.162849426270 -0.915527343750
-96.489807128906 -73.233795166016 -109.927429199219 -0.310798645020 2.884212732315 -1.078376770020 -2.656913757324
99.684898376465 -68.246406555176 -105.140579223633 -1.556282043457 2.893152236938 2.126625061035 -1.194061279297
110.306640625000 -68.588737487793 -109.969680786133 0.240135192871 1.543119668961 -1.469680786133 0.404464721680
35.352844238281 -71.716049194336 -112.639480590820 1.315612792969 1.457879304886 -0.512371063232 0.363388061523
48.268508911133 -70.395317077637 -112.787414550781 0.145309448242 1.234368443489 1.224929809570 0.045799255371
45.205821990967 -71.861175537109 -117.172630310059 0.651893615723 1.121681451797 -0.560817718506 0.720199584961
31.876415252686 -69.046516418457 -115.307586669922 -1.352493286133 5.190218925476 -3.988800048828 3.032920837402
44.133750915527 -69.043441772461 -118.675659179688 1.025581359863 2.032959461212 1.681850433350 0.502479553223
44.155960083008 -71.352813720703 -120.613220214844 1.165931701660 2.186243295670 1.842948913574 0.154281616211
109.741714477539 -71.153236389160 -119.802093505859 -0.813514709473 0.885132730007 -0.319328308105 -0.140296936035
114.217330932617 -70.223381042480 -129.499374389648 1.660690307617 2.235325574875 -0.189338684082 -1.484230041504
29.809947967529 -66.349266052246 -123.998611450195 2.746047973633 4.201690673828 -2.430374145508 2.051025390625
30.600267410278 -69.541542053223 -131.261734008789 0.908920288086 1.733826637268 -0.103309631348 1.472869873047
-74.339523315430 -72.122062683105 -135.121673583984 -0.570404052734 1.791183352470 1.689857482910 0.165405273438
-54.394641876221 -68.318519592285 -132.193572998047 1.201629638672 2.298877477646 0.746017456055 1.812286376953
114.490821838379 -72.723701477051 -138.869918823242 1.609207153320 2.046838998795 1.190711975098 0.426856994629
26.041816711426 -69.997604370117 -135.003356933594 -0.374313354492 2.911148548126 0.976888656616 2.716682434082
37.229721069336 -73.329849243164 -132.433227539063 -0.711608886719 1.625605225563 -1.294864654541 -0.677886962891
-78.278968811035 -71.352348327637 -135.240692138672 0.787933349609 2.143869400024 -0.861679077148 1.798011779785
28.922748565674 -65.592491149902 -139.514617919922 0.570480346680 2.359385967255 2.064498901367 -0.989494323730
25.461587905884 -70.988578796387 -139.307296752930 0.311050415039 0.581155657768 -0.317848205566 -0.374114990234
-46.425331115723 -69.909217834473 -140.388046264648 1.514892578125 2.289563179016 -0.533115386963 -1.631866455078
-70.458023071289 -70.883995056152 -144.862365722656 0.697769165039 1.370112776756 -0.589164733887 -1.021377563477
-53.870590209961 -70.990760803223 -148.651290893555 0.699203491211 1.714081883430 -0.265758514404 -1.542259216309
31.100997924805 -69.317527770996 -147.419189453125 1.844894409180 2.087223529816 0.318735122681 -0.922645568848
-54.376743316650 -75.944709777832 -153.330474853516 -0.171157836914 3.034047126770 -2.419410705566 1.822799682617
33.339595794678 -72.309272766113 -150.600158691406 -0.756179809570 1.999972224236 1.827325820923 -0.298263549805
31.863748550415 -70.554092407227 -159.131820678711 -1.312652587891 1.450246334076 0.608358383179 0.100288391113
109.697776794434 -67.886207580566 -154.753890991211 -0.293334960938 2.095505714417 -0.634872436523 1.975357055664
21.859979629517 -71.031936645508 -151.358123779297 0.648269653320 0.742739439011 -0.277330398560 0.233444213867
13.154453277588 -69.588867187500 -151.787551879883 -1.534484863281 2.650897741318 2.128785133362 -0.375350952148
-38.245388031006 -69.096740722656 -155.361267089844 -1.506195068359 2.036369562149 1.365657806396 0.114700317383
-71.359779357910 -69.030517578125 -154.585128784180 -1.919937133789 2.269759416580 -0.011360168457 1.210586547852
-45.439926147461 -72.115768432617 -158.692276000977 2.356399536133 2.647595643997 -0.429901123047 1.127975463867
108.550506591797 -70.539802551270 -161.212829589844 0.449645996094 2.398571014404 -1.349922180176 1.930976867676
30.703300476074 -70.265487670898 -161.130371093750 1.584014892578 1.814336776733 0.069360733032 0.881988525391
109.961784362793 -71.716606140137 -161.105041503906 0.557434082031 0.939826905727 0.061355590820 0.754173278809
-36.882598876953 -69.093757629395 -161.880676269531 1.026046752930 1.056521773338 -0.180812835693 -0.175422668457
16.175025939941 -69.169792175293 -163.993545532227 0.173171997070 3.271811485291 -2.360073089600 2.259384155273
1.314154028893 -69.148063659668 -160.863876342773 -0.158203125000 2.171527624130 -2.073022842407 0.626960754395
-32.004173278809 -69.524108886719 -162.085678100586 2.146743774414 2.885998487473 -0.330450057983 1.900337219238
-61.282241821289 -72.484809875488 -164.468521118164 -0.539947509766 2.162195444107 2.087932586670 0.155189514160
-33.322471618652 -72.803962707520 -167.951232910156 -0.154266357422 1.463775038719 -0.586448669434 -1.332260131836
-60.801227569580 -70.814315795898 -170.588790893555 0.795471191406 1.738742232323 -0.391120910645 1.495819091797
-39.321525573730 -67.580787658691 -169.342498779297 1.258285522461 2.295843362808 -0.804576873779 1.743637084961
29.552436828613 -73.130874633789 -171.728363037109 -0.060729980469 1.215213060379 0.911838531494 0.801002502441
-37.883392333984 -69.263786315918 -172.492034912109 -1.891250610352 1.995469808578 0.633556365967 0.060638427734
-153.328964233398 -70.899856567383 -175.134918212891 0.004821777344 1.364892244339 -1.220199584961 -0.611572265625
113.585655212402 -68.630043029785 -178.681091308594 0.351837158203 3.338374853134 1.317916870117 3.046974182129
-152.869674682617 -72.080970764160 -180.582992553711 1.209442138672 2.849231004715 -0.116088867188 -2.577186584473
-142.084365844727 -72.578353881836 -180.352691650391 -1.673477172852 1.964592218399 0.957656860352 -0.376815795898
15.178855895996 -70.034851074219 -181.618957519531 0.287521362305 0.365418046713 0.069534301758 -0.214538574219
25.809059143066 -70.769508361816 -185.027359008789 -3.110321044922 3.111778259277 -0.060274124146 0.073715209961
-35.214019775391 -70.091384887695 -183.791992187500 -1.054809570313 1.151702046394 -0.141269683838 -0.440269470215
-149.853866577148 -70.162055969238 -189.830657958984 -1.198593139648 2.416779518127 2.008163452148 -0.609489440918
-34.551784515381 -68.940277099609 -187.027175903320 -0.808425903320 3.078481674194 -0.974586486816 2.806007385254
-145.179199218750 -69.780357360840 -186.391693115234 0.975936889648 2.519386768341 -2.211730957031 0.709297180176
-16.136966705322 -72.073699951172 -191.298736572266 1.789947509766 2.050551176071 0.525482177734 0.851303100586
13.714809417725 -72.166244506836 -190.810974121094 -0.837554931641 1.602458834648 1.201617240906 0.649993896484
99.350532531738 -71.698799133301 -198.862716674805 0.860076904297 1.049985289574 -0.053199768066 0.599922180176
11.220462799072 -72.071220397949 -196.639419555664 0.587219238281 1.339649796486 1.037381172180 -0.611289978027
-128.561630249023 -70.939300537109 -195.002197265625 -1.387283325195 2.039439439774 -1.103530883789 -1.008453369141
-131.691223144531 -71.490356445313 -194.235839843750 0.548461914063 1.077819705009 0.138305664063 -0.917472839355
-140.614868164063 -72.595436096191 -196.567901611328 0.470748901367 0.785268247128 0.387832641602 -0.494598388672
96.375473022461 -69.800659179688 -199.648437500000 2.433593750000 2.735044956207 0.551170349121 1.119956970215
-131.196441650391 -72.247840881348 -197.782043457031 -1.322463989258 1.354937434196 0.294387817383 -0.016738891602
10.325717926025 -71.002731323242 -205.968978881836 2.252227783203 2.488495826721 0.194006919861 -1.040405273438
-26.659183502197 -71.623847961426 -199.933090209961 -2.247497558594 2.825515985489 -1.689928054810 -0.276473999023
-129.972976684570 -70.836517333984 -204.526596069336 0.631668090820 2.221424818039 2.098236083984 -0.364868164063
-149.560989379883 -74.345367431641 -203.230041503906 1.700393676758 2.217506647110 0.274246215820 1.396705627441
97.201148986816 -72.315597534180 -207.244293212891 -0.951919555664 1.989683151245 -1.070602416992 -1.380760192871
-11.581232070923 -68.105171203613 -200.922470092773 0.472274780273 2.011801004410 1.932831764221 -0.297424316406
99.166801452637 -73.969902038574 -203.051681518555 0.828521728516 1.465287566185 -0.227882385254 -1.186882019043
-11.756869316101 -71.859489440918 -205.280914306641 -0.110305786133 0.985783278942 -0.795439720154 -0.571731567383
94.764533996582 -70.675659179688 -209.328491210938 -0.772140502930 1.888347387314 0.932853698730 1.448944091797
-143.732666015625 -73.291816711426 -204.633422851563 0.579269409180 1.460725784302 -0.390808105469 -1.282745361328
-18.142961502075 -70.792274475098 -210.085464477539 -0.153839111328 1.905641198158 0.581357955933 -1.808265686035
-151.632492065430 -69.529594421387 -212.013488769531 1.027297973633 4.201603412628 -1.137176513672 3.912155151367
-146.923309326172 -71.689338684082 -206.522048950195 -0.072814941406 2.648966073990 -2.527404785156 0.789901733398
-16.713226318359 -72.809944152832 -214.727111816406 -0.440139770508 1.570333242416 1.305240631104 0.754035949707
-86.074623107910 -69.662185668945 -212.025238037109 0.908111572266 3.731586217880 0.148086547852 3.616371154785
-160.824615478516 -68.441871643066 -212.501876831055 0.577758789063 0.799076795578 -0.537185668945 -0.127082824707
-161.889923095703 -72.082031250000 -211.452697753906 -1.649658203125 2.359339952469 1.575668334961 0.601982116699
-156.239822387695 -74.021865844727 -209.446975708008 2.686660766602 2.935997009277 0.224670410156 -1.162521362305
-27.444923400879 -69.020591735840 -215.930175781250 -2.666580200195 4.775801658630 2.405036926270 3.148559570313
-24.691761016846 -73.091918945313 -217.238769531250 0.397003173828 1.101717948914 -0.517299652100 -0.888015747070
-17.085636138916 -70.546424865723 -213.312362670898 -0.406707763672 0.622355699539 -0.453319549561 -0.128128051758
-14.712027549744 -69.801704406738 -214.884994506836 -1.481643676758 1.490660309792 0.011327743530 -0.163314819336
-143.817657470703 -72.720695495605 -213.880340576172 2.998611450195 3.708822011948 1.398300170898 1.675842285156
17.975025177002 -74.128585815430 -220.340942382813 0.040145874023 1.888089179993 -0.388895034790 1.847167968750
-152.644332885742 -71.752220153809 -219.571624755859 -2.536849975586 2.631310939789 -0.690078735352 -0.109458923340
-94.517478942871 -73.096466064453 -218.352157592773 1.406173706055 1.549875497818 -0.108512878418 0.642662048340
-165.393081665039 -73.290542602539 -219.619247436523 -1.859375000000 2.142371654510 -0.002166748047 -1.064178466797
-25.845453262329 -74.436019897461 -223.086166381836 0.608840942383 2.032742500305 -1.851749420166 0.576522827148
-19.068494796753 -72.888275146484 -219.502716064453 -0.065475463867 2.098599195480 1.626371383667 -1.324668884277
-159.244338989258 -72.269920349121 -214.811050415039 0.637573242188 3.081735849380 -2.990753173828 -0.382087707520
12.762424468994 -67.537033081055 -215.490798950195 -0.641784667969 0.733768939972 0.275894165039 -0.224525451660
-156.987976074219 -70.698860168457 -217.607055664063 -2.158432006836 2.571344614029 -0.734390258789 1.188972473145
6.290715217590 -70.353858947754 -222.731613159180 1.148361206055 1.821947097778 -1.293481826782 0.572418212891
-160.405181884766 -71.111488342285 -221.899658203125 1.487747192383 2.274574756622 -1.609619140625 0.607803344727
-155.119216918945 -71.315017700195 -223.147491455078 -1.426391601563 2.225321769714 -1.055526733398 1.342880249023
-106.741355895996 -71.176132202148 -220.039764404297 0.748367309570 2.865799188614 -2.723815917969 -0.483299255371
4.424393177032 -68.948501586914 -225.571685791016 0.750122070313 1.999798536301 1.354541063309 -1.265594482422
-160.501632690430 -70.934379577637 -226.992279052734 0.566879272461 2.423145294189 -1.749435424805 1.577896118164
-164.720016479492 -72.214759826660 -221.469680786133 -1.778778076172 3.399492979050 2.322860717773 -1.731132507324
4.383966922760 -70.315940856934 -222.329513549805 1.700820922852 2.442847251892 1.525840997696 0.864013671875
-115.043304443359 -71.175010681152 -225.752853393555 0.783966064453 1.418236017227 -1.136772155762 0.323326110840
-158.746932983398 -69.415245056152 -222.144699096680 -0.295364379883 0.973757028580 -0.495223999023 0.784675598145
16.439462661743 -74.005645751953 -223.289154052734 -0.709899902344 1.219228982925 -0.989816665649 -0.053146362305
-109.713333129883 -73.940650939941 -223.327209472656 1.976852416992 3.551810979843 -0.880714416504 -2.816337585449
-117.705116271973 -72.526184082031 -229.248764038086 1.134750366211 3.064950466156 -2.699035644531 0.906349182129
-120.434234619141 -73.403526306152 -229.560684204102 -1.484710693359 2.134666681290 1.371726989746 -0.686149597168
79.169769287109 -72.196090698242 -227.649688720703 -0.817626953125 1.395396351814 -0.173248291016 -1.117408752441
-164.890090942383 -72.673210144043 -227.149337768555 -1.657592773438 1.769616127014 0.472763061523 -0.400527954102
-155.763046264648 -75.298164367676 -225.743026733398 0.912704467773 2.905270338058 -2.229736328125 1.623527526855
-4.203029155731 -71.334373474121 -228.211563110352 0.870483398438 2.225660562515 -2.028943061829 0.281448364258
-163.882476806641 -71.336715698242 -229.662094116211 -1.295898437500 2.996355533600 -0.090057373047 2.700126647949
7.620357036591 -67.657234191895 -230.638534545898 0.479217529297 1.283550500870 0.550197124481 1.055999755859
-163.933670043945 -72.417655944824 -227.038467407227 1.327728271484 2.098708868027 -0.141250610352 1.619186401367
-160.444503784180 -72.931961059570 -230.795623779297 -2.689590454102 2.763505458832 0.579421997070 0.259490966797
71.729667663574 -74.468307495117 -231.366836547852 1.643096923828 1.894857168198 0.133872985840 -0.934234619141
-166.235107421875 -73.580574035645 -231.133346557617 -0.991165161133 1.215922713280 0.181015014648 -0.680656433105
-165.800491333008 -70.844421386719 -233.712661743164 2.485595703125 2.794061899185 1.275543212891 -0.039810180664
4.653237819672 -73.924331665039 -233.384841918945 -1.298629760742 2.209792375565 -1.632873058319 -0.728332519531
-155.377288818359 -74.264762878418 -236.924179077148 -1.141876220703 3.055459976196 2.754852294922 0.665390014648
74.844726562500 -70.123832702637 -237.304687500000 -1.776611328125 2.639852523804 -1.648857116699 1.045822143555
69.943916320801 -73.034934997559 -235.160095214844 -1.659591674805 1.807668566704 -0.657691955566 0.284362792969
-143.933502197266 -73.740051269531 -238.848114013672 1.441467285156 3.522732257843 0.321640014648 -3.198181152344
9.226902961731 -71.757148742676 -241.391815185547 0.932006835938 1.051042437553 -0.288118362427 -0.391204833984
-10.894255638123 -70.623237609863 -240.918273925781 1.937820434570 2.021730661392 -0.560241699219 -0.135559082031
65.071350097656 -74.058494567871 -239.759811401367 1.278945922852 2.146703004837 1.722057342529 -0.084556579590
-167.713211059570 -72.848320007324 -236.654113769531 -1.138275146484 1.201763868332 -0.383987426758 0.033462524414
10.273172378540 -71.308555603027 -241.565475463867 0.758346557617 1.073860287666 0.758151054382 0.057388305664
18.326066970825 -72.370590209961 -239.826232910156 0.309127807617 1.546357035637 1.014745712280 1.125144958496
60.376174926758 -70.566253662109 -248.121459960938 -1.975402832031 2.211869239807 -0.703662872314 0.703567504883
16.651720046997 -73.405769348145 -246.225570678711 -0.240875244141 0.476636528969 0.350994110107 0.214393615723
15.091823577881 -73.921951293945 -244.622528076172 1.362167358398 1.846082568169 -1.208902359009 -0.301788330078
-72.174125671387 -73.628883361816 -249.084487915039 -1.149246215820 2.647487878799 1.960762023926 -1.357879638672
15.945918083191 -69.478515625000 -246.530761718750 -1.404388427734 2.294555187225 1.557931900024 0.930335998535
-13.667783737183 -70.202522277832 -244.702178955078 0.748489379883 1.754867196083 -1.255001068115 -0.971748352051
-146.295166015625 -72.952018737793 -246.693786621094 2.353851318359 3.098206281662 -1.929550170898 -0.578880310059
-67.356201171875 -75.075004577637 -251.474456787109 0.401504516602 1.969061970711 1.881340026855 -0.420188903809
-147.145401000977 -76.304138183594 -250.857269287109 0.746688842773 1.287951469421 -0.164581298828 1.036430358887
-131.601715087891 -73.909187316895 -255.481414794922 -0.746215820313 2.145829677582 1.940231323242 -0.532211303711
-98.389190673828 -70.405364990234 -253.444702148438 1.034942626953 2.351548194885 1.983200073242 -0.724975585938
-135.952362060547 -74.458885192871 -253.707412719727 1.605377197266 1.818868398666 -0.148498535156 -0.842018127441
-112.040328979492 -72.335449218750 -255.334869384766 0.389846801758 2.282467126846 -1.869941711426 -1.249397277832
-114.493705749512 -74.878730773926 -255.012435913086 0.512023925781 2.328223228455 0.462615966797 -2.223609924316
