92.782600402832 -73.824012756348 -205.432601928711 1.415802001953 2.209062814713 1.689804077148 -0.141510009766
16.459545135498 -69.584114074707 -176.494598388672 -1.222915649414 1.441187858582 -0.724939346313 -0.236564636230
113.117393493652 -70.597900390625 -133.319198608398 -0.120773315430 1.240989446640 -0.291358947754 1.200241088867
19.337026596069 -69.204040527344 -26.124847412109 0.509815216064 2.214152574539 -1.601663589478 1.441261291504
93.803337097168 -68.710227966309 -109.018547058105 -3.674644470215 3.768911123276 0.821189880371 0.165306091309
-145.398757934570 -60.223880767822 -198.080612182617 -1.571426391602 2.028436660767 -1.265808105469 -0.207134246826
-25.605669021606 -73.576530456543 -214.224731445313 -1.141860961914 1.922746181488 -0.404462814331 1.493156433105
-31.426240921021 -80.373855590820 -188.122665405273 -1.189590454102 1.281149744987 -0.063104629517 0.471420288086
-77.422409057617 -65.660102844238 -131.960891723633 0.346069335938 1.793288826942 -0.068656921387 1.758239746094
48.995735168457 -76.036453247070 -103.742980957031 -0.191848754883 1.077239990234 0.816322326660 0.676208496094
-12.282509803772 -82.015853881836 -272.051666259766 -1.642211914063 3.504072666168 -0.958842277527 -2.943176269531
-61.972000122070 -79.104858398438 -56.037166595459 1.385089874268 4.242185115814 2.257904052734 -3.313537597656
-42.036663055420 -72.628082275391 -147.173614501953 0.744750976563 1.950248956680 -1.494304656982 -1.007904052734
-160.905944824219 -62.448291778564 -285.680572509766 0.276092529297 5.274939060211 -5.093841552734 1.342212677002
-5.881701946259 -82.157325744629 -223.319091796875 1.839859008789 3.104596614838 -1.616239070892 -1.908195495605
-62.816429138184 -83.008689880371 -205.192108154297 0.839355468750 1.551199078560 -0.254573822021 1.279411315918
-48.697208404541 -72.737800598145 -141.288177490234 -0.938842773438 1.551316499710 -0.628143310547 1.063293457031
101.741096496582 -64.182815551758 -97.850105285645 -0.401847839355 0.496258437634 -0.102943420410 0.272384643555
19.445753097534 -69.477020263672 -191.664733886719 0.862350463867 1.837392210960 0.709423065186 -1.459136962891
106.957550048828 -73.735145568848 -123.081436157227 -1.757957458496 2.010717868805 -0.943168640137 0.251007080078
-150.653884887695 -60.475692749023 -211.212158203125 1.155776977539 2.474095106125 -2.185440063477 0.095798492432
-77.426452636719 -73.528182983398 -99.959442138672 -0.727966308594 1.391921639442 -0.853721618652 0.823814392090
-18.088731765747 -70.235206604004 -227.220718383789 1.792266845703 1.980660319328 -0.776216506958 0.329063415527
-138.552947998047 -66.963287353516 -257.549346923828 0.570068359375 2.658294916153 -2.540557861328 -0.535835266113
-56.447498321533 -58.425304412842 -135.599334716797 0.039535522461 1.598684668541 1.170360565186 1.088340759277
-33.849323272705 -73.720176696777 -189.559921264648 -1.222366333008 2.744155645370 -2.450452804565 0.177459716797
103.011917114258 -65.810890197754 -104.727355957031 -0.927322387695 1.518083810806 -1.098686218262 0.487380981445
-150.968414306641 -81.668815612793 -200.811477661133 -0.072860717773 1.729827404022 1.616455078125 0.611610412598
51.531803131104 -67.684387207031 -241.701385498047 1.639572143555 1.899826765060 -0.275115966797 0.919486999512
17.380735397339 -66.398147583008 -175.972763061523 0.769805908203 2.769255876541 -2.514791488647 0.867179870605
-154.589767456055 -65.118301391602 -252.742004394531 1.911712646484 2.843489646912 -1.636154174805 -1.324306488037
7.764873981476 -61.245147705078 -239.397018432617 -0.174316406250 2.509439229965 0.671072959900 2.411754608154
-79.073829650879 -71.403091430664 -116.000686645508 0.017158508301 1.143608093262 -1.004928588867 -0.545585632324
-136.011627197266 -67.112953186035 -288.758575439453 0.893707275391 1.410078763962 -0.855895996094 0.676055908203
-149.580276489258 -77.442863464355 -285.191528320313 0.779235839844 1.407701015472 0.200317382813 1.155113220215
-90.793930053711 -73.335075378418 -61.208751678467 1.316680908203 4.690337657928 -2.595924377441 -3.677879333496
48.867725372314 -73.644554138184 -94.246276855469 -0.107887268066 1.713128805161 0.459815979004 1.646736145020
-23.589918136597 -78.726303100586 -212.250289916992 -0.132156372070 2.576105833054 1.238220214844 -2.255142211914
-49.955242156982 -77.976081848145 -245.517135620117 -0.223602294922 0.970588266850 -0.896163940430 0.298217773438
-34.984935760498 -65.224540710449 -77.377746582031 -0.880683898926 2.013696193695 0.314399719238 1.783401489258
-4.066109180450 -63.932018280029 -273.677947998047 -3.195892333984 4.041426181793 0.151887893677 2.469074249268
51.797157287598 -66.122314453125 -104.530197143555 -1.670585632324 2.104379415512 -0.686981201172 1.079635620117
-31.833518981934 -79.149559020996 -182.145568847656 0.002120971680 1.246003270149 -0.659397125244 -1.057220458984
-35.828937530518 -74.790481567383 -56.936729431152 -1.255714416504 2.285403966904 -0.218246459961 -1.897003173828
17.481369018555 -65.925010681152 -177.469894409180 1.505722045898 2.446681499481 0.659671783447 1.812149047852
-29.809972763062 -72.817787170410 -179.051269531250 1.478927612305 1.786148548126 -0.333250045776 -0.944480895996
12.339119911194 -83.668777465820 -239.578674316406 -1.554458618164 1.714459776878 -0.073693275452 0.719444274902
22.654422760010 -62.797546386719 -29.540962219238 2.134031295776 3.197185516357 1.928306579590 -1.396259307861
-158.957366943359 -77.859527587891 -225.431381225586 1.368698120117 4.650564670563 2.087738037109 -3.923744201660
50.004547119141 -73.493164062500 -21.030754089355 -0.145408630371 2.957576036453 0.243400573730 -2.943954467773
14.975433349609 -69.640251159668 -187.074020385742 -1.175918579102 1.368267059326 -0.404851913452 0.570495605469
-37.192672729492 -71.136497497559 -153.087310791016 0.684814453125 2.409351825714 0.877578735352 2.136787414551
27.131929397583 -76.002830505371 -139.274749755859 0.225418090820 0.344650119543 0.093931198120 -0.243202209473
-140.073104858398 -68.773826599121 -278.795837402344 -2.673583984375 5.701719760895 5.010086059570 0.510482788086
33.161941528320 -69.984909057617 -121.797645568848 0.822402954102 0.822488188744 -0.011356353760 0.003356933594
99.664237976074 -72.595619201660 -100.947006225586 -0.390785217285 2.341957092285 -0.516197204590 -2.250686645508
-37.218585968018 -81.874961853027 -177.874374389648 -1.084106445313 4.101815700531 -1.152927398682 -3.784225463867
-142.947189331055 -81.916389465332 -196.306152343750 0.588363647461 1.139283299446 0.575454711914 0.787811279297
-75.851669311523 -68.328994750977 -129.493438720703 -1.485473632813 1.570137262344 -0.321220397949 0.394355773926
50.614402770996 -73.164398193359 -250.293060302734 -0.142654418945 2.086092233658 -1.466533660889 -1.476722717285
1.596647024155 -79.924026489258 -231.882949829102 -1.297698974609 1.495791792870 -0.653042078018 -0.356239318848
-153.025100708008 -73.200744628906 -209.683090209961 -2.118118286133 2.961944103241 -0.377777099609 -2.035675048828
-120.868133544922 -71.578254699707 -286.813903808594 0.837158203125 2.489299058914 -0.458953857422 2.298942565918
35.796863555908 -62.861179351807 -120.565330505371 2.565795898438 2.952269315720 -0.152523040771 -1.452350616455
-61.573081970215 -83.897064208984 -70.267097473145 0.888397216797 3.447558403015 -1.113262176514 -3.139595031738
-45.582248687744 -65.844551086426 -150.554016113281 -2.530715942383 3.721121549606 -1.692546844482 2.139511108398
-129.121093750000 -72.906578063965 -199.998748779297 1.453292846680 2.808875322342 2.250991821289 0.843063354492
-16.500492095947 -75.727066040039 -226.486495971680 -0.023529052734 1.685033559799 0.263248443604 1.664176940918
-63.534404754639 -82.255439758301 -170.054916381836 -0.877151489258 2.291243314743 -2.042678833008 -0.554855346680
-43.517963409424 -80.363922119141 -163.151138305664 -0.747329711914 1.911817073822 -1.759063720703 -0.047302246094
-118.882110595703 -71.919891357422 -289.346893310547 0.600067138672 2.496676683426 -1.975975036621 1.403152465820
-109.553565979004 -72.108871459961 -281.631530761719 5.282989501953 6.089018821716 -2.558296203613 -1.619041442871
-30.731611251831 -76.719711303711 -193.297424316406 -3.554870605469 4.267276763916 0.115825653076 2.357780456543
-11.912267684937 -70.054183959961 -277.888793945313 1.598632812500 1.898630976677 -1.014918327332 0.138252258301
-96.404815673828 -68.063941955566 -282.259979248047 4.854492187500 5.256451129913 1.588851928711 1.240859985352
0.195943996310 -71.655532836914 -157.055496215820 1.705322265625 3.387839317322 -1.465038061142 2.534362792969
-119.718620300293 -71.766136169434 -288.502746582031 -0.851684570313 2.378827095032 0.690559387207 2.111061096191
-50.000194549561 -62.889682769775 -78.866806030273 1.361495971680 2.018323183060 0.122806549072 -1.484882354736
-81.029998779297 -68.320442199707 -127.586410522461 -0.521331787109 1.923236966133 1.491615295410 1.096420288086
44.392642974854 -68.469772338867 -111.235336303711 -0.357437133789 0.757690250874 0.404720306396 -0.531539916992
-85.550292968750 -61.763477325439 -111.691497802734 0.218353271484 0.414037317038 -0.299003601074 -0.185325622559
44.057861328125 -62.712963104248 -39.684364318848 -1.251632690430 2.869765281677 0.684955596924 -2.489940643311
-91.421669006348 -73.250579833984 -114.308753967285 2.476615905762 2.805202960968 0.981513977051 0.878730773926
-22.885486602783 -72.168190002441 -189.688964843750 -3.033859252930 3.357545614243 -1.388549804688 0.375152587891
45.605175018311 -79.885681152344 -103.771331787109 0.930427551270 1.670614361763 -0.506561279297 -1.291763305664
-58.850215911865 -70.949989318848 -121.774971008301 -0.246910095215 4.016354084015 1.741397857666 -3.610771179199
-151.498168945313 -78.160354614258 -207.396728515625 -1.831558227539 2.356287479401 -0.990463256836 -1.102935791016
55.698734283447 -72.457473754883 -100.713035583496 -0.501525878906 0.817528069019 -0.637340545654 0.103057861328
-156.185974121094 -74.248695373535 -244.318191528320 0.788940429688 1.165490746498 0.225936889648 -0.827583312988
30.779016494751 -74.997299194336 -156.973175048828 1.511169433594 1.949178695679 -0.120109558105 1.225250244141
-42.034606933594 -62.841476440430 -75.898651123047 3.365165710449 3.812562704086 0.240371704102 -1.775814056396
-149.508468627930 -71.190086364746 -232.205780029297 -0.058547973633 0.966534078121 0.165298461914 0.950492858887
50.099365234375 -65.320648193359 -20.548122406006 0.594608306885 1.534217715263 1.398723602295 0.209373474121
-160.628570556641 -72.875503540039 -298.814483642578 -4.335449218750 5.153748989105 -2.673599243164 0.785415649414
22.260004043579 -70.623031616211 -260.110351562500 2.253906250000 2.732012033463 -1.083490371704 1.099929809570
-140.182403564453 -65.802581787109 -282.079681396484 2.465179443359 4.709835529327 4.011688232422 0.108619689941
-44.420326232910 -69.615272521973 -167.510070800781 -0.744003295898 3.441222190857 0.348384857178 3.341720581055
108.009460449219 -77.749717712402 -129.185470581055 0.309768676758 3.019816637039 0.196166992188 -2.997474670410
-44.894542694092 -79.627555847168 -61.230346679688 -0.391338348389 2.188344001770 -0.542877197266 -2.083503723145
-154.457000732422 -80.162666320801 -247.862243652344 -0.624069213867 3.257360696793 -2.858093261719 -1.432563781738
32.633666992188 -73.070785522461 -37.654106140137 -0.202499389648 0.387457489967 0.139869689941 -0.299255371094
-151.682678222656 -72.616249084473 -215.247848510742 1.786926269531 2.052933931351 0.271575927734 -0.973487854004
26.209293365479 -77.644760131836 -161.747940063477 1.264053344727 2.223345041275 1.662963867188 0.761566162109
-28.443819046021 -75.119972229004 -216.164901733398 -0.744293212891 0.889220833778 0.464487075806 -0.144889831543
-28.349256515503 -76.747695922852 -242.944854736328 0.093902587891 2.281242132187 1.859613418579 1.317985534668
-6.538756847382 -75.113449096680 -231.338500976563 -0.450119018555 0.611155927181 -0.289699077606 0.294921875000
25.533226013184 -68.391433715820 -24.979417800903 0.352197647095 0.929009079933 0.194908142090 -0.837272644043
-140.445800781250 -69.900451660156 -225.254837036133 1.331390380859 1.446093678474 0.244567871094 0.508697509766
22.920423507690 -64.389160156250 -32.674510955811 2.104522705078 3.028450965881 0.730588912964 -2.051521301270
-82.883964538574 -62.439643859863 -117.979209899902 0.911361694336 1.018378376961 0.330329895020 0.312084197998
7.962670803070 -65.898590087891 -242.540222167969 0.191589355469 1.408226013184 -0.992599964142 0.980377197266
24.123945236206 -78.651039123535 -181.236785888672 -0.188995361328 2.201889514923 -0.316013336182 -2.170883178711
-81.053535461426 -63.547821044922 -117.612716674805 -0.942153930664 1.138518333435 0.627967834473 0.119274139404
45.809307098389 -79.428970336914 -119.849128723145 0.381317138672 2.256342649460 0.339443206787 -2.197830200195
-164.799194335938 -71.327270507813 -211.567718505859 0.663604736328 0.702274680138 0.024261474609 0.228538513184
105.234031677246 -74.265632629395 -118.179359436035 -3.195838928223 3.342504978180 0.053222656250 -0.977813720703
107.508827209473 -71.650901794434 -121.443626403809 -1.964447021484 2.063692808151 0.630989074707 -0.040351867676
-12.735210418701 -77.975967407227 -206.288314819336 -1.071060180664 2.435477733612 -0.961301803589 -1.964759826660
-85.471694946289 -80.653251647949 -88.068511962891 2.537811279297 2.572638273239 -0.288024902344 -0.308258056641
-1.351475954056 -60.901874542236 -254.824401855469 -3.686767578125 4.022422790527 1.106560945511 1.167541503906
-153.752807617188 -70.955284118652 -194.234054565430 -0.203384399414 2.262307167053 1.967651367188 -1.097732543945
-50.574401855469 -77.628662109375 -146.877426147461 0.293106079102 1.201321721077 -1.158401489258 0.123970031738
-21.882709503174 -79.669380187988 -189.377899169922 1.451354980469 2.503371953964 1.733266830444 1.075279235840
-2.322794914246 -69.211204528809 -227.849990844727 -0.689910888672 1.123045682907 0.446882009506 0.765213012695
-28.907526016235 -79.159263610840 -193.451324462891 -0.995498657227 2.945228099823 -2.353572845459 -1.464256286621
-24.434606552124 -71.200630187988 -205.202163696289 -0.462326049805 2.233408927917 -2.083366394043 0.658752441406
20.801519393921 -74.468177795410 -261.578674316406 -2.064941406250 2.437961101532 -1.153821945190 0.590225219727
-151.228881835938 -76.606269836426 -240.562835693359 -0.232711791992 2.007700204849 -1.669036865234 1.091339111328
-68.513793945313 -74.901176452637 -247.915878295898 0.577468872070 2.201459407806 -1.040443420410 1.852142333984
-24.270877838135 -79.705047607422 -178.397323608398 0.852340698242 2.186766386032 -1.406291961670 1.441459655762
-103.750610351563 -74.455825805664 -218.303909301758 0.693954467773 3.368887901306 -2.222969055176 -2.434387207031
-149.387435913086 -73.521995544434 -279.562286376953 -2.702484130859 3.059340953827 0.775863647461 1.205894470215
66.870307922363 -66.442420959473 -96.401573181152 0.994331359863 1.084364175797 -0.432571411133 0.005722045898
-100.240203857422 -63.533573150635 -71.404876708984 -1.667160034180 2.270757675171 -1.531547546387 -0.176860809326
-153.430435180664 -74.231811523438 -251.969039916992 0.827163696289 0.990333914757 -0.522460937500 0.153610229492
51.105239868164 -73.720779418945 -101.849380493164 1.639579772949 3.006154537201 0.202693939209 2.511505126953
-34.355861663818 -76.213333129883 -65.232978820801 1.684509277344 3.236932516098 -2.455104827881 1.269889831543
-144.099441528320 -62.485229492188 -175.055465698242 0.533645629883 2.121614456177 2.038436889648 -0.247478485107
57.322753906250 -70.112442016602 -103.642898559570 -0.903282165527 1.547048568726 0.340019226074 1.209060668945
96.090339660645 -72.756813049316 -206.462020874023 -0.381347656250 2.311290979385 1.565437316895 -1.657119750977
104.818656921387 -75.136749267578 -179.516143798828 0.966156005859 1.198753714561 0.249153137207 0.664436340332
-105.107879638672 -69.807167053223 -151.021774291992 0.138916015625 5.998925209045 -5.235389709473 -2.925491333008
-76.505531311035 -73.976669311523 -135.030868530273 0.997756958008 1.584174633026 0.911758422852 -0.826309204102
-86.836006164551 -62.149490356445 -113.020736694336 0.117172241211 1.862404346466 -1.525650024414 1.061702728271
-97.789237976074 -69.572486877441 -147.219528198242 1.778411865234 2.226788759232 -1.316009521484 -0.252899169922
41.687641143799 -71.933982849121 -37.905979156494 1.049999237061 1.165368556976 -0.009643554688 -0.505462646484
17.082752227783 -70.981918334961 -193.747039794922 2.459640502930 2.775891542435 -0.287836074829 -1.254150390625
107.250335693359 -76.599868774414 -161.405914306641 -2.493133544922 3.268942117691 -0.815811157227 -1.950569152832
-55.725059509277 -80.898254394531 -67.694419860840 -0.231742858887 2.029766082764 0.391677856445 -1.978088378906
-121.234504699707 -67.251258850098 -199.424301147461 3.153671264648 3.412887811661 -0.094223022461 1.301261901855
26.653211593628 -71.587837219238 -161.826751708984 -0.489624023438 1.296591877937 -1.149932861328 -0.345069885254
-54.806449890137 -86.869422912598 -85.744438171387 1.969352722168 1.992558121681 0.020015716553 -0.302551269531
-36.360973358154 -77.637229919434 -235.552383422852 2.721908569336 3.881907939911 -2.430404663086 -1.324218750000
-27.925548553467 -83.302192687988 -185.833770751953 -0.605529785156 2.202437162399 -1.842407226563 1.043838500977
75.768394470215 -68.261932373047 -67.177139282227 -1.547607421875 2.421763896942 1.575775146484 -0.993370056152
-87.210037231445 -84.082870483398 -96.022720336914 1.029647827148 2.114582061768 -1.467903137207 -1.120956420898
-57.064105987549 -70.370193481445 -284.284088134766 2.255218505859 2.666113615036 -0.638034820557 1.270851135254
40.691287994385 -73.469375610352 -102.120880126953 1.812118530273 2.456172227859 -0.226654052734 -1.642448425293
-78.246253967285 -65.735618591309 -104.717697143555 1.487297058105 1.591864466667 -0.181007385254 -0.537788391113
-168.855514526367 -74.988357543945 -283.292663574219 1.519012451172 2.366666078568 -1.515350341797 -0.998710632324
-10.569057464600 -73.610290527344 -214.482925415039 1.511215209961 2.970045804977 1.847719192505 1.767295837402
27.995964050293 -67.674591064453 -15.917286872864 -0.179869651794 2.845353364944 0.933061599731 -2.681991577148
-60.149600982666 -79.053588867188 -177.943878173828 1.518356323242 1.761507391930 -0.888580322266 -0.089035034180
-77.885139465332 -74.433822631836 -205.035522460938 3.994628906250 4.282129287720 0.646385192871 -1.400627136230
14.801154136658 -79.285957336426 -248.582656860352 0.373458862305 1.076705813408 0.949874877930 -0.342872619629
-16.291826248169 -72.399208068848 -230.281021118164 -0.163253784180 1.503685832024 1.319595336914 0.702201843262
-153.246368408203 -72.030036926270 -289.347412109375 -0.598114013672 3.457776546478 3.121047973633 -1.362915039063
-85.888168334961 -64.616531372070 -105.018753051758 1.756332397461 2.197177648544 0.015007019043 1.320098876953
-18.730209350586 -73.271652221680 -223.994064331055 0.633987426758 1.384867548943 1.006795883179 0.708717346191
25.075782775879 -82.225967407227 -151.421264648438 -0.674392700195 2.517715930939 -0.626781463623 -2.343338012695
37.361721038818 -76.023475646973 -133.331588745117 -1.194335937500 2.019575357437 -1.408454895020 0.817619323730
34.882720947266 -72.196578979492 -12.481122016907 0.186688423157 1.521762847900 -1.473503112793 -0.331207275391
-74.119964599609 -76.358825683594 -52.003761291504 1.594570159912 4.360611438751 -0.163253784180 -4.055320739746
-154.111343383789 -64.595458984375 -282.128295898438 1.947723388672 2.239671707153 -1.068603515625 0.283882141113
-73.186424255371 -79.809066772461 -210.208984375000 -0.701248168945 1.965776324272 0.656127929688 -1.715232849121
-16.949686050415 -72.282119750977 -231.075073242188 -0.957305908203 1.423223376274 0.661735534668 0.819290161133
-30.967540740967 -72.964225769043 -56.514789581299 -0.986030578613 1.560266733170 0.893264770508 -0.815017700195
91.844154357910 -74.536254882813 -200.884414672852 2.724197387695 3.788411378860 -2.390838623047 -1.102134704590
-156.821105957031 -62.853366851807 -262.728393554688 -0.943481445313 2.830877065659 -2.669021606445 -0.005588531494
-80.878684997559 -64.509742736816 -45.267169952393 1.953666687012 2.441823482513 -0.415824890137 -1.404556274414
-85.028419494629 -75.875724792480 -215.221984863281 -2.195816040039 2.799665212631 0.211639404297 1.723869323730
-158.923675537109 -62.159183502197 -251.805328369141 4.344604492188 5.984961986542 -4.099594116211 0.370826721191
-40.199527740479 -70.801559448242 -169.238311767578 -0.326309204102 0.888649761677 0.276542663574 0.778938293457
8.146601676941 -82.932823181152 -271.683013916016 1.787658691406 2.080754995346 -0.993556976318 -0.382965087891
-81.265670776367 -66.772117614746 -121.181175231934 0.978469848633 2.110521078110 -0.141578674316 1.864631652832
42.999279022217 -65.657463073730 -246.863723754883 2.022659301758 3.094712257385 -0.626697540283 2.256843566895
-49.627696990967 -81.857162475586 -153.442169189453 -0.666275024414 4.111503124237 -3.927654266357 -1.016891479492
-48.136150360107 -76.173553466797 -149.070877075195 0.823959350586 1.794814348221 1.167201995850 1.086318969727
-11.949307441711 -76.720710754395 -249.149200439453 0.233840942383 2.433139562607 -1.418885231018 -1.962715148926
51.470848083496 -73.968864440918 -239.745925903320 4.510910034180 5.162327766418 0.360183715820 -2.484268188477
13.938775062561 -78.240867614746 -205.676147460938 -0.384735107422 0.733688235283 0.351305961609 0.516586303711
-157.355941772461 -83.878623962402 -257.114379882813 2.011077880859 4.655702590942 -1.971939086914 -3.707099914551
6.539402008057 -78.249176025391 -247.944244384766 -0.737045288086 2.360354900360 -1.886204719543 1.212547302246
13.267807960510 -83.128135681152 -261.222076416016 -1.010650634766 1.311610579491 0.835827827454 -0.017303466797
-30.336585998535 -77.979499816895 -172.260772705078 -0.211059570313 2.520591974258 -1.721515655518 -1.828994750977
12.678105354309 -70.127670288086 -147.930618286133 0.705551147461 1.253432989120 -0.830152511597 -0.619789123535
-138.131668090820 -74.391098022461 -202.434844970703 -0.596191406250 2.196746587753 2.110473632813 -0.127090454102
-43.424964904785 -81.236801147461 -198.249481201172 0.683013916016 1.198231339455 -0.073493957520 -0.981758117676
-53.890056610107 -70.418426513672 -132.474151611328 0.921051025391 1.579578399658 1.250602722168 -0.287620544434
40.548648834229 -74.445701599121 -123.494102478027 1.664566040039 1.819333791733 0.255374908447 -0.688461303711
29.694406509399 -78.033676147461 -124.195785522461 1.830520629883 2.008807420731 0.265060424805 -0.783737182617
8.082638740540 -64.771965026855 -240.319534301758 -0.542266845703 1.244286179543 -0.893665313721 -0.674949645996
-55.939594268799 -75.729804992676 -243.195617675781 2.078018188477 2.521523952484 -0.198497772217 -1.414398193359
-162.946685791016 -64.465263366699 -199.147277832031 1.454254150391 2.471405744553 0.328811645508 1.971008300781
-13.573034286499 -79.502937316895 -173.153015136719 0.110534667969 0.975129067898 0.876632690430 -0.412521362305
103.452362060547 -79.683708190918 -182.762084960938 -0.668289184570 3.185742616653 -1.395011901855 -2.785011291504
104.576736450195 -73.054298400879 -178.822204589844 -0.522491455078 1.357954382896 -1.244079589844 0.152671813965
-12.131925582886 -74.781692504883 -201.199493408203 -0.575332641602 1.802994012833 -0.019435882568 1.708625793457
17.736740112305 -78.790077209473 -170.681884765625 1.238800048828 2.301494836807 0.110137939453 -1.936523437500
-43.962772369385 -80.734169006348 -58.006282806396 2.832725524902 4.283972263336 0.388893127441 -3.190116882324
102.464408874512 -76.297569274902 -187.892745971680 1.603134155273 2.290312051773 -0.236221313477 1.618545532227
-69.793754577637 -75.376159667969 -286.487152099609 0.967285156250 1.208084464073 -0.689094543457 0.221305847168
-130.622253417969 -72.413322448730 -279.471008300781 4.711334228516 5.344412803650 2.458526611328 -0.567207336426
-76.830139160156 -65.169113159180 -101.411712646484 0.379646301270 0.790381848812 -0.656425476074 -0.222885131836
-1.993201017380 -73.582351684570 -219.989089965820 -1.352813720703 1.613277196884 -0.801427960396 0.360931396484
-96.634506225586 -65.348075866699 -76.014854431152 0.540832519531 1.210303544998 1.033950805664 -0.321372985840
-81.390243530273 -86.728149414063 -82.712127685547 0.337989807129 4.771177768707 -1.479888916016 -4.523254394531
21.417449951172 -66.417831420898 -259.175109863281 0.327056884766 3.682775259018 -3.468837738037 -1.192909240723
23.177429199219 -68.131095886230 -140.733963012695 0.715255737305 2.393204689026 1.965852737427 -1.162437438965
23.720994949341 -72.141342163086 -35.424915313721 0.552761077881 1.032099962234 -0.128545761108 -0.862068176270
-168.472915649414 -69.470123291016 -257.465820312500 2.882202148438 3.515974283218 -1.415130615234 1.432617187500
67.276168823242 -70.444717407227 -78.254371643066 1.361434936523 3.205843925476 -2.031623840332 2.072784423828
-31.942668914795 -71.901191711426 -75.128639221191 1.406211853027 3.399047374725 2.937152862549 0.974281311035
-26.541809082031 -77.932586669922 -188.515640258789 0.718338012695 1.502183437347 0.849767684937 -1.009178161621
39.441211700439 -78.721038818359 -124.575119018555 -0.055961608887 0.311198532581 -0.060123443604 -0.300163269043
-9.977250099182 -61.988758087158 -58.057865142822 0.019241333008 2.555804014206 -0.791137695313 -2.430198669434
-50.393943786621 -74.746101379395 -86.546554565430 0.420425415039 2.575690269470 -0.036354064941 -2.540885925293
19.683357238770 -66.167175292969 -268.392913818359 0.979705810547 5.019698619843 -3.776927947998 3.157905578613
24.978670120239 -70.661842346191 -150.307922363281 -1.316497802734 2.217049360275 -0.256437301636 -1.765327453613
24.101057052612 -73.507171630859 -135.919845581055 -1.290802001953 1.795517563820 -0.963871002197 -0.792884826660
-108.841911315918 -70.294532775879 -221.581909179688 0.691833496094 2.839528560638 -2.323036193848 -1.479118347168
9.760790824890 -79.302345275879 -232.491821289063 -1.338790893555 1.474118471146 0.589270591736 0.182823181152
99.051528930664 -69.694129943848 -74.413749694824 -0.510101318359 1.855793356895 -0.944816589355 -1.513633728027
7.008506774902 -69.981887817383 -231.498931884766 -0.381179809570 1.326115250587 -0.061653137207 -1.268653869629
-14.041293144226 -68.007591247559 -206.258422851563 -0.838562011719 1.404143095016 -1.093648910522 -0.269004821777
99.512466430664 -70.060760498047 -198.040313720703 0.898849487305 1.514427661896 -1.124130249023 -0.471054077148
-56.519634246826 -69.890640258789 -85.418220520020 3.001037597656 4.876190185547 -0.047130584717 -3.843017578125
99.731765747070 -63.432743072510 -104.530891418457 0.277000427246 1.823406219482 0.595603942871 -1.700981140137
-162.417160034180 -73.948738098145 -222.560791015625 2.329650878906 2.740039587021 0.659790039063 -1.282661437988
21.661136627197 -70.143241882324 -33.185688018799 -0.611366271973 1.625227212906 1.099241256714 1.029205322266
7.609581947327 -66.094551086426 -286.157897949219 0.462432861328 6.077554225922 1.448870182037 -5.884181976318
-154.845581054688 -73.102508544922 -292.172729492188 1.355529785156 3.256632566452 0.810317993164 2.848083496094
-151.282363891602 -75.225868225098 -224.063415527344 -0.997970581055 2.263349533081 -0.323165893555 2.005584716797
-83.945236206055 -64.827079772949 -47.724525451660 0.587493896484 3.149747133255 0.401275634766 -3.068344116211
60.382534027100 -68.608757019043 -95.531806945801 0.150138854980 0.229805678129 0.135089874268 0.109634399414
-115.815124511719 -71.922142028809 -282.965850830078 3.585754394531 3.702089071274 -0.856231689453 -0.338668823242
-149.659866333008 -78.844924926758 -203.428924560547 1.555389404297 1.723303794861 -0.723144531250 -0.166137695313
-71.380081176758 -84.582572937012 -207.082946777344 1.625244140625 2.291232585907 -0.190673828125 -1.603736877441
21.408596038818 -77.557044982910 -140.373138427734 1.501907348633 3.927365303040 -2.759605407715 -2.356491088867
44.364757537842 -71.323348999023 -25.735116958618 0.283908843994 1.722364425659 -1.694286346436 0.123809814453
-13.037550926208 -78.517906188965 -207.523223876953 -1.668792724609 2.600533962250 1.987070083618 0.171638488770
-32.148670196533 -80.159996032715 -178.626205444336 0.313812255859 1.082072019577 0.521507263184 -0.894668579102
-88.247840881348 -76.628837585449 -104.885978698730 1.547035217285 3.215779304504 2.408370971680 1.465492248535
-162.226776123047 -71.874076843262 -281.339019775391 0.764801025391 2.129955291748 -1.524032592773 -1.276367187500
-154.948043823242 -67.575736999512 -255.885009765625 -0.035247802734 1.820467710495 -0.132461547852 1.815299987793
53.693717956543 -72.504615783691 -245.673080444336 0.711822509766 1.310754776001 0.973503112793 0.513496398926
-44.082935333252 -76.326072692871 -240.463394165039 0.587295532227 1.515157341957 0.765338897705 -1.168350219727
-27.630857467651 -77.990692138672 -221.988616943359 -0.657669067383 3.004266977310 -0.996213912964 -2.756927490234
-56.489952087402 -73.592910766602 -139.042144775391 -0.594482421875 0.868338763714 0.435760498047 0.459037780762
-156.335296630859 -79.254295349121 -195.135040283203 1.196533203125 3.818531513214 -3.605239868164 0.389533996582
-151.823791503906 -70.126686096191 -291.138610839844 0.233245849609 1.650864243507 -1.581176757813 -0.413314819336
-11.425510406494 -76.341117858887 -219.070220947266 -0.437133789063 1.779210090637 -0.535052299500 1.639579772949
-51.911243438721 -84.801277160645 -198.151718139648 2.177978515625 2.739038944244 -1.614894866943 -0.388404846191
-43.924770355225 -81.520668029785 -160.663635253906 1.740173339844 3.028024196625 -2.165870666504 -1.204048156738
13.304815292358 -80.744636535645 -232.231155395508 1.212417602539 1.431472182274 -0.139854431152 -0.748062133789
-153.125518798828 -62.372978210449 -203.796112060547 -1.617767333984 1.912195086479 0.992263793945 -0.233947753906
35.994171142578 -76.169555664063 -132.777526855469 -0.640274047852 2.926964044571 -2.776004791260 0.671539306641
57.378593444824 -71.430000305176 -239.397857666016 2.366592407227 2.445227622986 -0.054199218750 0.612731933594
-25.990814208984 -78.703842163086 -180.950408935547 1.076507568359 1.167818546295 0.431636810303 0.136459350586
-169.719619750977 -73.408103942871 -236.500595092773 -0.984756469727 2.638324022293 -2.390396118164 -0.526321411133
2.719104051590 -77.124305725098 -243.963562011719 0.035842895508 2.215476989746 0.172239065170 -2.208480834961
-50.451522827148 -79.500473022461 -141.502563476563 1.263549804688 1.899644017220 0.934123992920 -1.067474365234
-158.469909667969 -68.023788452148 -176.473892211914 3.025283813477 6.176897048950 -5.384292602539 -0.105384826660
-42.038722991943 -78.747444152832 -167.564834594727 1.107421875000 1.771216034889 -1.311981201172 0.435348510742
101.888000488281 -72.551010131836 -102.793434143066 -0.131347656250 2.586026668549 -2.562705993652 0.320655822754
37.467582702637 -78.372306823730 -128.112365722656 -2.299804687500 2.909661769867 0.148265838623 1.776245117188
21.737524032593 -78.883666992188 -143.711380004883 1.238006591797 4.172167778015 -3.974288940430 -0.281692504883
-36.639816284180 -69.099601745605 -176.367477416992 0.771224975586 1.044246554375 -0.476703643799 0.518089294434
56.906764984131 -68.697349548340 -242.146575927734 -0.767166137695 1.323667526245 -0.682537078857 0.835281372070
69.868659973145 -73.996971130371 -82.434066772461 -1.329269409180 1.854652523994 -0.447906494141 -1.213325500488
-150.512268066406 -79.393821716309 -280.407775878906 0.981170654297 1.721362829208 0.151107788086 -1.406257629395
66.163322448730 -71.183387756348 -240.521728515625 -0.192062377930 0.962020516396 -0.859542846680 -0.387016296387
111.455665588379 -70.679428100586 -145.554397583008 1.250396728516 2.623591661453 -0.951637268066 -2.100982666016
-56.471309661865 -79.063728332520 -199.767349243164 2.452331542969 2.463216304779 0.116203308105 0.200004577637
55.294967651367 -68.810554504395 -248.365966796875 -0.075576782227 2.164689302444 2.066410064697 0.640403747559
33.576480865479 -60.700122833252 -14.875473022461 -2.890471458435 3.209993839264 1.328327178955 0.429862976074
-103.328773498535 -68.453857421875 -220.198135375977 0.714172363281 1.118071556091 0.263069152832 -0.819046020508
-60.733119964600 -64.880409240723 -135.243469238281 -0.322677612305 2.198269128799 1.666442871094 -1.396865844727
-97.425956726074 -71.964042663574 -282.922485351563 4.358795166016 4.469965457916 0.787345886230 -0.601318359375
-60.887142181396 -83.753700256348 -76.597381591797 0.527229309082 0.717846930027 0.100162506104 -0.476760864258
-149.086853027344 -85.832321166992 -284.411010742188 0.393341064453 0.979262232780 -0.845535278320 -0.298843383789
-56.690780639648 -78.085166931152 -53.028472900391 2.254184722900 3.831906795502 -0.786502838135 -2.997261047363
24.390794754028 -74.254669189453 -182.013046264648 -0.422821044922 0.838132202625 -0.520055770874 0.503219604492
-76.662330627441 -69.979202270508 -135.874176025391 -0.551254272461 0.570412635803 0.010688781738 -0.146202087402
-60.574909210205 -82.423744201660 -205.177444458008 -0.210327148438 2.016320228577 -0.215232849121 1.993736267090
11.660344123840 -71.335044860840 -238.669387817383 0.962615966797 1.180223584175 -0.299229621887 -0.613807678223
-47.473396301270 -75.052124023438 -54.283905029297 1.636035919189 2.203513145447 0.189308166504 1.463905334473
-61.856029510498 -84.499114990234 -83.156471252441 -0.442092895508 0.578488111496 0.232639312744 0.291687011719
53.330181121826 -63.001407623291 -29.589193344116 -1.863330841064 4.623970031738 3.748790740967 -1.963584899902
6.161846160889 -77.778053283691 -206.995101928711 -1.051239013672 2.736085176468 -2.519638061523 -0.180229187012
-151.556488037109 -67.452766418457 -239.852539062500 -3.479965209961 3.920176506042 -0.781631469727 1.626861572266
72.201850891113 -71.862327575684 -99.288002014160 -0.709167480469 1.807115674019 0.329307556152 -1.629203796387
-153.673187255859 -79.493057250977 -183.640289306641 3.189605712891 5.822258949280 -4.421234130859 -2.043968200684
-27.447677612305 -82.248863220215 -238.392913818359 1.319061279297 2.935575246811 -2.290945053101 -1.276420593262
19.784698486328 -65.736991882324 -173.442840576172 -1.026809692383 2.107240915298 0.063404083252 1.839050292969
41.563682556152 -78.999542236328 -128.252258300781 -2.246017456055 2.862648725510 -0.766075134277 -1.601028442383
-106.947105407715 -68.461692810059 -290.016510009766 0.152252197266 0.861037254333 -0.831253051758 0.164993286133
2.443722963333 -73.826118469238 -240.388366699219 -0.303100585938 1.952019810677 0.303155899048 1.904365539551
-43.055767059326 -75.490669250488 -198.336395263672 0.640655517578 1.803474545479 1.129539489746 -1.251487731934
-76.794792175293 -63.171386718750 -121.224380493164 -0.615753173828 1.428808212280 0.526016235352 -1.177135467529
-18.122581481934 -75.276840209961 -274.182373046875 -2.602600097656 4.617393016815 -3.639896392822 -1.139274597168
77.714859008789 -79.174209594727 -227.571380615234 0.759689331055 3.124413251877 1.172599792480 -2.794609069824
96.043891906738 -76.954360961914 -205.677352905273 0.085937500000 0.917648673058 -0.913490295410 0.015144348145
24.812915802002 -80.186668395996 -160.573486328125 -1.700729370117 2.304010152817 0.821199417114 -1.319702148438
-44.271469116211 -88.492744445801 -188.556396484375 4.503265380859 5.804736137390 -3.132118225098 -1.898788452148
-154.504974365234 -62.398002624512 -173.886947631836 2.101394653320 3.305823087692 -2.235183715820 1.231487274170
40.097621917725 -66.660057067871 -36.089298248291 0.807479858398 1.661056637764 1.338169097900 -0.562484741211
-152.549041748047 -66.431571960449 -184.930206298828 1.386123657227 2.662374496460 -0.418670654297 -2.234191894531
44.448371887207 -66.452613830566 -37.400802612305 -1.490226745605 3.231781244278 -2.307010650635 1.703330993652
-2.887893915176 -85.243301391602 -261.667022705078 0.112579345703 0.651028335094 0.638952970505 -0.053878784180
-40.549396514893 -78.077293395996 -158.191223144531 0.955795288086 2.138929128647 1.348880767822 1.357200622559
-69.194076538086 -82.629859924316 -208.142044067383 0.794540405273 1.265364527702 -0.981430053711 0.081535339355
23.788425445557 -72.435501098633 -21.241291046143 0.821851730347 1.651752471924 0.969526290894 1.054924011230
-49.422107696533 -69.838203430176 -140.282760620117 0.116989135742 1.430609226227 0.100711822510 -1.422256469727
-39.446014404297 -75.009254455566 -204.988693237305 0.323501586914 0.755364537239 0.244464874268 0.637306213379
-34.535881042480 -77.306221008301 -212.355010986328 -0.912582397461 2.723415136337 -2.564943313599 -0.072448730469
68.114974975586 -73.947853088379 -74.702484130859 1.522308349609 4.123270988464 -2.755638122559 -2.662780761719
-161.941528320313 -71.970298767090 -264.596160888672 0.676361083984 1.919155478477 -1.259429931641 1.280441284180
65.105316162109 -65.587203979492 -85.985900878906 0.959205627441 1.057951807976 0.404716491699 -0.188125610352
-167.687805175781 -69.814895629883 -287.099212646484 0.964447021484 2.120408773422 -0.980072021484 1.614135742188
-43.943122863770 -73.395591735840 -54.510696411133 -0.584617614746 1.500742673874 1.330039978027 -0.376091003418
-72.585166931152 -74.313720703125 -149.094116210938 -0.553833007813 1.853238463402 0.462448120117 1.707015991211
20.437068939209 -67.421615600586 -188.491668701172 -1.892120361328 2.015157699585 -0.607303619385 0.334548950195
-61.195568084717 -67.736885070801 -139.295272827148 -0.264694213867 2.711876392365 -1.342273712158 2.341476440430
-22.974313735962 -80.662117004395 -204.150207519531 0.356018066406 3.869083404541 -3.699939727783 -1.074012756348
12.655110359192 -74.457214355469 -202.103866577148 1.102539062500 2.850610017776 2.563920974731 0.580253601074
3.035702943802 -64.272346496582 -240.046875000000 -1.302413940430 2.156154155731 -1.717611074448 0.050308227539
91.884140014648 -76.817955017090 -93.050659179688 -0.694290161133 1.291070818901 0.068939208984 1.086311340332
-38.923408508301 -76.328964233398 -287.173065185547 0.063903808594 1.396803736687 -1.283973693848 -0.546249389648
-87.164268493652 -69.577537536621 -61.961360931396 0.564071655273 1.180311322212 1.033737182617 0.079658508301
-156.724258422852 -69.261032104492 -241.473358154297 0.985916137695 1.415735483170 0.985031127930 -0.248977661133
-160.457519531250 -73.694755554199 -291.915771484375 1.293640136719 1.892392277718 0.212493896484 -1.364730834961
-132.636596679688 -73.153274536133 -251.269927978516 3.465270996094 3.588565587997 0.905349731445 0.223701477051
33.457695007324 -65.734497070313 -35.768829345703 0.029094696045 1.219030737877 -0.052497863770 1.217552185059
-55.857280731201 -74.008842468262 -88.633224487305 1.705741882324 2.899663686752 -1.844287872314 1.448135375977
-52.711853027344 -61.030002593994 -81.834899902344 -2.623252868652 2.822184324265 -0.874923706055 0.563716888428
16.335641860962 -79.257835388184 -193.204116821289 -0.736419677734 2.820046901703 0.426270484924 -2.688613891602
-149.964141845703 -73.912307739258 -188.567657470703 -1.599426269531 2.073827505112 0.411392211914 -1.254333496094
-77.741508483887 -82.566673278809 -77.301673889160 -0.274833679199 2.759644031525 -0.085083007813 -2.744606018066
74.848144531250 -75.587280273438 -235.702453613281 0.745452880859 2.012004137039 1.488952636719 -1.129371643066
-32.670509338379 -75.934417724609 -168.417312622070 0.192565917969 0.891918718815 0.451889038086 0.744468688965
-99.156684875488 -64.155296325684 -76.885437011719 -0.329750061035 1.755820751190 -1.488227844238 0.871406555176
-50.554645538330 -78.532295227051 -155.474121093750 -2.314804077148 2.812604904175 1.402687072754 -0.764785766602
-154.118606567383 -81.805976867676 -186.086196899414 1.722534179688 4.887912750244 -4.544784545898 0.519134521484
-145.448074340820 -83.512100219727 -283.515808105469 0.619232177734 1.265888452530 0.373901367188 -1.038856506348
-155.528091430664 -81.350563049316 -227.532028198242 0.948043823242 2.492166042328 -0.830123901367 -2.150115966797
-76.706626892090 -68.802436828613 -114.814468383789 -1.416481018066 2.363814592361 -1.850502014160 0.396034240723
8.006048202515 -81.113067626953 -245.102828979492 1.921096801758 2.268140792847 1.200269222260 -0.114906311035
-44.184604644775 -79.063056945801 -157.773422241211 -0.381866455078 2.155629873276 1.854763031006 -1.029937744141
46.938636779785 -68.205070495605 -96.443206787109 1.112876892090 1.667052149773 -1.161548614502 0.437461853027
12.489288330078 -70.611114501953 -184.628341674805 0.505722045898 1.576572537422 -1.094138145447 -1.016212463379
-159.971328735352 -80.379585266113 -250.543960571289 -1.400253295898 5.895535469055 0.232269287109 -5.722122192383
-5.204978942871 -65.005714416504 -267.398498535156 -0.747131347656 2.456596136093 -0.391025066376 2.307327270508
-157.336441040039 -83.198776245117 -278.237518310547 -1.074279785156 5.870920658112 -5.626419067383 1.287261962891
31.325225830078 -61.163208007813 -18.781526565552 -1.494159698486 1.507266163826 -0.090671539307 -0.176399230957
29.084732055664 -74.825157165527 -161.802352905273 1.418472290039 1.536020636559 -0.465509414673 -0.361381530762
-41.360580444336 -73.974151611328 -148.871246337891 0.823867797852 1.109030127525 -0.697219848633 -0.255096435547
91.671134948730 -65.618080139160 -64.486778259277 -0.119445800781 3.275943994522 1.261726379395 3.020858764648
-148.687835693359 -78.029899597168 -287.328979492188 -1.358215332031 1.833461403847 1.092758178711 0.568077087402
-149.896423339844 -74.194419860840 -256.825927734375 0.503448486328 0.710862457752 -0.497268676758 -0.067741394043
-77.229011535645 -63.324863433838 -100.652137756348 0.283042907715 1.843754529953 0.856468200684 1.608036041260
23.355283737183 -77.151321411133 -134.472290039063 2.446319580078 3.694451093674 -2.253089904785 -1.608749389648
81.445060729980 -65.501701354980 -60.431400299072 1.072875976563 1.293578028679 0.226013183594 0.686439514160
17.458187103271 -74.955986022949 -222.857421875000 -0.278167724609 1.041728496552 0.028907775879 -1.003486633301
-32.417171478271 -70.986694335938 -167.967849731445 -0.170883178711 0.605062246323 0.318851470947 0.485008239746
-151.818115234375 -67.164916992188 -293.130310058594 0.073181152344 1.601068735123 -0.941894531250 -1.292633056641
80.867218017578 -69.334945678711 -106.005043029785 -2.355018615723 2.610820770264 0.505676269531 1.007255554199
-149.878540039063 -81.577552795410 -289.854827880859 0.032012939453 0.668116748333 0.584228515625 -0.322540283203
-6.484578132629 -63.235576629639 -245.947174072266 -0.209762573242 2.008685112000 1.961989402771 -0.376049041748
-47.606716156006 -82.174659729004 -149.934524536133 2.841369628906 3.672788858414 -1.906673431396 -1.334388732910
-93.274307250977 -65.123611450195 -125.416320800781 -1.929664611816 2.900293350220 0.368980407715 -2.133529663086
44.032043457031 -67.315017700195 -15.995050430298 -1.298591613770 1.341315507889 -0.173610687256 0.287483215332
-135.987396240234 -66.050193786621 -288.478912353516 -0.468444824219 1.510417342186 -1.407104492188 0.286315917969
35.331970214844 -69.810623168945 -19.146583557129 -2.075216293335 2.271559000015 0.616035461426 -0.688446044922
25.451526641846 -66.235717773438 -25.689746856689 -0.358131408691 1.370900034904 0.113208770752 1.318443298340
-46.833724975586 -73.312576293945 -163.917755126953 -0.519302368164 1.592649817467 -1.309829711914 -0.742431640625
-73.919990539551 -59.029857635498 -105.107627868652 -1.327278137207 1.866899013519 -0.900306701660 -0.955558776855
-37.438213348389 -63.733711242676 -43.401138305664 2.716411590576 2.780313253403 -0.398418426514 -0.438762664795
-34.225067138672 -80.822921752930 -208.774124145508 -2.346298217773 2.360328435898 -0.005233764648 0.256919860840
-18.744480133057 -71.561439514160 -257.901031494141 -0.917755126953 4.644542217255 -4.321334838867 -1.433723449707
-67.770347595215 -59.182151794434 -41.527622222900 1.697067260742 2.665031433105 -0.197830200195 2.045291900635
-134.617538452148 -66.093994140625 -249.602813720703 4.316329956055 4.753863334656 0.043457031250 1.991638183594
22.969509124756 -73.698066711426 -178.810516357422 -1.143539428711 2.924013137817 -1.023109436035 2.489059448242
104.953887939453 -61.564052581787 -72.977104187012 0.876220703125 1.938654065132 1.547431945801 -0.772056579590
6.714232921600 -73.645118713379 -191.113647460938 0.918930053711 3.830910682678 -3.382832050323 1.545280456543
10.193799972534 -72.254981994629 -155.913604736328 1.162750244141 2.364392757416 0.077594757080 2.057266235352
-93.781547546387 -65.579208374023 -64.168830871582 0.494384765625 3.140856742859 2.351516723633 -2.022605895996
-29.179798126221 -65.837829589844 -177.534317016602 -0.381118774414 4.193600177765 -1.236421585083 3.989021301270
-1.727180957794 -62.601696014404 -261.279571533203 -2.401245117188 3.448735952377 -2.314390897751 0.878292083740
-54.919570922852 -69.132621765137 -43.962192535400 1.581764221191 2.299225568771 -0.596343994141 -1.558471679688
15.004181861877 -76.187934875488 -189.913665771484 0.622802734375 2.019186258316 1.729188919067 0.836143493652
109.149963378906 -76.681312561035 -143.477951049805 0.016708374023 2.888260126114 -2.490280151367 -1.462966918945
-55.232978820801 -73.278472900391 -168.643753051758 -0.962936401367 3.606744289398 2.192417144775 2.697158813477
-148.930267333984 -76.878852844238 -254.383789062500 -0.607238769531 1.672445893288 1.513168334961 -0.372367858887
83.252227783203 -76.222030639648 -213.502914428711 2.685119628906 3.529052734375 -1.919151306152 -1.249481201172
32.437606811523 -70.237937927246 -257.581756591797 -1.141021728516 1.279671907425 0.574514389038 -0.074584960938
-152.864517211914 -67.546707153320 -223.663940429688 0.841690063477 1.997445106506 -1.390594482422 1.160858154297
11.034203529358 -78.925994873047 -230.599334716797 -0.691131591797 0.749045610428 -0.096674919128 -0.272140502930
25.834932327271 -67.078163146973 -148.230773925781 0.760650634766 2.060286998749 0.599824905396 1.818351745605
-10.356850624084 -76.581115722656 -211.293807983398 -0.133972167969 1.549444913864 -0.315834045410 1.510986328125
60.724479675293 -58.991382598877 -84.566688537598 -1.164054870605 1.967150449753 -0.244876861572 -1.566745758057
30.036331176758 -77.147567749023 -158.832962036133 -0.348617553711 1.312100648880 -0.862794876099 -0.925018310547
-27.605642318726 -62.003143310547 -46.268959045410 2.390724182129 2.524003505707 0.587417602539 -0.556751251221
100.523422241211 -65.179328918457 -96.361557006836 1.086700439453 1.857232213020 -1.320617675781 -0.724128723145
14.800317764282 -67.116348266602 -182.173522949219 -0.267044067383 2.734633207321 -0.309003829956 2.703964233398
-84.646949768066 -75.359481811523 -67.582580566406 -0.261611938477 2.361008405685 -1.355110168457 1.915618896484
21.209405899048 -76.982490539551 -183.482559204102 -0.761260986328 1.581570148468 1.384067535400 -0.078758239746
-96.500450134277 -66.800354003906 -94.931129455566 -1.752174377441 2.135400772095 0.669685363770 -1.020462036133
-21.825632095337 -68.002334594727 -210.383560180664 -0.733749389648 2.823995590210 -1.469139099121 2.297431945801
-10.321279525757 -71.819511413574 -228.796661376953 -0.480590820313 1.431185364723 -1.278301239014 -0.428100585938
-57.355216979980 -60.184947967529 -40.956207275391 1.979217529297 3.862834453583 -3.253715515137 -0.646160125732
-29.892980575562 -76.061164855957 -214.226150512695 1.194458007813 1.891002058983 -0.984674453735 -1.086082458496
-164.927490234375 -69.457260131836 -225.858749389648 -0.645629882813 1.889085412025 1.049560546875 -1.431861877441
-76.164833068848 -61.989723205566 -102.824104309082 1.499015808105 2.446534395218 -1.398681640625 -1.334980010986
