# This PCD file was generated using the MATLAB® pcwrite function
# from Computer Vision Toolbox®.
# .PCD v.7 - Point Cloud Data file format
VERSION .7
FIELDS x y z
SIZE 4 4 4
TYPE F F F
COUNT 1 1 1
WIDTH 1419
HEIGHT 1
VIEWPOINT 0 0 0 1 0 0 0
POINTS 1419
DATA ascii
10.141251 -79.222878 -208.516815
-84.941963 -82.469673 -84.732521
-112.469810 -70.909241 -179.259659
-67.286072 -72.832970 -290.502136
14.888946 -76.907532 -189.368240
-6.590808 -67.167732 -226.451401
88.117668 -79.782951 -213.757706
-145.728760 -70.078171 -255.420502
77.064697 -65.675529 -63.883419
-67.061859 -73.785522 -245.826782
-51.518257 -70.884689 -288.596924
72.769608 -68.754578 -69.154411
33.141281 -68.778206 -260.075012
-27.742720 -78.378731 -283.314026
-46.125599 -79.395905 -83.846664
-169.167221 -71.203842 -225.222336
-44.235291 -76.395576 -166.865128
-122.327171 -66.138733 -285.939270
73.802765 -67.049782 -62.432407
-154.861404 -73.195343 -173.347824
-45.811459 -71.124031 -170.037170
-27.662300 -69.766434 -47.499268
11.614386 -80.746712 -258.155182
14.479846 -77.036774 -225.711380
9.215180 -74.630142 -290.964111
43.452576 -71.428543 -33.266270
50.375767 -70.663094 -105.665016
25.490528 -76.854591 -143.580414
-64.431068 -60.937141 -88.656219
56.713554 -64.814186 -97.601318
111.927086 -71.937675 -159.225754
26.581888 -73.438835 -136.401886
-45.106083 -70.810532 -139.994690
-98.973969 -62.659767 -108.953651
-153.787643 -57.104450 -195.531143
69.929771 -73.154510 -230.709351
-64.531654 -65.475914 -119.831314
-44.716061 -69.090904 -151.289719
-62.965687 -77.739685 -158.403931
-93.655708 -67.090858 -252.044418
-63.045208 -72.912544 -281.052155
22.724396 -70.803276 -264.061310
81.726273 -77.141762 -226.074707
-38.583069 -73.279930 -203.913788
-155.054123 -80.963013 -222.992188
-134.593277 -62.164249 -224.267578
-81.635246 -67.691971 -249.980377
-148.378006 -70.057297 -263.807678
-135.527283 -75.464745 -258.692688
-145.251083 -78.214592 -207.291901
-126.926018 -60.934284 -193.819305
-59.830994 -72.409378 -143.754486
-41.008667 -71.137367 -289.541168
-62.349220 -61.513027 -110.786095
-47.664478 -89.573715 -193.860016
-22.830238 -75.628052 -67.490746
-73.307663 -71.814812 -287.461578
-74.562714 -65.700043 -132.124084
-54.990078 -80.517776 -202.379089
28.556944 -73.716187 -38.078678
92.347893 -76.115829 -75.047722
-10.185870 -77.983315 -224.935791
-127.396484 -70.296738 -250.916748
30.638014 -64.326393 -33.880711
-119.498222 -74.714157 -254.596909
-54.241127 -59.092999 -131.531296
53.803349 -76.028709 -106.424614
101.405609 -72.806831 -198.623184
1.339904 -77.125977 -242.822617
-34.745201 -74.290138 -185.188538
-81.142731 -66.656906 -112.306801
61.940575 -68.574196 -89.078964
108.731743 -73.079559 -169.535202
-55.060886 -64.072098 -122.636696
-28.226522 -69.260857 -76.346245
8.865775 -64.924675 -289.965820
-73.192741 -62.791821 -111.853546
-4.952606 -82.556686 -251.728546
-37.068100 -80.035965 -67.644791
-26.825109 -69.042465 -53.179066
-83.784317 -65.364769 -126.511307
7.537726 -76.308472 -199.881149
-154.102249 -77.257446 -297.706329
-132.829102 -64.055595 -286.984467
-72.377686 -71.854874 -99.388702
-4.719288 -71.490089 -238.212036
0.345420 -62.685711 -276.790588
1.543703 -74.599533 -235.227844
-147.696259 -71.534637 -186.334579
-98.899490 -71.562935 -102.449150
104.429749 -76.161873 -191.921249
-32.207500 -65.780663 -74.662422
102.496483 -72.298752 -106.590103
6.320052 -71.954697 -213.337296
-150.489761 -65.107201 -191.250092
57.518108 -60.996784 -90.767204
-156.699615 -69.559082 -186.229401
88.375061 -78.243919 -79.606041
-110.126183 -70.329666 -221.222046
45.265003 -71.316956 -116.915039
-133.581299 -67.763130 -260.089996
-72.406281 -72.435257 -244.128372
24.777378 -77.956726 -167.982346
-4.203248 -81.204414 -250.379639
19.131550 -72.488716 -159.368607
29.141150 -78.536270 -156.980087
-152.204819 -73.030174 -226.467026
75.916565 -70.131798 -230.791306
-5.570495 -75.596649 -167.909592
-71.058495 -75.225960 -48.341278
-66.955597 -60.211739 -39.463367
-157.300247 -78.377930 -274.766327
-98.515221 -64.973412 -141.590347
0.742641 -70.882370 -234.721954
100.225029 -78.239731 -179.950928
6.185981 -84.373711 -235.875702
-29.900536 -68.879166 -182.853683
-2.265501 -76.807907 -158.328766
-90.965271 -75.866264 -87.085014
-60.874214 -69.944923 -134.956528
30.610443 -80.412430 -149.728287
25.015961 -66.295586 -257.605316
-155.406464 -68.763809 -304.383087
87.974556 -74.124878 -216.440964
42.064587 -78.302383 -102.907120
100.812073 -59.563873 -68.744148
13.920465 -78.236420 -208.732269
-139.860031 -67.999702 -250.170776
-94.808617 -70.482773 -213.197617
-95.367767 -74.612671 -89.083092
-116.704689 -67.339478 -221.505615
-164.814850 -65.746025 -192.741348
11.345287 -77.147041 -251.050674
-25.610840 -73.052711 -287.775848
106.361725 -78.787865 -158.515030
96.159065 -71.360008 -77.295502
24.504215 -77.286667 -181.945297
-56.981487 -70.724693 -130.445343
-17.069220 -67.631378 -66.649872
103.687607 -62.036194 -94.581268
-60.890114 -55.473637 -114.806007
32.030594 -66.629402 -35.400288
-29.856853 -75.007584 -190.139908
-95.242241 -71.087288 -71.912384
24.442768 -74.553978 -152.881104
-47.311932 -75.572334 -191.435410
111.013885 -79.750206 -153.829117
-133.409256 -68.629135 -228.386597
-98.884262 -67.567245 -146.543762
6.288657 -70.406166 -244.092911
11.434913 -84.274345 -244.332108
-49.751457 -81.391838 -69.941452
-29.062801 -79.018288 -189.211090
-83.661171 -65.048630 -118.847900
-151.168015 -57.739342 -240.155777
2.931197 -72.110718 -289.896423
-68.226273 -74.883842 -158.036758
-142.411850 -85.575180 -255.340454
-148.844009 -60.360508 -184.153976
-129.660904 -71.159592 -258.606110
-0.054610 -78.260109 -240.353699
15.629525 -62.360958 -277.374603
-65.143608 -71.329582 -155.201553
106.371582 -75.374191 -155.964417
14.275719 -80.927589 -237.561646
9.772067 -67.396706 -285.591492
-108.298546 -62.464722 -165.791977
-165.944717 -71.258362 -205.509949
24.151808 -70.739174 -151.809250
-70.723206 -77.304283 -98.064522
-153.855286 -82.113411 -290.896057
105.089561 -73.153557 -184.837265
-77.084991 -74.889778 -285.337463
110.467094 -79.340446 -135.479904
-95.827728 -63.208618 -135.828522
-48.893436 -77.626480 -190.193085
-24.981050 -74.815590 -75.581673
37.066605 -68.933571 -250.401794
25.986582 -72.416954 -24.632889
-46.054249 -66.278526 -144.705811
23.869268 -76.619438 -158.583435
-153.749283 -61.178963 -227.913589
43.854675 -75.610504 -123.289581
-75.081497 -77.851875 -98.392677
106.789848 -76.382668 -120.919762
-106.370529 -72.563759 -216.546600
-83.870255 -69.197533 -116.033386
-70.114273 -74.161888 -141.634033
95.148888 -73.643456 -74.110191
35.726238 -66.670982 -39.549992
-143.022614 -64.338074 -191.312897
-147.323456 -62.279758 -185.859390
-73.252937 -82.594772 -208.063538
-167.327057 -71.848297 -199.843948
-17.760435 -69.018425 -242.425674
-167.894882 -65.880745 -222.186462
-132.815521 -64.635071 -259.088226
-62.808720 -59.457424 -133.184402
10.852757 -74.357605 -207.398987
-44.310318 -81.345955 -237.157715
33.469337 -68.603157 -137.865067
-71.391907 -60.352665 -98.750244
-80.690178 -86.519539 -98.486633
79.522141 -73.098244 -105.382935
-157.362305 -76.409088 -269.761200
-91.636574 -69.019264 -59.028652
12.630703 -76.651375 -232.773087
87.304008 -68.066368 -69.678482
-144.769913 -77.497063 -198.416245
44.436264 -72.353043 -118.099304
-9.187212 -62.665565 -243.177917
24.338984 -70.210640 -263.744934
-14.496125 -71.877281 -68.406281
-147.414520 -75.711266 -210.153946
-94.808830 -74.057312 -106.694054
-12.827890 -71.502190 -289.153351
-169.860519 -70.513435 -217.401001
32.400829 -73.544708 -115.044281
7.342439 -71.470718 -242.942719
28.857935 -66.134712 -258.491821
-56.090332 -77.142982 -241.450516
-22.782070 -79.908325 -208.494461
-66.950691 -72.234009 -97.259758
-41.327759 -75.400627 -156.771225
-101.593391 -68.654938 -167.456070
-35.582588 -74.008217 -167.875641
38.830372 -74.286514 -253.876968
-70.133720 -72.110001 -166.414566
25.416384 -72.711510 -143.037430
-150.155960 -82.176949 -256.326721
-55.043156 -82.356895 -175.835388
-27.047449 -73.394936 -220.203049
-70.865463 -80.065063 -200.934875
11.977395 -83.247017 -233.780472
3.717955 -77.204178 -201.911850
-152.256317 -69.697456 -226.716660
25.759142 -72.567253 -152.993332
34.749641 -74.650108 -131.823761
-155.018738 -82.051384 -229.154266
-11.918941 -68.784065 -282.356293
66.823990 -75.541687 -231.716751
-131.826691 -75.510696 -285.672333
33.193787 -69.691635 -258.525879
-111.309608 -66.717972 -187.668991
-150.062683 -62.344067 -247.141434
-60.485783 -66.900002 -120.307663
-60.513832 -75.143425 -91.482574
104.522903 -67.962006 -83.846855
-146.061676 -71.701096 -179.830856
-142.336105 -67.240036 -226.666931
2.210188 -77.147400 -231.872406
8.825834 -69.370789 -239.343033
-14.436567 -68.158127 -203.404938
-53.032066 -83.696472 -87.402092
7.644168 -72.031853 -210.246414
21.774330 -77.094795 -184.188934
45.503899 -64.814842 -26.778242
-28.217117 -70.304237 -222.602509
19.370728 -76.520714 -158.070862
7.310272 -83.700867 -220.492737
-29.544657 -84.675415 -183.287064
-95.931618 -63.239986 -138.810852
107.965660 -67.099152 -172.748230
-47.345978 -65.882851 -80.239105
81.386269 -76.486809 -225.927948
-96.230278 -65.824768 -62.395180
-84.701614 -61.862423 -112.616829
-8.778081 -76.619926 -214.867538
-51.808002 -88.504227 -80.354080
-76.532249 -78.657440 -100.234787
24.198196 -67.286995 -147.133072
-1.612244 -80.543869 -163.479584
-153.447113 -73.603180 -197.477341
53.238121 -68.791336 -240.165894
-43.249039 -67.976044 -156.543549
-41.836079 -67.371948 -171.580734
0.294219 -74.195763 -229.443787
26.189985 -80.360298 -158.854630
109.941513 -77.261887 -131.895966
15.895344 -74.762436 -195.411896
32.240841 -70.882027 -255.812836
-55.171032 -69.805069 -84.324898
-62.926937 -85.051140 -201.572769
-102.498383 -64.868500 -217.259583
4.002713 -73.417770 -200.602402
53.278187 -78.948715 -102.328400
-35.683647 -71.231384 -54.557041
-11.597572 -73.994743 -66.306511
-91.471069 -71.564842 -210.974548
43.951637 -71.809700 -25.947063
-164.335159 -69.659523 -289.140930
-42.687778 -79.200806 -164.000793
-6.766835 -67.293404 -293.142273
-120.077629 -70.814011 -198.530853
-156.766602 -70.766098 -175.391632
-1.564784 -67.620865 -240.518433
66.023087 -64.905540 -93.857483
11.031195 -82.018669 -260.887085
-96.664604 -61.467995 -111.465508
93.027626 -77.709152 -214.018585
-76.738297 -67.714539 -139.643326
-62.120892 -77.313858 -173.665298
-32.892597 -70.470161 -48.112766
-49.062737 -79.315132 -154.487747
-51.894226 -79.522926 -184.092468
23.510612 -72.882431 -142.272583
42.945110 -71.247055 -35.189865
11.536026 -82.119011 -207.519623
-46.182472 -87.806877 -193.499405
-148.592300 -81.247322 -216.272217
80.435699 -59.026146 -60.671871
-53.764881 -76.619873 -282.753845
10.385562 -71.617897 -211.136169
75.838806 -79.010895 -95.764114
-139.215012 -73.687561 -252.225449
-152.419785 -64.908264 -195.617065
47.328415 -74.811279 -19.205221
-137.481781 -67.438660 -253.679184
-152.180038 -62.161980 -242.227478
-163.103271 -71.045174 -262.183258
-141.407745 -66.987602 -251.183319
31.295794 -72.468857 -17.356804
-146.771561 -70.970375 -184.202835
91.289459 -72.807213 -215.333282
-160.087189 -69.154053 -293.783112
13.473450 -72.594231 -172.532333
-10.068740 -67.071106 -215.752441
-142.880554 -70.906250 -194.129974
-59.510571 -74.774719 -132.316742
-157.040802 -82.512970 -229.316696
-98.037399 -65.872444 -77.708946
108.183296 -75.577507 -164.234924
-73.069305 -87.640991 -90.305695
-139.838364 -71.753334 -247.161606
-64.586906 -65.367485 -121.363899
95.131546 -74.685211 -197.011490
-71.436073 -75.290787 -146.171860
-75.039017 -68.943344 -99.975121
4.600978 -73.765617 -212.280487
-75.772774 -60.334702 -105.349052
-136.796692 -67.676079 -224.122482
-153.735382 -76.168076 -293.637695
-67.936363 -63.189434 -40.892193
-54.137405 -62.144066 -121.977188
40.920898 -67.448097 -14.193325
-111.763519 -69.193222 -181.008835
-131.987000 -60.349834 -193.322189
-147.859344 -62.986240 -189.068634
-49.971928 -80.283737 -89.184685
-152.313568 -80.754227 -243.704865
-62.992302 -62.993057 -128.086960
-92.477989 -66.891586 -138.613434
32.013931 -61.563129 -11.511806
113.581390 -73.460533 -134.534073
-35.093349 -78.723068 -207.928604
47.454594 -73.188713 -112.869865
111.284943 -78.356796 -135.792603
-51.074448 -65.957413 -132.691788
-150.911942 -74.930969 -210.560806
-141.061447 -67.096443 -198.304993
-88.495201 -75.271255 -81.561501
-37.645504 -76.620041 -204.900284
-19.445978 -66.284882 -67.030930
84.437042 -78.381721 -84.485199
-159.233780 -61.814453 -272.940582
46.127724 -67.861595 -105.368484
-35.337303 -67.284576 -48.511475
39.333393 -80.261246 -120.973373
103.345238 -64.341400 -79.236969
-111.285019 -66.399506 -189.579742
-150.519974 -82.267815 -232.711639
-81.102760 -75.804878 -55.659721
-72.661072 -77.658241 -55.873260
113.252975 -78.668098 -146.861084
77.905136 -78.772545 -100.612709
105.937515 -75.548126 -122.688354
-146.730255 -79.963943 -199.780991
72.107109 -78.983696 -228.717117
24.946487 -78.797493 -155.787476
-24.856693 -73.894585 -180.295120
-148.647156 -64.378937 -280.268768
-7.121583 -73.968300 -240.988174
11.180644 -76.181366 -249.042740
109.941254 -69.097397 -119.878555
-171.762268 -73.212959 -263.827271
-14.743722 -66.028442 -246.787994
25.855780 -75.222748 -166.669800
-37.605312 -75.496635 -205.608292
-47.192902 -63.294277 -78.400436
-166.803009 -68.439987 -205.003799
-139.742676 -69.704346 -289.624329
-163.855988 -66.941116 -202.775452
-93.714195 -67.063660 -57.750484
-52.425579 -75.047760 -243.752045
-154.110809 -79.317902 -270.416565
-170.591263 -71.107674 -239.556595
-146.363480 -71.967941 -286.095551
-125.706978 -69.504654 -230.972687
104.186928 -66.209930 -73.275490
75.433899 -70.216850 -230.398438
38.588047 -76.996162 -115.657166
-47.443092 -82.029541 -87.564445
-115.776001 -66.197426 -223.314758
-95.860054 -71.104248 -71.935799
53.899189 -67.083679 -241.067108
48.206566 -72.571548 -34.791027
-6.116265 -66.877853 -256.493683
-79.361786 -70.550438 -115.706429
6.797995 -77.161003 -270.029388
-19.453379 -76.599548 -269.896149
34.217216 -72.363396 -125.923225
-155.973175 -63.002403 -281.096069
-0.623886 -81.493576 -244.767380
-128.716049 -72.821861 -229.857178
-18.369448 -76.397690 -270.452484
34.995262 -63.869900 -36.212818
4.592788 -81.383659 -252.526901
23.937965 -81.423714 -141.669327
63.911598 -70.316986 -240.227936
-64.912224 -71.655708 -282.251648
67.416260 -63.707470 -231.865463
-145.116470 -60.025620 -178.085770
33.557899 -74.044830 -124.011375
-149.524200 -70.452644 -239.700150
94.863464 -69.443901 -69.095329
10.847229 -81.809128 -241.841141
-52.508545 -85.175331 -85.630714
-145.989777 -66.842697 -288.520630
-144.497406 -65.438766 -172.349472
-101.399101 -70.361229 -214.513321
-23.615696 -79.899734 -192.840225
-74.593658 -82.644928 -205.211792
12.300397 -78.461220 -251.717697
-13.262247 -71.738800 -234.475494
-96.615585 -60.965244 -70.179611
-34.863346 -67.847458 -45.808525
-10.785792 -66.204926 -255.090286
-151.956558 -76.884659 -300.462097
-33.122955 -75.996788 -182.413727
-162.865463 -66.844955 -203.714523
-17.730083 -70.320244 -228.133423
-77.421188 -66.786430 -133.920258
-39.747498 -72.678413 -171.875092
-145.819153 -62.889484 -188.782074
-0.943507 -75.807350 -219.437744
-163.569305 -72.035896 -249.656311
17.852116 -74.583954 -261.460510
-10.225845 -82.042114 -214.654297
-0.835151 -85.489075 -274.270355
4.648777 -81.148003 -289.311493
5.992291 -83.800468 -265.152100
-61.341789 -72.511871 -245.185226
-4.372832 -70.418579 -232.766418
91.916573 -75.720604 -208.680481
-37.875992 -80.559654 -206.163315
106.511978 -62.781372 -75.268875
-142.105042 -65.773811 -196.197128
-121.378380 -65.309593 -286.330780
-14.653049 -79.591240 -217.297119
47.180420 -68.222382 -95.540886
-154.403854 -64.261711 -272.812225
-60.903091 -75.107620 -140.575012
-48.464115 -76.717896 -287.436035
-15.001644 -85.593277 -175.611847
-21.938772 -70.816856 -220.948959
33.173042 -74.579788 -133.776825
98.744026 -77.403587 -184.064407
4.924343 -78.334900 -196.127075
110.984810 -75.718735 -144.141266
103.564362 -72.136780 -107.910339
-85.458786 -81.996979 -103.419899
72.902206 -74.011597 -72.236496
98.711632 -74.021919 -78.678673
99.627792 -75.089752 -97.714714
70.254074 -69.539177 -74.605057
-30.719286 -70.403191 -183.896515
-61.754498 -62.619144 -114.041794
-9.771582 -77.873329 -244.990768
-149.624191 -60.480976 -226.370026
-156.958618 -68.803581 -219.167923
29.136198 -79.916412 -137.729996
54.585125 -71.360863 -86.876915
38.614017 -71.401733 -113.630341
-8.891701 -63.168816 -285.340118
-35.476238 -72.838608 -210.802612
-24.153090 -81.244179 -177.034180
92.896973 -74.425850 -75.944435
12.607091 -68.316559 -179.204422
7.297317 -76.303970 -217.657059
93.462387 -75.719566 -208.880188
-48.884537 -71.513641 -48.445400
-31.446058 -77.208092 -238.299683
81.537109 -79.466316 -80.598366
91.051834 -75.651184 -100.112206
98.014816 -75.900330 -94.869110
-46.115105 -69.653130 -160.354843
70.726257 -69.606018 -71.419167
-17.850050 -69.551315 -250.373947
48.540665 -64.059494 -18.852642
-50.214092 -78.788979 -57.127563
-14.286430 -63.711712 -67.175911
70.972511 -74.496368 -76.756592
10.394190 -71.886864 -197.840500
15.723721 -67.151169 -274.340240
3.190655 -73.963997 -206.009842
-16.324003 -68.401779 -268.366241
-0.026771 -72.818466 -158.005081
-97.779846 -67.060516 -96.469177
-146.199432 -63.372669 -180.776566
-63.525120 -67.570549 -120.733543
-151.568558 -75.797836 -223.905075
44.549541 -73.193779 -114.671768
-67.205566 -61.059624 -110.881943
43.426914 -67.762123 -12.817022
-47.094582 -74.212311 -164.643326
-159.188965 -65.074127 -201.968491
2.105524 -72.498741 -222.760086
-109.682144 -67.749260 -219.577820
-52.574188 -83.764046 -201.848221
-57.549328 -75.689163 -64.446907
-163.017975 -71.913025 -248.742264
-20.567265 -76.660683 -239.613052
-8.305163 -76.326813 -286.423431
13.285251 -70.111053 -183.747574
-91.596413 -67.635185 -137.428970
-151.521988 -74.481613 -298.880005
-151.408386 -82.636459 -183.748459
-15.748006 -75.521645 -203.515213
-68.499825 -71.111366 -161.463791
-35.509666 -77.729950 -207.902603
-69.601357 -59.952934 -100.096420
38.623451 -78.842606 -126.180984
-95.746254 -68.947197 -253.577271
11.392233 -61.926563 -240.159531
-16.808710 -76.356575 -256.545349
-149.225418 -71.701134 -178.133469
-3.158222 -72.911705 -161.086014
-158.622925 -64.760849 -269.065826
-9.570621 -68.145096 -222.906204
-93.172913 -74.965553 -284.691284
-83.364586 -63.783852 -113.844727
-96.919456 -71.415573 -87.704247
-70.666985 -76.993431 -205.127075
17.289907 -68.045166 -161.068970
11.222240 -80.713554 -248.888535
-85.844528 -75.452621 -287.872070
-40.366821 -60.326054 -43.949280
15.608140 -69.151802 -178.530136
-12.109566 -70.781998 -241.867096
-54.194237 -60.183350 -40.499599
-18.327036 -75.144310 -195.656128
-95.205132 -65.675201 -65.443100
-118.895676 -67.749313 -282.802887
73.060509 -75.950584 -234.629211
-38.116142 -75.422569 -76.206009
-73.711098 -70.997459 -249.630646
10.285490 -64.540192 -153.425339
43.636497 -68.774788 -100.405205
-82.697517 -73.726173 -205.616440
13.286866 -84.934731 -211.926392
51.297546 -69.050034 -93.176575
-34.152149 -78.715271 -163.774292
-13.872501 -75.656311 -289.217285
-153.325439 -68.922722 -298.931610
-21.582714 -64.829071 -67.104355
-151.761642 -63.322639 -193.944916
65.597107 -69.392738 -82.993340
-99.413605 -60.582088 -71.777771
-146.673508 -77.439201 -187.160355
-21.011187 -75.351837 -202.177429
-115.697472 -62.217098 -191.282532
-155.750198 -66.806992 -183.845901
94.059547 -75.961708 -100.583832
-151.556946 -81.361107 -185.235580
98.376297 -72.912331 -91.780769
6.756205 -83.337440 -226.970810
-118.795753 -64.719742 -201.870865
-165.663742 -67.680931 -240.524933
-62.139332 -67.766243 -119.252464
-39.451435 -70.587807 -292.319458
-143.988525 -80.452164 -196.881058
-4.281129 -79.981880 -166.113937
41.187775 -79.963882 -105.932228
-162.246506 -64.503181 -202.354462
-144.086349 -64.984337 -200.664139
-155.394043 -75.767632 -211.300034
114.751366 -72.015015 -141.105087
30.017244 -70.241058 -260.378052
67.900978 -72.770409 -84.555702
-6.739602 -66.905357 -289.926025
-146.874466 -63.818333 -184.308975
-142.798462 -69.021194 -188.774612
55.178497 -67.939995 -88.232285
-69.455376 -64.839600 -119.423058
38.865910 -82.880234 -122.753593
-154.180374 -63.122822 -173.497849
-56.803318 -72.766762 -146.632172
-52.456123 -75.596054 -180.939163
-45.912186 -75.364075 -145.233459
-145.615936 -65.634270 -180.869247
-0.748585 -71.487381 -242.544495
40.840252 -68.519234 -121.513153
-151.392960 -67.497025 -274.282776
104.041809 -63.446957 -91.164124
-75.877342 -66.290855 -137.730011
-160.531067 -67.958847 -274.037292
-123.868599 -66.119148 -193.700974
-132.604599 -71.030846 -199.033829
-162.108398 -71.291580 -211.211716
-155.883331 -83.392036 -252.511230
-36.273708 -71.471306 -163.012283
-151.364059 -70.564316 -188.824875
88.733574 -73.542633 -71.128967
55.900791 -68.272659 -89.486603
69.323906 -69.187065 -70.914543
-61.208782 -69.046616 -130.773834
-66.095032 -61.423298 -104.358543
-79.588875 -80.198074 -205.258102
-66.824768 -70.648857 -286.734985
-146.840073 -65.927513 -167.124573
-156.937027 -62.501686 -256.804352
-82.069557 -67.188103 -106.796753
-10.488883 -64.567886 -65.741508
75.794701 -79.078201 -91.590721
-145.362610 -75.968361 -221.411682
14.204722 -76.848976 -194.566376
-4.336518 -63.276981 -269.719818
70.147156 -71.026512 -77.213173
17.204041 -59.623623 -240.881317
84.214760 -70.046616 -108.956787
-148.827438 -81.935745 -212.802597
-64.916946 -82.959877 -202.878082
-95.116562 -71.426331 -85.289597
-67.221069 -70.859520 -44.690929
-69.515266 -70.914650 -137.379364
-166.272141 -65.038124 -195.359146
-91.095383 -69.744804 -61.504395
-159.072281 -66.016449 -269.973694
-63.835796 -64.365578 -126.329437
-12.622916 -74.066277 -205.101883
-67.827019 -76.207054 -148.051437
-150.799454 -64.513275 -184.980942
-170.069855 -71.205544 -237.223831
-158.053131 -83.031265 -279.577667
82.800575 -60.794415 -62.465477
82.578445 -69.080513 -62.022442
-29.639723 -76.851341 -235.093231
34.998161 -64.388870 -35.579697
62.451550 -64.672333 -95.258308
29.347321 -76.245132 -129.784500
-151.576889 -64.075783 -257.139282
-54.686192 -67.984909 -85.658241
-18.228388 -76.245705 -238.566940
-156.434601 -72.601425 -238.325867
-110.308708 -61.667015 -176.183182
-83.737106 -75.192581 -107.811890
-28.269049 -65.080849 -44.334023
94.141266 -79.456558 -85.342979
-154.028366 -82.210602 -259.599548
-85.100639 -74.935043 -107.372566
-62.744411 -79.666718 -245.276550
-48.120377 -72.188179 -161.566620
-108.182426 -69.086761 -213.498215
-153.732544 -71.761162 -188.712387
-2.147436 -74.476143 -228.025528
14.974495 -75.682831 -174.973663
-148.500519 -62.990089 -171.519302
-153.186523 -81.932274 -250.815170
-47.910378 -86.183167 -194.740433
-137.953430 -63.315060 -253.841446
-11.672749 -73.414093 -231.530563
-143.992599 -71.023170 -191.864716
-31.176634 -79.186646 -184.355316
-74.663658 -76.214859 -207.102982
-141.255875 -62.650188 -197.500366
-23.857193 -71.616470 -216.741562
-27.493629 -69.829933 -220.329865
-27.826265 -72.421455 -195.968536
17.220510 -72.502312 -188.460007
-161.577072 -72.369217 -252.436722
-21.547119 -72.323074 -289.632751
25.673151 -80.703613 -144.472763
-139.570068 -76.435890 -221.777786
-125.757744 -66.010551 -200.685211
101.975433 -72.216331 -105.706291
-23.328176 -75.013931 -209.988510
-167.219574 -66.108818 -252.195496
-43.635498 -69.891624 -149.948807
40.987114 -77.630127 -129.022400
-88.563263 -65.533272 -109.082626
-155.451675 -66.660965 -193.565750
-2.929103 -68.271004 -236.547058
-36.021317 -61.987080 -44.630020
25.046700 -75.072433 -173.648376
88.985497 -76.004646 -93.266617
-6.137527 -80.932686 -168.180695
-155.645599 -67.820671 -282.470520
9.883124 -77.614044 -198.335892
-155.691238 -75.313751 -307.078461
13.072598 -64.626305 -151.427704
-106.199471 -71.726067 -285.605469
21.418886 -70.285965 -192.847076
5.667340 -73.502884 -161.091141
21.601767 -65.591583 -23.757729
-46.801617 -70.297485 -136.780304
-10.949391 -70.412277 -216.202423
-174.713470 -74.567215 -272.407440
-96.119568 -62.289528 -149.774216
-40.554546 -77.822723 -236.170776
-63.051357 -77.880920 -93.801804
102.039574 -75.226364 -91.303215
101.809143 -67.780067 -82.706528
-152.919403 -70.198410 -306.846222
-3.523643 -80.982056 -274.150238
-19.527271 -74.049194 -261.642303
-152.737686 -70.926376 -182.652222
-28.830242 -75.869827 -196.379745
-66.811012 -76.951790 -174.250031
-54.944054 -72.396614 -152.339645
17.438002 -73.351570 -209.535538
14.593308 -73.853622 -170.305298
94.785431 -75.768944 -206.479691
16.394825 -72.080658 -239.558670
-64.974106 -69.688026 -286.319122
-153.744980 -71.536285 -198.638321
-19.377052 -66.254051 -201.385284
-136.633163 -67.993759 -249.626007
85.527161 -77.900261 -210.633316
49.615429 -67.743874 -242.532135
-87.931313 -64.181252 -49.728653
-77.616524 -77.131317 -59.582310
-38.293507 -67.626091 -168.474213
-9.960280 -76.429047 -290.034149
-168.751724 -63.319271 -199.028992
-69.707085 -74.810112 -248.602371
-85.541328 -69.641624 -55.602219
24.821011 -68.918030 -158.921265
17.418739 -77.322876 -205.578064
8.162239 -82.932304 -215.742447
-7.488222 -67.034554 -281.805847
0.741248 -62.405582 -238.050797
-170.286209 -68.662117 -246.118607
-126.955696 -70.262733 -226.708130
-31.330542 -70.980461 -176.152939
-59.879848 -68.416855 -115.806480
-24.853407 -78.679863 -215.944855
-74.095268 -61.853481 -43.683720
-17.787600 -78.514313 -191.550583
36.572838 -63.679317 -38.321018
-37.732708 -69.729874 -176.483185
-18.233561 -73.800629 -249.231995
-150.818970 -62.252003 -259.555054
-134.976044 -74.466019 -228.231705
-38.861023 -71.194252 -164.005432
-1.944820 -85.617516 -264.089996
70.543266 -60.703716 -62.093864
99.180901 -80.616287 -187.969284
91.971573 -70.292290 -208.865479
-152.828735 -83.960144 -182.954605
93.016449 -76.283554 -76.985268
-63.467022 -68.413795 -125.074448
7.842229 -82.883148 -257.178589
-155.794083 -66.316933 -178.643051
105.807213 -74.500145 -181.975296
45.391685 -63.233337 -28.936937
-156.097046 -75.371407 -271.092133
-24.602966 -75.650017 -218.788071
-42.606945 -84.570816 -77.436516
36.220039 -65.068275 -122.900612
20.116848 -79.511719 -160.844559
108.803009 -71.253944 -134.728226
98.554131 -65.035423 -104.393021
-74.828903 -82.009171 -81.375946
-86.861000 -65.833618 -116.025398
-152.375076 -67.967033 -259.600433
-11.239669 -69.585594 -233.407166
110.867111 -70.198181 -170.118027
-28.126930 -70.944679 -194.487137
102.835350 -66.521095 -89.723938
-72.144829 -74.307465 -246.814026
8.155399 -76.877121 -228.199265
-164.282837 -64.102676 -205.369797
-78.787239 -74.773636 -131.529358
86.407097 -72.411369 -224.279587
-52.963169 -78.524406 -191.185608
114.951324 -73.607727 -128.200989
-73.594719 -69.764282 -151.302155
-61.961140 -78.697380 -178.260559
24.147738 -67.611946 -165.727203
-19.623907 -70.092857 -214.592377
69.918304 -77.548515 -234.527466
-143.537659 -61.447025 -223.596710
-11.756737 -76.017357 -207.439758
15.306045 -75.543564 -175.230392
-155.832275 -69.847191 -199.003006
18.603788 -82.466881 -246.725861
34.560986 -60.627556 -122.125732
-98.951447 -69.511482 -248.723572
102.519112 -68.154671 -94.147141
33.856823 -62.916393 -38.283527
-126.886803 -63.924500 -199.875717
-1.861098 -67.436859 -291.846527
15.944565 -72.980469 -184.343643
-160.048264 -66.328354 -191.963379
-84.856720 -70.773079 -58.756756
-25.718407 -83.346413 -180.557678
95.052040 -74.327728 -205.936676
-150.806595 -71.420197 -261.486969
5.516890 -87.285248 -256.099823
-98.701065 -62.464622 -111.422768
-68.872986 -77.709259 -157.900909
25.631222 -72.126266 -140.778015
-164.431320 -71.497818 -255.709183
9.739666 -72.136414 -235.754120
17.407515 -59.635921 -250.701523
-66.004715 -60.269779 -87.831253
31.659191 -83.258675 -144.783585
-48.382721 -67.967094 -157.014267
42.667778 -77.407417 -125.262962
-62.339619 -69.571075 -137.703476
-145.746735 -72.653870 -259.504120
19.615047 -73.742599 -190.596558
73.064034 -79.190781 -95.765297
-35.423027 -69.875061 -160.335464
-164.481842 -66.264381 -284.335236
-18.864960 -77.545189 -259.744507
-24.759611 -71.702950 -203.799835
-125.932854 -76.040382 -284.786865
-93.291504 -63.025326 -118.022675
-20.790611 -72.347031 -202.162476
-50.348446 -65.158714 -136.995483
8.516542 -64.977898 -288.925446
-41.496246 -78.099449 -81.833618
59.140175 -73.647926 -239.581909
-153.625580 -66.189682 -194.262772
-49.640530 -83.246994 -189.376465
11.225823 -68.276558 -152.569641
-131.917038 -61.838303 -223.800903
-19.101805 -71.358322 -211.404419
-135.695114 -76.897842 -257.220306
115.290207 -71.850334 -121.711128
20.129841 -78.499573 -181.730515
87.549026 -78.480621 -94.404480
-48.077412 -75.048546 -246.969070
5.082950 -68.333191 -155.865158
-79.949997 -65.980400 -118.160568
102.241463 -66.182343 -74.715691
-13.504596 -73.091309 -284.212250
-70.214653 -78.452545 -66.300926
9.267059 -83.247406 -231.171768
29.651369 -69.323685 -165.580811
30.779137 -70.399559 -31.302799
37.865601 -77.032234 -105.390015
100.260506 -76.106056 -88.546173
-144.492691 -72.480713 -190.311203
-64.037643 -59.111359 -81.266655
44.811459 -75.571526 -18.894434
-25.010025 -80.505806 -192.487747
-21.144737 -77.930984 -254.323822
-160.904083 -69.731453 -300.073273
2.742830 -76.880569 -242.293304
13.649242 -81.933983 -211.503647
-73.565346 -71.171471 -136.517227
47.402969 -69.616119 -97.557793
-28.116619 -69.837509 -240.037735
-53.549519 -69.159706 -41.894279
-61.693600 -68.962631 -128.171768
-61.841576 -83.693008 -67.324669
48.009781 -70.408722 -24.677624
-68.600471 -63.191231 -107.479248
-151.306976 -57.212170 -194.945724
-113.175308 -68.905930 -177.681732
-148.477020 -61.290756 -182.619583
-7.331478 -65.781120 -239.225983
-128.185532 -63.384178 -194.535004
-85.875946 -70.815804 -118.176292
32.186718 -67.533562 -148.072021
-14.885431 -77.410248 -289.469513
-151.025131 -82.280556 -217.829208
108.055847 -76.209671 -120.835106
-150.188675 -78.911125 -216.081528
12.858921 -69.110809 -281.072388
-18.861601 -67.792770 -201.649994
-83.061592 -73.634621 -61.543961
100.523254 -70.506668 -103.719521
-69.430389 -82.359940 -204.149719
-25.214729 -72.327980 -220.826385
-170.435699 -71.131721 -219.408249
7.331482 -72.437866 -214.271347
-66.124939 -80.224609 -164.993851
-32.117332 -64.734093 -48.228230
-72.366814 -71.801331 -138.864044
22.100592 -69.497055 -151.245316
-21.421795 -71.306831 -206.537186
5.150820 -68.723961 -212.050079
-115.037773 -62.354862 -176.004059
-130.688461 -70.047607 -190.573196
-57.721470 -86.528595 -84.231575
-54.550209 -74.057373 -134.072449
90.194046 -71.021614 -212.708511
1.621021 -80.372185 -221.723648
-72.984032 -82.569626 -83.828125
-28.195759 -77.043442 -178.561737
88.832970 -74.689087 -77.502831
-80.509857 -71.957275 -97.785805
-115.623451 -66.036949 -189.638199
-3.292765 -67.861061 -233.695084
102.206360 -62.397324 -103.269234
23.759661 -70.093239 -156.203552
-53.618851 -71.109329 -45.378319
-19.194099 -75.823410 -285.219940
-158.658401 -76.557152 -301.947937
-159.025864 -59.998577 -256.865082
26.640011 -69.320953 -148.828812
-56.126835 -62.815250 -117.144012
87.826523 -79.759071 -209.395157
-58.041241 -67.018311 -85.006073
-62.951885 -73.823898 -41.932346
-52.358971 -84.011398 -83.557373
102.955307 -69.174820 -122.734077
96.333267 -64.290825 -65.545593
-50.127983 -75.093216 -137.743317
-79.967438 -73.418877 -204.352615
-173.285248 -72.064751 -278.154297
31.607498 -64.845284 -36.602604
-39.356014 -76.706429 -178.308289
-77.636917 -73.153053 -133.341660
-119.031029 -67.702393 -289.820068
-52.393993 -75.240562 -152.715347
-56.807507 -77.704979 -168.758270
-131.665771 -68.863182 -284.866638
-18.840572 -72.755768 -231.934967
30.866632 -70.047989 -15.419867
-157.988983 -66.644516 -281.710846
-150.733307 -76.650642 -276.765442
-66.194542 -61.743946 -116.475876
18.618818 -76.196968 -189.004227
-71.971199 -68.002029 -40.878262
-39.682785 -80.010185 -54.815231
54.148052 -61.278908 -88.454605
-57.889271 -66.468956 -140.781693
33.641632 -63.856678 -37.170452
-89.769272 -69.944656 -213.921753
97.706375 -73.469940 -79.174843
-44.448822 -66.756599 -80.790321
-11.901811 -78.175880 -271.970032
17.423124 -72.096581 -164.306366
42.596718 -66.620239 -18.912020
108.799850 -77.090851 -178.056885
74.314590 -78.429070 -93.627449
13.734077 -84.946716 -215.538437
-69.841743 -63.081768 -43.861298
-133.005112 -76.648605 -221.385773
-25.295883 -70.255653 -195.805115
115.022888 -73.777473 -148.408432
-158.625671 -77.335838 -190.302902
-20.941214 -77.993057 -218.661438
-41.349861 -75.037056 -208.736832
-142.967407 -73.569389 -281.218536
68.323441 -67.062164 -68.753357
-150.359802 -81.871849 -248.768387
15.506077 -78.498802 -173.264343
-29.022903 -69.627831 -181.236038
-57.843357 -67.879265 -84.523193
-39.145889 -80.040680 -63.523430
14.411387 -71.840057 -218.208618
-82.127090 -72.010422 -100.704269
8.707963 -77.972000 -273.892242
-129.542343 -69.826141 -219.453430
-110.528831 -70.568382 -251.533112
16.140640 -74.250496 -164.237488
20.964426 -65.412720 -257.803375
22.223017 -71.787445 -154.942123
6.764830 -77.903656 -228.084579
-35.151749 -82.597931 -80.111107
-148.185303 -76.457123 -288.668182
51.902321 -68.360687 -95.134254
6.198376 -73.945877 -210.572342
-44.133022 -73.984657 -151.627228
93.523972 -76.370247 -94.336334
-6.703077 -71.842369 -223.842194
30.784060 -76.863853 -128.096344
-57.889099 -75.995934 -52.564053
-3.190715 -72.175705 -237.033478
24.354864 -68.534950 -164.648392
-162.917953 -70.595886 -265.084869
-155.084244 -78.200394 -274.646973
-12.576492 -61.964363 -63.188156
110.926682 -74.981964 -112.150284
-32.385544 -75.597389 -237.080811
-155.598816 -84.053505 -230.570633
113.745056 -76.368027 -146.999466
3.898936 -74.089691 -223.266769
17.458921 -68.097939 -164.478210
-106.955116 -71.655914 -253.812012
28.272108 -69.398445 -33.925900
83.490395 -72.472954 -217.404800
-136.356720 -73.636513 -225.022873
-82.843178 -64.619728 -45.828564
33.316822 -65.673752 -36.783779
7.348564 -81.462105 -276.176819
-118.709938 -64.151772 -194.268234
-6.089162 -79.320709 -234.868835
-56.713764 -72.301285 -286.709351
-88.220062 -72.736191 -247.965698
112.029335 -77.019096 -129.622208
-160.553864 -72.074959 -290.975769
-162.824036 -69.903809 -279.330109
64.234734 -73.716591 -237.091919
3.667665 -79.430695 -236.893250
38.025036 -72.736618 -132.594589
39.595383 -71.523781 -254.541336
38.039490 -70.512543 -14.108344
37.225674 -74.837692 -114.705200
17.979982 -75.834595 -206.217117
7.124764 -72.957039 -158.488510
67.993454 -64.718979 -73.829369
91.506020 -77.423714 -98.396996
3.671961 -75.693886 -159.782455
19.044895 -74.305122 -193.572906
18.657341 -74.755936 -258.035065
-50.945068 -78.103821 -86.018890
-45.315002 -77.481270 -80.861435
33.403732 -74.081039 -147.260056
-30.400454 -80.869286 -175.142029
-152.152618 -73.204872 -267.397949
-137.003876 -80.540787 -225.932159
-77.463173 -85.939568 -101.307678
-22.158907 -74.725021 -211.461853
-16.360876 -78.269005 -215.882446
-110.959427 -71.106789 -288.101196
-82.914673 -64.810936 -126.187737
-155.708359 -60.866932 -215.966125
-149.405396 -69.942009 -184.669159
-32.977589 -76.770782 -190.020905
67.798462 -71.670761 -237.883133
55.081203 -69.177986 -249.173157
-13.091112 -74.120041 -225.708878
-102.916100 -70.247490 -255.879089
63.638371 -74.497818 -237.886993
-9.973130 -68.278862 -226.264511
93.401459 -64.847847 -62.401928
18.275974 -65.938820 -179.643936
-0.323179 -61.249916 -241.262024
-143.872925 -80.171692 -281.251160
-152.206558 -79.897369 -251.954575
17.262011 -69.575653 -191.499313
34.722576 -72.301079 -133.199341
-23.522411 -70.409149 -289.531952
-81.362930 -64.898857 -122.438782
-162.109482 -65.081810 -212.370926
-7.549381 -76.470551 -215.771133
-152.965424 -87.269775 -285.236633
-171.473862 -67.260056 -252.353439
72.717552 -69.939957 -103.614937
83.426216 -75.938332 -213.233734
24.377399 -62.855717 -133.750900
-154.727158 -63.101162 -197.306076
20.852842 -68.680603 -164.400696
-53.133034 -81.595810 -187.631897
-46.871090 -74.388809 -137.708496
-17.244684 -72.272011 -207.859589
-81.008682 -71.162109 -253.059341
-161.030289 -68.483238 -198.177460
-156.226334 -66.184692 -302.266968
-108.858765 -66.942421 -284.806732
3.623855 -74.933929 -241.141357
-158.723526 -67.264221 -216.817337
-58.060223 -65.080299 -88.385452
-28.103880 -76.904060 -195.618271
86.116005 -63.890057 -111.134521
-130.138062 -66.943726 -200.269897
-144.316162 -75.032112 -190.928864
-27.609915 -80.190895 -173.817810
-62.793118 -86.025787 -90.652458
-166.171371 -71.089310 -210.403702
5.588778 -71.411484 -238.955872
-77.459969 -64.636765 -120.033981
-74.064812 -66.040459 -105.109245
-59.994183 -73.076561 -288.828979
-152.814499 -63.542267 -224.263168
-148.642242 -62.418060 -192.783279
92.877937 -74.346176 -205.792938
16.697342 -69.866325 -176.517654
113.531296 -71.452072 -133.756027
20.211685 -70.003838 -26.161018
94.328621 -69.560692 -109.367546
-145.207657 -59.718704 -197.385941
-25.544172 -73.546165 -214.082245
-31.284494 -80.405304 -187.978561
-76.977341 -65.677147 -131.573502
49.511669 -76.706566 -103.926567
-12.502952 -81.850060 -271.993011
-61.266071 -79.444862 -55.761269
-41.687401 -72.750267 -146.959274
-161.094467 -61.580452 -284.926300
-5.897021 -82.183426 -223.288727
-62.757885 -82.844109 -204.923492
-48.323444 -72.850319 -141.046051
102.333473 -65.105919 -98.217796
19.619884 -69.721489 -191.699860
107.400902 -74.596428 -123.502769
-150.519257 -59.903202 -210.495865
-76.881065 -73.652534 -99.598770
-18.067467 -70.194466 -227.098740
-138.643066 -66.288582 -256.905334
-55.986126 -58.522907 -135.276657
-33.684113 -73.736198 -189.383316
103.568001 -66.716492 -105.105774
-150.883789 -81.129532 -200.164749
51.501904 -67.902634 -241.865829
17.634840 -66.686234 -175.989090
-154.651093 -64.388916 -252.023911
7.774063 -61.277878 -239.354462
-78.586761 -71.466339 -115.625702
-136.234299 -66.344688 -288.125366
-149.833389 -76.626472 -284.535370
-90.083740 -73.530472 -60.791332
49.434376 -74.346024 -94.421471
-23.542942 -78.711388 -212.133560
-50.044987 -77.733009 -245.285660
-34.308144 -65.612328 -77.169601
-4.213427 -63.797340 -273.593689
52.353649 -66.802315 -104.692543
-31.661087 -79.199295 -181.995743
-35.108173 -75.243027 -56.757240
17.731245 -66.208519 -177.485046
-29.596447 -72.886955 -178.888931
12.248075 -83.720757 -239.630356
23.542982 -63.600628 -29.569757
-158.959717 -77.202347 -224.737717
50.881145 -74.445480 -21.211327
15.168317 -69.880379 -187.090820
-36.861874 -71.260246 -152.888443
27.498314 -76.457054 -139.365021
-140.260956 -68.021042 -278.151093
33.628716 -70.524544 -121.893639
100.206291 -73.499016 -101.333939
-37.040092 -81.915207 -177.710892
-142.844772 -81.427658 -195.694321
-75.408035 -68.361221 -129.121643
50.523937 -73.349663 -250.471786
1.554909 -79.954445 -231.876709
-152.940369 -72.622711 -208.999237
-121.102654 -70.883347 -286.259857
36.300365 -63.416706 -120.648727
-60.948509 -84.190979 -70.008682
-45.217136 -65.939819 -150.301956
-128.994598 -72.466675 -199.415405
-16.500496 -75.695717 -226.389603
-63.324074 -82.205673 -169.781250
-43.270458 -80.425797 -162.956116
-119.128883 -71.225243 -288.802368
-109.768761 -71.481346 -281.127289
-30.595543 -76.736908 -193.144012
-12.104362 -69.870613 -277.791656
-96.604980 -67.492455 -281.797943
0.506983 -71.931129 -157.016800
-119.961136 -71.070633 -287.954163
-49.319065 -63.206177 -78.587189
-80.578171 -68.336189 -127.192665
44.910542 -69.094505 -111.374039
-85.002174 -61.812725 -111.256935
44.903545 -63.576546 -39.803463
-90.935410 -73.264923 -113.887619
-22.714148 -72.232239 -189.553665
46.103989 -80.540657 -103.953392
-58.385910 -71.083191 -121.484123
-151.425797 -77.596672 -206.735947
56.243202 -73.167427 -100.913132
-156.252151 -73.540398 -243.623947
31.075024 -75.408226 -157.075287
-41.340874 -63.203129 -75.652679
-149.510056 -70.552002 -231.529800
51.014221 -66.275131 -20.701820
-160.918793 -71.964630 -298.096008
22.139856 -70.650101 -260.160248
-140.370972 -65.038330 -281.424530
-44.143581 -69.658691 -167.275284
108.409218 -78.595085 -129.624573
-44.213184 -80.025558 -61.028511
-154.564392 -79.450020 -247.195023
33.442238 -73.890556 -37.759388
-151.618896 -72.025475 -214.567673
26.473482 -78.019432 -161.839447
-28.397306 -75.070526 -216.015503
-28.423090 -76.608727 -242.800903
-6.556724 -75.109833 -231.281708
26.416210 -69.222458 -25.039162
-140.412476 -69.325768 -224.613068
23.788687 -65.182869 -32.709702
-82.365456 -62.479549 -117.558121
7.937953 -65.921570 -242.513977
24.301382 -78.951042 -181.322525
-80.538422 -63.597027 -117.203087
46.242222 -80.030876 -120.030304
-164.713898 -70.690926 -210.827667
105.695778 -75.135750 -118.595230
107.968330 -72.520157 -121.860359
-12.659925 -78.029037 -206.215195
-84.907501 -80.781868 -87.697693
-1.405769 -60.842541 -254.741821
-153.592850 -70.425941 -193.539841
-50.245892 -77.714050 -146.643585
-21.743322 -79.738792 -189.271896
-2.299944 -69.238014 -227.791428
-28.782953 -79.183968 -193.313782
-24.324486 -71.205765 -205.056839
20.658155 -74.483818 -261.635193
-151.289734 -75.932442 -239.897537
-68.599693 -74.568108 -247.595413
-24.085215 -79.800766 -178.281479
-103.708786 -74.066521 -217.833023
-149.599411 -72.725410 -278.893921
67.459435 -67.216301 -96.629013
-99.529465 -63.653160 -70.914543
-153.528900 -73.510002 -251.286301
51.639393 -74.406609 -102.034203
-33.676479 -76.644508 -65.064362
-143.821121 -62.063065 -174.374191
57.865208 -70.819763 -103.842010
96.185997 -73.290154 -206.832794
105.017433 -75.799088 -179.932266
-104.761192 -69.637840 -150.530579
-76.110306 -73.987320 -134.675079
-86.295189 -62.188591 -112.581993
-97.425591 -69.448265 -146.758636
42.500015 -72.792923 -38.045845
17.241461 -71.208939 -193.777145
107.519089 -77.333725 -161.837494
-55.076439 -81.226692 -67.450829
-121.080673 -66.848213 -198.855515
26.943903 -71.964302 -161.899918
-54.260563 -87.141220 -85.524414
-36.407372 -77.487671 -235.377548
-27.787174 -83.356750 -185.714325
76.472755 -69.173210 -67.448799
-86.694618 -84.177048 -95.655869
-57.283775 -69.965675 -283.996490
41.225605 -74.108284 -102.260712
-77.686417 -65.840492 -104.327461
-169.089371 -74.093224 -282.546631
-10.509081 -73.645485 -214.404282
28.920361 -68.546936 -15.985209
-59.958469 -78.992340 -177.673752
-77.787651 -74.203339 -204.674408
14.691451 -79.318657 -248.630020
-16.293114 -72.356102 -230.173843
-153.492981 -71.183578 -288.657562
-85.324501 -64.686646 -104.592377
-18.708759 -73.238861 -223.879547
25.363314 -82.630226 -151.523407
37.752930 -76.542847 -133.465378
35.801464 -73.110817 -12.593386
-73.384598 -76.658745 -51.667255
-154.294510 -63.769527 -281.410034
-73.134697 -79.581879 -209.885651
-16.953796 -72.233437 -230.964706
-30.236992 -73.439697 -56.349819
91.955566 -75.069534 -201.243225
-156.914536 -62.080627 -261.993134
-80.062225 -64.802605 -44.862549
-84.980217 -75.579453 -214.835251
-158.967850 -61.413841 -251.058990
-39.935417 -70.857803 -169.025345
7.923273 -82.858498 -271.714020
-80.779922 -66.808357 -120.781357
42.956715 -65.820709 -246.985153
-49.345676 -81.924622 -153.226364
-47.810505 -76.262360 -148.842484
-12.049537 -76.633362 -249.074585
51.421356 -74.193314 -239.931107
14.014977 -78.413826 -205.716995
-157.518845 -83.122047 -256.447144
6.437144 -78.247536 -247.953140
13.087709 -83.111565 -261.275574
-30.117239 -78.069061 -172.113541
13.034231 -70.489075 -147.939865
-138.021881 -73.903183 -201.818222
-43.329601 -81.181229 -198.057266
-53.468685 -70.537636 -132.202393
40.988350 -75.012207 -123.636284
30.115442 -78.549820 -124.303917
8.072293 -64.802948 -240.290070
-56.009460 -75.468124 -242.931305
-162.778549 -63.878914 -198.392365
-13.364521 -79.663528 -173.081924
103.617302 -80.329033 -183.187561
104.787682 -73.717918 -179.230362
-12.020996 -74.854568 -201.118332
17.958267 -79.097305 -170.741165
-43.272717 -81.147102 -57.812141
102.622696 -76.921356 -188.302643
-70.044685 -74.907921 -286.162292
-130.829269 -71.699966 -278.878479
-76.253853 -65.291344 -101.025642
-1.956521 -73.636940 -219.946625
-95.951355 -65.468086 -75.545792
-80.830429 -86.892693 -82.378975
21.319906 -66.444389 -259.207397
23.572611 -68.563080 -140.781158
24.543266 -72.929237 -35.489346
-168.573242 -68.663475 -256.703339
67.924217 -71.281258 -78.497154
-31.286022 -72.309875 -74.955711
-26.390993 -77.984337 -188.384094
39.857418 -79.278954 -124.726860
-9.204967 -62.551945 -57.945210
-49.797798 -75.034889 -86.304741
19.548018 -66.155128 -268.416870
25.322157 -71.069595 -150.371063
24.492733 -73.959305 -135.988983
-108.795395 -69.871796 -221.075500
9.719084 -79.366798 -232.518097
99.718536 -70.683945 -74.788788
7.012354 -70.037659 -231.482452
-13.921677 -68.055145 -206.146469
99.655586 -70.637527 -198.416718
-55.897087 -70.156227 -85.134247
100.299286 -64.324547 -104.887466
-162.389984 -73.285965 -221.839432
22.501762 -70.929588 -33.234745
7.399741 -65.969521 -286.130188
-155.108856 -72.239479 -291.479645
-151.267395 -74.607224 -223.393509
-83.140503 -65.098145 -47.307930
60.965862 -69.356857 -95.738983
-116.035011 -71.262466 -282.434387
-149.573807 -78.302681 -202.778275
-71.336342 -84.373787 -206.783249
21.763557 -77.982277 -140.444321
45.231205 -72.234985 -25.884470
-12.969878 -78.565483 -207.450607
-31.965845 -80.220139 -178.478470
-87.736809 -76.688789 -104.489708
-162.438705 -71.014832 -280.610687
-155.033539 -66.834175 -255.173553
53.625637 -72.719002 -245.862717
-44.144123 -76.125938 -240.251358
-27.621683 -77.925240 -221.852173
-56.110344 -73.678528 -138.769867
-156.215881 -78.710396 -194.457581
-152.069580 -69.280525 -290.448425
-11.397000 -76.357079 -218.996994
-51.831108 -84.708488 -197.935410
-43.671875 -81.589081 -160.470779
13.257751 -80.825600 -232.277283
-152.967926 -61.814442 -203.075775
36.387096 -76.684746 -132.906021
57.341717 -71.681755 -239.599625
-25.811468 -78.783409 -180.823883
-169.748795 -72.666275 -235.746277
2.638719 -77.119164 -243.952560
-50.108604 -79.604416 -141.275574
-158.221848 -67.533287 -175.750168
-41.802727 -78.801064 -167.370621
102.422409 -73.458031 -103.189621
37.870430 -78.909630 -128.254532
22.072500 -79.299118 -143.788345
-36.398346 -69.147667 -176.163818
56.870396 -68.937828 -242.337189
70.483261 -74.830872 -82.699638
-150.753815 -78.589340 -279.754242
66.122620 -71.470184 -240.759888
111.817551 -71.485176 -145.984268
-56.372482 -78.945457 -199.512543
55.231853 -69.023033 -248.550018
34.536087 -61.600727 -14.943781
-103.268364 -68.060150 -219.708954
-60.298775 -64.960175 -134.924179
-97.646179 -71.385757 -282.469147
-60.288689 -84.029396 -76.341309
-149.373871 -85.020599 -283.784943
-55.967720 -78.458618 -52.771603
24.584433 -74.553314 -182.085236
-76.252953 -69.986397 -135.504364
-60.513752 -82.269127 -204.916382
11.627815 -71.387268 -238.677048
-46.742367 -75.462135 -54.055965
-61.288574 -84.748497 -82.898682
54.217064 -63.939842 -29.748711
6.234671 -77.912231 -207.001419
-151.573761 -66.780022 -239.155289
72.754669 -72.649986 -99.556091
-153.506317 -78.999512 -182.975082
-27.526680 -82.129074 -238.271210
20.052376 -66.044197 -173.467194
41.963081 -79.554482 -128.413879
-107.181602 -67.817581 -289.511017
2.393064 -73.831818 -240.365234
-42.935307 -75.436523 -198.126556
-76.293350 -63.227287 -120.831497
-18.322048 -75.078194 -274.076416
77.693245 -79.555397 -227.885391
96.124260 -77.490059 -206.061966
25.070826 -80.559074 -160.667587
-44.167297 -88.465866 -188.384949
-154.221130 -61.933788 -173.161270
40.941074 -67.518150 -36.204842
-152.329758 -65.938866 -184.226135
45.287121 -67.325531 -37.534081
-3.078945 -85.153824 -261.659119
-40.270855 -78.168968 -158.001221
-69.146194 -82.427208 -207.845078
24.669310 -73.271309 -21.307194
-49.031235 -69.950943 -140.027908
-39.351593 -74.948730 -204.792435
-34.482849 -77.242622 -212.187149
68.762489 -74.799965 -74.960571
-162.083160 -71.168526 -263.869598
65.742271 -66.388268 -86.203148
-167.914841 -68.912216 -286.340759
-43.205780 -73.820457 -54.292187
-72.250923 -74.294472 -148.755875
20.633696 -67.681152 -188.524200
-60.790989 -67.800957 -138.983490
-22.901711 -80.677086 -204.042664
12.763196 -74.636559 -202.126678
3.028818 -64.281960 -239.994354
