# This PCD file was generated using the MATLAB® pcwrite function
# from Computer Vision Toolbox®.
# .PCD v.7 - Point Cloud Data file format
VERSION .7
FIELDS x y z
SIZE 4 4 4
TYPE F F F
COUNT 1 1 1
WIDTH 1412
HEIGHT 1
VIEWPOINT 0 0 0 1 0 0 0
POINTS 1412
DATA ascii
-11.355325 -69.471313 -228.023651
70.702400 -73.356155 -230.950607
63.379768 -73.256477 -232.815308
71.987709 -72.150993 -229.053696
-136.539780 -69.314888 -235.240021
68.896584 -73.750618 -231.930496
64.918442 -70.539078 -234.959839
-167.443680 -71.143761 -231.902847
0.218190 -78.991966 -241.008713
18.135723 -73.922180 -239.459076
-7.243539 -70.152412 -240.875229
14.532422 -67.860352 -239.340530
64.994179 -73.657150 -237.756393
7.718612 -70.938362 -243.466019
-12.155381 -66.812630 -241.060989
-1.783713 -69.564774 -237.628098
63.745686 -73.377541 -242.074661
1.850455 -73.221825 -242.677322
-8.197716 -73.445381 -243.325562
13.072506 -75.064362 -242.909531
-168.710693 -74.185143 -242.490417
54.852867 -73.087761 -246.969742
48.802696 -67.322266 -250.648102
56.992794 -73.454765 -242.505310
-13.338591 -71.045853 -248.158783
56.002899 -72.575340 -245.397202
-75.060318 -72.209534 -250.555939
49.609425 -73.167351 -248.410583
-89.902199 -72.494209 -253.288605
-124.342628 -73.760208 -257.704773
-133.558838 -72.608063 -254.046722
44.969620 -74.326019 -251.645889
-133.723434 -75.133163 -254.275604
-110.342636 -70.919090 -256.042725
-117.206497 -70.460846 -258.460602
-84.897400 -73.091591 -255.427246
-112.116745 -70.999420 -260.104919
-125.178490 -75.892647 -263.445099
-147.575119 -70.227516 -268.837708
-16.379927 -71.462997 -265.886963
-172.427856 -74.627319 -265.839600
-15.614498 -72.269913 -274.034698
-160.076736 -69.496513 -268.603149
-153.737656 -72.934380 -274.680878
-170.948410 -72.656906 -278.902710
-15.235482 -72.898407 -279.587311
-131.181488 -75.058868 -284.228333
-159.014145 -72.482628 -287.511261
-144.972290 -71.791924 -282.154297
-135.898010 -75.510056 -281.601837
-9.183260 -67.220779 -284.708649
-126.868454 -76.171524 -284.451141
-142.022614 -70.748207 -286.782135
-116.722900 -75.613075 -286.684540
-79.971199 -70.933273 -288.768585
-61.691883 -73.443474 -287.634399
-7.986556 -73.796867 -288.024048
-54.921818 -71.624641 -286.252472
-58.192341 -70.524422 -289.194580
-71.377716 -71.080383 -290.979645
-89.009766 -71.884239 -294.561981
-96.025314 -70.543030 -289.825989
-161.310120 -71.854553 -292.767822
-162.054810 -73.661613 -295.008148
-125.589272 -75.511276 -294.903900
-145.616776 -72.949158 -296.164520
-153.969376 -75.045715 -304.956268
-151.340378 -75.168579 -313.346985
45.182419 -69.532906 -14.435408
14.102515 -72.695587 -29.776978
39.332130 -67.750999 -34.512085
-17.899584 -74.331642 -66.578629
79.379593 -69.415642 -64.682922
86.257767 -67.289810 -65.489532
75.489044 -74.224495 -65.022949
70.342064 -72.406052 -68.826820
88.847366 -73.540482 -74.399025
-98.525085 -68.193130 -71.077347
65.464462 -71.825600 -75.036171
-38.896099 -72.307503 -77.740395
96.630630 -71.120461 -85.292564
59.206726 -68.660736 -90.094643
104.872810 -75.560753 -92.980652
99.329018 -74.631943 -97.788963
70.098770 -71.068680 -100.251213
-82.405182 -70.205055 -102.206627
52.150524 -71.157097 -103.966705
104.917068 -68.597305 -105.407959
44.906460 -71.892632 -112.175850
77.698807 -70.084785 -104.973976
39.434402 -70.840919 -107.269684
102.026550 -70.746758 -102.616982
45.353340 -70.627647 -107.568382
105.064995 -75.800034 -109.235245
107.962173 -73.939178 -110.648483
-81.614281 -69.398865 -114.844933
-85.120209 -69.616051 -120.062103
41.783955 -74.125168 -119.828392
111.667999 -72.631981 -120.599922
111.558968 -70.782784 -122.899384
-89.377876 -70.462891 -127.696045
103.863487 -72.870918 -125.125481
-61.444118 -75.464813 -132.289169
-88.304649 -71.646896 -127.996803
-74.678131 -71.479446 -127.754417
-61.339703 -67.573013 -127.304688
29.523689 -70.844002 -130.050964
40.303570 -69.635696 -134.515335
-75.210411 -70.993820 -137.219940
26.633884 -69.288467 -130.849899
109.674919 -71.078621 -142.225281
-42.156898 -71.363434 -148.652374
28.415817 -72.032791 -148.717529
111.919777 -69.496132 -147.003540
33.543911 -71.732178 -142.577957
108.355377 -69.867554 -140.137146
-54.303947 -71.563370 -149.843124
-73.236511 -68.859215 -151.578918
-57.061909 -71.811188 -153.020096
-43.935291 -74.720833 -165.317612
2.786204 -72.526451 -155.900604
107.908241 -71.292572 -152.817902
107.088326 -70.984016 -158.933899
8.138566 -70.643280 -157.451340
1.427432 -71.308502 -161.356812
17.307947 -70.488571 -155.193237
23.736776 -69.908394 -155.558243
106.893494 -70.694572 -164.936783
107.747864 -74.150711 -167.000595
22.149595 -68.685684 -174.302505
23.134253 -73.247368 -163.700241
110.357788 -69.195160 -161.280350
-30.874693 -70.214211 -177.460876
108.387856 -71.326851 -167.050919
15.705523 -71.731331 -167.538559
19.800392 -71.119377 -167.637604
106.755157 -71.306854 -172.156723
24.936617 -70.389748 -170.257401
110.587494 -70.483459 -182.984589
-40.035763 -70.701263 -178.044434
23.316948 -70.839180 -170.992172
105.789444 -71.011513 -183.166245
21.365749 -72.230232 -178.456543
-153.550232 -70.060516 -187.624100
-29.885458 -68.424500 -189.608521
22.895977 -69.225662 -184.797226
-115.404503 -72.838219 -192.727936
-112.510193 -69.053749 -192.181381
22.114239 -71.800423 -188.419907
9.977147 -69.415100 -185.015320
-28.551579 -68.790894 -190.484467
-31.296551 -75.073967 -189.458282
-29.684313 -71.642426 -187.442947
13.076211 -69.261681 -179.949188
-152.473785 -71.417038 -196.209625
-146.991043 -71.089752 -193.943878
-145.984009 -74.303169 -199.396255
-24.565821 -70.367775 -191.616745
12.057336 -69.142120 -199.546112
97.226601 -70.341011 -192.728790
-115.324295 -70.295265 -199.225739
19.676859 -74.476433 -198.256805
-16.936153 -70.249596 -195.734467
-19.312881 -70.671989 -198.922195
99.378113 -70.030388 -198.911758
6.346786 -73.118027 -199.286163
-23.579517 -69.599533 -196.723877
-122.905846 -74.315002 -204.002853
-135.743240 -71.562691 -204.316879
-115.640106 -67.063492 -205.846176
-143.731644 -74.163750 -204.450974
15.912341 -70.874771 -197.710297
92.247536 -72.406158 -201.279205
-167.510971 -67.025604 -202.736923
98.433083 -70.824219 -201.579224
-23.173170 -74.879631 -206.276993
93.092262 -69.198341 -210.001419
86.569817 -72.620209 -211.008987
10.596243 -72.934822 -205.979996
18.269997 -70.719254 -211.967850
11.304158 -68.494308 -207.886612
-12.294856 -71.700768 -222.590256
-95.879364 -73.329063 -219.358871
-11.933110 -73.340347 -212.461624
87.589775 -71.469482 -215.816666
-95.006119 -73.527832 -218.429337
-102.585358 -69.218437 -222.044327
-95.898613 -72.056778 -220.268387
86.805038 -72.856987 -221.484558
-136.707336 -71.905495 -226.216721
-133.845779 -75.333832 -227.738480
-118.073395 -71.368050 -225.755859
-114.545387 -68.875008 -224.114304
-134.750534 -70.098831 -228.264069
-113.093674 -78.018005 -228.369614
-113.604134 -71.354385 -228.964645
-8.275958 -74.577034 -224.806274
-17.363991 -73.624313 -223.404358
-2.350086 -69.512848 -230.609451
-11.562580 -68.651764 -227.231644
14.041717 -72.195602 -233.557312
-20.241064 -69.810028 -229.418900
-168.282944 -69.946411 -223.574722
-5.458244 -71.457123 -233.648743
79.443909 -68.647675 -230.817841
9.621855 -73.222893 -233.724152
-7.237007 -70.784180 -234.978958
-158.203522 -69.395866 -237.735428
-143.665237 -70.139168 -231.536087
61.261818 -70.216225 -235.637177
-6.999865 -72.413795 -234.308365
7.945750 -73.476044 -230.806442
68.067802 -73.580856 -229.954529
75.621986 -71.850830 -233.942673
69.752167 -72.614578 -241.044907
-2.900718 -74.264381 -235.847366
56.728897 -69.857376 -237.735901
-20.316843 -74.054459 -239.996719
-16.577425 -69.273300 -240.658966
6.921694 -71.425331 -239.457306
63.475895 -74.618141 -237.602356
64.144966 -70.051865 -240.388062
48.361137 -71.761238 -245.949051
59.860344 -74.581306 -242.464340
-16.756350 -75.976357 -249.889816
-84.813408 -69.113205 -254.896545
-78.072929 -69.669754 -253.609177
43.023155 -74.310417 -247.625214
-150.362259 -72.796043 -251.794769
34.821690 -71.616531 -256.142700
-93.260933 -75.092049 -252.639282
-157.467056 -68.059494 -255.897369
-141.557297 -65.659454 -254.425018
43.963486 -71.433853 -253.369125
-126.180511 -67.924049 -258.864471
-118.082855 -71.929726 -256.265533
-93.565887 -67.780029 -257.859741
-14.935438 -68.467178 -250.644943
30.693626 -71.318260 -257.145691
23.776600 -69.116997 -259.461609
-160.144974 -67.394295 -261.527954
-115.900764 -74.304718 -263.558624
-15.079876 -71.334999 -262.188171
-133.934280 -71.499168 -266.400330
-15.244440 -70.464142 -270.552155
-165.997421 -70.983925 -273.749390
-8.367779 -72.655174 -279.665466
-161.902618 -72.114685 -288.995483
-164.946533 -73.559288 -279.095215
-143.654968 -71.992462 -286.284943
-171.227646 -73.710976 -285.904205
13.008225 -73.923012 -288.021729
-104.211838 -72.768242 -287.363922
-88.250389 -67.736206 -286.744415
-168.848602 -69.048080 -285.836456
-93.093376 -75.551559 -284.733337
-154.760300 -72.247406 -289.626373
-76.492645 -72.697395 -294.261353
-71.688286 -71.098076 -289.339783
-83.572159 -72.789337 -292.005493
-4.762733 -69.195900 -289.135590
-89.086235 -71.732712 -289.371948
-100.049492 -73.170708 -291.726440
-117.709763 -72.131462 -293.582306
-117.634125 -69.176033 -293.736267
-135.230316 -71.200104 -293.240204
-143.816437 -72.096970 -301.888702
-145.173691 -73.382339 -312.836273
21.199276 -68.030266 -15.105648
29.650164 -69.237625 -16.296213
26.698826 -71.882286 -18.152933
41.514370 -67.983345 -20.391117
22.339739 -69.875908 -31.588921
-77.369034 -68.241066 -47.655525
87.358932 -65.850693 -65.001511
-19.941656 -68.229012 -67.754547
100.358734 -68.974892 -72.267807
92.840904 -73.799759 -75.003998
66.281921 -71.454529 -78.081230
68.056229 -73.316071 -82.180016
-46.884396 -73.318237 -82.796455
58.958538 -73.379669 -82.021156
-96.602585 -70.503380 -89.030273
-51.414684 -67.899132 -85.669304
-58.069885 -76.728218 -87.974266
98.892906 -75.508553 -96.894104
57.070240 -73.241562 -91.892807
63.726917 -69.444229 -90.618729
-97.849083 -64.888725 -97.669754
105.720184 -71.560638 -92.375610
41.993973 -68.913124 -98.701370
99.309700 -69.911682 -97.454750
104.699928 -68.166351 -105.304443
99.217834 -70.534943 -103.875496
71.784180 -72.390175 -100.227646
85.258781 -72.260849 -105.966057
47.996475 -70.042809 -110.896599
108.572525 -68.068901 -102.876991
44.152939 -72.768578 -105.133972
38.478043 -68.366737 -101.343124
110.737312 -70.621864 -109.602203
-80.571281 -67.463440 -110.247772
44.097275 -69.434669 -112.593109
32.770706 -72.164581 -114.841225
103.445839 -67.971115 -109.407196
37.394962 -67.445694 -111.283752
-90.072067 -69.649734 -113.498955
-97.561813 -67.179153 -115.498688
102.101540 -73.384407 -118.415916
-96.740295 -71.356911 -119.287071
37.030418 -72.254456 -121.014153
35.022476 -69.935234 -120.535538
-85.341728 -69.692970 -124.791603
30.554613 -68.531166 -134.494308
108.999939 -71.654976 -130.464996
-54.465382 -69.845894 -136.408722
-90.108559 -68.904602 -132.247345
36.083092 -73.465034 -131.383438
-90.927704 -65.884384 -136.508453
-90.705734 -72.119972 -140.197647
-51.484032 -71.283173 -137.124146
-72.652855 -68.271385 -140.003387
-52.542751 -69.138313 -133.803238
113.612953 -67.761131 -136.793106
-75.046310 -71.457123 -137.277435
34.665375 -70.561424 -131.051346
-80.484497 -68.979164 -140.666733
-75.154480 -69.719009 -136.244034
-93.177383 -68.021568 -140.757690
-55.610619 -68.022362 -147.410980
29.694349 -66.466644 -145.607574
25.807356 -68.560486 -149.356049
17.391085 -65.677757 -144.250305
111.083786 -69.746910 -145.547791
-95.204170 -68.537788 -153.111145
11.304451 -71.703308 -152.306000
-73.620262 -69.484657 -153.796097
21.757589 -69.272835 -149.627197
-50.834503 -69.052818 -155.754395
7.881016 -68.844879 -153.203751
13.455534 -72.518715 -158.290131
16.183867 -74.369965 -163.753647
-50.531662 -71.992958 -162.865646
-40.858742 -69.105408 -155.113861
-48.007328 -70.411659 -161.343445
-105.241486 -70.518288 -172.618942
20.200121 -71.265930 -173.908066
-36.295536 -69.899246 -176.202652
13.930201 -73.841728 -178.192245
-145.171875 -69.981117 -176.686554
-33.791893 -67.227158 -173.062256
-156.543137 -74.392395 -178.806641
21.934650 -66.143532 -181.708160
-34.491287 -71.088554 -171.701553
-109.203140 -68.405777 -178.414093
-108.610085 -74.062790 -184.212296
-31.476810 -65.914131 -185.463974
-25.119076 -74.010750 -181.915451
12.527233 -69.309128 -189.220810
15.573941 -67.937744 -197.153671
12.395389 -70.117813 -186.897095
-144.332321 -69.026344 -188.424667
20.124010 -66.915222 -189.855392
6.147517 -70.105843 -196.726959
-138.520309 -68.618919 -195.354706
-115.755730 -69.756752 -196.184326
13.519754 -68.700500 -201.138290
-117.767975 -69.031105 -197.579773
-109.210915 -65.486565 -192.929977
-166.715393 -71.342369 -201.193237
-25.693958 -69.207733 -200.219284
11.523741 -68.795319 -200.212570
-144.347244 -70.352623 -204.917908
-137.133591 -71.945854 -207.266602
-21.444092 -68.612129 -207.479401
-13.261280 -71.289009 -204.660690
-16.124559 -70.833786 -206.083694
-142.173904 -73.283775 -205.375854
-17.832047 -70.586418 -213.061554
-11.760899 -73.851639 -214.382126
16.243990 -67.833130 -210.957565
-16.165295 -73.529877 -211.620941
9.177817 -70.536560 -210.036560
-11.660469 -71.171951 -215.718063
-22.296328 -67.772278 -212.190659
11.442668 -74.651733 -220.948715
-2.812332 -75.064064 -219.825333
9.978319 -67.042274 -221.205475
-7.225945 -72.330894 -226.983749
-159.990570 -70.859337 -226.433380
79.604095 -72.621536 -219.637787
-136.457977 -68.443794 -225.356461
-136.235413 -71.886292 -224.120483
-9.598865 -71.100891 -225.365311
7.426296 -70.283455 -233.860077
-158.061798 -69.958076 -230.689270
86.817307 -69.124420 -219.519745
-3.338534 -69.248856 -225.853760
-0.573489 -71.055611 -223.058578
72.863113 -73.028206 -228.944321
-0.492520 -68.316460 -234.966293
-15.891039 -72.249352 -227.326233
-127.625336 -68.815521 -235.275360
-5.366329 -70.204079 -237.016769
1.330563 -68.322922 -232.065796
64.944756 -68.700600 -237.953903
-159.332367 -71.549187 -239.422058
-13.538547 -69.980080 -244.891037
-170.176743 -72.553734 -240.068939
8.796596 -67.872070 -242.132690
-165.662323 -71.069145 -240.221649
-161.802704 -71.716270 -247.309631
55.988789 -70.480629 -244.981430
61.211517 -71.849648 -242.361084
55.106098 -71.068710 -244.232468
50.723183 -70.493538 -248.718643
-156.496979 -71.113052 -245.224930
-157.540131 -68.115234 -249.681717
-14.369323 -73.305275 -249.614426
-152.428299 -69.997917 -247.916763
18.639456 -71.958969 -251.199249
-170.748032 -74.905235 -252.364655
-168.651459 -68.782448 -249.649582
-83.169449 -71.864548 -249.602859
-170.415466 -70.082901 -261.149567
-86.383286 -70.121040 -257.471069
41.522594 -69.765694 -253.091949
21.269018 -73.846161 -256.258698
-159.642548 -71.259720 -263.128204
-101.809990 -65.170715 -260.520477
38.254063 -70.827240 -255.650452
-105.827164 -76.619522 -259.918396
-155.054214 -66.359543 -266.202118
-106.192848 -69.484100 -259.410400
-168.836746 -72.358627 -260.978851
-114.076874 -71.568558 -264.295563
-154.239487 -72.580704 -266.991486
-159.538544 -68.987740 -264.858643
-167.019989 -69.894096 -265.110657
-165.050125 -68.856293 -263.652222
-166.672028 -70.549744 -267.065247
-166.690521 -71.124641 -264.042908
24.834892 -71.902771 -265.262573
-150.806992 -73.745773 -264.887421
-150.630814 -70.253479 -285.447876
23.845680 -71.603638 -276.437378
-12.564333 -72.358009 -274.725433
-126.653610 -69.467636 -285.487183
-137.187897 -71.673439 -287.232391
-135.285507 -69.762451 -289.664124
-127.694519 -71.299416 -286.992615
-115.178276 -69.626358 -290.911224
-106.172462 -67.434052 -286.520508
8.500353 -73.628510 -292.564423
-85.822571 -71.484848 -290.741516
-149.949829 -71.374947 -289.584198
-102.536079 -70.964752 -291.649475
-130.075333 -68.361832 -293.014709
8.768954 -73.302765 -288.284637
-112.873436 -65.796219 -290.115326
2.098672 -71.124298 -293.346252
-144.041656 -70.307648 -290.007599
-153.768265 -71.318726 -297.223602
-158.705566 -70.510345 -315.451996
-155.929611 -70.100632 -313.123413
45.368137 -71.386436 -24.393845
20.888714 -69.512779 -35.407513
28.401888 -70.414001 -36.476696
-47.251064 -71.270218 -47.844341
-14.979746 -67.529213 -62.396431
92.063316 -70.535110 -67.846985
66.420532 -65.374763 -69.244186
-26.424248 -69.281212 -74.642723
-100.184784 -73.135788 -87.078674
-44.686111 -69.408768 -82.911316
59.349762 -68.680580 -81.116737
60.051270 -71.754524 -85.607513
51.313503 -67.205650 -87.305649
-61.055634 -68.225906 -90.764557
64.654770 -65.717270 -88.947723
41.571342 -72.545265 -97.648163
66.352051 -70.985634 -94.286629
-64.386368 -67.527458 -96.499702
48.011154 -71.198631 -92.907524
43.583527 -70.989838 -98.143539
101.240379 -66.727264 -99.934067
-68.600151 -69.198906 -99.360474
108.500381 -68.826454 -99.686111
-81.114159 -71.272568 -101.661224
52.437439 -71.925209 -104.658829
45.908669 -67.644081 -100.450317
89.758301 -67.648254 -103.261131
82.439568 -67.906754 -106.131065
52.735809 -69.259064 -104.231682
-78.327362 -69.869904 -111.598663
-78.821365 -68.515610 -115.464363
-82.360741 -70.474785 -118.882072
-95.159622 -73.880913 -119.065353
102.900200 -64.478409 -115.863609
-90.362671 -71.554352 -119.589813
-78.643211 -65.776527 -121.785103
107.552986 -68.166687 -115.339554
-63.577675 -62.054283 -118.499672
111.834923 -72.681313 -130.674286
108.153755 -70.749634 -128.692245
105.364838 -70.376564 -125.093658
-95.289070 -69.778076 -138.378815
-48.846119 -69.292992 -142.097137
-80.941849 -67.377403 -145.004852
-71.089905 -69.370834 -149.421753
-72.033592 -68.005463 -148.393707
-56.962631 -68.693611 -143.976440
-48.722843 -72.973389 -146.269180
14.612202 -69.448944 -146.268234
-95.950874 -66.390907 -143.500381
-47.484356 -67.980148 -147.561707
-53.928806 -63.608318 -148.018066
-43.819839 -67.638435 -155.114212
25.858494 -71.522873 -161.667496
-51.782925 -69.677109 -151.282227
-102.190475 -65.416794 -150.125809
-47.040836 -66.611084 -157.100708
23.952559 -71.254021 -147.962082
-100.200073 -74.105835 -163.627747
21.020990 -71.381767 -157.474548
-109.277611 -66.820633 -170.552780
-102.732567 -69.663040 -164.318863
20.550756 -69.267647 -164.768127
24.562078 -67.797424 -167.662445
-109.903328 -71.498657 -174.338196
-143.675232 -67.449615 -175.551926
-21.294277 -69.920486 -189.504333
-28.941214 -68.706055 -181.858505
-116.813705 -70.660614 -187.747650
-145.271301 -65.221672 -188.022415
-104.924500 -66.870926 -182.332184
-159.470337 -69.642212 -191.605545
-132.653061 -73.527840 -196.124054
-134.624542 -71.376213 -197.102509
-21.291552 -67.860901 -189.562622
-121.719765 -70.077789 -198.833664
-118.390388 -66.335999 -199.819351
-28.339001 -71.431351 -194.746017
-155.722107 -67.209061 -198.979782
-133.568649 -71.325928 -205.770355
-126.276062 -67.486534 -205.414917
16.758913 -71.528954 -201.707916
-163.347641 -68.965492 -204.334305
9.950945 -68.726677 -215.223999
12.657120 -70.683952 -214.606079
-18.325106 -66.233124 -209.180267
-6.300986 -69.813843 -216.439423
-171.332413 -67.007912 -211.557358
-160.377060 -66.270714 -214.110229
-95.957886 -69.406334 -219.176071
-99.843018 -71.122795 -223.512024
-162.161880 -70.043823 -226.342438
-107.737610 -67.839478 -220.118759
-13.353177 -68.104271 -214.329178
-128.670746 -71.176338 -223.273178
-143.336197 -70.245682 -225.127090
-4.356413 -71.103035 -221.371613
-135.518402 -68.065559 -225.807068
-124.972794 -73.415184 -224.133698
-115.558052 -71.598579 -225.626846
-0.854943 -65.159355 -228.213852
-108.437935 -68.210114 -231.532654
-161.676147 -64.555214 -224.179031
-147.870209 -68.713539 -227.904938
-166.628784 -69.009079 -226.409042
-9.143622 -69.208595 -226.812836
-9.575190 -69.895607 -232.696289
77.238609 -71.904213 -224.992920
-1.304975 -71.597755 -229.555878
-144.123840 -69.456009 -237.298599
-15.428504 -68.194542 -229.355972
72.882057 -70.090820 -227.597672
73.515427 -70.225113 -232.644287
-135.748444 -68.256050 -233.522430
-158.586823 -71.993713 -229.624008
-115.361717 -68.342621 -233.855087
-125.866562 -65.590256 -236.660141
-164.851456 -68.343704 -236.144424
-161.246506 -69.959785 -236.945877
-147.889374 -66.093102 -235.335144
-13.904113 -68.780022 -235.505371
-6.315922 -69.155037 -240.582642
-161.841705 -68.155029 -241.940430
4.337861 -70.625816 -238.213287
1.704789 -70.480469 -236.693375
-161.221924 -69.304550 -240.083939
15.679346 -73.512016 -242.174500
49.693710 -72.153282 -245.055389
49.487335 -72.095963 -244.091888
-17.069130 -70.856041 -247.120621
47.128540 -68.780640 -248.899231
-162.599411 -66.623924 -251.396713
-160.254135 -69.856865 -248.715546
-161.628647 -73.020653 -250.783524
53.612247 -69.704666 -248.403671
-93.342476 -68.640480 -253.547821
-126.010918 -68.926964 -255.373886
-107.004662 -73.645309 -254.482376
25.455366 -73.552696 -257.303375
40.147980 -68.023872 -250.958313
-101.953438 -67.283714 -255.740677
-94.831734 -65.814430 -252.402405
44.276543 -73.610657 -254.222900
41.069027 -68.427582 -256.487091
-156.074615 -74.246117 -259.111816
29.295704 -69.947815 -259.097260
-144.048630 -72.574417 -265.386993
-114.647804 -69.321220 -263.292297
-138.211334 -68.688873 -263.586548
30.079700 -69.676834 -262.606750
-127.381203 -68.573196 -264.481201
-12.475913 -68.712639 -258.263428
20.404057 -73.065063 -270.915283
-6.897960 -73.975494 -265.390869
18.632195 -72.044724 -279.783905
-154.407410 -71.657005 -283.574829
-12.088236 -68.838394 -280.757355
-154.260818 -73.254601 -283.627869
-124.926727 -71.587845 -285.901672
-161.616516 -75.558456 -287.408630
-115.872276 -69.871460 -287.902191
-105.568146 -70.276131 -290.300110
-8.101417 -68.649483 -285.352051
-109.439461 -71.263214 -289.971924
-117.641037 -67.798210 -286.032928
-121.385437 -67.087830 -292.475830
-139.181610 -69.719330 -290.793182
-127.349869 -67.716507 -292.404816
-158.827545 -74.276062 -290.995941
-147.960861 -68.171333 -293.827576
-157.564346 -67.757927 -302.876465
-155.173645 -68.477875 -312.124451
-159.390961 -68.575272 -302.179596
-142.766068 -71.046150 -311.574860
-150.550797 -71.335075 -314.848602
32.943851 -69.436371 -8.512243
44.370907 -72.536774 -15.879536
21.727448 -65.724174 -23.157166
48.070347 -69.475555 -26.817799
25.844847 -71.170837 -33.908291
30.545206 -70.052315 -34.127377
-59.937862 -64.801773 -47.602627
77.736969 -65.282051 -60.434933
79.053986 -69.872269 -66.070839
-92.478401 -69.497032 -62.726532
-14.745932 -66.243256 -61.326324
-94.529259 -70.431580 -70.469376
94.380676 -70.789940 -67.796349
-15.799451 -65.807602 -67.844269
65.640167 -71.382591 -78.072891
-43.940166 -72.763100 -79.282204
-29.220900 -72.209137 -75.703735
54.269146 -65.680885 -85.587685
-46.032066 -78.609367 -84.401993
62.913746 -61.802078 -86.314941
50.960644 -72.830009 -89.071053
51.757229 -68.991394 -93.036064
57.645660 -73.242622 -90.098648
54.939323 -66.069893 -95.091423
97.847298 -66.143478 -96.772560
104.089638 -65.014679 -97.627968
57.907761 -71.339592 -99.220428
105.027946 -65.048103 -98.520836
-78.816490 -68.254372 -99.465912
-74.550522 -68.183739 -102.200691
98.418396 -65.870529 -97.522087
51.355202 -69.411064 -100.167503
68.530983 -70.192368 -97.886597
-74.332474 -68.748199 -107.538818
-86.993599 -67.350540 -107.470993
87.309189 -71.574852 -103.404228
38.336605 -69.922470 -103.671158
102.991104 -65.573814 -104.822777
44.735706 -70.932030 -112.849281
108.229935 -68.960495 -102.473396
-80.533974 -68.124214 -111.269234
102.679993 -64.799225 -107.557961
-86.072441 -66.304543 -121.453926
-60.310566 -70.890198 -128.563904
-57.675674 -67.678467 -124.908112
-74.227379 -69.964890 -130.083755
-52.711861 -69.970024 -130.934830
-85.783127 -70.187271 -133.128403
-79.252899 -65.717079 -133.237640
-82.353378 -68.710716 -131.161575
-61.922314 -73.033714 -141.568420
-73.329468 -68.441299 -140.808533
-61.771122 -71.785095 -135.149643
-60.310753 -68.985550 -141.904709
15.029346 -65.429863 -143.387390
-92.721436 -69.084328 -142.495132
-49.381077 -72.315376 -146.643616
-98.187241 -66.931824 -150.078659
-102.604752 -66.477486 -149.620163
17.448503 -70.626556 -153.298416
12.374773 -70.084251 -157.704819
-97.515388 -70.372833 -160.062378
-105.205139 -68.851814 -154.600098
-102.017708 -67.662849 -168.775711
20.414326 -68.200981 -169.403595
-112.146904 -68.551270 -173.215042
21.021391 -68.965294 -165.971619
-149.233475 -68.924049 -177.302002
16.205231 -68.655090 -175.981339
22.578623 -69.636520 -185.401627
-153.908325 -67.576050 -187.436783
19.783817 -69.631126 -175.925308
17.504835 -63.559868 -180.004456
-145.262939 -72.251312 -185.535095
-153.443970 -66.583847 -190.092850
18.345732 -68.990738 -187.885788
16.907679 -70.588684 -189.374695
-143.714279 -70.771935 -194.552216
-110.563362 -69.337631 -198.247894
22.358019 -69.518005 -198.029907
-126.402626 -68.752243 -195.489197
9.147931 -71.025711 -199.532776
-131.745712 -64.199379 -195.133926
-161.008347 -66.705185 -191.625931
-163.047882 -68.295258 -197.728073
-160.355423 -69.838287 -196.048553
-21.702196 -68.973259 -204.476822
-169.154495 -71.016830 -200.612076
-28.054892 -65.944809 -192.642334
-17.037909 -70.186356 -195.751511
8.220090 -64.618576 -195.346619
-159.336639 -68.911644 -204.863968
-109.666229 -67.766502 -202.831085
-19.042952 -66.083717 -201.551529
-161.714478 -64.907433 -202.731842
15.192985 -69.144882 -201.135818
-170.355194 -66.945251 -206.125748
-122.284607 -71.141846 -203.485870
-116.931976 -66.388390 -207.975021
-124.531799 -68.022469 -205.003922
-16.362061 -68.128258 -203.484375
-18.906116 -69.191109 -204.381973
-165.822784 -68.232445 -211.827942
-161.590347 -67.022369 -213.495667
-166.304123 -69.314827 -220.637390
-142.849136 -70.827835 -215.040192
-146.215973 -69.092453 -224.828506
-4.421649 -67.419853 -219.776642
-11.028342 -72.344719 -216.763641
-101.445724 -67.427101 -221.450439
-8.173213 -67.676025 -232.002228
-168.494049 -66.643906 -230.165207
-108.167755 -66.986420 -232.988266
0.004553 -69.044601 -226.412262
1.442146 -68.003525 -229.640808
-113.175819 -69.562347 -233.748779
-2.864197 -69.704910 -228.572159
-119.098549 -66.350784 -235.049469
-9.103810 -66.298546 -233.002533
-3.553869 -67.972649 -234.692001
-2.911577 -68.657738 -237.466888
70.325806 -66.325119 -235.646606
-12.079570 -71.818451 -237.448730
6.039061 -69.602745 -236.932968
9.843404 -68.137367 -238.803497
4.131095 -69.659805 -238.563980
1.279182 -70.429214 -240.858414
62.868084 -65.166573 -237.825104
67.671753 -66.242310 -239.450134
7.095696 -68.816292 -246.611435
52.773804 -69.963058 -241.522583
54.292442 -72.544159 -239.956802
45.750778 -66.030922 -248.753937
40.095089 -67.015717 -250.714767
39.524105 -68.017509 -255.836945
-133.084457 -65.366173 -258.724609
-11.624153 -68.559883 -249.867966
27.184851 -67.908974 -257.569519
43.794243 -68.164764 -247.473709
26.163721 -71.327103 -253.388962
-104.107063 -70.564507 -259.345428
30.042397 -69.826538 -255.738022
-148.352737 -70.910660 -261.882751
-117.617271 -70.389633 -257.540741
-110.076797 -68.840401 -258.545471
-4.763830 -70.964554 -258.791473
-151.693893 -70.273811 -258.321869
34.088223 -68.806747 -261.293213
-111.013000 -67.758369 -257.316040
24.958942 -72.231903 -258.714020
-136.173630 -70.613068 -263.626740
-117.726120 -68.111336 -264.749451
-110.791008 -68.343422 -261.969055
-116.234245 -73.010902 -262.151428
-141.272675 -70.411194 -258.750214
27.782125 -69.444870 -259.687439
-118.612648 -67.729607 -263.736664
-145.573669 -70.511314 -264.436981
-6.255353 -67.133789 -270.545807
-151.902618 -71.411079 -282.127808
-9.439661 -69.775269 -286.053955
-6.494633 -66.965714 -282.705597
-135.435532 -68.884369 -288.585510
-128.643311 -69.499825 -291.263062
-136.755157 -69.110916 -294.861389
-127.675728 -68.019142 -292.603333
-155.928482 -69.694641 -295.507935
-157.189377 -69.574226 -301.239960
-148.893234 -72.313210 -301.946747
-150.796890 -69.972176 -304.330322
-146.143280 -69.152580 -300.068085
-150.502106 -68.486275 -305.229889
-147.197998 -67.213951 -315.810455
16.937962 -70.890816 -27.035927
46.898434 -70.834946 -35.197052
23.020744 -73.514145 -37.241085
30.055439 -69.132759 -42.026871
-44.975430 -62.665470 -48.002808
-78.926552 -65.695442 -50.877895
78.089470 -66.844933 -60.650524
72.275055 -68.285378 -61.494888
69.308548 -69.349159 -65.468307
-101.561798 -67.486176 -73.236954
97.088554 -71.002632 -74.789619
-32.689701 -68.755363 -82.592262
60.851360 -66.326210 -75.815224
-45.417870 -64.761864 -82.764008
-56.179829 -65.513046 -82.811684
48.647083 -68.820274 -89.846649
100.162560 -67.305107 -89.449455
61.931385 -65.712242 -93.062996
54.615814 -66.361717 -92.261726
46.566780 -65.423462 -100.852119
54.501179 -64.455139 -99.754501
100.984245 -65.943764 -96.870712
67.703285 -67.159958 -105.553795
48.083179 -67.536377 -105.147606
74.544525 -72.218582 -106.146347
93.559364 -64.522774 -106.953201
-77.370247 -65.812500 -101.931969
-88.883156 -68.282715 -110.624374
-84.271294 -68.482033 -113.162567
-62.190929 -66.812126 -118.872581
-59.154186 -71.085136 -126.175323
-96.639236 -67.313622 -122.233406
-77.128769 -69.023415 -119.773361
-78.659042 -71.078842 -132.659912
-62.849972 -65.520454 -128.552185
-90.543190 -64.397881 -130.854248
-91.745804 -67.111023 -130.532776
-50.092350 -71.253578 -135.427536
-53.393219 -68.416069 -136.791397
-79.189171 -69.366631 -138.819550
-55.852818 -69.469826 -141.691574
-76.267067 -70.648338 -144.131729
19.229763 -65.674751 -138.368820
-59.317879 -71.570526 -144.976517
-56.885399 -65.072456 -145.774185
7.392972 -70.869507 -154.802582
14.903202 -66.292122 -150.719864
-143.991272 -68.388550 -174.991913
-111.985306 -67.241287 -178.719788
-111.235260 -65.066681 -190.327927
-154.096802 -69.768555 -192.356567
-114.623657 -67.396507 -186.346558
-153.584045 -64.543816 -197.165726
-115.626671 -66.855209 -199.177811
-151.773758 -65.868019 -201.277039
-151.988571 -68.298325 -207.178207
-154.344269 -71.785408 -208.846527
-149.143753 -68.096786 -224.791916
-151.603134 -70.997681 -226.172867
-106.356018 -66.282509 -226.613327
-103.216454 -68.098282 -222.993118
-124.571693 -64.274429 -231.229614
-109.363251 -67.726677 -226.722794
-157.731979 -69.416649 -231.575089
-4.219290 -67.837402 -225.809540
-135.112045 -70.036804 -231.549088
-154.638901 -69.584930 -236.079910
-138.188446 -70.635170 -234.042984
-12.471572 -67.541840 -235.910706
7.678386 -68.589172 -242.736069
61.680607 -64.425774 -240.032715
17.118240 -71.268677 -248.192383
54.825539 -67.843643 -242.976486
40.107491 -69.909027 -249.057098
57.718719 -66.055092 -250.891006
-153.602173 -68.436516 -251.202805
-150.560684 -71.957336 -255.273468
41.698856 -67.172447 -256.209412
28.301384 -68.011803 -255.228119
46.605068 -66.135841 -252.095322
-145.862259 -71.216782 -260.388947
-137.501648 -66.945358 -256.121185
-126.020874 -66.282433 -258.646973
-135.118759 -68.695930 -256.831573
-141.938690 -69.138420 -258.757141
-124.769684 -67.746254 -260.175903
-143.854675 -66.909973 -261.145203
-127.365303 -70.113899 -260.204346
-123.484543 -68.607193 -265.086090
-128.644745 -69.016350 -265.544464
-121.513084 -65.520981 -264.746582
-6.313201 -68.822411 -265.790741
26.886324 -65.943604 -261.648926
-147.308075 -65.014359 -267.801819
25.162685 -68.718552 -268.642517
-5.908788 -64.319283 -274.191681
16.100367 -73.717926 -283.134308
-142.572952 -69.131729 -290.009583
-126.418709 -69.719261 -287.999146
-133.205414 -65.026634 -291.112976
-159.466263 -64.763702 -292.934570
-127.027824 -64.292633 -290.060455
-119.073166 -66.570518 -289.898987
-126.530342 -70.327126 -296.388489
-151.824036 -71.179741 -294.508850
25.506767 -70.843796 -11.918019
28.753902 -71.472214 -16.852819
35.266277 -68.101395 -19.304647
45.379814 -62.351563 -22.955984
24.733589 -72.562706 -27.400434
17.791624 -70.895401 -34.015976
-36.880264 -67.585358 -46.319180
-84.873138 -68.538834 -53.453445
-18.899908 -66.900490 -58.451519
70.305763 -65.343971 -63.975586
99.314507 -66.205307 -67.614365
62.379566 -65.543365 -82.195518
58.991123 -62.500526 -82.404617
97.939262 -66.923256 -83.360970
-66.386131 -64.642807 -90.774635
-67.725594 -66.927246 -91.442917
47.351086 -64.947449 -92.712654
-69.468536 -68.402481 -96.191376
-73.785652 -66.740028 -101.095299
-98.939919 -65.901993 -100.299980
-78.016129 -63.840611 -100.446938
44.640118 -63.914742 -101.024818
-69.725739 -68.910194 -103.648270
47.260227 -64.864601 -102.414764
93.978722 -66.494072 -103.695786
88.629150 -66.567993 -110.265388
-75.059090 -66.593979 -114.754387
-86.703491 -67.797783 -112.833931
-64.031158 -66.780830 -119.360825
-98.360931 -63.621849 -119.645386
-78.781441 -68.682899 -127.576660
-95.561363 -60.917133 -125.839523
-65.503403 -65.173805 -118.174019
-62.381866 -61.419201 -120.684357
-90.767845 -67.372551 -129.989395
-65.366081 -69.940224 -127.635971
-86.201393 -65.944435 -132.897659
-81.593781 -67.627907 -134.237137
-64.147095 -70.259987 -134.717117
-62.926956 -63.290947 -134.849106
-56.745705 -62.289673 -135.677887
-98.382576 -64.485001 -132.855118
-98.984741 -64.421204 -144.650284
-90.549049 -67.164642 -135.394180
18.678740 -69.016785 -148.061493
-51.922821 -67.464470 -141.970428
16.074932 -66.576401 -149.845718
-99.973541 -67.585983 -165.034851
-104.648666 -71.014732 -171.935425
-104.223579 -63.976055 -171.887650
-109.618652 -62.496017 -171.969193
-109.188744 -67.711601 -180.165924
-112.271194 -66.712090 -178.964172
-143.758316 -65.625259 -187.945663
-113.551193 -65.865417 -187.135101
-135.235382 -64.385803 -200.508987
-150.811996 -69.090576 -199.325256
-127.983360 -67.365631 -198.811996
-158.378204 -68.857933 -197.503952
-148.720306 -70.246094 -202.935028
-126.716339 -62.744781 -199.620667
-136.047867 -66.125114 -202.305115
-142.956619 -71.827698 -207.339645
-133.416336 -69.522568 -224.336517
-111.851440 -68.843979 -230.239807
-145.352783 -68.293076 -229.284531
-119.998878 -65.821907 -231.860168
-117.039200 -63.482990 -231.663071
-124.024994 -68.183029 -233.929459
-131.960251 -67.324394 -235.279144
-116.943657 -64.611160 -237.267303
3.190203 -66.382996 -235.544434
-153.243881 -69.081421 -238.732758
5.239067 -68.205101 -234.777374
4.284320 -64.073425 -241.925446
0.676829 -69.012108 -241.076096
12.792523 -64.018066 -240.445770
-145.736450 -65.899765 -236.206467
-6.200104 -68.411713 -246.962646
18.230824 -66.814316 -240.912125
48.483162 -65.489174 -249.094391
49.537384 -65.642914 -249.710052
-147.962845 -69.168526 -253.446960
-7.002189 -68.063133 -251.376816
21.703424 -67.850639 -255.460266
-133.548431 -62.705940 -259.388733
-125.292336 -65.902145 -259.489624
-125.966972 -68.187653 -258.944336
25.343683 -66.926918 -258.470001
-135.126892 -65.411469 -266.544617
29.497551 -65.221474 -260.212463
31.445391 -67.342369 -263.032379
-154.170212 -69.605698 -268.159790
-147.738327 -72.803780 -288.017456
-150.645599 -64.632942 -289.127472
-144.996429 -65.517059 -295.340302
11.036512 -70.430336 -291.981445
-155.496399 -65.689247 -301.132355
42.984238 -70.879990 -25.675934
32.694744 -72.313522 -39.834091
-64.083183 -63.977726 -46.468353
-74.970863 -64.039696 -47.101494
-29.781906 -64.019669 -50.815647
-24.826794 -69.112991 -54.644241
-14.071080 -62.737396 -66.830399
-29.042377 -62.817345 -70.039215
62.277287 -65.770821 -73.329491
-99.483864 -61.232986 -79.511261
-48.984600 -66.437576 -86.608864
52.081158 -67.135620 -85.503166
56.101524 -66.040085 -86.086876
59.717373 -66.549416 -88.365730
103.736176 -65.079277 -90.039612
49.691536 -63.430283 -90.513176
96.454018 -61.701370 -99.621368
-84.440239 -67.985619 -103.905807
-96.592880 -66.238998 -102.586952
72.861023 -62.778198 -111.506081
-79.994774 -65.541039 -104.411232
-80.109283 -70.044556 -115.373535
-86.341614 -70.448647 -119.655472
-57.632530 -67.291473 -127.089508
-79.767143 -66.520988 -129.485626
-64.837494 -63.319759 -130.152130
-86.143951 -67.808228 -135.698563
-78.180336 -65.040527 -133.714844
-82.090332 -63.267548 -126.110657
-90.990410 -64.587303 -131.110703
-67.881523 -63.543625 -134.995316
-92.811737 -65.916992 -133.598373
-52.271126 -67.897499 -133.950195
-57.877613 -70.250305 -139.605774
25.610191 -66.006607 -139.477264
-59.137417 -60.970482 -137.573547
13.150840 -69.730721 -144.066803
14.339995 -65.104622 -148.139404
15.700941 -62.797863 -153.444275
-100.101738 -64.824997 -146.082611
-93.423813 -66.444267 -150.889633
-98.313828 -62.966721 -152.124496
-106.829338 -66.527695 -162.201889
-99.616035 -65.095016 -160.088364
-153.857880 -66.475746 -176.797989
-155.691605 -66.581512 -177.183777
-112.264771 -64.407593 -182.679001
-143.779877 -64.337296 -178.834686
-111.854500 -63.296879 -182.285355
-151.573944 -60.661697 -188.440506
-113.316284 -63.433662 -193.257751
-112.147705 -66.534637 -184.843384
-145.745544 -66.066063 -200.158676
-132.009613 -67.585121 -197.856491
-108.941010 -66.457428 -198.691025
-117.730591 -61.681618 -199.977570
-114.628014 -66.923561 -201.380814
-117.765831 -62.563610 -203.700104
-135.989014 -63.946766 -198.715134
-140.078217 -66.090805 -204.016418
-132.667740 -64.930573 -208.185822
-129.227936 -61.761673 -202.411545
-126.128777 -65.040047 -205.974777
-115.451775 -65.265831 -205.698410
-149.675079 -65.615456 -215.231049
-153.614700 -66.166206 -221.366440
-154.612320 -65.135712 -223.874069
-141.899750 -70.749031 -226.456055
-133.594391 -62.749393 -228.336609
-123.939095 -68.014214 -221.524567
-142.346802 -68.042702 -230.188751
-152.721725 -68.287331 -227.484085
-135.617508 -67.231361 -227.506256
-135.035690 -63.587227 -229.632690
-149.196259 -66.645706 -230.702850
-136.395584 -61.135601 -231.008575
-129.190628 -64.884483 -231.783798
-12.031079 -68.388725 -237.140427
3.478208 -64.904922 -240.711746
12.246078 -62.000130 -243.014755
8.067051 -68.478241 -243.729568
-9.841838 -68.327568 -240.183899
-13.747049 -66.561867 -246.996033
36.630424 -64.603134 -250.164063
46.488918 -65.713440 -252.660599
-147.363220 -64.967834 -255.381500
40.635887 -64.380714 -254.768295
37.023277 -66.935493 -253.274796
-159.861801 -69.566628 -258.640350
-152.245010 -65.813065 -258.596802
-152.149948 -69.433510 -260.587433
1.284222 -67.182434 -263.637085
-152.289490 -66.878799 -267.916168
-1.697026 -66.526398 -274.389465
-147.712723 -68.691628 -275.947235
-149.120590 -66.661018 -282.781494
-152.359756 -66.370308 -286.257965
-151.154068 -60.502281 -284.791351
-146.479156 -64.970161 -290.536133
-156.608780 -65.642128 -286.511871
-152.442429 -66.350082 -287.362732
-152.930496 -64.145271 -288.760010
-148.819107 -65.801880 -288.618988
-145.260529 -65.875206 -288.361389
10.194587 -67.521194 -285.150177
-148.123230 -65.925919 -294.451752
-158.326920 -63.135056 -292.749969
-156.533783 -62.042698 -289.879517
-151.879272 -64.428734 -294.490204
-150.103607 -60.950214 -290.448700
-147.876038 -67.647789 -293.077545
2.867499 -67.730843 -292.529663
-145.392349 -64.274933 -295.533783
-149.102585 -63.300674 -294.564240
26.043716 -59.286636 -16.513037
39.349228 -69.667900 -20.240568
39.759144 -62.378601 -21.353014
15.017539 -70.164825 -31.450342
23.836586 -57.344067 -35.070019
34.762173 -66.887512 -35.742004
-59.351421 -63.287197 -44.858749
-53.575516 -64.564293 -42.537376
87.297112 -65.159607 -63.755821
-98.371704 -63.188545 -66.117073
93.698204 -72.310516 -62.217579
65.398911 -66.074631 -69.484909
98.029663 -66.931442 -77.093597
61.097061 -68.729088 -75.788765
-44.538898 -65.740814 -78.121933
57.442291 -61.978039 -81.463676
-56.158733 -62.030472 -78.932938
56.419029 -64.306694 -83.772903
59.798592 -62.396278 -84.938866
-100.804504 -64.849846 -84.283951
49.057400 -63.641563 -85.972786
49.528130 -68.932083 -92.692085
62.419895 -66.129051 -91.694580
49.896950 -63.685665 -96.020905
-83.382973 -63.413944 -107.225693
80.589539 -68.550247 -105.333839
-83.184036 -67.728920 -118.001678
-79.204308 -63.067207 -107.130821
-81.992355 -66.040199 -123.034630
-88.235611 -64.196274 -115.523720
-96.056358 -63.051414 -120.425690
-82.775261 -65.842850 -123.430038
-54.995834 -62.854485 -126.109711
-80.302246 -63.171513 -135.135681
-59.020149 -60.369114 -130.975052
-90.383263 -62.759056 -137.484940
27.372519 -64.178581 -137.683929
17.468925 -65.159325 -140.616501
-95.299347 -57.536919 -142.854187
18.767931 -66.333191 -148.211197
-92.212570 -67.021301 -146.945496
-96.215233 -61.032749 -148.208786
16.877264 -65.247612 -158.238541
-98.136002 -63.808784 -147.509781
-100.280243 -62.677361 -148.202087
-105.355263 -63.799953 -157.294281
-97.962547 -64.235031 -161.813400
-105.887589 -66.489868 -178.710205
-110.693497 -69.446579 -169.606567
-101.326622 -65.023766 -165.898849
-107.433258 -65.170563 -170.064896
-142.549774 -66.099457 -179.057693
-111.878410 -64.393761 -178.871552
-143.145264 -64.788025 -188.665115
-150.393433 -62.331890 -191.177795
-154.693619 -61.699165 -190.951599
-124.546188 -62.922726 -197.328186
-131.668030 -67.029976 -196.567673
-124.078949 -63.370075 -201.318115
-144.812912 -67.101349 -202.866364
-125.213852 -67.452698 -204.638351
-148.038010 -65.899414 -205.393860
-153.014709 -64.934418 -206.771271
-156.340149 -63.453659 -228.756989
-144.198578 -69.590187 -232.568695
-128.989868 -63.231930 -232.875366
-155.287521 -63.222122 -231.757187
-4.268558 -69.407509 -238.804550
11.008759 -62.590714 -238.840210
-3.805324 -68.181320 -243.340744
-150.925552 -63.982014 -246.004593
-9.130227 -63.362343 -243.356277
-152.348267 -68.519234 -254.512177
-7.870990 -68.004913 -249.487213
-150.759842 -66.349533 -254.964020
20.666573 -67.110992 -252.302582
-153.718964 -61.393307 -256.440369
-150.450027 -64.620293 -256.359070
-153.894089 -64.561577 -255.363022
-150.736877 -63.528046 -258.891998
32.626305 -65.228096 -257.928986
29.579910 -64.617439 -263.214111
-147.277802 -64.771660 -257.102020
-152.823425 -61.203609 -261.445709
-155.425247 -67.240082 -261.109955
-148.573212 -62.673325 -260.918213
25.853870 -63.876575 -262.399811
27.907106 -64.669800 -265.658325
-155.191132 -65.814507 -264.062225
-144.612411 -64.348396 -264.354309
-150.933167 -61.936646 -264.399628
-145.444885 -64.138771 -265.298218
-146.057861 -66.993408 -264.748535
-148.439575 -68.237930 -266.850800
-149.674637 -62.741383 -267.129730
-151.174210 -61.853092 -286.710114
-149.250153 -64.527245 -283.452515
-149.249207 -64.851212 -280.820557
16.135050 -65.326843 -282.096039
-155.201904 -62.270588 -286.296967
-147.993103 -63.855198 -289.194885
-5.988024 -70.217781 -287.479370
4.017690 -64.928986 -292.417633
-153.006485 -65.631195 -296.046844
24.114586 -70.970245 -21.528944
42.552738 -64.874649 -28.046356
46.849606 -70.228928 -32.357910
38.284775 -61.006252 -34.730225
22.653515 -71.629921 -36.997669
42.141556 -68.857101 -39.784920
77.211823 -61.885597 -61.597061
74.266670 -64.468842 -61.732956
-18.817251 -64.955910 -69.354683
64.589119 -61.397301 -70.641083
-30.493412 -66.944893 -73.753685
-36.900028 -68.638237 -79.953598
-59.347538 -62.663746 -76.860168
-57.008949 -61.349201 -79.694778
61.667065 -68.371246 -81.954758
104.444916 -68.676628 -88.811920
-62.912739 -61.770458 -86.735291
54.621906 -64.525894 -95.406197
61.412506 -62.247375 -93.328865
101.128494 -64.002045 -93.860336
-68.379395 -66.472939 -94.238770
52.890900 -60.573997 -95.605431
-68.080635 -67.389244 -105.650093
65.790192 -65.188736 -96.240837
65.330627 -63.760082 -102.669388
-77.144127 -62.686649 -109.071793
-99.749550 -61.752640 -112.963295
-72.120934 -58.843922 -111.473656
-85.885139 -64.903481 -112.167168
-65.086754 -65.682686 -115.387276
-86.381500 -61.679962 -109.930290
-78.842827 -64.588135 -115.858330
-78.895386 -65.948631 -116.589874
-70.505913 -66.675232 -120.401543
-86.874168 -66.308365 -126.837585
32.646809 -63.651360 -127.833557
-51.951427 -63.883667 -129.828018
29.434649 -63.431335 -134.023041
28.623205 -64.678123 -132.301895
28.534107 -65.851372 -132.055420
-55.583920 -62.252991 -132.791412
18.992058 -64.059097 -145.794891
21.314663 -64.604523 -143.959045
-147.437637 -64.846916 -178.392197
-152.222198 -60.583260 -176.335876
-154.087936 -63.824177 -182.731430
-149.187775 -61.828445 -186.511795
-150.302734 -64.627419 -193.143509
-150.981079 -66.151978 -194.137497
-142.647690 -66.090569 -194.111389
-145.884705 -61.425648 -201.138931
-123.740952 -66.077034 -200.993790
-135.632034 -65.043411 -204.743927
-149.307495 -65.401169 -214.328705
-148.575012 -59.016560 -223.722672
-153.286484 -63.175079 -227.815842
-147.642105 -64.165466 -229.521622
-153.514557 -63.254543 -229.515778
-151.659592 -60.950298 -229.461334
-149.296402 -64.653999 -231.603531
-147.197342 -64.467407 -233.285324
-143.541565 -62.585758 -237.887802
-148.308304 -65.353439 -231.033966
-156.086624 -63.174866 -235.235168
8.807844 -63.713497 -239.793488
-10.271859 -68.719521 -241.170074
-146.932465 -61.927162 -241.881943
-153.374466 -64.481339 -238.030472
-154.097595 -65.297096 -240.201019
7.402837 -65.444664 -243.357605
-151.215485 -62.901756 -239.647247
-150.066223 -66.631538 -254.533493
-4.796110 -64.775169 -249.556702
-149.291458 -63.327381 -252.892578
-145.970917 -63.054794 -255.210373
-143.627701 -64.269081 -257.371124
-144.184052 -63.789757 -256.843475
26.971979 -66.741867 -262.091125
-150.625153 -67.090485 -265.546387
26.490284 -66.134079 -271.293793
13.582614 -64.380875 -287.902496
0.613446 -64.002258 -288.294952
8.004566 -61.910862 -293.476807
29.042725 -62.785686 -19.757553
40.698902 -72.332939 -37.497944
33.256413 -71.622963 -38.606937
-46.346371 -62.353497 -47.356728
-93.116089 -63.729816 -55.692646
-96.935349 -63.148590 -60.649632
-24.351122 -61.941879 -66.870262
99.167297 -64.837570 -68.065063
103.926804 -61.375546 -74.643700
102.988907 -65.123795 -76.534256
-52.446163 -64.786308 -83.470947
-64.619240 -61.562443 -85.196472
56.105701 -62.022087 -88.503227
51.822430 -65.743179 -89.997269
-63.832588 -66.725273 -97.300949
-98.717461 -59.678532 -108.057419
75.406517 -63.549976 -108.093300
-82.296768 -62.924385 -109.279671
-69.653793 -64.074661 -109.616035
-82.469063 -66.261658 -114.297989
-86.722885 -57.744762 -116.081818
-84.755478 -63.988297 -117.162422
-71.780174 -56.971966 -119.133881
-68.209099 -62.496830 -117.806892
-83.842667 -58.923916 -118.652695
-79.284248 -62.684990 -117.519630
-65.259247 -61.889416 -120.428062
-86.618271 -62.362839 -118.357086
-77.197533 -63.390156 -120.985626
-76.193367 -62.231152 -129.639709
-82.143303 -62.809341 -129.306351
25.708086 -61.100430 -124.446121
-59.326324 -61.258240 -133.048080
25.367676 -64.064468 -133.691086
20.518473 -66.420036 -138.761124
-145.009567 -63.811749 -195.439423
-138.686493 -64.658623 -199.768707
-154.092041 -63.462437 -203.647476
-152.102127 -60.783962 -201.087921
-158.225693 -66.741585 -203.506805
-149.626938 -60.062855 -203.878143
-143.362579 -62.056393 -203.993652
-151.156219 -61.013176 -207.935684
-150.041245 -64.917915 -224.488464
-149.894501 -62.300400 -222.004059
-146.323868 -61.218029 -225.152283
-146.205597 -63.389565 -223.020203
-151.487869 -63.117805 -228.141922
-147.072311 -61.490116 -225.585724
-148.437439 -61.773064 -228.617325
-143.288651 -61.301655 -227.551880
-143.475037 -65.470367 -229.375519
-144.871368 -62.209450 -234.444275
-150.156281 -60.495861 -236.231537
-149.005051 -60.886452 -235.099594
1.419010 -65.332680 -238.497772
17.109360 -63.554821 -242.765442
23.205030 -59.479195 -254.605301
23.150652 -62.401188 -257.276520
7.531600 -64.961823 -263.532379
20.753626 -66.242805 -278.685303
4.204369 -65.389946 -280.160156
6.358123 -62.603443 -292.117218
9.861147 -65.342560 -288.877167
46.884693 -69.730759 -20.660301
29.921381 -60.690094 -37.928539
-32.655590 -61.158554 -50.082027
-19.300289 -61.769733 -52.084763
-14.743943 -58.963680 -59.246983
92.551605 -63.247589 -60.430458
-99.147537 -58.845177 -72.346870
98.491104 -64.811142 -72.233246
53.648685 -62.594818 -86.118797
64.904221 -61.307442 -88.677132
-66.929550 -61.045536 -91.930191
51.152679 -63.648556 -93.157631
58.640358 -58.373116 -89.531525
101.870560 -61.862709 -96.917107
-70.630363 -60.998581 -95.528885
-72.974739 -59.348328 -97.371407
76.616600 -64.168999 -107.183342
-77.849495 -63.105988 -107.944427
-65.509338 -62.107365 -108.720360
36.761887 -59.841099 -120.291687
-85.405273 -62.971809 -125.248810
38.460255 -62.222057 -120.677406
-91.911827 -64.310776 -118.760422
-99.444992 -60.556545 -127.209694
-70.026512 -60.671104 -123.353775
33.385746 -61.638046 -124.999367
-65.246231 -63.918472 -128.811981
-59.207767 -62.005920 -134.128448
-59.107449 -63.957291 -138.548843
-145.594788 -60.792030 -199.077255
-150.604095 -59.285435 -192.461273
