2.211817979813 -82.635704040527 -277.234497070313 -0.640625000000 1.063291072845 0.823629021645 -0.204505920410
-143.838623046875 -80.670204162598 -283.739013671875 0.386962890625 0.845129787922 -0.029113769531 0.750770568848
0.905529022217 -81.809020996094 -283.162506103516 0.638427734375 4.143706321716 -2.012026071548 -3.565734863281
-152.673019409180 -78.551269531250 -285.076263427734 -1.257781982422 2.093864917755 0.178268432617 1.664474487305
-143.547210693359 -77.700103759766 -285.877166748047 -0.266662597656 2.673823595047 -1.138549804688 2.404563903809
-137.274658203125 -82.152641296387 -287.792938232422 -0.958709716797 1.835751771927 -0.001815795898 -1.565521240234
-149.278656005859 -83.875694274902 -294.350280761719 -1.271636962891 2.187757015228 1.774566650391 0.141891479492
-20.340860366821 -78.439544677734 -289.982452392578 -0.628814697266 0.973138749599 0.099473953247 -0.736000061035
-152.642501831055 -79.810256958008 -293.651062011719 1.092498779297 1.444384455681 -0.555297851563 0.764419555664
-148.444213867188 -81.847023010254 -296.703521728516 -0.609497070313 2.243108034134 -1.764465332031 -1.243667602539
-150.574722290039 -78.979187011719 -310.647583007813 2.054077148438 2.462300539017 -1.313140869141 -0.345474243164
-59.516773223877 -76.450012207031 -57.654800415039 0.225929260254 0.764748752117 0.169700622559 -0.710632324219
-42.159156799316 -81.286476135254 -62.591773986816 0.303802490234 1.961874961853 -0.103866577148 -1.935424804688
-78.832069396973 -79.913978576660 -66.970672607422 1.284996032715 3.926341295242 -3.364929199219 -1.562751770020
-32.230972290039 -77.022575378418 -67.625610351563 -0.708122253418 0.907014667988 -0.330215454102 0.460647583008
-28.996551513672 -79.230537414551 -71.826766967773 -0.278434753418 1.276809453964 -1.137290954590 -0.509201049805
-88.472084045410 -79.439582824707 -81.040687561035 0.041313171387 1.846313714981 0.779281616211 -1.673286437988
83.911437988281 -80.249961853027 -83.403244018555 2.636810302734 2.964249610901 -0.506324768066 -1.256042480469
-38.514110565186 -76.961898803711 -84.535331726074 0.439102172852 3.393928766251 2.674282073975 2.043075561523
79.399032592773 -81.647117614746 -84.514877319336 0.694313049316 4.367278099060 -2.642280578613 -3.407257080078
75.271415710449 -79.072067260742 -87.047172546387 -0.434165954590 2.541742324829 -1.285240173340 -2.149444580078
82.613075256348 -78.833038330078 -86.459060668945 -1.249870300293 1.496979475021 0.571762084961 -0.593177795410
81.355598449707 -77.631362915039 -90.086280822754 0.187049865723 0.833523333073 -0.463874816895 0.666778564453
88.338668823242 -78.255950927734 -91.941162109375 1.178947448730 1.887807011604 0.022476196289 -1.474243164063
-93.829452514648 -75.454162597656 -95.266510009766 0.410346984863 1.597139000893 -0.907119750977 -1.248840332031
51.787364959717 -79.092826843262 -104.436515808105 -0.780097961426 1.209671854973 0.260578155518 -0.887046813965
-96.174690246582 -71.111251831055 -114.049430847168 2.751945495605 3.858267068863 -1.933631896973 1.890525817871
42.418972015381 -80.635742187500 -108.440109252930 1.527969360352 2.130403041840 0.112510681152 -1.480293273926
47.364990234375 -79.157127380371 -112.375366210938 -1.000312805176 2.577455520630 -0.934417724609 -2.183921813965
38.285396575928 -78.589607238770 -114.213378906250 0.630432128906 1.568860650063 -0.205200195313 1.421890258789
30.796659469604 -79.196205139160 -135.054061889648 -0.638107299805 2.437864780426 -2.313653945923 0.427795410156
24.803386688232 -78.645149230957 -139.799911499023 1.489242553711 1.611903905869 -0.612775802612 0.069976806641
20.715524673462 -73.304443359375 -143.554016113281 -0.442031860352 2.655349969864 -2.497152328491 0.787223815918
30.812162399292 -76.450431823730 -142.984191894531 0.530853271484 3.039257287979 -0.530220031738 2.945190429688
-49.175140380859 -80.430168151855 -153.950119018555 -0.534240722656 2.777790546417 -1.123775482178 -2.483512878418
-49.472507476807 -79.313301086426 -151.287597656250 0.536880493164 1.990067124367 1.488510131836 -1.206840515137
-42.844379425049 -77.991668701172 -156.768798828125 -0.761520385742 1.204456806183 -0.409347534180 0.838592529297
23.017742156982 -77.582138061523 -152.052825927734 1.350448608398 2.032434463501 -0.753498077393 -1.318832397461
26.093263626099 -78.136421203613 -167.088928222656 -0.756744384766 2.017484903336 -0.715324401855 1.727973937988
-35.181358337402 -76.377952575684 -167.849090576172 0.659667968750 2.115636825562 -0.088615417480 2.008209228516
-36.774745941162 -75.548507690430 -159.557067871094 -0.959625244141 1.034710764885 0.374359130859 -0.097984313965
-47.196960449219 -79.992500305176 -158.482925415039 -1.091369628906 2.523941993713 -1.157592773438 -1.959381103516
0.794519007206 -76.916168212891 -163.322250366211 -1.576278686523 1.980192661285 1.196584939957 -0.068504333496
22.552385330200 -79.577728271484 -152.238998413086 1.918090820313 2.764793157578 -1.198635101318 -1.590057373047
30.757976531982 -76.404647827148 -159.606262207031 -1.121917724609 1.145330667496 -0.141149520874 -0.182098388672
26.864374160767 -77.314392089844 -168.889389038086 0.579635620117 1.663020014763 1.351558685303 -0.776496887207
-9.327882766724 -78.292198181152 -171.405776977539 -0.521911621094 2.242309570313 -0.438380241394 -2.136207580566
-4.452150821686 -78.874443054199 -169.685760498047 -0.022644042969 2.490349769592 -2.277463912964 1.007217407227
-59.182106018066 -77.492935180664 -168.179931640625 -0.957244873047 1.373080372810 0.976219177246 -0.126602172852
-62.159973144531 -77.982261657715 -170.585540771484 1.396682739258 1.510673284531 0.507820129395 0.271163940430
-43.662979125977 -79.646194458008 -170.231307983398 -1.224975585938 2.979009866714 -0.803150177002 -2.594009399414
-39.977931976318 -77.336433410645 -167.512725830078 0.361572265625 1.243436336517 -1.162651062012 0.252273559570
20.928937911987 -75.672775268555 -171.720748901367 1.239440917969 1.800859093666 0.914155960083 -0.933380126953
-23.196258544922 -82.030181884766 -177.721252441406 1.528411865234 1.796365857124 -0.331672668457 -0.883674621582
-33.157032012939 -76.999900817871 -180.768920898438 -1.622085571289 1.919844031334 0.983989715576 0.293945312500
-62.853324890137 -80.759803771973 -179.309249877930 0.152984619141 4.018827915192 -3.592304229736 -1.795249938965
99.582710266113 -79.834701538086 -180.277633666992 3.471496582031 5.871347904205 -2.315879821777 -4.130149841309
19.471523284912 -81.278182983398 -173.044158935547 1.061859130859 3.135963439941 1.270450592041 -2.663208007813
-27.558618545532 -78.450759887695 -179.898284912109 -1.533615112305 1.831977486610 0.733045578003 -0.683235168457
-52.055442810059 -78.020309448242 -179.824874877930 -0.957611083984 1.343107104301 -0.940082550049 -0.056236267090
-21.388818740845 -76.246208190918 -180.091461181641 -0.510757446289 1.386652231216 1.237375259399 0.361709594727
109.889686584473 -79.088027954102 -178.587646484375 -1.736816406250 2.566134452820 0.445808410645 -1.835693359375
-54.516948699951 -80.261146545410 -183.872222900391 -2.073638916016 2.369761466980 -0.629501342773 -0.958915710449
13.050692558289 -80.082168579102 -187.517425537109 0.281158447266 3.650988340378 -1.267296791077 -3.412422180176
19.421234130859 -78.644813537598 -178.620025634766 -0.981384277344 1.323909282684 -0.740777969360 0.490783691406
-57.301586151123 -81.729278564453 -178.387893676758 1.074340820313 3.554897308350 1.959434509277 -2.764724731445
-25.032823562622 -77.574119567871 -182.065689086914 -0.702331542969 1.268476009369 0.922922134399 -0.513786315918
-57.259834289551 -80.413520812988 -176.815292358398 -1.055068969727 1.666491031647 -0.421791076660 -1.219062805176
-37.262145996094 -78.794021606445 -179.133071899414 -2.342803955078 2.723035573959 -1.196487426758 -0.703285217285
-30.055583953857 -78.419860839844 -187.040634155273 0.915512084961 0.991398990154 -0.178768157959 0.335784912109
19.669652938843 -79.053802490234 -187.261947631836 -1.007247924805 1.480039119720 -0.876560211182 0.638442993164
-50.564884185791 -79.317031860352 -188.064865112305 -1.315643310547 1.714583158493 -1.025386810303 0.396812438965
102.783821105957 -78.390663146973 -188.457824707031 1.038055419922 1.144410729408 0.083190917969 -0.474548339844
-52.595218658447 -75.832244873047 -189.900085449219 -0.384613037109 1.296393752098 -1.191772460938 0.335243225098
7.462061882019 -78.413146972656 -201.388488769531 0.850387573242 2.769779443741 -2.626976966858 -0.217971801758
19.176189422607 -78.050918579102 -198.455444335938 0.953796386719 1.284529924393 -0.658252716064 -0.554069519043
-49.823509216309 -78.094062805176 -191.222961425781 0.087570190430 0.421800166368 -0.327846527100 -0.250526428223
-19.650299072266 -79.193267822266 -189.356063842773 -2.023956298828 2.624287605286 -0.558448791504 -1.574363708496
99.991119384766 -78.670379638672 -193.752212524414 -0.588516235352 2.426530361176 -1.902229309082 -1.386802673340
97.098701477051 -81.471336364746 -194.305969238281 3.316558837891 5.584649562836 0.086936950684 -4.492347717285
-49.762729644775 -77.535308837891 -188.176818847656 -0.916961669922 0.923706233501 -0.061256408691 0.093070983887
-149.771759033203 -83.339782714844 -199.958816528320 -0.519622802734 0.590481340885 0.230499267578 -0.159782409668
-46.834949493408 -78.372474670410 -197.308288574219 -0.509201049805 2.008161306381 1.756832122803 -0.828834533691
-146.258834838867 -79.542549133301 -199.001892089844 1.039688110352 1.482478141785 -1.031616210938 -0.229255676270
-136.928802490234 -75.374168395996 -200.356140136719 0.921508789063 1.674182415009 -0.790649414063 -1.152641296387
-46.356006622314 -80.101943969727 -197.129699707031 0.449554443359 1.584877252579 0.669620513916 1.364311218262
9.472555160522 -79.843284606934 -207.271087646484 1.142745971680 1.806301116943 -1.168796539307 -0.768615722656
-17.412693023682 -76.920280456543 -204.353363037109 -0.493377685547 1.527030467987 -0.215812683105 1.428924560547
14.712450981140 -76.964668273926 -201.089767456055 1.635528564453 1.945215582848 -0.037189483643 1.052391052246
90.922637939453 -81.267677307129 -209.778518676758 -0.810272216797 4.493198394775 -1.177825927734 -4.259696960449
-37.175697326660 -77.319129943848 -201.730087280273 1.160598754883 1.331863999367 0.299114227295 0.580863952637
-13.658688545227 -77.726036071777 -205.239059448242 0.615371704102 1.781236290932 1.365932464600 0.963508605957
-15.282007217407 -77.176818847656 -212.416625976563 0.701919555664 1.250276803970 0.848585128784 -0.591949462891
-37.302227020264 -78.108375549316 -205.842895507813 0.306167602539 1.977605938911 -1.846298217773 -0.639038085938
7.052444934845 -78.435691833496 -205.439270019531 0.504592895508 1.900106668472 -1.629039287567 -0.837867736816
-78.799468994141 -78.220497131348 -210.763107299805 -1.108474731445 1.159944534302 0.328796386719 0.092994689941
14.821516036987 -79.271919250488 -213.189544677734 1.267227172852 1.530379533768 0.778994560242 0.359672546387
-36.355224609375 -77.856231689453 -206.220260620117 -0.071197509766 0.981574833393 -0.899295806885 -0.386894226074
-146.002044677734 -80.604644775391 -209.527893066406 1.259414672852 2.257311582565 -1.104827880859 1.512840270996
-144.259445190430 -74.802330017090 -212.063980102539 -0.921661376953 1.390501856804 1.039199829102 0.064025878906
-88.517585754395 -78.711853027344 -213.522735595703 0.268096923828 2.057753324509 -1.209320068359 -1.643173217773
-36.270225524902 -76.752265930176 -210.056213378906 -0.437179565430 1.116501331329 1.022228240967 -0.102462768555
-19.550907135010 -82.026489257813 -212.404815673828 3.117080688477 4.773674011230 2.115867614746 -2.931701660156
-32.821140289307 -79.118400573730 -208.495712280273 0.570999145508 2.207894086838 -0.371086120605 -2.100250244141
-92.318977355957 -79.442657470703 -217.591400146484 -1.131515502930 2.263431549072 -0.834060668945 -1.774017333984
-88.577232360840 -79.392616271973 -215.197402954102 0.692413330078 1.767348170280 -1.036949157715 -1.252525329590
6.554039955139 -82.190818786621 -220.154586791992 -0.014785766602 3.015898227692 -1.669373512268 -2.511695861816
-150.881027221680 -74.622238159180 -215.548538208008 -0.331253051758 2.140324354172 -2.055618286133 -0.495674133301
-14.758280754089 -81.027938842773 -212.678894042969 -0.845581054688 2.418942213058 -0.248979568481 -2.252616882324
7.754447937012 -83.433555603027 -217.907699584961 -0.619338989258 4.025965213776 -1.237616539001 -3.780624389648
-145.606552124023 -77.188446044922 -220.341888427734 2.096618652344 2.243184804916 0.661437988281 -0.445610046387
-22.882041931152 -79.906181335449 -217.237991333008 -1.716094970703 2.253933429718 -1.215267181396 -0.811393737793
-1.710584998131 -76.301834106445 -220.344696044922 0.869277954102 1.010085225105 0.437846064568 -0.270034790039
-7.346504211426 -79.749008178711 -218.950836181641 -1.612045288086 2.015999317169 0.297664642334 -1.173439025879
-153.477218627930 -75.748054504395 -225.085601806641 1.570129394531 1.961090803146 0.056091308594 1.173637390137
-139.875579833984 -71.916046142578 -227.573516845703 -0.987289428711 1.977210044861 0.814788818359 -1.506896972656
-6.206770896912 -78.971511840820 -223.924011230469 -0.273193359375 2.170576095581 -0.087535858154 -2.151535034180
-149.632385253906 -83.103256225586 -228.609298706055 0.964874267578 1.767875432968 -1.327835083008 0.656700134277
0.396937012672 -75.549392700195 -229.471328735352 -1.391830444336 1.825996398926 -1.063490986824 0.515808105469
16.379741668701 -78.411987304688 -233.696044921875 -0.425094604492 0.720284581184 0.430224418640 0.391166687012
-2.312403917313 -80.130065917969 -230.760009765625 0.594955444336 0.838556647301 -0.001173973083 -0.590934753418
-1.499727010727 -74.855987548828 -233.647949218750 1.284515380859 2.132638216019 -1.575747966766 -0.644348144531
7.156652927399 -78.316665649414 -231.264465332031 1.783843994141 1.908285856247 -0.480431079865 0.478164672852
-152.443298339844 -78.581741333008 -239.056594848633 1.273529052734 3.273815870285 -2.883453369141 -0.884132385254
-20.475450515747 -76.979576110840 -235.213973999023 2.442443847656 4.348830223083 3.162240982056 -1.716690063477
-35.591636657715 -80.263435363770 -238.900604248047 1.752502441406 2.017946720123 -0.954734802246 -0.298873901367
2.508627891541 -77.229270935059 -233.134552001953 2.071838378906 2.093942403793 -0.136353015900 -0.271087646484
0.853326022625 -81.965705871582 -240.037750244141 -3.479415893555 3.676722764969 -0.284447968006 -1.153709411621
1.726312994957 -77.887466430664 -233.516632080078 1.689758300781 2.136071443558 -0.918667912483 -0.929283142090
-57.363731384277 -77.651283264160 -242.689956665039 0.616394042969 2.209774255753 2.032207489014 -0.610977172852
-149.677413940430 -75.836296081543 -249.044586181641 -1.454849243164 1.531114339828 0.327728271484 -0.346870422363
-153.120788574219 -78.650733947754 -248.940307617188 -1.702133178711 2.284661531448 -1.521881103516 0.079368591309
10.055761337280 -80.239013671875 -246.276306152344 0.601516723633 0.848426759243 -0.553199768066 0.227981567383
23.004264831543 -80.053665161133 -246.328109741211 -2.580001831055 2.657444000244 0.044860839844 0.635284423828
-61.439781188965 -76.480331420898 -248.030944824219 0.752136230469 2.356282472610 -0.464984893799 2.184066772461
-144.169464111328 -81.495223999023 -253.629608154297 -0.707504272461 1.735530853271 0.649414062500 1.445602416992
-153.921737670898 -80.796340942383 -255.732574462891 1.300659179688 1.549059867859 -0.490417480469 -0.683639526367
-152.959152221680 -82.811470031738 -258.510223388672 0.193420410156 2.252338409424 -1.431335449219 1.728263854980
-143.122055053711 -76.099342346191 -262.751037597656 0.459716796875 1.838728427887 -0.370346069336 -1.741386413574
-140.468200683594 -78.467483520508 -257.703155517578 0.408081054688 1.254839420319 1.185455322266 0.052795410156
-9.606748580933 -79.773483276367 -256.087158203125 -0.658294677734 0.830502867699 -0.432617187500 0.263107299805
-145.368667602539 -79.547134399414 -263.872161865234 -0.082397460938 0.237721249461 -0.180160522461 -0.131393432617
-13.717864036560 -79.636802673340 -265.883392333984 0.447052001953 2.265522003174 -1.956051826477 -1.051948547363
-147.869338989258 -77.380157470703 -274.865539550781 1.588165283203 2.201910257339 -0.797988891602 1.299751281738
-147.960540771484 -78.051605224609 -283.547119140625 -0.875793457031 1.476180434227 -0.848892211914 0.831550598145
-149.467926025391 -77.159202575684 -284.558349609375 1.412414550781 2.040281057358 0.312667846680 1.438774108887
-3.824913024902 -75.013580322266 -284.526184082031 1.255706787109 1.273446321487 -0.070893049240 -0.199600219727
-146.349777221680 -74.380081176758 -285.592681884766 -0.530578613281 2.650572538376 -2.544784545898 -0.517776489258
-28.275253295898 -79.239631652832 -286.368682861328 0.469177246094 2.894806146622 -1.632757186890 -2.343902587891
-28.852947235107 -76.779991149902 -286.187744140625 0.093719482422 1.597136259079 -0.875356674194 -1.332595825195
-15.361470222473 -76.866874694824 -291.391540527344 -0.399047851563 0.776571393013 0.582903862000 -0.322563171387
-12.632960319519 -76.558303833008 -290.612457275391 -0.315582275391 0.696631610394 0.286970138550 -0.550773620605
12.849641799927 -80.604042053223 -290.727844238281 -0.934417724609 1.889390826225 -0.820022583008 -1.422752380371
-125.428291320801 -79.108924865723 -290.663482666016 -0.626159667969 1.944376468658 0.494331359863 -1.773178100586
-59.823734283447 -78.399772644043 -288.009338378906 -0.093231201172 1.582566261292 -0.575027465820 -1.471450805664
-40.732612609863 -76.516593933105 -289.798095703125 -0.834899902344 1.810000896454 -0.948760986328 1.295722961426
-32.851982116699 -79.081733703613 -288.332183837891 0.246459960938 1.323665022850 -1.245187759399 -0.375305175781
-9.208660125732 -77.217376708984 -291.962432861328 -0.007171630859 1.912685751915 1.689127922058 -0.897308349609
5.007053852081 -79.190551757813 -287.775268554688 1.168457031250 2.642554283142 -1.719594001770 -1.631195068359
-142.680068969727 -79.472541809082 -297.012878417969 -0.918853759766 4.256814479828 3.999679565430 1.130813598633
9.764348983765 -79.028350830078 -293.248382568359 -1.970092773438 2.714104652405 1.539269447327 -1.056289672852
-152.820556640625 -76.412612915039 -303.163085937500 -0.252014160156 1.687431454659 1.511108398438 -0.707435607910
-152.258132934570 -81.029739379883 -302.459960937500 -0.760101318359 1.963993787766 -1.553451538086 -0.930755615234
-152.986709594727 -75.608963012695 -312.946411132813 -0.193572998047 1.298630356789 -1.226257324219 -0.381134033203
-144.317245483398 -77.500114440918 -311.308044433594 -0.751434326172 1.976625323296 1.385528564453 1.192771911621
-53.370281219482 -76.890037536621 -52.649208068848 2.633449554443 4.074785232544 2.533996582031 -1.802131652832
-57.909687042236 -79.628097534180 -56.457515716553 3.312145233154 3.395024061203 0.131671905518 -0.733856201172
-68.792114257813 -75.873748779297 -55.587062835693 -1.841747283936 2.121925830841 -0.482688903809 -0.936775207520
-44.274276733398 -76.141342163086 -60.946121215820 -1.147907257080 1.275282502174 -0.082798004150 0.549362182617
-39.183818817139 -77.330055236816 -59.269115447998 -0.831756591797 1.824104666710 -1.311435699463 -0.956909179688
-23.148214340210 -76.634986877441 -68.979179382324 0.158660888672 1.412194609642 -1.391475677490 -0.181427001953
-84.699752807617 -75.447204589844 -69.273521423340 1.342796325684 2.573299407959 2.182777404785 0.232917785645
81.300735473633 -78.481796264648 -76.936233520508 0.308609008789 2.648328304291 -1.014190673828 -2.426895141602
-92.780555725098 -76.058479309082 -77.746864318848 2.314170837402 3.296739101410 -0.308616638184 -2.327629089355
79.085189819336 -77.086112976074 -77.718940734863 -0.739585876465 1.852279543877 0.583175659180 -1.594947814941
84.555374145508 -75.325042724609 -82.483963012695 0.086654663086 0.770920813084 -0.355628967285 0.678482055664
93.427154541016 -76.065986633301 -86.643020629883 0.044830322266 1.626275539398 1.623565673828 0.082443237305
-62.513153076172 -80.743309020996 -95.948158264160 -0.773223876953 1.254945635796 0.850307464600 0.503974914551
80.353370666504 -78.536605834961 -94.193283081055 -1.232467651367 1.349616289139 -0.310935974121 -0.453659057617
75.306182861328 -80.794273376465 -90.356536865234 0.988700866699 4.429227828979 -1.590728759766 -4.013740539551
84.337272644043 -78.444877624512 -88.851295471191 1.355430603027 1.793070793152 -0.648269653320 -0.978599548340
-63.093994140625 -78.902633666992 -97.631042480469 0.452110290527 1.250386357307 0.113834381104 1.160217285156
48.228992462158 -76.589447021484 -96.603507995605 -2.465118408203 2.791779279709 -0.178916931152 -1.298156738281
43.632350921631 -77.732841491699 -105.569808959961 1.359725952148 2.298764944077 1.174953460693 -1.433509826660
38.272663116455 -78.616989135742 -103.219253540039 4.882377624512 5.183224678040 -0.666320800781 -1.607551574707
34.816333770752 -78.181190490723 -103.606773376465 4.494857788086 6.210716247559 -4.122650146484 -1.171752929688
-93.716957092285 -74.709640502930 -107.819778442383 -3.128318786621 3.199816703796 0.636405944824 0.217796325684
33.811061859131 -76.956848144531 -116.450134277344 0.947265625000 1.508712172508 -0.933170318604 -0.712806701660
-86.949356079102 -77.928344726563 -109.096229553223 1.602607727051 1.956070780754 -0.634628295898 0.924720764160
39.500751495361 -79.428070068359 -124.484336853027 0.034820556641 1.007796406746 -0.000583648682 -1.007194519043
31.465871810913 -78.796104431152 -120.589279174805 0.564201354980 2.263279914856 -0.865922927856 -2.013526916504
31.953516006470 -72.760635375977 -120.808753967285 -0.523696899414 0.994800209999 -0.417695999146 -0.735458374023
41.744148254395 -76.887763977051 -117.496253967285 -0.611816406250 1.578387260437 -0.230010986328 1.436691284180
38.676258087158 -79.968559265137 -126.684066772461 -0.871505737305 1.622716546059 1.356941223145 0.179992675781
-53.993305206299 -72.841209411621 -135.451156616211 -1.619888305664 2.022158145905 -0.992324829102 -0.693092346191
35.150520324707 -80.713012695313 -133.867645263672 -1.568923950195 1.837077379227 0.604404449463 -0.740287780762
34.257816314697 -77.530761718750 -142.300628662109 0.973999023438 1.558317303658 0.373542785645 1.157646179199
-55.845806121826 -75.161231994629 -142.158798217773 -1.022537231445 1.330821156502 -0.672981262207 0.522109985352
-47.929931640625 -77.540565490723 -140.445602416992 -1.028808593750 1.868949413300 0.912311553955 -1.265785217285
33.197673797607 -77.451736450195 -142.120727539063 1.153900146484 1.825448155403 -0.686599731445 1.236671447754
109.177482604980 -75.021789550781 -139.572052001953 0.108078002930 1.462700247765 0.723114013672 -1.266853332520
111.279937744141 -75.753540039063 -142.709732055664 0.784927368164 1.016053318977 -0.360305786133 -0.535194396973
24.864845275879 -78.912857055664 -141.896606445313 -0.607452392578 0.843828558922 -0.551317214966 -0.197731018066
-42.582187652588 -79.322761535645 -149.205047607422 1.353988647461 1.637148618698 -0.700836181641 -0.596488952637
113.172889709473 -82.436508178711 -151.606231689453 3.603820800781 6.222529888153 1.481399536133 -4.851577758789
-40.315738677979 -76.083686828613 -152.958557128906 0.052337646484 0.480691432953 0.438327789307 0.190246582031
-69.431221008301 -77.135719299316 -160.770355224609 -0.029220581055 2.644137382507 -2.454216003418 -0.983581542969
109.121757507324 -81.039100646973 -156.580718994141 -1.370666503906 4.518135070801 -2.569732666016 -3.454170227051
21.295164108276 -78.304183959961 -164.021347045898 2.277084350586 2.885651588440 -0.105564117432 -1.769386291504
-0.880168020725 -78.688667297363 -162.364593505859 -0.618621826172 2.000142097473 -0.478102028370 -1.841003417969
110.320465087891 -78.307937622070 -152.688858032227 2.521194458008 2.959538936615 -1.371025085449 -0.723007202148
-65.613220214844 -76.969108581543 -165.519668579102 -0.142272949219 1.418060421944 -0.849830627441 1.126251220703
-39.413223266602 -77.779724121094 -163.223236083984 -0.430557250977 2.142181158066 2.093948364258 -0.137626647949
110.769905090332 -78.420097351074 -162.958648681641 0.228637695313 1.801867127419 -1.430877685547 -1.070999145508
26.965330123901 -74.554595947266 -157.727020263672 1.343978881836 3.335391759872 -1.319862365723 2.752548217773
-63.962818145752 -72.819534301758 -165.539520263672 0.722656250000 1.189265370369 0.917041778564 -0.226173400879
110.650604248047 -78.590255737305 -164.612182617188 -1.424896240234 2.444147109985 -1.550178527832 -1.241157531738
-66.534759521484 -78.951263427734 -168.866729736328 -0.759048461914 2.397604942322 -2.273895263672 0.041893005371
-51.366863250732 -79.524681091309 -180.550643920898 1.028976440430 1.256595373154 0.665561676025 0.277969360352
104.932334899902 -77.277809143066 -169.838562011719 2.541137695313 4.004630565643 -1.741149902344 -2.558921813965
-61.094657897949 -75.892585754395 -171.136642456055 -0.279098510742 1.044858574867 -0.378292083740 0.933128356934
110.635040283203 -77.570930480957 -174.621749877930 -0.820007324219 1.071719646454 0.644081115723 -0.247650146484
-61.959831237793 -76.990264892578 -175.408843994141 -2.143371582031 2.423939943314 0.888797760010 -0.701057434082
-16.225048065186 -75.860046386719 -177.102218627930 1.470748901367 2.969625711441 -2.090620994568 1.511581420898
-12.395216941833 -81.293693542480 -180.555160522461 0.284164428711 2.244956493378 1.990563392639 -0.998367309570
106.466720581055 -79.444618225098 -167.273269653320 -1.650817871094 4.091605663300 -2.428817749023 -2.849014282227
19.827522277832 -78.474571228027 -170.999160766602 -1.095336914063 2.065502882004 -1.462787628174 -0.962699890137
28.364271163940 -74.898422241211 -169.119583129883 0.952377319336 1.570668339729 -0.094135284424 -1.245437622070
-58.383518218994 -76.544288635254 -177.242660522461 0.047531127930 1.299270629883 -0.508800506592 1.194557189941
17.086818695068 -76.504417419434 -181.280319213867 1.106170654297 1.409892678261 -0.440979003906 -0.754798889160
-58.931812286377 -77.441055297852 -175.756500244141 1.533691406250 1.886355638504 -1.057094573975 0.297790527344
-52.870990753174 -76.227020263672 -190.787536621094 -1.272064208984 1.943033337593 -1.467544555664 -0.059532165527
11.375192642212 -76.047950744629 -183.360580444336 1.638641357422 3.330886363983 -1.802155494690 -2.271980285645
-58.247375488281 -74.420944213867 -180.315643310547 -1.354644775391 1.984621524811 -0.644390106201 1.299392700195
105.721572875977 -76.598411560059 -185.287109375000 1.696563720703 1.989417552948 -0.201148986816 1.019309997559
23.526647567749 -79.396408081055 -180.655715942383 -0.843460083008 2.987373352051 -2.697160720825 -0.968658447266
-34.817440032959 -75.710197448730 -188.266799926758 0.797882080078 2.904017686844 -2.687553405762 0.757469177246
-43.774276733398 -78.721794128418 -190.885681152344 1.315292358398 1.349177718163 0.235496520996 0.186622619629
10.135289192200 -78.704498291016 -192.142959594727 -0.110382080078 3.516040086746 0.038224220276 -3.514099121094
-20.102676391602 -78.572830200195 -189.178161621094 -1.846054077148 2.310770511627 -1.010826110840 -0.953926086426
-49.790573120117 -78.529060363770 -194.651306152344 -1.784011840820 2.011903524399 -0.118709564209 0.922477722168
101.496643066406 -80.734642028809 -181.992279052734 0.101516723633 5.094327926636 -3.350730895996 -3.835945129395
11.262315750122 -79.800910949707 -189.929458618164 0.607009887695 3.482833623886 -2.012677192688 -2.776832580566
-134.596923828125 -80.693153381348 -199.934677124023 -1.324661254883 1.713464975357 -0.866897583008 0.655532836914
-46.844291687012 -79.241767883301 -194.467819213867 -1.366668701172 1.771396398544 -0.729137420654 0.859313964844
94.727478027344 -77.650024414063 -197.334945678711 0.287582397461 2.398115396500 -2.284286499023 -0.671035766602
-149.723297119141 -82.396049499512 -203.192855834961 -0.611923217773 1.379971146584 -1.035171508789 -0.676971435547
17.320018768311 -77.983436584473 -196.955612182617 -0.087158203125 1.373146414757 -1.311700820923 0.396705627441
-43.588443756104 -75.291923522949 -205.468948364258 -2.978500366211 3.650626659393 -1.407283782959 1.573265075684
-31.977035522461 -79.641273498535 -205.558502197266 -1.698043823242 2.052594184875 -0.050619125366 -1.152053833008
-38.101753234863 -78.006729125977 -202.997192382813 -0.106506347656 0.644819259644 -0.626941680908 -0.106735229492
-45.669311523438 -81.147499084473 -197.399230957031 0.180023193359 1.404850840569 1.356315612793 0.318756103516
99.274887084961 -78.203392028809 -201.753433227539 -1.148147583008 1.431659936905 -0.246238708496 -0.819007873535
-21.450626373291 -79.955329895020 -201.044677734375 -0.632247924805 2.345501899719 -0.578382492065 -2.183372497559
-151.182052612305 -77.122718811035 -203.870941162109 -0.330917358398 0.390106499195 -0.032745361328 -0.203971862793
15.057936668396 -79.205665588379 -202.733184814453 0.900787353516 1.133130908012 -0.586713790894 -0.358238220215
-77.634124755859 -81.064765930176 -207.243331909180 2.776382446289 3.235868692398 -0.915603637695 1.387161254883
-147.353805541992 -75.733741760254 -213.277557373047 -1.357467651367 1.634003639221 -0.662811279297 0.622840881348
94.143928527832 -79.134239196777 -210.422653198242 -2.170043945313 2.480548858643 -1.196846008301 -0.107666015625
-33.717113494873 -76.441406250000 -206.984588623047 0.493606567383 1.275722861290 1.150653839111 -0.244575500488
-29.724391937256 -77.825073242188 -212.299423217773 -0.323043823242 1.565257191658 -1.525312423706 0.138183593750
8.064841270447 -78.514900207520 -209.916976928711 0.253494262695 1.643046140671 0.166846275330 -1.614776611328
-72.335075378418 -80.223892211914 -209.984207153320 -2.134124755859 2.278743028641 -0.710266113281 0.365653991699
-29.036184310913 -82.525947570801 -207.478744506836 1.415908813477 2.812700748444 -1.541641235352 -1.878784179688
-7.549786090851 -78.467971801758 -215.478836059570 1.205108642578 1.723352670670 -0.434160232544 -1.152893066406
-72.964698791504 -78.875923156738 -214.460098266602 0.766677856445 1.158339977264 0.612258911133 -0.615707397461
-15.081083297729 -77.962524414063 -217.033767700195 2.245101928711 2.983304738998 -1.369572639465 -1.408508300781
7.114433765411 -72.357101440430 -211.797592163086 1.041854858398 1.829261302948 0.025560855865 -1.503356933594
13.722145080566 -79.871795654297 -219.774383544922 1.713531494141 2.024792194366 -0.192659378052 1.061355590820
-150.772552490234 -78.236610412598 -218.177856445313 -1.359970092773 1.528894901276 -0.406280517578 0.568275451660
-9.145033836365 -77.543479919434 -214.052154541016 -1.226562500000 1.554395675659 -0.951530456543 0.079246520996
-99.536003112793 -73.995384216309 -220.858047485352 0.283615112305 1.642268419266 1.606361389160 -0.190292358398
-22.569488525391 -77.078582763672 -219.474212646484 1.166229248047 1.309598565102 0.371145248413 -0.466056823730
89.148841857910 -81.781074523926 -210.433761596680 2.113250732422 5.388772010803 -3.019363403320 -3.931472778320
7.190474987030 -76.725677490234 -225.089004516602 1.021194458008 1.567316412926 -1.157503604889 0.271713256836
18.390712738037 -77.175308227539 -215.808715820313 0.316879272461 2.426289319992 1.650735855103 -1.749725341797
80.008361816406 -78.823387145996 -215.606552124023 1.477478027344 6.217389106750 -1.821716308594 -5.757980346680
0.523038029671 -80.074012756348 -228.009918212891 0.194000244141 2.253618478775 2.116865158081 0.748359680176
84.965141296387 -78.418571472168 -215.636367797852 1.731918334961 2.272531032562 -1.279884338379 -0.725776672363
-19.961231231689 -75.166427612305 -223.118820190430 -0.928955078125 1.152249217033 0.339040756226 0.591415405273
15.074896812439 -76.143943786621 -218.416915893555 0.081161499023 2.057079553604 -0.441478729248 2.007507324219
-148.029556274414 -78.547790527344 -221.815414428711 0.623092651367 2.597926139832 -1.761566162109 -1.804954528809
-23.827278137207 -78.954307556152 -225.137054443359 -0.373764038086 3.595376491547 -3.571403503418 -0.179191589355
1.135426044464 -76.820358276367 -228.720626831055 -0.641128540039 1.042561650276 -0.325001955032 -0.755157470703
-156.418106079102 -81.143119812012 -227.698532104492 0.781539916992 2.709918498993 -1.720138549805 -1.942672729492
-137.602996826172 -78.633064270020 -229.096054077148 -1.610015869141 2.182875633240 0.708389282227 -1.292663574219
4.408071041107 -77.607963562012 -223.957443237305 -0.021072387695 2.717999696732 2.593908071518 0.811614990234
-4.559553146362 -75.749908447266 -227.582580566406 -1.580261230469 2.050898551941 0.189234733582 1.293502807617
-137.259033203125 -74.801856994629 -231.088653564453 -0.198776245117 2.242520570755 -0.187896728516 2.225776672363
-147.036895751953 -77.871040344238 -240.344223022461 1.141876220703 2.010499000549 0.771713256836 1.463790893555
-148.505844116211 -77.426017761230 -237.066284179688 -2.445541381836 2.690403699875 0.983901977539 0.538085937500
-32.807682037354 -78.489463806152 -237.347747802734 1.215164184570 1.488612771034 0.849208831787 0.134864807129
-144.417846679688 -79.002220153809 -243.798263549805 -3.214675903320 3.311289787292 0.789169311523 -0.087814331055
17.082548141479 -78.606803894043 -240.836151123047 -0.968383789063 1.931023001671 0.976079940796 1.355857849121
4.833983898163 -77.688537597656 -243.340362548828 -0.308410644531 1.555360078812 -0.927960872650 -1.209510803223
-150.970672607422 -73.563804626465 -238.356552124023 1.952209472656 2.957643270493 -1.507629394531 1.632049560547
-149.748794555664 -77.168792724609 -245.125961303711 0.445831298828 1.050586342812 -0.408645629883 0.859054565430
-46.844944000244 -78.966560363770 -244.084167480469 -0.365875244141 0.913264393806 0.831214904785 -0.096275329590
-31.903146743774 -78.529403686523 -245.535797119141 -1.417984008789 1.465781807899 0.091602325439 -0.359786987305
4.183495998383 -78.668174743652 -243.547424316406 0.896301269531 2.412662029266 -2.079242229462 -0.833267211914
-37.797348022461 -78.974617004395 -245.235549926758 0.203689575195 2.230058431625 1.497982025146 1.639427185059
21.943403244019 -78.366996765137 -246.067977905273 1.274871826172 2.149807214737 -0.435386657715 -1.675354003906
-5.919406890869 -80.124000549316 -250.641174316406 -0.377120971680 1.898325800896 -1.832551002502 0.321212768555
-147.084945678711 -77.876632690430 -253.908935546875 -2.304977416992 2.368782043457 -0.104125976563 -0.536064147949
-9.238660812378 -81.727134704590 -251.752807617188 0.765121459961 3.857914447784 -0.143934249878 -3.778541564941
-148.200820922852 -75.955009460449 -250.136932373047 1.467025756836 2.358037710190 -1.220001220703 1.385559082031
-66.744140625000 -78.941307067871 -250.020080566406 -1.526733398438 2.765855073929 0.729209899902 -2.187988281250
-148.396499633789 -84.080528259277 -260.571075439453 0.132537841797 1.440098285675 1.332214355469 0.530586242676
-127.108283996582 -77.038681030273 -259.438659667969 -1.818634033203 1.987917423248 -0.543373107910 -0.590873718262
-151.655807495117 -75.807342529297 -259.859619140625 -1.196990966797 1.460911631584 -0.778396606445 0.309150695801
-11.766114234924 -75.737792968750 -266.162445068359 1.521484375000 2.427412748337 0.663521766663 1.771202087402
-146.151962280273 -81.683288574219 -270.656982421875 -0.806701660156 2.108766317368 -0.572296142578 -1.862419128418
-149.852676391602 -77.718437194824 -269.001190185547 -0.375335693359 1.234662175179 0.163604736328 1.164794921875
-11.201540946960 -78.901779174805 -270.005920410156 0.403533935547 0.454929471016 0.122126579285 0.170898437500
-145.566360473633 -77.761894226074 -271.653564453125 -0.030670166016 1.926650285721 1.924484252930 -0.086029052734
-5.341859817505 -77.420242309570 -277.210815429688 -0.615112304688 1.947312474251 1.780897140503 -0.492004394531
-45.919986724854 -77.331298828125 -285.099456787109 1.481811523438 4.428367614746 -3.146030426025 -2.741744995117
-134.360321044922 -75.802459716797 -289.420349121094 0.928100585938 1.291006803513 0.216308593750 -0.870941162109
-134.462326049805 -76.578979492188 -286.930572509766 -0.390411376953 0.989312112331 -0.195602416992 0.887725830078
-124.431358337402 -75.127662658691 -284.625030517578 -1.306365966797 2.110956192017 0.915565490723 -1.382492065430
-52.394279479980 -76.974868774414 -286.497528076172 0.542633056641 0.693195521832 0.418991088867 0.102546691895
-113.269699096680 -75.605117797852 -286.379394531250 0.067535400391 2.308464765549 1.236999511719 -1.947891235352
16.222429275513 -77.638244628906 -290.541473388672 -0.319305419922 1.759902954102 1.130932807922 -1.310073852539
-58.105220794678 -76.271148681641 -288.801330566406 -0.885223388672 1.588413476944 1.143486022949 0.657173156738
-141.105789184570 -76.778472900391 -293.189544677734 -0.795745849609 2.788101196289 1.724273681641 -2.041366577148
-62.666191101074 -76.548629760742 -290.473175048828 -0.150512695313 1.456067681313 -0.582645416260 -1.325897216797
-143.767013549805 -81.102920532227 -293.670989990234 -1.120513916016 2.013608455658 1.016098022461 -1.329139709473
-116.789855957031 -75.644416809082 -291.391357421875 -1.689056396484 1.832451701164 0.182762145996 0.686706542969
-46.371196746826 -79.099655151367 -290.362915039063 -0.127349853516 1.373129129410 0.496189117432 -1.273994445801
-34.063156127930 -77.891448974609 -291.076599121094 0.238952636719 0.568991482258 0.399589538574 0.327079772949
-136.010421752930 -74.597518920898 -295.164215087891 -1.059936523438 1.748515725136 0.961380004883 1.004783630371
-12.695101737976 -74.580085754395 -285.309875488281 1.331695556641 2.686261415482 -1.290575981140 -1.943450927734
3.360666990280 -77.703010559082 -288.225219726563 0.982360839844 1.350815892220 -0.478850126266 -0.793960571289
6.730200767517 -76.927497863770 -290.335601806641 1.134765625000 1.257756233215 0.283945560455 0.462203979492
15.388566017151 -78.712265014648 -293.958801269531 -1.691925048828 2.156811714172 -1.245020866394 -0.489028930664
-149.479187011719 -79.914840698242 -298.372039794922 1.388549804688 1.579642772675 -0.739089965820 -0.144729614258
-145.970230102539 -75.656875610352 -296.867889404297 -1.567230224609 3.001477956772 2.286270141602 1.151359558105
-70.319320678711 -75.920448303223 -61.525577545166 -1.190212249756 2.444829702377 -2.130622863770 0.145027160645
85.813148498535 -77.980697631836 -71.794929504395 1.494514465332 3.810604333878 -1.513778686523 -3.161582946777
76.339027404785 -77.936958312988 -75.305427551270 -2.424003601074 3.615101575851 0.228408813477 -2.672264099121
-29.683698654175 -78.604362487793 -76.387153625488 -0.399429321289 1.144709110260 -0.778339385986 0.738243103027
81.666839599609 -75.900688171387 -73.847045898438 -1.303779602051 2.112643480301 -1.547775268555 -0.606475830078
-39.291458129883 -78.436355590820 -79.863594055176 0.239479064941 3.809929370880 -3.706993103027 -0.846412658691
82.427932739258 -75.214118957520 -79.028213500977 -0.460968017578 1.752894282341 -0.603569030762 1.579826354980
92.511428833008 -74.999275207520 -79.013786315918 1.223236083984 1.329175829887 0.114021301270 -0.507347106934
-66.953529357910 -70.852157592773 -94.988334655762 -0.169502258301 2.641562938690 -2.146667480469 -1.530014038086
71.704627990723 -77.509445190430 -92.440132141113 -0.478668212891 3.695354700089 -0.458450317383 -3.635429382324
78.152931213379 -75.922706604004 -95.785400390625 -0.288299560547 1.492058873177 -1.442886352539 0.247390747070
92.579444885254 -79.095405578613 -92.970924377441 -0.614555358887 1.542906284332 0.764244079590 -1.191139221191
53.127101898193 -78.232734680176 -96.242225646973 0.788230895996 1.391705155373 -0.992481231689 -0.574905395508
-72.634567260742 -76.304000854492 -101.669990539551 -0.004913330078 1.309298753738 1.219367980957 0.476844787598
-76.479400634766 -72.629653930664 -101.664306640625 -0.365501403809 1.704809546471 -1.593391418457 -0.483619689941
47.883152008057 -78.683769226074 -103.122550964355 1.120117187500 1.635801434517 -0.759902954102 -0.918548583984
-91.143966674805 -78.038597106934 -103.989364624023 2.443649291992 2.492475271225 -0.487754821777 0.055732727051
44.380912780762 -75.445564270020 -116.421379089355 -0.005142211914 2.172266960144 0.428466796875 -2.129585266113
108.756256103516 -76.677574157715 -117.182800292969 2.457565307617 3.116913795471 -1.717666625977 -0.851554870605
110.899131774902 -78.814765930176 -129.008270263672 2.443176269531 4.546159744263 -1.796325683594 -3.386985778809
21.572359085083 -75.648902893066 -136.785964965820 0.132644653320 4.039593219757 -4.036014556885 -0.106330871582
108.529090881348 -78.353103637695 -124.737411499023 -0.845146179199 2.661024570465 -0.860542297363 -2.371971130371
26.236248016357 -75.673278808594 -132.938140869141 1.690902709961 3.603717088699 1.171319961548 -2.958992004395
111.555839538574 -73.606422424316 -128.963058471680 -1.707328796387 2.011447906494 -0.975555419922 0.423370361328
36.076763153076 -75.884872436523 -133.524841308594 1.656021118164 3.169190645218 -0.890686035156 -2.551086425781
-55.819343566895 -77.048057556152 -141.916107177734 -0.779846191406 1.699586749077 -0.646518707275 -1.364715576172
34.095199584961 -78.849472045898 -142.801879882813 0.472747802734 0.542145669460 0.210926055908 -0.161064147949
107.541343688965 -75.724357604980 -134.197479248047 -1.568481445313 2.397072553635 -1.788414001465 0.295631408691
-49.378135681152 -75.715469360352 -144.185714721680 -0.554565429688 2.310677528381 -1.075710296631 1.968383789063
30.627689361572 -76.492286682129 -148.285461425781 -0.182800292969 2.083308458328 2.005390167236 0.534011840820
-57.995079040527 -72.946617126465 -140.543701171875 0.816253662109 0.939969718456 0.280353546143 0.372390747070
-58.206153869629 -76.987022399902 -145.957183837891 1.814620971680 3.185722112656 -2.385154724121 -1.080284118652
-53.162418365479 -78.831665039063 -149.898147583008 -0.688461303711 2.103811979294 -1.568893432617 -1.220909118652
-66.011665344238 -78.753768920898 -156.191040039063 -0.709075927734 1.941151976585 -0.046760559082 -1.806404113770
111.668861389160 -80.020774841309 -145.810607910156 -0.070617675781 3.167806863785 -0.984695434570 -3.010047912598
-51.525089263916 -80.875099182129 -155.336990356445 -2.177673339844 3.819189548492 0.432243347168 -3.107589721680
21.074888229370 -80.266204833984 -154.827651977539 -0.670562744141 3.578135728836 -2.676132202148 -2.278533935547
107.305274963379 -77.998397827148 -158.149932861328 0.238082885742 3.125722646713 -2.794692993164 -1.379547119141
-67.388870239258 -76.263702392578 -155.718688964844 -0.236724853516 1.597219586372 -1.423965454102 0.683662414551
-46.579006195068 -77.717269897461 -156.661361694336 0.730194091797 0.961329221725 -0.539638519287 0.315849304199
7.280033111572 -74.874839782715 -153.982467651367 0.129043579102 2.639596462250 -0.007763862610 -2.636428833008
-69.221237182617 -76.553993225098 -157.172836303711 1.593948364258 2.009402275085 -0.040657043457 -1.222854614258
-64.215347290039 -78.290359497070 -159.941619873047 2.009887695313 2.141284227371 0.500823974609 0.542793273926
-1.621356964111 -77.100631713867 -161.645950317383 0.100021362305 1.249266743660 -1.219290971756 -0.252967834473
-44.119075775146 -74.671035766602 -167.493988037109 -0.727920532227 1.972266912460 0.649635314941 -1.714042663574
28.520671844482 -75.310859680176 -165.147994995117 0.062622070313 1.906501412392 -0.250183105469 -1.888977050781
-63.939319610596 -74.306686401367 -167.343719482422 1.433074951172 2.221158027649 1.255031585693 1.142250061035
-57.811965942383 -78.017379760742 -167.442245483398 0.445144653320 0.731640219688 0.247314453125 0.525337219238
15.513824462891 -79.017181396484 -159.616241455078 1.926849365234 5.378380775452 -2.782035827637 -4.180252075195
-31.901794433594 -76.329421997070 -168.651504516602 -0.041625976563 1.270327568054 1.220603942871 0.349464416504
-30.622957229614 -78.899002075195 -166.639480590820 1.635589599609 1.801497101784 0.211145401001 -0.725021362305
14.693481445313 -78.004997253418 -173.816360473633 2.642242431641 3.531938791275 -1.764738082886 -1.542350769043
-43.410923004150 -78.842102050781 -172.825607299805 0.184585571289 3.138368129730 -2.947296142578 -1.062416076660
-12.346291542053 -77.710998535156 -172.157241821289 1.695632934570 2.704177618027 -1.724659919739 -1.209526062012
-64.553871154785 -74.385322570801 -172.172119140625 1.093353271484 2.779937028885 -1.705242156982 1.903884887695
-7.695587158203 -74.839073181152 -172.359497070313 -1.475631713867 2.310236930847 1.193915367126 1.316917419434
-23.418592453003 -77.263267517090 -179.390151977539 0.190551757813 1.045795679092 -0.792398452759 -0.655349731445
21.924097061157 -75.214073181152 -181.884521484375 0.742904663086 1.665680766106 -0.887924194336 1.197570800781
-40.116661071777 -77.584930419922 -172.089111328125 0.921081542969 1.003347516060 0.346965789795 0.194755554199
18.737350463867 -74.354629516602 -175.937393188477 -0.430587768555 1.340434670448 -1.159833908081 -0.515892028809
-23.886734008789 -73.740463256836 -184.260925292969 -1.692871093750 2.104928016663 -0.995443344116 0.757629394531
-33.327682495117 -78.614540100098 -179.300292968750 -0.360275268555 0.992791652679 -0.657505035400 0.650787353516
-148.747024536133 -74.773063659668 -190.980773925781 1.026473999023 1.405930161476 0.029159545898 0.960281372070
-20.632913589478 -79.822448730469 -184.456497192383 1.669540405273 2.000004529953 0.398714065552 -1.026489257813
-143.157989501953 -75.366836547852 -190.068817138672 -2.384902954102 3.199810504913 1.497177124023 1.519699096680
-153.153259277344 -76.102005004883 -188.494400024414 -1.821441650391 3.636939048767 -3.084259033203 -0.630096435547
-49.695323944092 -75.385131835938 -187.822433471680 0.132461547852 0.843917906284 0.102787017822 -0.827095031738
97.420837402344 -76.936019897461 -192.884078979492 -0.944396972656 4.156405925751 -1.472946166992 -3.770179748535
-145.733108520508 -77.197578430176 -192.765731811523 0.371643066406 1.308926582336 -1.206222534180 0.346694946289
-149.900405883789 -75.585235595703 -197.333496093750 1.822311401367 2.459139823914 -1.241638183594 1.088523864746
21.077869415283 -76.033843994141 -196.116424560547 -0.203964233398 0.988540768623 -0.425395965576 -0.868705749512
-138.205352783203 -76.123298645020 -197.962005615234 -0.348739624023 2.420537471771 -2.114868164063 1.124595642090
14.908460617065 -74.519432067871 -197.925033569336 -1.150253295898 1.836526870728 -0.197277069092 1.418037414551
-140.086639404297 -77.598281860352 -199.940887451172 1.403549194336 1.435553312302 0.296081542969 0.056556701660
12.233130455017 -74.520149230957 -196.374557495117 -0.318649291992 0.755556464195 -0.684403419495 0.030334472656
-134.825714111328 -73.925849914551 -199.093643188477 -1.565734863281 1.780236482620 -0.465545654297 0.707801818848
5.386723041534 -75.084190368652 -203.545806884766 2.292907714844 3.038596391678 -1.897140979767 -0.613594055176
-151.619583129883 -76.128509521484 -205.249130249023 0.316040039063 1.482911109924 -1.111877441406 0.928909301758
93.687728881836 -77.291145324707 -203.575134277344 0.884628295898 1.388503909111 -0.430236816406 -0.979934692383
-16.792379379272 -78.839584350586 -205.402908325195 -1.542922973633 1.668743252754 0.404500961304 -0.490379333496
-31.139150619507 -76.002281188965 -207.716567993164 -0.619308471680 1.380893826485 1.231863021851 0.076408386230
-11.923112869263 -74.138267517090 -205.026550292969 -0.986007690430 1.444712281227 -1.054567337036 -0.053573608398
-147.756103515625 -79.058448791504 -212.360031127930 -0.889678955078 1.103618383408 0.652969360352 -0.008705139160
-36.238742828369 -76.800003051758 -204.221252441406 1.414489746094 1.476462125778 -0.423034667969 -0.014167785645
-83.764053344727 -78.420654296875 -206.759292602539 3.673461914063 4.512132167816 -2.060226440430 -1.618789672852
-27.544931411743 -78.010353088379 -208.733840942383 -1.229278564453 2.171398162842 1.785718917847 0.122688293457
