# This PCD file was generated using the MATLAB® pcwrite function
# from Computer Vision Toolbox®.
# .PCD v.7 - Point Cloud Data file format
VERSION .7
FIELDS x y z
SIZE 4 4 4
TYPE F F F
COUNT 1 1 1
WIDTH 1414
HEIGHT 1
VIEWPOINT 0 0 0 1 0 0 0
POINTS 1414
DATA ascii
72.331924 -59.344627 -110.065971
-1.890205 -77.827538 -286.135834
69.358498 -60.168488 -107.004250
-143.297302 -72.476357 -297.203247
-134.520615 -75.080429 -256.591644
-163.691727 -81.785019 -286.940460
-156.213882 -74.264832 -283.519104
-144.346680 -73.029617 -292.967438
-147.757767 -67.788651 -287.207703
-159.421967 -69.950851 -295.676117
62.077812 -60.685123 -88.689323
-39.117569 -79.421768 -70.864754
-72.251762 -78.042694 -101.711685
-93.390144 -78.310089 -220.100281
-108.978973 -68.613289 -261.010132
-43.381279 -76.755974 -207.203598
-47.913074 -81.950180 -158.670624
-57.918907 -70.827087 -151.360992
-64.925331 -81.061752 -171.111664
-152.440536 -77.541527 -211.211899
30.754316 -83.558548 -133.959045
35.798424 -79.080750 -142.219818
-53.818581 -77.243973 -291.516113
-154.299789 -67.423119 -217.165176
-126.993164 -64.379791 -233.630081
37.952461 -72.967056 -119.851318
-105.872551 -74.517761 -260.188049
-97.802383 -71.946487 -118.938660
31.325470 -76.751297 -147.491196
14.239128 -74.399940 -235.488449
-36.193378 -80.741135 -210.666489
-16.902243 -71.456787 -204.096390
-22.039566 -80.469650 -191.058502
-148.509506 -75.213699 -185.517746
-45.787491 -81.958260 -288.699219
-16.984516 -69.766937 -71.321487
40.316223 -72.831467 -121.966637
-34.927723 -76.508186 -82.561676
-152.255569 -69.687706 -206.184845
-145.996979 -63.386742 -206.930771
32.230236 -78.295708 -141.152252
26.440933 -82.602043 -147.411270
21.779579 -77.956299 -147.406158
22.984133 -74.703712 -142.282211
30.334532 -82.549515 -144.424606
-11.647273 -78.138695 -172.231262
-9.820479 -84.966934 -175.696808
-98.252502 -71.747047 -101.907127
-39.114704 -75.842987 -70.140106
-69.474091 -74.359283 -159.635712
-30.151419 -75.301178 -193.944473
-60.339760 -84.416016 -181.080292
35.638248 -66.748688 -252.046661
4.891203 -75.392838 -228.093704
-19.340614 -75.013153 -211.880066
-66.220528 -73.161438 -164.711533
34.741623 -74.263199 -260.436462
-2.158566 -82.928139 -239.408035
-38.037975 -81.565071 -206.931061
-60.705444 -82.493553 -177.227264
-14.321243 -67.784203 -209.609833
-39.561371 -81.794998 -170.257584
-28.742313 -82.914589 -184.465790
-92.383186 -64.673836 -138.409805
-23.516140 -65.290886 -68.889275
-40.304092 -82.646339 -177.030609
-32.906250 -80.226357 -183.039764
-33.465649 -62.094299 -69.783134
-43.104149 -82.749565 -195.764313
-52.108742 -79.505920 -191.824188
-62.910988 -70.874245 -49.618874
57.823189 -69.072014 -239.888809
-27.645613 -80.236336 -179.882996
-35.267071 -81.771820 -175.745926
44.039833 -76.248741 -110.483727
48.683079 -68.573166 -246.177322
28.574278 -77.298714 -124.802231
29.282959 -76.439224 -131.868759
-60.175079 -74.888512 -178.233139
-40.876007 -85.411194 -193.476486
-16.600233 -83.132912 -211.806396
-65.549728 -77.247078 -162.509552
-164.815216 -74.690514 -202.519943
-37.463486 -78.681061 -62.508427
33.623795 -81.993156 -127.498924
-148.291153 -71.554253 -195.161133
-50.886230 -75.321136 -292.294983
-149.775192 -86.287178 -201.679916
-145.477036 -69.685158 -194.672394
-84.460114 -73.124352 -254.017334
-108.778946 -69.213997 -226.748825
-154.480057 -65.410530 -197.440262
-51.671127 -84.990494 -205.144516
-150.472763 -82.579338 -204.961243
-80.485237 -68.563927 -49.315983
78.141052 -65.346291 -108.677048
-78.632751 -86.672653 -214.759583
-82.215340 -71.735626 -57.832577
9.852254 -81.450783 -220.575989
5.038605 -78.041100 -222.768845
-29.690796 -63.695721 -69.828156
-24.163021 -81.795387 -187.425888
-42.046162 -80.946808 -167.963898
6.957855 -84.679855 -223.244461
3.914499 -75.830811 -220.690613
-5.821612 -81.321060 -229.788742
-49.150124 -78.472481 -165.066498
-90.316376 -77.816483 -113.255272
37.989445 -76.396950 -255.744766
-90.377777 -76.222275 -252.554260
13.337372 -81.151489 -225.799133
-138.837769 -83.371323 -231.921570
19.642803 -74.889595 -191.695465
37.565620 -60.481964 -21.977837
10.208294 -78.885727 -211.364319
5.909645 -80.508995 -211.017990
-154.423889 -75.357315 -246.242081
-148.041534 -80.167259 -229.485291
-149.332367 -81.182289 -231.718201
-110.657379 -66.403496 -184.218628
19.466673 -74.236336 -189.816589
-21.633011 -80.354980 -209.626633
-66.967857 -79.093102 -163.166061
5.515787 -84.766304 -242.799683
9.313539 -77.778450 -246.297913
-51.278378 -75.384270 -152.209167
-141.643524 -75.443954 -228.529022
-152.952042 -81.106300 -245.545059
-114.262108 -75.184105 -196.248215
-91.088852 -69.996483 -292.702087
-165.237732 -70.233253 -243.948669
-153.083420 -70.543755 -230.932144
-151.010956 -68.635117 -231.298920
-6.953998 -78.947121 -235.813919
-6.562241 -75.316772 -220.617584
-75.179642 -76.916489 -147.887512
-159.356064 -75.075119 -229.345322
-147.252823 -87.212776 -249.957031
-11.833091 -69.245712 -220.924606
-152.034195 -67.772255 -228.710297
-115.526726 -68.000359 -198.069443
-148.886032 -65.892242 -230.478012
1.160178 -78.751045 -240.503357
-25.444489 -77.109818 -215.956848
5.487038 -82.534996 -250.127197
-59.534206 -74.945274 -177.350235
10.236749 -76.190544 -250.406113
-34.028275 -79.779655 -208.262497
31.908314 -63.758560 -260.847839
35.127045 -67.173172 -130.871933
-127.738129 -78.044693 -285.137573
-153.462448 -75.044830 -273.152710
-90.564133 -73.223137 -216.730972
-154.470230 -87.734314 -251.649094
-155.022736 -79.747444 -256.007751
85.841599 -76.143127 -218.857834
-72.404610 -76.105469 -60.668625
-161.613846 -67.998260 -260.663879
-167.726486 -69.821373 -248.469070
-150.468170 -71.790504 -269.083069
-127.483192 -72.609428 -285.839325
-127.948059 -71.561790 -285.057587
-151.850021 -64.847763 -272.959259
-155.613983 -67.616333 -272.227417
-139.979095 -83.909103 -261.139008
-144.108093 -79.281639 -259.883636
-150.861938 -85.791496 -259.225983
-151.899094 -79.266396 -252.495590
-160.635452 -69.767601 -252.057587
91.042747 -70.262291 -105.288345
-168.565048 -71.852867 -258.106049
-44.427906 -79.471260 -192.954330
-46.916634 -76.101463 -184.709137
58.674301 -71.644218 -238.464630
-98.763870 -75.731461 -87.992844
11.479493 -84.676521 -254.238358
18.119635 -78.763664 -250.814133
-131.177551 -76.702950 -294.735748
17.725220 -78.749306 -163.732010
29.169331 -80.139008 -155.130707
26.314922 -79.200401 -154.753860
82.078735 -76.995399 -95.361671
-153.471466 -75.031113 -266.852631
-150.918900 -70.428680 -266.522644
-56.039654 -65.503273 -85.886162
-168.196976 -77.072044 -259.637634
-155.187561 -83.248589 -262.875244
-162.885620 -77.344299 -265.522247
-108.144501 -75.082603 -288.879181
-166.661850 -75.343674 -271.029358
-147.714005 -79.468102 -252.771255
-146.203979 -83.178307 -258.612183
24.310841 -79.609848 -152.872391
24.971813 -77.616936 -153.932831
18.227730 -80.474327 -165.773880
-156.943512 -83.651642 -266.237457
12.799583 -82.825340 -268.647125
69.467422 -73.233887 -80.063530
-57.573303 -80.057732 -68.152641
-83.760704 -72.658493 -100.034714
-50.659775 -72.747520 -88.330925
-158.872101 -80.360146 -250.223495
-72.133377 -76.656937 -69.796455
-53.885887 -78.920570 -251.452118
84.467491 -71.955727 -226.372589
74.066841 -57.288212 -109.192154
-117.560829 -76.373116 -295.219635
-145.851868 -67.986870 -260.575043
-158.404282 -66.761765 -259.120422
-46.855545 -80.215286 -243.549194
-130.019714 -76.360184 -223.731934
-155.783752 -75.462830 -201.231277
-34.504536 -81.607704 -74.972557
-150.461334 -69.643532 -199.731064
-126.304344 -70.878067 -229.423340
-149.850204 -65.623077 -200.435287
-145.537796 -64.669838 -202.252548
-31.311249 -80.723648 -78.153694
14.283025 -81.256248 -226.439560
-170.332962 -75.717827 -264.292175
-152.869095 -78.084106 -279.671936
-134.795380 -79.581070 -295.146027
78.064034 -79.862350 -88.147575
75.193817 -75.609383 -94.873390
32.477093 -78.750458 -167.188980
-80.997795 -77.330391 -213.688904
1.855071 -74.113052 -159.982391
16.850113 -77.705856 -176.131119
-50.034386 -78.396652 -241.472778
-82.866699 -80.299492 -79.217979
-62.697994 -70.099098 -133.515411
-36.819870 -80.678635 -83.082947
5.280364 -72.355759 -200.496902
-24.047413 -73.346840 -243.196899
-87.986008 -79.326530 -99.560959
43.651917 -69.286201 -252.959686
-74.747292 -73.988144 -102.950325
-58.961761 -67.273170 -48.627590
-111.153358 -69.353073 -260.910431
-164.176468 -75.942810 -285.264893
38.376835 -79.859039 -116.385422
28.761583 -71.311958 -139.266083
-87.420090 -75.565689 -257.186890
-27.103230 -70.585175 -78.612099
-145.155869 -71.427444 -196.816040
-161.672073 -73.469353 -209.995010
-151.098923 -60.950897 -198.253723
42.712074 -81.971893 -122.535721
39.206028 -79.079765 -120.617096
51.447983 -77.670891 -98.688797
23.233942 -81.520264 -145.871521
21.111485 -72.140579 -149.059586
-94.107513 -76.419289 -254.121567
38.496429 -70.650955 -259.396057
-53.542690 -82.696472 -149.319641
-43.524632 -82.068901 -160.679947
-16.192144 -75.991745 -201.622589
-32.339279 -82.987534 -208.238037
-49.263531 -82.442734 -158.274963
-63.103836 -81.825089 -174.950867
-153.539017 -80.867310 -186.791443
-18.694382 -63.855862 -65.059044
-41.882103 -83.307312 -163.017395
24.551325 -83.192932 -162.061951
26.234236 -80.570122 -159.957123
19.575668 -78.439262 -151.553558
-61.723667 -81.051758 -253.357422
-99.726547 -74.065063 -211.901596
23.878548 -82.517845 -165.048141
28.855312 -75.041718 -164.074158
21.652357 -79.827271 -158.518494
-4.159301 -78.395134 -169.678604
25.042326 -82.820480 -162.290741
22.639948 -80.864128 -164.333679
-25.633772 -79.111908 -189.513824
-44.319088 -79.942703 -166.687500
-31.638620 -79.525513 -170.760483
-34.885399 -83.207413 -166.077667
-24.940790 -82.446281 -181.724121
60.161064 -73.038681 -240.064484
93.830971 -74.816757 -206.679825
-97.014137 -72.123466 -83.329277
-36.567307 -67.786720 -53.081699
-58.628269 -82.338547 -171.908096
3.584741 -80.217506 -232.869690
-135.104858 -66.477356 -231.573318
30.057400 -73.885338 -116.976494
-25.821001 -74.279846 -193.646896
-58.880962 -80.172256 -171.233658
-21.619102 -65.378502 -192.307724
8.820022 -72.400681 -225.634033
-82.416428 -68.524132 -134.889267
-26.049025 -74.621483 -201.839218
-62.386852 -78.015709 -172.223648
-27.871019 -82.348991 -191.235092
-22.740313 -68.840935 -203.292358
-10.678081 -80.763123 -211.297760
-130.080795 -84.857452 -202.002228
13.047111 -76.571358 -186.808136
-22.356693 -77.240059 -217.375610
-136.729370 -78.235992 -202.215088
15.012957 -79.227432 -230.320892
-17.816254 -80.309128 -199.813812
-41.638420 -77.577209 -154.491745
-38.779427 -74.734154 -156.984680
-91.779228 -65.347183 -120.281532
-106.573242 -75.632263 -257.583527
-157.812469 -80.780632 -202.630478
-163.814972 -72.572769 -198.280731
92.458305 -62.958782 -64.355835
58.331150 -70.361832 -89.104958
77.307762 -68.031097 -69.670456
-37.512123 -73.752029 -172.580307
78.112389 -70.411835 -71.442772
-118.234123 -75.785789 -261.958954
-33.807339 -74.548721 -173.722183
44.444309 -72.819969 -100.450592
-161.435486 -78.207909 -304.941772
34.730583 -78.297462 -108.161278
48.886742 -74.389740 -96.666916
71.108902 -71.045158 -77.574974
-143.417999 -78.755150 -285.155853
-37.182148 -71.832893 -184.376068
38.733280 -70.039490 -105.667908
54.342270 -72.350487 -92.743225
-52.796165 -82.082779 -203.994110
-159.820282 -82.157730 -304.886261
-155.093384 -75.416794 -300.578278
66.872116 -70.484802 -77.184586
-155.474197 -70.603065 -300.431152
-37.768559 -69.444023 -177.598190
-33.577160 -68.068016 -180.529785
-146.832809 -69.775543 -288.561188
-147.144775 -71.554024 -282.094971
-157.544434 -67.457680 -299.432770
-152.981308 -66.720100 -289.513580
25.662727 -66.223770 -264.692230
-50.764492 -81.700897 -204.257858
-161.196884 -77.925690 -242.257278
14.594616 -79.905937 -203.830688
15.961699 -81.313385 -239.696655
-19.984640 -82.053101 -210.764008
31.306623 -66.931168 -262.920166
43.306438 -74.810516 -118.953102
-36.556847 -80.610435 -208.998550
96.099449 -74.476448 -202.171844
13.866487 -83.428055 -246.647003
-85.316330 -63.360081 -124.435303
-14.351017 -77.725853 -211.545502
12.052970 -85.083130 -212.682144
-9.157679 -77.750450 -232.037643
19.144753 -81.316467 -190.721375
-153.803177 -77.818260 -214.894775
-161.274887 -73.101761 -218.327530
-72.441147 -57.912735 -121.167397
-93.166153 -74.061447 -291.600800
-146.116425 -71.584274 -233.097275
-149.197571 -73.014801 -233.250092
-122.588539 -66.769005 -204.392120
16.648663 -78.966301 -186.466003
19.185207 -81.698158 -187.035095
-14.974548 -81.373756 -217.452667
-152.803207 -81.395546 -224.373550
-162.640640 -70.094475 -222.993713
-8.482726 -82.229752 -222.568680
-164.293259 -75.287399 -218.145462
-6.950237 -84.509026 -232.656174
-9.796968 -65.255898 -250.534760
-143.970886 -86.484108 -225.912048
-152.536102 -83.358765 -225.638260
-167.191223 -71.811737 -225.710007
-117.698151 -72.506790 -203.939423
22.795361 -77.259651 -184.690781
-161.708572 -74.901917 -230.397827
-103.674095 -77.687462 -293.545044
-148.729034 -78.083031 -247.166763
-156.153351 -80.465225 -228.922546
-152.951859 -84.165924 -237.652222
-163.307724 -70.154037 -242.154114
-128.189774 -71.906380 -206.482162
-162.496918 -75.825317 -202.274933
-154.200195 -76.888351 -202.961456
10.955564 -76.564667 -238.028320
3.832414 -77.797806 -241.182266
-59.296638 -77.827438 -167.104736
-34.171036 -79.551613 -216.684464
-21.348827 -77.761322 -206.815521
-47.650684 -84.193230 -246.271637
97.053238 -73.607414 -84.568237
-38.478237 -79.534752 -246.377426
18.169331 -67.845688 -198.941025
-58.334927 -64.787987 -124.820023
-162.643509 -77.026009 -285.541809
-134.256073 -76.796829 -259.871307
-150.222137 -78.907440 -289.402069
-156.868423 -79.103439 -285.242737
-149.515579 -77.642212 -291.744476
-155.779877 -71.178246 -289.025421
-145.995605 -75.292381 -301.995148
-127.692627 -71.438255 -259.280365
74.413322 -65.866760 -62.450623
93.074913 -70.537498 -70.972595
-118.914452 -72.597305 -261.160034
-58.894421 -75.485962 -63.051655
-118.431053 -74.081902 -263.180359
-46.873013 -80.283371 -62.748310
-80.589767 -75.921448 -70.990311
-67.902969 -63.632965 -99.383278
-86.005028 -79.113167 -73.985336
6.744366 -81.203560 -290.917419
-31.923037 -80.229927 -76.233322
-37.280453 -77.397789 -84.313850
42.759007 -80.303833 -111.425575
50.559959 -68.210030 -248.474045
8.982204 -74.525208 -237.625900
-89.376518 -73.550125 -135.694916
34.070354 -82.251396 -123.712753
33.792118 -76.673759 -117.299805
-17.082855 -76.321098 -203.470016
-78.987900 -73.267052 -255.493851
36.774162 -79.261421 -129.638092
11.868854 -76.509827 -235.553406
32.787174 -72.304565 -148.913849
-35.181057 -72.784744 -172.266724
-37.411812 -79.814186 -168.466644
-32.365314 -76.257332 -173.953339
-19.300335 -79.135300 -184.018402
-4.485804 -78.344177 -165.884903
21.071901 -79.975838 -167.532257
24.751688 -77.892693 -173.559647
23.075436 -79.275841 -176.240463
-164.488251 -71.977142 -222.207016
-152.112198 -76.896507 -224.251526
13.118484 -78.707687 -182.200851
20.198589 -73.089714 -206.015182
-58.156197 -71.499283 -129.459076
15.340502 -78.361664 -191.060959
17.118126 -80.363350 -202.318771
-10.345297 -82.638222 -223.146591
42.643955 -70.017944 -119.536560
-32.470001 -75.681252 -206.448166
-25.278753 -78.087082 -218.551987
-63.160805 -78.487152 -178.681915
36.313629 -72.916931 -131.246597
9.755528 -74.619713 -197.151031
-25.544365 -70.336693 -222.872742
-55.625813 -77.054680 -140.080109
12.566294 -81.097595 -201.039764
6.387258 -77.314995 -202.343185
39.692047 -60.987049 -24.134062
8.471836 -77.749390 -207.521439
9.440269 -76.215599 -208.156952
-33.275139 -80.869812 -241.466415
7.700677 -80.859039 -213.911713
14.272448 -77.361702 -215.099808
19.855164 -69.556221 -25.813675
-73.894447 -67.960693 -49.908302
20.670475 -68.584686 -21.069412
-74.072365 -81.896843 -215.595154
-107.186951 -76.986359 -287.898285
-70.785469 -73.655930 -253.289474
-153.394516 -80.701347 -231.007965
-7.711356 -80.662537 -216.763885
-105.670799 -66.358032 -288.537659
-162.616791 -70.875061 -230.377930
-152.354218 -70.701347 -245.517761
-152.103333 -65.284782 -244.400299
-22.861862 -78.791969 -183.286789
-0.300825 -81.591866 -221.662750
5.332691 -77.707771 -220.731766
-123.441010 -68.924034 -205.875549
-152.867523 -80.199211 -222.604980
-160.704956 -66.817039 -225.742249
3.064682 -81.815590 -230.410019
-11.425199 -79.928566 -249.059418
-161.584641 -76.921616 -232.388031
-157.921570 -78.648293 -235.514389
-24.199558 -78.228477 -243.569244
108.062164 -72.028542 -111.606117
-29.020588 -84.072586 -240.538605
36.684486 -62.812851 -21.530987
-25.936039 -81.237587 -242.303436
108.714516 -69.892616 -145.962234
-52.747566 -80.682564 -245.281403
-43.386108 -77.775879 -246.438385
-87.000381 -65.785500 -52.773705
-88.624191 -73.365089 -61.899361
108.245232 -78.533394 -127.094673
-73.712280 -77.746735 -217.159241
-51.633343 -77.818558 -244.645294
-85.394363 -75.233025 -211.188995
-57.759052 -79.849045 -249.730682
-51.715076 -81.024307 -248.718872
-152.660095 -77.834198 -267.765564
-133.404266 -80.863350 -284.653748
82.121140 -70.401497 -221.977005
-112.161720 -72.258125 -292.484131
-153.074722 -70.333885 -254.729843
-149.271973 -62.676983 -254.797501
-26.746996 -67.198753 -55.369152
36.676449 -72.028290 -118.540001
-79.399757 -63.250179 -132.529755
-4.527144 -79.318314 -245.996658
21.551926 -73.513733 -36.771675
108.183449 -73.361595 -124.012840
-11.032122 -82.126793 -257.287506
-13.547963 -82.363449 -257.236908
73.975006 -66.491096 -229.216904
62.066700 -63.136696 -73.317825
-69.791527 -58.998173 -97.154869
16.650806 -76.854927 -171.155441
-159.135391 -73.383026 -267.193481
-152.727615 -83.039116 -263.856171
87.313385 -79.179359 -92.904785
72.908722 -74.075699 -226.388367
-16.582699 -81.196075 -264.475098
-11.172400 -76.635612 -271.764465
-5.199032 -66.504738 -257.727783
-90.675484 -74.931938 -215.904922
-87.613235 -65.452011 -53.391682
87.396873 -77.754745 -78.567482
81.690720 -74.784668 -77.656639
13.588212 -79.135864 -279.939789
72.155899 -68.686729 -71.058922
-45.698898 -81.605362 -60.912880
-78.979927 -77.523285 -65.347420
-37.576916 -78.949707 -66.998566
-85.470818 -75.827347 -72.271530
76.425552 -79.377274 -226.946533
-76.927910 -78.860962 -67.841072
-37.448586 -78.046021 -70.743004
-0.968663 -74.129265 -229.774063
-30.118149 -81.133041 -70.908211
-1.330897 -80.430687 -239.506287
-82.004967 -75.314026 -213.896713
-52.116550 -74.977013 -91.572365
-63.921352 -76.349579 -94.987785
50.571434 -76.746094 -100.709106
102.493958 -72.371490 -177.214676
-133.760529 -80.333145 -263.221405
47.392845 -78.398422 -108.208733
-109.430344 -75.843529 -257.510071
-160.982773 -76.990120 -307.057831
-37.693237 -73.353516 -53.229065
49.726902 -79.010918 -110.927879
-90.271294 -81.410919 -112.605598
43.843590 -78.289543 -112.934334
-38.217659 -63.553162 -76.964638
-134.020126 -64.815376 -259.486176
26.389484 -71.612762 -140.494003
27.138481 -74.123833 -137.256973
-170.410889 -74.745415 -212.448776
-27.273914 -75.980568 -61.392548
34.238457 -78.956657 -117.671410
-29.372190 -66.006355 -71.681122
6.120023 -71.375046 -237.663712
31.877903 -75.837242 -125.884903
-156.097412 -74.708229 -206.141754
-33.283646 -69.852333 -79.296249
-158.817398 -71.752617 -205.442291
-85.262527 -71.344337 -130.002121
41.093674 -75.416985 -125.727211
-100.301872 -69.184837 -144.460541
-16.639143 -63.232967 -56.903984
-146.010132 -74.261703 -188.443314
-43.783878 -72.411484 -289.568176
-146.976807 -69.814392 -185.513748
14.288465 -68.665947 -248.352142
30.213331 -75.820595 -138.973694
34.416733 -79.491661 -133.633606
-29.429565 -76.767212 -73.825294
-152.871323 -77.736443 -193.599106
-155.607254 -71.110443 -194.669846
36.753357 -74.913696 -141.402664
-28.253527 -76.363823 -223.296692
-52.772339 -75.651352 -146.474075
31.392096 -81.233589 -155.032135
-94.157372 -69.393158 -254.390656
40.019268 -69.584404 -254.158051
-55.240768 -81.680946 -151.344971
-46.118851 -78.736809 -160.436539
-46.893715 -79.618187 -150.164383
-51.920067 -78.938324 -155.247421
-16.461779 -80.831688 -196.873444
29.647621 -78.647995 -154.180649
-170.671799 -74.511353 -247.898285
32.078854 -83.233879 -151.497223
-39.511612 -77.473389 -154.973465
-19.775522 -77.547821 -195.846802
-49.675701 -62.485359 -46.516327
19.451971 -65.495346 -248.471710
-52.412498 -78.472382 -155.252747
-33.847107 -78.584015 -213.054108
-53.884190 -62.393387 -42.885609
1.474953 -74.422707 -244.677795
-1.935283 -75.354538 -225.557892
-69.139954 -79.609612 -155.921478
-15.088395 -77.463539 -211.074982
15.439250 -80.743713 -246.768173
-30.866688 -74.372108 -192.036850
-56.033016 -81.673004 -156.692337
-44.712105 -76.302368 -166.346771
-21.575117 -79.918701 -193.541306
-90.516792 -76.874825 -260.493561
13.281994 -78.592926 -223.545029
86.579468 -73.577026 -84.995949
91.955025 -73.487305 -90.911705
-2.248136 -80.285454 -163.214828
-2.735986 -81.331062 -168.942245
-45.860332 -76.126610 -167.027756
-24.053322 -80.416153 -187.964020
27.589420 -73.457161 -127.460892
-56.563648 -79.018959 -188.533096
-46.374390 -81.593246 -199.682266
-28.789862 -76.624664 -169.115601
-36.503258 -79.923180 -173.577393
-26.603760 -78.685684 -183.561905
20.692236 -79.348083 -181.721390
14.009868 -77.847221 -171.423904
-157.962280 -80.415359 -303.124298
-151.623596 -81.560234 -297.315826
-33.480129 -81.097702 -174.976517
-47.916382 -79.197784 -191.504059
-51.471046 -80.373520 -193.530563
-69.908958 -77.769394 -209.296890
37.237526 -77.669266 -110.397743
-69.024063 -80.013313 -213.123474
44.463924 -75.545776 -99.675446
43.240631 -76.782646 -104.182442
-36.806828 -77.854767 -180.476105
-158.705795 -71.832993 -307.477509
-158.920441 -68.257286 -296.864716
-150.822556 -68.430565 -301.304688
-161.677795 -71.750427 -293.105774
-60.434078 -80.240112 -173.461700
34.396641 -63.170288 -257.212402
29.263809 -69.623184 -129.919769
-12.000733 -79.783516 -174.768967
-11.193241 -78.452576 -173.524963
83.076576 -73.692032 -72.788078
-162.052124 -76.221954 -295.243225
-146.769211 -76.303307 -284.481110
-149.261169 -84.006416 -301.443787
-37.668724 -77.512772 -179.614227
-32.868618 -78.734520 -176.863556
-140.345123 -80.306160 -289.455078
-156.772614 -81.462837 -293.400421
-156.702408 -69.695900 -302.829559
-129.319901 -67.321434 -254.601608
-159.819290 -66.793045 -287.176208
-45.835838 -78.023575 -174.028046
-1.978341 -84.532410 -232.934036
-54.235882 -75.186119 -182.491577
24.099236 -79.654327 -178.572647
-59.232483 -80.018898 -181.354691
-5.686165 -78.391350 -237.047791
-37.740597 -76.079430 -202.756256
32.470932 -70.658066 -129.475800
-74.560684 -73.372780 -144.413300
-35.748478 -76.515030 -183.868271
-44.403473 -77.976837 -172.699600
-25.857885 -83.722733 -182.660217
-41.320965 -79.144958 -172.819138
-92.731621 -65.723373 -133.757172
-47.611561 -73.834625 -48.741814
-38.865360 -79.676079 -200.721085
-60.051830 -76.202896 -184.171631
2.678299 -66.969604 -236.897263
-93.513939 -64.996292 -140.790894
-42.211601 -79.147469 -186.668701
-36.310909 -77.604317 -177.108353
-23.995632 -78.668472 -195.083618
-34.512600 -81.158257 -188.682816
-62.952335 -77.736977 -153.029922
-7.610501 -78.643410 -212.602661
-26.121075 -77.984299 -194.609421
103.322189 -67.255936 -108.546669
37.020493 -67.782639 -46.306786
7.717064 -72.497063 -201.744263
12.775550 -82.470634 -192.859741
-94.704170 -65.972862 -121.722122
-74.460175 -75.918457 -286.085968
-123.020279 -74.413376 -233.952637
-157.378235 -77.276382 -195.771530
-159.952515 -75.158951 -194.115417
-16.900656 -78.072327 -229.598633
23.363613 -76.634033 -195.442322
-31.156717 -76.972305 -245.907333
-122.305748 -69.078384 -208.756958
-83.063065 -81.177872 -287.966400
-147.591125 -78.074745 -220.968430
-50.801674 -74.980675 -139.420914
10.385345 -80.623573 -203.847641
17.407377 -78.373039 -201.139130
-151.924423 -78.929390 -198.986450
-162.227783 -69.636490 -202.682724
6.657462 -72.230293 -229.935028
-47.566521 -71.033119 -167.450470
-25.728884 -77.671356 -203.915894
-22.638474 -71.486107 -194.395767
-32.240242 -68.921196 -193.919617
-127.202553 -71.045967 -234.345413
-129.610535 -69.760277 -235.684036
-120.585495 -70.299606 -229.728394
-81.499153 -65.480957 -130.304459
-9.344564 -79.593773 -212.296188
-77.570824 -77.006363 -150.366348
-18.146282 -81.262939 -206.847656
20.248821 -80.283096 -241.328323
-130.429825 -75.193108 -206.209061
-150.320755 -66.827217 -228.433624
-149.608902 -65.242020 -228.361893
13.896478 -81.174637 -207.332230
-118.148849 -69.334686 -194.263779
9.919880 -79.816887 -212.246826
-28.232773 -77.068695 -245.904526
-7.458461 -78.815437 -229.008118
28.663761 -73.777428 -162.728714
14.924924 -79.013229 -210.292374
-40.800488 -78.521606 -212.708389
-60.552536 -81.378975 -169.740326
11.597740 -81.106415 -214.506073
-157.945236 -73.436783 -229.357025
-125.633606 -73.269150 -197.815948
-7.878433 -78.705162 -217.980316
-71.814285 -75.989693 -150.328461
-155.360672 -80.676697 -231.915237
-136.169022 -69.225380 -194.605865
-131.447311 -72.123962 -195.108078
-9.537680 -80.649605 -219.507751
-153.002090 -81.747559 -231.158539
-73.071739 -77.239853 -150.376602
-160.476563 -70.448326 -232.806168
-126.681244 -65.089600 -198.762680
-29.096590 -80.735657 -218.887741
-25.303898 -77.945412 -220.035706
-72.881966 -79.633865 -161.733109
-17.469418 -75.987396 -215.998581
19.705303 -77.482086 -183.362610
-25.709803 -74.578148 -221.335388
-78.825684 -81.078751 -288.681213
-144.062027 -79.914162 -226.422195
-116.268814 -74.211578 -203.403519
14.220853 -81.435104 -191.196304
-17.671751 -80.607697 -222.327927
-7.218393 -79.513542 -224.894821
14.831945 -75.968491 -243.944214
-34.053791 -75.293182 -62.405746
-168.295395 -68.044212 -205.456757
-8.561414 -77.566612 -228.786118
-26.675537 -78.708572 -242.399796
-9.811486 -77.468384 -226.223785
36.433392 -62.739964 -13.309743
-57.570145 -65.158684 -124.788223
-1.100294 -77.960930 -246.577133
-19.788900 -71.431503 -72.754677
-45.043793 -80.447685 -286.996399
-156.160126 -71.879028 -206.719284
-34.254364 -74.519455 -83.230339
-150.758591 -66.994011 -206.705643
-149.515411 -64.066689 -206.971527
15.604127 -80.156479 -229.013443
-148.523071 -74.512596 -232.916290
-94.703758 -70.639938 -291.152405
-148.721283 -70.214989 -235.402084
-152.556335 -66.301407 -235.124207
-164.102844 -77.345718 -218.402267
-10.076937 -78.253838 -231.794601
-69.858368 -62.506237 -122.385406
-135.604065 -70.211189 -227.031097
-2.663988 -78.506744 -239.837494
-152.605179 -76.417976 -245.421799
9.302670 -76.158829 -206.207764
-21.756590 -80.910385 -240.220825
1.652129 -77.521667 -218.968796
-55.607800 -83.594666 -242.685913
-48.740318 -79.170280 -246.395996
-153.959335 -79.616409 -247.388626
-157.669525 -71.145630 -247.684067
-109.163582 -70.927353 -197.144501
-153.412338 -81.890503 -262.514557
-161.638489 -70.794945 -266.877045
-84.562988 -73.626442 -64.051743
80.724411 -78.295471 -227.068344
-63.295540 -68.296425 -91.479065
22.659065 -74.325813 -155.032867
-129.665100 -76.210022 -289.859406
-159.844849 -80.413254 -270.083435
-150.649780 -78.666809 -275.193909
-156.326950 -72.259720 -268.836853
-111.546135 -73.297867 -286.233337
23.176598 -66.965858 -150.162308
-154.636475 -65.590897 -259.694458
76.153885 -69.321442 -234.161102
20.212934 -64.036194 -27.597841
-11.483736 -71.150375 -262.250275
-10.812086 -81.853989 -270.653320
-8.866504 -79.929070 -283.587555
3.577067 -78.575012 -285.944275
-71.691368 -61.830540 -112.784019
-165.472198 -74.622520 -293.995911
-160.052628 -82.412064 -290.388092
-147.126648 -77.734016 -307.501495
-117.162102 -74.401611 -260.953827
-114.877541 -75.008133 -262.035828
96.122017 -75.742050 -199.273621
-30.538000 -79.117935 -290.362885
-24.566067 -79.756554 -289.117310
6.052083 -61.128998 -274.223358
-42.846622 -83.414719 -295.775879
-35.960949 -76.843559 -286.641907
112.749062 -71.690987 -156.489792
-14.777229 -78.770760 -288.987579
-22.698080 -80.070450 -290.448608
8.592381 -77.145485 -295.426117
-107.429794 -76.598824 -223.472046
-51.466129 -79.388542 -62.202023
12.146471 -77.535286 -281.479980
-65.518669 -77.560181 -59.241940
111.290070 -71.169487 -164.647278
-5.102493 -79.511078 -287.431763
-53.750343 -81.528114 -57.966900
-13.301732 -77.944954 -291.809418
21.098227 -67.235245 -269.141815
-42.897346 -77.453949 -62.427589
96.731285 -77.681915 -200.724716
-77.511826 -68.325089 -104.649414
-168.302521 -72.268875 -290.054321
-146.344971 -75.208641 -307.043640
69.545746 -80.824432 -230.617065
-82.723251 -78.235779 -67.570045
-11.452128 -69.526436 -261.080322
66.060417 -64.442024 -97.963905
-19.224136 -67.246315 -54.176464
-24.073792 -74.119156 -62.951508
-26.047079 -75.565010 -73.608604
-26.952667 -78.090271 -77.583832
15.121871 -74.524162 -247.093689
105.131248 -71.215202 -195.388702
33.037060 -67.858421 -40.224449
103.134361 -68.789558 -110.995949
-62.825500 -73.892006 -137.777466
6.090589 -73.476425 -205.688263
-36.732742 -75.521690 -85.208725
-88.357651 -76.747910 -217.002548
79.916443 -78.939575 -81.294273
93.758728 -65.022293 -102.117569
-6.541662 -70.237251 -272.051788
-121.568817 -73.333870 -293.816925
-144.060745 -76.325836 -263.646606
-93.230515 -64.258423 -60.376389
82.101067 -79.376373 -84.643387
72.253075 -76.343597 -82.635330
67.460449 -63.797089 -104.355904
-43.841274 -75.657425 -83.687431
76.538017 -79.448532 -87.360825
-16.076008 -81.235374 -267.676483
11.331759 -80.370338 -295.896423
82.799850 -78.478317 -88.260124
-64.022209 -64.165413 -87.325569
80.477829 -75.200523 -96.015755
71.761002 -75.862991 -85.968369
-96.998352 -62.600563 -62.634651
28.119802 -64.031494 -43.777740
84.959740 -78.060081 -90.789253
73.143692 -71.895157 -97.384277
-11.347653 -76.666199 -275.291931
-88.602348 -70.034294 -65.920418
-67.828613 -80.578583 -96.107010
43.250122 -76.999725 -108.877289
76.793793 -78.740173 -77.193573
-45.905266 -77.802658 -143.302841
12.381451 -79.897766 -210.938995
-49.505905 -77.608162 -150.562485
-171.674820 -69.274330 -240.053558
-137.641266 -68.509995 -205.094009
-104.351906 -69.482925 -259.037720
-168.570145 -68.252274 -198.920349
-44.026089 -75.364525 -152.887878
39.495281 -62.179127 -121.903648
-62.556057 -77.160461 -161.815750
-21.931370 -76.763985 -207.494949
-124.938217 -75.411804 -225.035233
-128.019638 -68.624664 -236.284912
-69.734711 -75.863312 -158.075104
24.137030 -76.341354 -156.224503
-72.234764 -78.007584 -162.178757
-19.070217 -77.048096 -212.873489
-10.933261 -80.272980 -204.881271
106.309937 -77.043907 -169.873428
-58.921326 -77.057076 -176.298325
-23.719690 -80.813499 -202.632996
3.447015 -71.888283 -224.219284
-82.102058 -69.204964 -134.582855
111.500404 -76.815369 -175.953781
-66.420052 -79.800690 -171.671631
109.074371 -77.274605 -173.730255
-20.429871 -78.731277 -175.979385
-36.000889 -83.763611 -158.857315
107.863228 -76.623238 -183.317047
20.784122 -79.859245 -190.290710
12.795528 -78.732498 -199.169861
-50.957615 -77.059013 -292.397217
-148.242783 -79.108017 -186.833511
12.068530 -63.437134 -243.201675
-25.735445 -67.176598 -76.297981
-20.242010 -69.193222 -74.592255
-80.434128 -67.457062 -116.563721
101.247131 -77.401817 -190.007385
-155.606384 -75.412155 -210.176788
-142.713669 -77.169075 -198.134781
-155.078537 -67.810432 -214.258102
-128.688690 -64.523201 -231.493271
-148.345001 -65.412224 -215.701859
38.283115 -69.050301 -116.775803
-105.843338 -71.091011 -262.620026
-93.075424 -67.432877 -120.277596
55.045380 -72.537498 -247.471634
-51.305561 -79.352936 -200.987350
8.951006 -79.887993 -196.949722
-105.899574 -64.871483 -170.044586
22.958588 -78.049522 -202.347504
39.191730 -65.289207 -26.331627
-104.787918 -61.454197 -162.312271
-13.985421 -77.387535 -204.566391
7.279924 -73.828712 -227.609695
-25.625288 -76.659767 -200.946396
-131.100479 -76.241913 -205.025986
-126.075073 -74.149818 -206.271378
15.573220 -78.468750 -199.364639
93.071243 -80.256371 -202.025711
93.435272 -81.030579 -203.885605
-72.775276 -78.865929 -208.831680
-63.926800 -74.202843 -167.000153
-19.605555 -79.890549 -212.118912
-156.084747 -70.624382 -231.741196
-77.552597 -77.505318 -290.716949
-146.954163 -80.941788 -220.239380
41.008762 -60.432861 -39.049294
-32.035572 -78.645874 -222.753235
-75.360832 -79.324715 -145.180573
-7.726450 -79.468658 -220.116272
1.478081 -63.337811 -240.987259
0.937171 -76.461678 -222.808289
-35.620491 -75.643562 -246.104309
-19.272472 -75.320717 -228.242828
12.320783 -69.483711 -203.946167
-62.153240 -71.106590 -129.770706
-151.913162 -80.862206 -227.651932
-156.181427 -74.353180 -227.489410
-143.361923 -80.355980 -233.095230
-130.818283 -63.646671 -197.722549
-8.986736 -77.709267 -236.661804
-14.087863 -70.612305 -234.914139
-152.412445 -76.224525 -234.209061
-108.725410 -65.947121 -185.779861
-158.078812 -72.330200 -235.450516
-69.903648 -75.001305 -296.673523
-61.023998 -77.518967 -244.661957
-79.866531 -64.677330 -138.121262
-4.371661 -80.795746 -249.599197
108.373604 -71.706543 -154.832214
20.097425 -81.725998 -259.067963
109.106331 -71.582947 -153.056030
-54.499802 -79.643150 -58.655117
-95.769302 -78.998901 -100.051796
17.313063 -79.145279 -273.417725
18.074936 -77.721451 -270.475067
-84.549416 -78.792763 -258.152710
-49.260025 -81.708176 -287.541901
-75.329094 -75.569878 -252.779297
-116.114899 -68.114563 -235.036011
-46.033524 -80.714745 -285.723358
-42.551254 -77.681274 -288.547943
-28.769072 -73.053169 -67.478943
39.156166 -69.396049 -258.688843
112.617668 -76.030632 -155.306396
-15.929338 -77.526443 -289.812500
112.537148 -70.451096 -156.857483
-14.577752 -80.943764 -292.412415
-29.365200 -79.485382 -292.063507
-151.140900 -78.270813 -273.133453
75.340668 -77.860802 -234.788818
-86.699104 -76.404243 -65.072609
-136.016098 -77.880356 -290.342346
66.451767 -63.152626 -106.168976
111.435013 -73.955971 -159.060349
-12.171675 -78.212273 -289.250092
-6.147539 -84.161636 -287.279083
19.273804 -63.594482 -272.744293
24.793474 -64.676155 -270.979614
-65.531090 -72.144112 -51.787933
90.568062 -71.544891 -218.945938
-58.317924 -78.572281 -292.746582
-149.990280 -75.319427 -200.275787
-111.178734 -68.186325 -226.007690
4.767993 -81.696236 -289.514221
-86.668716 -75.380684 -79.159966
-116.463806 -72.465614 -294.648926
80.396721 -73.742867 -217.342911
-127.568329 -74.001122 -287.796631
-150.984436 -77.565643 -271.063110
-130.858948 -78.024742 -290.794800
-88.774811 -77.964798 -215.764542
-147.775497 -68.090790 -259.653442
-74.920456 -76.953842 -60.552105
79.991890 -77.097328 -227.016891
-60.206913 -67.580948 -87.533066
10.644080 -76.452438 -292.518280
-81.735519 -76.633789 -68.220886
-90.318657 -72.323936 -86.444664
23.657129 -71.055176 -259.326324
46.458824 -70.535568 -111.607735
60.711227 -73.393288 -94.588661
80.450569 -76.852325 -217.646362
22.230806 -65.958344 -258.055847
-37.876690 -59.136936 -46.766430
-78.071396 -70.407677 -56.719322
16.678112 -63.725780 -289.964783
73.622383 -76.154739 -93.415771
18.603237 -80.680183 -275.112946
-95.690086 -77.106781 -91.982933
35.947029 -73.574898 -117.230927
50.879948 -73.122696 -93.698853
54.434513 -75.186958 -97.904358
21.253277 -72.405960 -151.845596
-142.706909 -75.016022 -254.354813
-156.338974 -76.817741 -274.360046
-150.153381 -79.185509 -268.363434
72.926704 -73.562721 -92.276245
-158.118652 -75.277588 -272.548584
-148.112518 -72.034668 -255.457870
-115.843117 -72.975327 -287.191315
23.522350 -72.350174 -155.763428
-114.074440 -70.197701 -291.787933
-50.224644 -59.168137 -85.207085
-151.952499 -62.999458 -256.232361
70.851654 -77.130402 -236.805267
-73.972931 -73.924065 -56.052723
-80.150330 -69.584763 -101.173233
-85.276680 -72.701118 -112.405663
109.834892 -79.797424 -133.792465
109.772575 -78.250732 -137.916000
4.964100 -75.545006 -199.618073
-53.024883 -79.345177 -141.042480
-83.532097 -75.406509 -214.114868
109.972176 -77.945511 -135.284866
113.292618 -74.198479 -141.614975
-55.161964 -75.613380 -145.449265
114.119217 -75.079086 -147.330643
111.332314 -74.709778 -145.727905
-55.329124 -74.352966 -144.469116
-69.858627 -76.934601 -250.188766
-44.365845 -77.872009 -146.890961
106.117516 -78.583611 -144.576233
103.219276 -74.970856 -152.703445
66.403831 -59.115868 -71.705040
22.289103 -63.268818 -262.645752
104.619789 -74.239067 -165.269791
-2.554902 -72.924423 -168.071518
-43.404087 -73.253456 -78.757339
-98.792519 -75.737724 -227.258499
109.756836 -74.231606 -173.859360
46.272438 -68.558304 -95.596848
52.031063 -64.072754 -101.959732
-86.519714 -65.659538 -113.324219
-50.786438 -62.558750 -80.877335
104.779068 -80.066162 -184.470047
99.631447 -78.692909 -180.681595
101.571411 -77.751541 -189.672546
106.786812 -78.139076 -190.244827
98.837021 -80.605675 -194.178604
-160.292480 -74.539154 -237.558517
10.119562 -75.679581 -195.927795
-150.419189 -67.774521 -237.031845
-143.934280 -79.900436 -202.868378
-60.231480 -78.200813 -287.568390
-37.632408 -70.416153 -79.987183
105.125000 -79.985367 -195.574249
-159.128052 -71.878731 -203.335266
-31.484928 -72.567070 -78.050362
-153.924591 -77.552017 -202.904968
-35.871552 -68.928955 -79.569794
-83.847969 -71.641342 -129.645111
-81.438545 -60.837597 -125.513817
-62.925011 -80.421532 -291.106842
-148.295700 -78.647774 -205.396851
109.811951 -74.177055 -139.437698
113.798470 -70.779518 -137.673294
-82.322838 -77.876205 -209.088425
96.302780 -78.425293 -211.149170
14.251933 -64.014740 -149.059555
-55.344517 -76.429901 -91.397942
-74.930534 -77.254669 -216.640320
-131.982925 -78.772339 -230.392166
-72.162964 -78.475899 -289.438171
-148.151245 -76.543663 -214.421021
-156.710480 -65.379707 -195.769028
-143.580872 -64.056725 -198.037598
-148.467758 -61.883327 -194.280807
-12.667090 -62.238087 -61.272385
13.453137 -80.738922 -219.016159
-78.082375 -76.702095 -61.275143
87.385384 -80.403481 -217.974625
-21.295805 -77.121773 -220.203720
-16.976686 -79.211296 -227.759521
46.298603 -68.406944 -32.304661
13.697356 -83.135185 -229.710800
-141.977097 -76.176102 -229.496216
-7.918598 -72.722481 -234.731598
-153.363770 -74.280670 -218.134613
-8.812013 -71.937515 -234.910156
-157.799438 -68.966286 -222.291550
-93.632820 -78.230324 -292.063080
-149.424576 -81.789696 -236.975800
-95.728981 -80.083984 -289.906403
-150.271133 -81.655060 -237.694992
-59.991989 -76.869583 -241.542343
-45.349735 -78.594116 -248.940689
-50.412292 -72.070656 -89.970749
-83.315491 -78.799072 -216.680801
-51.213139 -75.952782 -247.524506
-9.532939 -68.475739 -264.870117
-15.318563 -76.917397 -251.335876
-16.113203 -77.724800 -259.351990
111.185768 -67.405487 -124.635109
26.729071 -65.047127 -32.954166
-150.724945 -73.426300 -265.671783
-140.576294 -71.834084 -262.409058
-85.578682 -65.965202 -51.771709
-12.534531 -76.822144 -278.475800
20.954908 -65.831741 -29.177719
-137.099396 -79.767601 -289.288422
-149.175568 -74.570435 -281.002228
26.645020 -67.879890 -15.641996
21.094706 -63.541985 -20.075521
1.761213 -77.814659 -285.381317
-112.214867 -75.440063 -222.573975
-83.736481 -72.538902 -254.146591
-144.018692 -79.532501 -204.698990
-54.633270 -76.775948 -289.877411
-127.055542 -75.358498 -229.655991
-158.160629 -73.113190 -195.049469
-70.192947 -80.249512 -286.183594
-10.942686 -62.751247 -63.049309
-127.050362 -76.220894 -257.755646
-147.863968 -76.427780 -303.971252
-146.281036 -82.481323 -298.162842
-151.755447 -78.422401 -287.748383
-128.122406 -68.572998 -256.642517
-156.949829 -70.920998 -286.113037
91.544655 -67.225182 -69.252541
-2.554190 -77.916595 -294.053497
71.330063 -73.422195 -104.285355
76.794426 -67.041267 -109.146034
-151.211884 -78.462379 -309.399841
66.020676 -64.671043 -74.298874
-6.347325 -76.638916 -171.643677
-156.946503 -75.208878 -310.394867
-155.857193 -74.324768 -310.573517
85.283661 -76.838676 -212.657410
-72.174210 -77.257332 -58.889091
-1.505182 -73.149651 -240.606842
-38.023514 -73.214081 -62.165676
-91.091980 -76.656349 -75.689636
70.367172 -73.913612 -97.050873
-135.337326 -77.723961 -257.338806
-37.025440 -75.324272 -81.607826
25.086620 -71.649345 -17.339689
29.097876 -70.329620 -16.193815
71.821739 -77.090752 -86.518425
68.257210 -65.966286 -76.511017
-6.868446 -71.764610 -282.831940
89.093056 -63.335464 -61.673088
-80.738663 -79.750259 -103.066223
15.288972 -65.668045 -146.235260
-93.031120 -72.724548 -108.800316
-84.347260 -74.255676 -105.675308
100.431389 -75.216873 -174.978134
-93.071030 -75.021446 -110.921539
-101.053391 -75.399109 -117.639107
9.535698 -70.230148 -189.440781
105.377686 -75.566078 -112.152794
114.216606 -76.096375 -122.582344
-17.506428 -72.744087 -255.740479
-97.879700 -63.152157 -75.996529
110.308571 -78.030319 -131.264526
7.670108 -79.728622 -205.511917
-52.777363 -70.734673 -134.868851
-48.645969 -76.640816 -139.676880
105.489937 -79.371078 -139.374786
-58.644264 -78.537064 -146.666702
-6.050546 -64.557991 -282.940430
-16.605183 -75.133789 -290.102325
17.896914 -74.519638 -254.368896
-101.108559 -60.783817 -107.358040
-17.672230 -76.648483 -287.459503
115.499519 -74.593285 -158.792618
15.518126 -71.813477 -168.372528
91.911263 -77.506531 -201.977203
-121.828224 -75.784485 -260.529663
-53.437172 -75.893845 -186.980164
102.375404 -74.819969 -191.447311
-49.414207 -70.216156 -152.631516
-17.370623 -70.346725 -197.200546
-47.187347 -71.462540 -149.756180
-2.969722 -62.224453 -244.379700
97.941147 -72.943825 -202.057831
-81.304680 -59.677658 -122.631104
-67.955536 -79.027870 -293.513458
-148.535141 -73.749512 -215.237167
-151.326294 -76.789131 -200.791046
-159.276459 -68.921906 -198.784775
-149.456070 -62.917530 -211.655807
-138.730759 -79.972130 -199.844177
102.011719 -76.667198 -202.212708
-18.143753 -77.962395 -221.450745
-45.924454 -73.377151 -164.049454
-54.880444 -75.446915 -154.154999
-16.512302 -75.311516 -188.161774
-83.583130 -71.442787 -122.318222
-48.771862 -69.633728 -150.497223
-78.553642 -72.917877 -131.448730
-92.963966 -77.523010 -256.534058
15.101481 -73.139572 -222.131073
-11.931479 -73.690575 -220.613968
-74.100266 -72.307503 -146.815186
-6.660378 -68.340248 -224.250046
-54.112991 -69.813522 -130.013474
-61.918633 -75.142517 -131.988968
16.554174 -72.969078 -211.719788
-159.321579 -74.704659 -223.776627
-155.394501 -78.007721 -226.022690
-162.199417 -78.709038 -247.368713
-87.335014 -77.997307 -289.680084
-148.842712 -80.992874 -233.557205
-124.608528 -65.580658 -198.454590
-14.938553 -76.064857 -236.369110
-10.920152 -72.049667 -236.364502
2.939959 -75.266449 -233.264404
-34.062000 -66.485474 -48.347576
-62.206978 -70.089478 -126.034691
-20.373960 -75.058876 -239.573364
-41.540569 -78.745766 -243.198334
-18.445469 -76.801964 -246.434036
-16.605656 -78.865227 -266.620941
-83.497040 -80.027077 -287.556091
-119.679558 -73.176254 -202.362839
-159.986237 -75.987602 -236.144531
-151.688095 -68.714256 -236.659714
-144.338593 -64.410469 -237.781326
-77.572632 -80.115845 -288.321594
-6.916279 -74.746819 -232.324875
-157.914673 -71.878853 -219.171982
-157.175354 -67.089218 -217.080170
-148.738983 -66.253578 -216.070160
-88.559921 -77.881592 -291.808075
-62.108589 -62.073929 -131.615814
-151.146317 -77.820007 -230.161606
-86.314461 -75.948753 -289.025513
-111.681068 -65.900429 -197.791321
90.639717 -73.478783 -203.575516
-62.034130 -71.696342 -51.525307
19.425655 -67.871017 -253.422089
17.272110 -75.637672 -259.254272
-43.126331 -70.899536 -51.154396
-43.704159 -77.199593 -56.961140
78.205704 -73.091225 -74.884300
53.192162 -69.162483 -100.636757
-77.496948 -65.536461 -102.723274
68.794418 -74.040871 -78.146812
99.127380 -73.196793 -90.224846
-83.095474 -58.629822 -49.441669
96.515892 -71.707016 -89.537415
69.878510 -74.922394 -98.787827
75.056061 -76.202843 -98.289124
63.062920 -67.148293 -83.364059
7.370772 -67.381706 -290.835754
64.582916 -66.472557 -80.318108
6.766994 -65.032181 -290.224731
70.060333 -70.455872 -96.580643
21.926338 -70.676216 -171.261536
-164.784500 -79.067085 -276.263763
6.183732 -76.098305 -156.201370
-70.229027 -76.871864 -100.579247
25.851831 -68.745262 -168.063263
-165.292297 -75.941719 -277.710693
63.262016 -74.789192 -236.156586
70.945457 -71.663811 -83.612556
86.030579 -72.521530 -103.944229
40.875210 -73.633652 -43.351192
105.252022 -76.236969 -106.240265
104.945801 -75.635498 -118.884018
23.661963 -68.169510 -22.950523
-60.833458 -72.935028 -142.325409
113.508331 -75.995438 -145.685669
-17.238930 -74.230576 -242.627319
-100.920387 -69.639580 -164.938385
-48.862446 -72.918091 -140.562683
-101.163223 -78.059952 -287.615082
-101.032158 -73.526924 -286.707397
-153.542908 -61.595440 -240.425507
-44.933922 -72.700592 -150.090927
107.744576 -69.606125 -151.290253
-59.386501 -72.545578 -141.659943
106.634262 -69.406525 -100.758003
44.156185 -66.337471 -36.523109
103.092827 -76.123962 -149.118439
29.477562 -75.808640 -159.542679
1.473668 -76.212601 -243.477798
-36.990246 -79.392731 -209.484055
-51.772934 -72.530701 -161.749649
102.220032 -74.712105 -169.590637
-40.667774 -73.425301 -159.364182
-59.510746 -73.433662 -176.508240
-69.119179 -71.846558 -164.011703
109.856857 -77.359253 -177.773193
-30.982807 -73.284019 -175.039749
-37.393803 -70.571976 -166.586151
-30.129366 -77.645607 -177.584061
-26.455137 -70.717743 -179.435059
-39.773003 -70.226395 -171.932922
100.650162 -76.419022 -183.124847
-88.277245 -62.597538 -115.473801
46.658791 -66.815605 -250.228775
-38.417725 -77.093277 -290.166168
-147.875290 -76.212814 -182.994385
-146.372269 -66.857613 -186.837357
-155.150833 -67.267601 -185.328552
26.172890 -65.033478 -261.272369
18.444567 -73.718048 -259.875793
-56.655327 -76.461243 -184.364883
-150.853638 -74.806816 -253.024597
-118.039459 -73.465424 -196.761627
25.303175 -72.799675 -186.057007
-31.128405 -71.375168 -188.682449
-15.613630 -78.555557 -225.109833
19.938648 -76.738533 -195.622284
57.798203 -63.039146 -88.135971
-46.504284 -70.390610 -50.054832
19.936283 -74.563278 -264.614136
95.708359 -75.597069 -192.506577
-57.557926 -74.857574 -287.324463
-147.147400 -75.396126 -196.318222
-150.149567 -66.102821 -198.271149
-156.041580 -61.701050 -200.044525
-94.542732 -73.925026 -213.939316
-42.003284 -76.046890 -204.760483
-64.403015 -71.547180 -53.274288
91.951424 -73.868340 -209.636902
-32.033340 -76.142075 -214.422852
-65.158623 -73.240471 -173.011230
-25.704046 -74.425949 -205.261993
7.279219 -75.184677 -242.773132
64.004463 -73.396881 -243.514526
94.276947 -73.054550 -211.836411
5.967226 -75.647583 -211.912903
-63.730179 -72.730835 -173.543930
-36.344856 -74.749817 -212.974777
-24.484045 -70.775276 -205.154251
7.481562 -70.228973 -239.027557
52.128647 -73.232826 -245.004929
-44.928886 -66.334999 -79.950653
14.556484 -76.412315 -282.024109
19.556042 -77.618439 -280.490112
88.239525 -73.242950 -213.334213
56.596535 -72.345078 -249.550140
86.821167 -74.909805 -215.803604
18.614637 -71.084045 -185.510849
-18.528387 -73.149071 -222.640335
-33.258846 -76.373611 -219.737625
-152.758347 -75.516769 -223.592834
-152.563904 -67.561890 -224.566681
82.777977 -74.561760 -226.929153
92.714500 -58.190102 -106.556137
67.318024 -71.445473 -232.818451
-76.093887 -70.071579 -149.683472
-150.929550 -76.192726 -233.219269
-9.707870 -70.869453 -217.730896
-158.553604 -70.174347 -230.556961
-5.947320 -69.592567 -220.496735
-146.168060 -64.914978 -227.570496
-14.788177 -72.821365 -230.028778
45.333981 -67.489319 -33.740181
-114.112915 -72.531502 -195.931442
-142.927811 -71.402557 -233.709152
-158.484665 -64.934196 -233.599228
-12.215604 -73.484863 -233.691025
-16.357197 -72.519226 -207.575470
-19.782974 -70.431190 -203.276855
17.043709 -78.576378 -242.299149
-53.192348 -64.214546 -132.020355
-37.911602 -75.789665 -240.635986
62.813679 -74.872932 -241.330902
-1.242877 -69.988228 -296.366119
-1.372676 -65.125046 -291.287476
-104.997269 -65.523460 -179.355179
-62.978947 -76.955513 -248.168060
-58.211700 -66.706772 -46.923168
-85.264404 -75.301804 -250.367462
-108.878349 -69.958427 -225.797241
-14.880989 -74.325165 -255.406830
-98.991295 -76.386536 -255.023972
-14.630486 -76.176605 -261.076324
-126.492874 -78.142883 -261.953094
-131.465698 -69.719414 -261.029877
-133.818726 -74.643600 -265.578369
14.877856 -75.881187 -266.010132
-17.032728 -73.324577 -271.092255
-16.867205 -77.010231 -272.404510
23.155432 -59.534412 -33.791611
-169.993835 -78.717300 -279.097656
62.264774 -72.572647 -248.733505
-171.941742 -74.861557 -280.804260
