-59.448135375977 -72.378051757813 -141.634780883789 -0.274826049805 1.528450012207 -1.172702789307 0.940956115723
106.466163635254 -69.334945678711 -100.295944213867 -0.448890686035 0.835955262184 0.430969238281 0.558197021484
43.821796417236 -66.381988525391 -36.217761993408 -0.307186126709 3.441977977753 -2.933586120605 1.773956298828
103.049644470215 -75.959556579590 -148.678161621094 0.368118286133 6.300180435181 -6.137977600098 -1.371856689453
29.461732864380 -75.616432189941 -159.292907714844 -0.808563232422 1.757057666779 -1.437393188477 0.606117248535
1.675868988037 -75.856964111328 -243.301071166992 0.698333740234 1.460153102875 -0.870995998383 -0.941139221191
-36.876518249512 -79.097946166992 -209.413467407227 0.711074829102 1.014787912369 -0.670169830322 -0.273933410645
-51.782424926758 -72.325584411621 -161.704574584961 -2.783721923828 3.374013662338 -1.455085754395 1.231903076172
102.230163574219 -74.508476257324 -169.149826049805 -0.143142700195 4.572644233704 -4.343292236328 -1.422813415527
-40.683586120605 -73.225929260254 -159.292007446289 0.738739013672 2.796948194504 -2.185588836670 -1.581260681152
-59.481971740723 -73.199508666992 -176.484924316406 0.683242797852 1.780652999878 -1.634162902832 0.182800292969
-69.122665405273 -71.635269165039 -164.010375976563 -0.664108276367 2.162800073624 -0.376083374023 2.023666381836
109.887939453125 -77.140792846680 -177.317565917969 -0.466735839844 0.653815209866 0.444061279297 0.111541748047
-30.957927703857 -73.055725097656 -174.942077636719 0.019012451172 3.250596761703 -2.755096435547 1.724952697754
-37.390579223633 -70.359161376953 -166.499969482422 -0.122375488281 0.432938724756 0.409149169922 -0.071113586426
-30.098327636719 -77.412528991699 -177.492492675781 0.872177124023 2.037338495255 -1.806663513184 0.354995727539
-26.418598175049 -70.481536865234 -179.320693969727 -2.167495727539 2.729762077332 1.524778366089 -0.654685974121
-39.755851745605 -70.003105163574 -171.852233886719 -1.251449584961 1.887223839760 -1.238903045654 -0.678680419922
100.695274353027 -76.189346313477 -182.691299438477 1.057830810547 1.673917770386 -1.203315734863 -0.484794616699
-88.405776977539 -62.476993560791 -115.504783630371 0.852005004883 1.279195547104 -0.025070190430 0.953834533691
46.879325866699 -66.451919555664 -249.916717529297 -0.718368530273 0.800579845905 -0.032863616943 0.351844787598
-38.094226837158 -76.644126892090 -290.094482421875 -1.119262695313 2.308977127075 0.594871520996 1.929962158203
-147.829650878906 -75.956802368164 -183.205795288086 0.408950805664 1.661581873894 -0.306594848633 -1.581016540527
-146.315704345703 -66.594436645508 -187.026977539063 0.434051513672 2.420944929123 2.247772216797 -0.787460327148
-155.098190307617 -67.006370544434 -185.541748046875 -3.497314453125 3.575677156448 -0.743820190430 0.031471252441
26.422359466553 -64.646492004395 -261.010040283203 -0.280670166016 0.806579589844 0.242927551270 -0.716087341309
18.689548492432 -73.332885742188 -259.650146484375 -2.246185302734 3.539236783981 -2.028966903687 1.834159851074
-56.606468200684 -76.212371826172 -184.339889526367 -0.389053344727 2.101869106293 -1.965133666992 -0.636192321777
-150.625991821289 -74.416633605957 -253.240692138672 0.535858154297 2.165167331696 -0.182556152344 2.089851379395
-117.957893371582 -73.186294555664 -196.890243530273 -0.384979248047 3.626196384430 -3.427139282227 -1.120628356934
25.356523513794 -72.556343078613 -185.812179565430 1.695373535156 1.825785040855 -0.583969116211 0.343772888184
-31.067901611328 -71.120780944824 -188.581420898438 -0.278121948242 0.554649174213 0.431058883667 0.210884094238
-15.459310531616 -78.233192443848 -224.982055664063 1.480911254883 2.145580291748 1.304430007935 -0.841949462891
20.016454696655 -76.476333618164 -195.398864746094 0.513595581055 2.047832965851 -1.486810684204 -1.311195373535
57.598140716553 -62.986484527588 -87.788619995117 -0.615158081055 0.736357271671 -0.290042877197 -0.282272338867
-46.803638458252 -70.399559020996 -49.992580413818 0.415916442871 2.073636054993 -1.473449707031 1.398544311523
20.193479537964 -74.169219970703 -264.386199951172 2.018951416016 3.362555742264 -1.971954345703 1.828117370605
95.777931213379 -75.348937988281 -192.084243774414 -0.144561767578 3.807276010513 -3.115852355957 -2.183097839355
-57.241516113281 -74.411811828613 -287.298187255859 -1.526367187500 2.751789808273 1.163967132568 -1.971733093262
-147.067092895508 -75.114730834961 -196.526123046875 0.313018798828 1.621505260468 -0.052200317383 -1.590148925781
-150.063217163086 -65.817390441895 -198.469070434570 -0.720550537109 2.039428472519 -1.896865844727 0.204879760742
-155.950149536133 -61.411609649658 -200.249313354492 0.385406494141 0.877779603004 -0.605895996094 0.504825592041
-94.416679382324 -73.615577697754 -214.007705688477 2.016571044922 2.429431915283 -1.353935241699 -0.049400329590
-41.901466369629 -75.760604858398 -204.696533203125 0.615661621094 2.297935962677 -2.210987091064 -0.114044189453
-64.694061279297 -71.548057556152 -53.260711669922 -0.623813629150 2.913429021835 -2.161846160889 1.850769042969
92.065673828125 -73.587066650391 -209.220916748047 0.094940185547 1.328007459641 -1.099868774414 0.738159179688
-31.906473159790 -75.838386535645 -214.333160400391 -1.473007202148 2.099283218384 -0.945226669312 1.159217834473
-65.138893127441 -73.012397766113 -173.002212524414 -2.766448974609 3.989274740219 -2.867782592773 -0.192085266113
-25.600816726685 -74.140449523926 -205.152633666992 -2.084167480469 3.677349567413 -2.593475341797 1.566215515137
7.479674816132 -74.831008911133 -242.579360961914 0.155746459961 0.575676321983 -0.305188179016 -0.462608337402
64.206832885742 -73.047866821289 -243.170043945313 0.248077392578 1.460626125336 0.595779418945 -1.310317993164
94.396980285645 -72.769332885742 -211.412826538086 0.522445678711 1.636080026627 0.235198974609 1.532478332520
6.087495803833 -75.352760314941 -211.723587036133 -0.045547485352 1.185144066811 -0.547519207001 -1.050102233887
-63.709014892578 -72.501899719238 -173.530227661133 1.189987182617 3.092266798019 -2.132774353027 1.896659851074
-36.221591949463 -74.448440551758 -212.893615722656 0.741546630859 3.327463865280 -3.231185913086 -0.285591125488
-24.380725860596 -70.490119934082 -205.034729003906 -0.294891357422 2.465898036957 -2.029485702515 1.369262695313
7.672795772552 -69.882499694824 -238.823806762695 0.328903198242 1.179415464401 -0.116666316986 -1.126602172852
52.334945678711 -72.879699707031 -244.690963745117 1.693939208984 1.742704868317 -0.385269165039 0.138412475586
-45.150196075439 -66.286987304688 -79.876403808594 1.889320373535 2.127458333969 0.455921173096 0.865264892578
14.858723640442 -75.984397888184 -281.813598632813 -1.150573730469 2.232685565948 1.868266105652 0.413093566895
19.854158401489 -77.193992614746 -280.268951416016 -1.262054443359 3.392236709595 2.527751922607 -1.877487182617
88.363456726074 -72.954216003418 -212.926666259766 0.145751953125 0.338314086199 0.300773620605 0.052421569824
56.814712524414 -71.983741760254 -249.222839355469 -2.393280029297 3.006236076355 -0.450855255127 -1.762496948242
86.951347351074 -74.616195678711 -215.402908325195 0.785125732422 1.977801203728 1.779968261719 0.356353759766
18.666765213013 -70.841049194336 -185.280105590820 -0.507354736328 2.031069040298 -1.702901840210 -0.983848571777
-18.379919052124 -72.831130981445 -222.509796142578 0.062973022461 0.324205249548 -0.245443344116 0.202239990234
-33.118194580078 -76.059638977051 -219.651519775391 -1.448699951172 3.526146173477 -3.214773178101 -0.014419555664
-152.607192993164 -75.182640075684 -223.815383911133 -0.749938964844 2.734214782715 -1.647994995117 2.048812866211
-152.409423828125 -67.225936889648 -224.773513793945 -0.145095825195 1.632230997086 -1.577484130859 0.393280029297
82.937095642090 -74.246452331543 -226.538223266602 -0.827575683594 1.497816324234 -0.917205810547 0.846939086914
92.562652587891 -58.105976104736 -106.108749389648 0.245246887207 2.996686458588 0.012817382813 -2.986606597900
67.492805480957 -71.117263793945 -232.461685180664 1.888351440430 2.086328744888 0.876647949219 0.135589599609
-76.134376525879 -69.886932373047 -149.696914672852 -1.095535278320 1.963898301125 -1.264579772949 1.028366088867
-150.753463745117 -75.840385437012 -233.438323974609 1.817474365234 2.292908430099 1.269058227539 0.586265563965
-9.571949958801 -70.561843872070 -217.573120117188 0.381484985352 1.787153840065 0.506067276001 -1.671012878418
-158.383804321289 -69.826301574707 -230.784317016602 -1.012130737305 1.390402913094 0.620742797852 -0.723526000977
-5.804099082947 -69.280075073242 -220.326751708984 -1.491531372070 1.624259829521 0.231816768646 -0.599845886230
-146.005508422852 -64.573974609375 -227.755645751953 0.095306396484 2.993500232697 -1.620620727539 -2.515064239502
-14.620500564575 -72.489700317383 -229.887863159180 0.062179565430 0.710112690926 0.221817970276 0.671707153320
44.992244720459 -67.539283752441 -33.433990478516 -0.671203613281 1.681977868080 1.153148651123 -1.024101257324
-114.033416748047 -72.254379272461 -196.048080444336 0.457183837891 0.701408684254 0.497337341309 -0.188713073730
-142.749984741211 -71.050148010254 -233.898254394531 -0.275222778320 1.170702457428 0.164810180664 1.125892639160
-158.306427001953 -64.580352783203 -233.816360473633 -0.321578979492 4.640960216522 -3.755752563477 -2.707290649414
-12.038494110107 -73.146476745605 -233.544692993164 -1.131759643555 1.461921215057 -0.884698867798 -0.271369934082
-16.247795104980 -72.230308532715 -207.438171386719 2.397491455078 2.657531023026 0.670684814453 0.929885864258
-19.684511184692 -70.150131225586 -203.144485473633 1.811676025391 2.388406276703 0.353895187378 1.515609741211
17.242555618286 -78.224647521973 -242.086502075195 -2.218734741211 3.038778066635 1.136087417603 1.738014221191
-53.278190612793 -64.066123962402 -131.963226318359 0.114700317383 1.730823159218 0.067459106445 -1.725700378418
-37.716602325439 -75.435249328613 -240.560745239258 -0.760818481445 2.428364276886 -1.374935150146 1.851394653320
63.010231018066 -74.527961730957 -240.992340087891 0.046417236328 0.651198685169 -0.339061737061 -0.554023742676
-0.902683019638 -69.531219482422 -296.184295654297 -3.467010498047 3.855845212936 -1.296308994293 -1.080261230469
-1.045174002647 -64.677742004395 -291.096710205078 -0.799285888672 2.072180032730 0.878113985062 -1.698230743408
-104.960136413574 -65.279022216797 -179.434844970703 -0.772796630859 1.707867145538 -0.649581909180 1.377548217773
-62.764423370361 -76.584014892578 -248.160095214844 -0.077041625977 1.058787107468 1.055637359619 0.026916503906
-58.518772125244 -66.720458984375 -46.884292602539 -1.360744476318 2.085926294327 1.238037109375 0.983222961426
-85.043922424316 -74.923721313477 -250.414199829102 1.290634155273 1.759006261826 0.378555297852 -1.133605957031
-108.721054077148 -69.624786376953 -225.895217895508 -0.591156005859 1.615702033043 0.111564636230 1.499526977539
-14.647560119629 -73.944976806641 -255.268905639648 -0.766464233398 0.918529272079 0.195614814758 -0.466865539551
-98.758781433105 -75.998077392578 -255.108398437500 0.117813110352 3.006261110306 -1.834770202637 -2.378517150879
-14.382523536682 -75.785606384277 -260.941253662109 1.089874267578 1.247481822968 0.371084213257 -0.480293273926
-126.242462158203 -77.738235473633 -262.112243652344 -0.865325927734 1.914108753204 -0.209800720215 -1.694404602051
-131.216812133789 -69.316017150879 -261.185852050781 3.593719482422 3.605533123016 0.132659912109 0.259712219238
-133.558517456055 -74.231246948242 -265.749847412109 -2.383331298828 2.448918581009 0.549179077148 -0.123840332031
15.138562202454 -75.483917236328 -265.797851562500 -1.537506103516 5.184838771820 -3.746275901794 3.237907409668
-16.758455276489 -72.914184570313 -270.957916259766 -0.985687255859 2.608369112015 -2.218992233276 0.952934265137
-16.589900970459 -76.597335815430 -272.276794433594 -0.697021484375 3.313105344772 -2.107215881348 -2.459770202637
22.814712524414 -59.581924438477 -33.527801513672 0.032909393311 1.803332090378 1.680892944336 -0.652320861816
-169.698806762695 -78.275230407715 -279.370788574219 -2.502410888672 5.600014686584 -2.571945190430 -4.299209594727
62.480789184570 -72.213478088379 -248.391921997070 -2.245864868164 2.810171127319 1.400951385498 -0.943656921387
-171.641876220703 -74.416023254395 -281.075073242188 -2.384368896484 3.907849788666 -2.189971923828 -2.188629150391
-155.037704467773 -75.636741638184 -282.869201660156 -1.167907714844 1.586095809937 -0.220291137695 -1.050315856934
-163.614089965820 -74.995780944824 -282.976562500000 0.589111328125 3.061471939087 2.897262573242 0.794624328613
-151.676025390625 -70.841033935547 -282.849426269531 -0.800689697266 2.165816545486 0.175079345703 -2.004745483398
-0.462610006332 -73.546028137207 -162.576858520508 0.673828125000 0.745760560036 -0.056527018547 0.314514160156
-162.005905151367 -72.770401000977 -213.805526733398 1.389022827148 3.205079555511 2.642349243164 -1.166679382324
-139.509338378906 -73.350296020508 -197.449676513672 -1.354156494141 1.682901263237 0.804138183594 0.593109130859
-53.066738128662 -76.885894775391 -288.084899902344 -1.044738769531 1.091973066330 -0.253467559814 0.191520690918
31.145944595337 -69.601043701172 -138.031387329102 -1.925994873047 1.955229282379 -0.228015899658 0.247940063477
-53.150798797607 -71.691383361816 -289.597320556641 -1.044097900391 1.234763026237 0.001296997070 0.659164428711
-116.625869750977 -68.524841308594 -229.694335937500 0.776931762695 2.791607379913 -1.175315856934 -2.409996032715
-150.765472412109 -64.220924377441 -199.729431152344 -0.154266357422 2.445207834244 -2.060974121094 -1.306762695313
-151.668441772461 -62.594085693359 -197.384780883789 -1.486251831055 2.562202692032 -1.120147705078 -1.761024475098
-90.984115600586 -73.311950683594 -112.113128662109 -0.116004943848 3.051051139832 1.888236999512 2.393745422363
-29.908235549927 -75.771629333496 -288.747528076172 -2.466064453125 3.148649215698 -1.930644989014 -0.324234008789
-21.722476959229 -76.050315856934 -287.280151367188 0.026336669922 2.259454250336 1.279808044434 1.861862182617
-101.167472839355 -78.236709594727 -289.918304443359 0.239501953125 3.167632579803 0.961296081543 -3.008728027344
-118.310592651367 -68.077697753906 -197.040634155273 -2.061859130859 2.980230808258 -2.143348693848 0.191230773926
83.676132202148 -71.966865539551 -225.469436645508 -0.565399169922 1.960906505585 1.227485656738 1.420829772949
11.563153266907 -77.896873474121 -290.612487792969 0.377258300781 0.603509664536 -0.245451927185 0.402061462402
14.340935707092 -69.160102844238 -286.572662353516 -0.064514160156 1.417435169220 0.479458808899 1.332321166992
-145.275848388672 -79.571441650391 -205.278594970703 0.016220092773 1.518856763840 0.378479003906 1.470855712891
-61.424442291260 -75.815063476563 -293.852813720703 -3.361877441406 3.569624423981 -1.181545257568 -0.209640502930
-142.188400268555 -74.435310363770 -207.605682373047 -1.156448364258 3.168068408966 2.207504272461 -1.956069946289
-155.463333129883 -66.421844482422 -202.620620727539 -0.878479003906 2.223979711533 -1.022903442383 1.768623352051
-154.646408081055 -61.640056610107 -206.337005615234 -4.158660888672 4.221715450287 -0.528625488281 0.498973846436
-147.071884155273 -75.345764160156 -243.901947021484 -0.653701782227 0.705764532089 -0.134094238281 -0.229774475098
-102.481292724609 -77.219421386719 -294.047058105469 -3.889251708984 4.383649826050 -0.352523803711 -1.991439819336
-100.543243408203 -72.696037292480 -288.975860595703 -2.459655761719 2.851816654205 1.429611206055 -0.197898864746
-45.460586547852 -68.946990966797 -145.895431518555 0.277389526367 0.548641562462 0.271327972412 -0.387870788574
101.459709167480 -71.244148254395 -181.574645996094 3.128646850586 4.054311752319 -0.247863769531 2.566627502441
-21.576570510864 -77.160545349121 -289.725555419922 -0.371917724609 1.313089370728 -1.136236190796 0.542999267578
0.735467970371 -77.477386474609 -293.148193359375 -3.076843261719 3.098908424377 -0.341578066349 -0.139976501465
63.518173217773 -69.806411743164 -239.278701782227 -0.316238403320 1.106919169426 -0.479164123535 0.946395874023
23.755640029907 -59.477970123291 -14.060978889465 0.320103645325 2.413762569427 -2.265684127808 0.768413543701
21.244834899902 -57.986030578613 -17.520540237427 0.676856994629 1.298415660858 -0.712148666382 -0.848876953125
-29.260276794434 -71.834327697754 -55.190879821777 0.246303558350 0.771542847157 -0.595733642578 -0.423927307129
-133.092956542969 -75.877052307129 -226.540802001953 0.556793212891 2.344217061996 0.226516723633 -2.265838623047
-21.107757568359 -71.297645568848 -66.288932800293 -0.785446166992 2.730230093002 -0.742200851440 2.507263183594
77.495124816895 -70.623893737793 -70.263839721680 -0.527824401855 2.231210470200 1.964172363281 0.917457580566
77.416381835938 -68.888435363770 -66.482658386230 0.725860595703 2.394771575928 -0.860740661621 2.113571166992
70.867034912109 -72.724533081055 -238.054626464844 1.188949584961 1.967656016350 -1.158599853516 -1.056274414063
-92.353935241699 -69.319282531738 -71.252601623535 -0.553558349609 1.646458029747 -0.873001098633 1.281509399414
63.526451110840 -69.386077880859 -93.862884521484 -2.546226501465 2.808476448059 -0.956199645996 -0.699966430664
78.920143127441 -74.779647827148 -73.907325744629 -0.173179626465 0.818067848682 -0.659507751465 0.451988220215
77.360160827637 -76.796623229980 -78.439147949219 -1.459793090820 2.266946315765 -1.141853332520 -1.305458068848
72.438377380371 -69.527809143066 -69.871757507324 -1.841476440430 2.057866334915 -0.872787475586 0.286392211914
36.003341674805 -72.816627502441 -105.212425231934 0.596008300781 2.990747213364 -2.922088623047 0.225257873535
96.173103332520 -72.361557006836 -76.540733337402 0.510963439941 1.866529583931 1.569702148438 0.871139526367
25.770696640015 -61.833843231201 -131.664642333984 -0.376983642578 1.731822967529 -1.670160293579 0.260112762451
25.708276748657 -63.919181823730 -138.675384521484 -0.612503051758 1.724607944489 -0.788167953491 1.406379699707
-137.945098876953 -77.134468078613 -255.339035034180 1.049087524414 2.175045251846 -1.314987182617 1.378784179688
-41.173542022705 -72.753761291504 -78.048103332520 0.012771606445 3.001109838486 -0.899658203125 -2.863059997559
-63.788314819336 -67.688247680664 -89.505126953125 3.240272521973 3.278730869293 0.360656738281 0.347328186035
-68.978141784668 -71.753585815430 -93.180709838867 -0.417991638184 4.602889537811 -4.441703796387 -1.132759094238
53.216800689697 -69.861846923828 -104.889770507813 -0.252983093262 2.070763587952 0.798454284668 1.893814086914
82.723876953125 -70.499488830566 -64.898422241211 0.884582519531 2.273692846298 2.043533325195 -0.459526062012
94.779083251953 -72.836898803711 -70.884963989258 1.285263061523 1.755974650383 -0.445053100586 -1.110618591309
23.555126190186 -72.743255615234 -144.669570922852 -0.613571166992 1.360442519188 -1.122404098511 0.463188171387
68.479263305664 -72.648986816406 -231.976287841797 -2.302093505859 2.576369762421 -1.146797180176 -0.151336669922
4.167529106140 -68.769775390625 -291.566711425781 -0.503326416016 1.024005770683 0.303989171982 0.838356018066
62.175144195557 -61.918193817139 -82.130676269531 -0.071792602539 0.748425006866 0.708164215088 0.231277465820
5.917512893677 -66.122467041016 -294.082550048828 -1.843139648438 2.593848228455 -1.125601291656 1.436630249023
91.392921447754 -76.535270690918 -98.772972106934 0.106155395508 2.640849351883 -0.074432373047 -2.637664794922
-97.326049804688 -77.917938232422 -104.919174194336 -0.227714538574 4.222774028778 -2.972686767578 -2.990501403809
6.097404003143 -61.369182586670 -265.651123046875 -1.357421875000 1.944821357727 -1.365221977234 -0.275508880615
56.862754821777 -71.947013854980 -99.154670715332 1.056838989258 1.330678224564 0.526679992676 0.613517761230
-65.080535888672 -60.744075775146 -86.007308959961 -0.777069091797 3.359426259995 -3.072532653809 1.114204406738
85.448066711426 -75.823570251465 -104.552787780762 1.044067382813 3.958050489426 -1.544647216797 -3.491439819336
43.623378753662 -72.085494995117 -39.685188293457 0.108596801758 1.472477316856 1.448108673096 -0.243675231934
107.927276611328 -71.320526123047 -107.268394470215 -0.459457397461 1.144135594368 0.766876220703 0.714035034180
48.950595855713 -69.179901123047 -24.128286361694 -1.194229125977 1.416056156158 0.749595642090 -0.130912780762
-18.957540512085 -74.584106445313 -232.036163330078 -1.918395996094 2.773205518723 -1.346118927002 -1.482696533203
22.999208450317 -74.632377624512 -192.915893554688 0.682006835938 1.903911709785 0.534013748169 1.695457458496
-96.365974426270 -69.329696655273 -109.322479248047 0.294151306152 1.597857713699 -0.954544067383 1.247184753418
37.499584197998 -73.055496215820 -38.901824951172 1.028305053711 1.508937597275 1.047672271729 -0.349090576172
106.500732421875 -71.430076599121 -111.104530334473 0.791412353516 2.451426029205 -1.956077575684 -1.247764587402
-63.307968139648 -69.208999633789 -136.243148803711 -1.262710571289 1.940312385559 -1.167942047119 -0.897933959961
106.568733215332 -74.727165222168 -114.468040466309 -1.602394104004 1.688373446465 0.225997924805 -0.481521606445
27.296813964844 -72.045799255371 -39.895767211914 0.240360260010 2.462853193283 -2.444030761719 -0.185974121094
103.667716979980 -72.118736267090 -116.317581176758 -1.334060668945 2.331505775452 -1.513092041016 1.169082641602
-58.197822570801 -68.276115417480 -88.484237670898 -0.064979553223 2.819065093994 -1.725318908691 -2.228492736816
102.684959411621 -74.165885925293 -125.307983398438 -1.360610961914 5.570837974548 -4.965614318848 -2.127357482910
106.357452392578 -69.285369873047 -126.234535217285 1.168479919434 3.752925157547 -1.510772705078 3.230583190918
106.548561096191 -75.110656738281 -134.508575439453 -1.879577636719 3.477751016617 -2.781196594238 0.909332275391
112.622024536133 -69.392601013184 -130.700683593750 0.459381103516 1.955245733261 -1.784645080566 -0.653450012207
-24.117948532104 -76.454399108887 -74.838348388672 0.274162292480 1.392822861671 1.025810241699 0.901390075684
37.016345977783 -69.141250610352 -135.799560546875 1.367828369141 2.455152034760 0.852432250977 1.852073669434
-29.785028457642 -66.816116333008 -72.272552490234 0.952476501465 1.566865682602 -0.798246383667 -0.954284667969
-81.220825195313 -62.679275512695 -118.552490234375 -0.446922302246 1.077650189400 -0.773506164551 -0.602725982666
34.446510314941 -72.198417663574 -136.543182373047 0.624206542969 2.188917160034 -1.717403411865 -1.205093383789
-168.677825927734 -71.273872375488 -217.116577148438 2.574325561523 3.150348663330 -1.634948730469 -0.790245056152
8.538233757019 -79.660537719727 -200.605529785156 1.633346557617 2.687025308609 -1.550805091858 -1.465362548828
-50.048831939697 -76.851028442383 -140.900955200195 -1.484161376953 1.997661948204 -1.206588745117 -0.576248168945
9.951585769653 -71.604972839355 -221.933959960938 0.080276489258 1.968236684799 1.944939613342 -0.291069030762
-80.787673950195 -71.030570983887 -140.648071289063 -0.596115112305 2.502417802811 -2.334556579590 -0.675712585449
-50.774799346924 -71.828170776367 -148.795883178711 0.015045166016 2.308865308762 1.279865264893 -1.921607971191
6.908458232880 -74.071357727051 -232.401351928711 -0.315139770508 1.119322061539 0.622347354889 -0.875358581543
-30.810453414917 -74.980651855469 -198.740600585938 3.531753540039 5.464135169983 3.879491806030 -1.527427673340
28.556615829468 -68.531234741211 -256.477935791016 0.174468994141 1.719824194908 -1.057529449463 -1.344985961914
-22.030237197876 -66.561508178711 -201.876174926758 -0.035583496094 1.919099450111 0.757692337036 1.762832641602
-75.229103088379 -71.026840209961 -145.970932006836 1.056304931641 1.644062876701 -0.792877197266 -0.979034423828
-4.888092994690 -71.723510742188 -224.317703247070 2.198562622070 2.620662927628 1.307670116425 0.569381713867
27.388998031616 -75.027000427246 -157.047271728516 -2.421493530273 2.954594850540 1.165334701538 1.228004455566
13.038698196411 -69.995742797852 -149.121734619141 -0.485565185547 0.833227932453 -0.469559669495 -0.487861633301
26.849536895752 -69.979026794434 -162.458786010742 -1.121658325195 1.940238356590 -0.953607559204 1.263740539551
-10.106707572937 -77.831779479980 -209.229354858398 0.842620849609 1.184071302414 -0.629388809204 0.543952941895
-71.868392944336 -76.652183532715 -155.293914794922 0.929763793945 1.490850567818 -0.667701721191 -0.955169677734
-37.656208038330 -73.711326599121 -163.339385986328 -0.412445068359 2.897419929504 -1.371540069580 2.518692016602
107.461380004883 -72.777847290039 -158.471710205078 0.502563476563 0.796994507313 -0.504158020020 -0.358406066895
-50.388301849365 -71.809074401855 -153.042846679688 -1.118103027344 1.376147747040 0.007354736328 -0.802230834961
-48.378341674805 -68.280403137207 -149.297729492188 -0.495986938477 0.788884520531 0.595989227295 0.145370483398
-84.614158630371 -69.420059204102 -116.317855834961 1.814361572266 1.966207265854 -0.528556823730 0.542854309082
15.600528717041 -72.037353515625 -250.893859863281 -1.457244873047 3.793093204498 -2.308340072632 2.633544921875
98.186370849609 -75.021423339844 -191.009719848633 0.929962158203 2.192818164825 -0.707412719727 -1.855583190918
-19.867458343506 -71.265922546387 -211.890075683594 1.543365478516 2.457381248474 -1.783992767334 0.688560485840
107.891296386719 -73.754447937012 -185.464965820313 1.154159545898 1.824221491814 -0.530776977539 -1.309188842773
-70.339370727539 -70.496124267578 -160.733886718750 -0.622985839844 2.400421857834 -0.096107482910 2.316177368164
-14.778285026550 -68.614974975586 -214.347473144531 -0.944122314453 1.393471121788 -0.054929733276 1.023414611816
32.440891265869 -74.067695617676 -154.020858764648 -1.007812500000 1.645937919617 1.258708953857 0.330268859863
17.906509399414 -74.114967346191 -168.898773193359 -0.589569091797 1.551844239235 -0.872619628906 1.139808654785
13.458507537842 -68.596214294434 -161.197113037109 -0.859817504883 2.303253650665 -0.561776161194 2.061576843262
-65.162597656250 -75.474929809570 -166.616241455078 2.160552978516 2.160942554474 0.031753540039 -0.025993347168
-70.668487548828 -71.056838989258 -160.105667114258 0.005233764648 1.806236982346 -0.425224304199 1.755462646484
-17.120849609375 -72.249122619629 -211.761566162109 0.868286132813 1.135036826134 -0.618976593018 0.388916015625
14.612309455872 -65.872200012207 -249.666107177734 -3.675170898438 6.317199230194 -4.358529090881 2.720909118652
-38.031055450439 -74.541549682617 -165.111495971680 -2.184555053711 3.266967535019 -1.746387481689 1.688468933105
20.736618041992 -67.327941894531 -176.333816528320 0.408752441406 0.937247812748 0.841091156006 -0.062614440918
-1.184005975723 -74.468193054199 -167.123092651367 0.972213745117 1.059111952782 0.358108997345 0.219718933105
-23.972385406494 -76.153686523438 -178.524169921875 -1.415069580078 1.616033077240 -0.517528533936 -0.584213256836
-32.799961090088 -72.132957458496 -169.950698852539 1.012832641602 2.057786464691 -0.748805999756 -1.627250671387
-36.021800994873 -75.491783142090 -168.768157958984 -0.259399414063 3.050879240036 -0.929058074951 2.894378662109
-34.459732055664 -68.977493286133 -170.387573242188 0.807220458984 2.595533609390 -2.464162826538 -0.114418029785
13.770092010498 -67.364700317383 -153.164428710938 0.053314208984 2.250905513763 -2.045233726501 0.938484191895
-6.355788230896 -73.258148193359 -168.730392456055 1.764175415039 2.116364717484 -0.320881366730 1.124153137207
16.662919998169 -66.217445373535 -153.326080322266 -0.581588745117 1.077869296074 -0.878618240356 -0.227127075195
110.350303649902 -75.393028259277 -173.000274658203 0.591049194336 0.973800122738 0.681953430176 -0.365905761719
106.381172180176 -72.731430053711 -171.922195434570 -1.063064575195 1.070870280266 -0.085876464844 0.096343994141
108.169494628906 -67.491798400879 -166.786605834961 3.152740478516 3.829081296921 0.872299194336 1.990272521973
41.503444671631 -67.180015563965 -254.793518066406 0.098739624023 0.398255974054 -0.196979522705 0.331748962402
8.946385383606 -67.894989013672 -216.980911254883 -2.438522338867 2.627840995789 0.228900909424 0.952239990234
-25.773500442505 -72.616233825684 -181.175903320313 -1.226562500000 2.441683292389 -0.335449218750 2.084426879883
-43.307762145996 -73.762527465820 -174.566635131836 -2.402633666992 3.034680604935 -1.840457916260 0.222152709961
-30.492053985596 -70.621910095215 -180.157333374023 0.372863769531 1.654060840607 -1.015331268311 1.251396179199
-41.130622863770 -71.735778808594 -165.343597412109 1.223800659180 2.393013238907 1.746395111084 1.085784912109
19.245962142944 -72.076957702637 -171.863876342773 0.649307250977 1.842203855515 1.378828048706 -1.034866333008
15.893083572388 -69.388366699219 -170.247787475586 2.265396118164 3.429825067520 -1.974050521851 1.653724670410
105.562950134277 -75.642219543457 -179.638671875000 0.843627929688 1.312978982925 0.993446350098 0.158966064453
-36.508571624756 -72.385002136230 -182.723083496094 -2.169631958008 2.439891099930 -0.498722076416 -0.998519897461
-40.542388916016 -75.834472656250 -177.912887573242 -1.366287231445 2.472676992416 -1.960510253906 -0.635444641113
-35.378067016602 -70.280075073242 -175.799133300781 0.287643432617 0.719584882259 -0.659297943115 0.019744873047
-73.486671447754 -69.060928344727 -139.937194824219 -0.600570678711 1.944471240044 -1.515045166016 1.060623168945
-33.096706390381 -68.490180969238 -186.280807495117 0.121978759766 2.964002370834 -2.945358276367 0.308700561523
-35.427711486816 -72.200653076172 -288.541107177734 1.193756103516 1.347408294678 0.307361602783 0.544044494629
-33.809528350830 -74.830680847168 -285.438537597656 1.792205810547 2.163346052170 0.048389434814 1.210670471191
-148.943954467773 -77.931518554688 -180.652740478516 0.680068969727 4.438810825348 -1.354217529297 -4.172126770020
-145.270858764648 -66.575363159180 -179.106750488281 -3.241760253906 3.465195894241 1.193145751953 -0.273818969727
-150.047790527344 -66.723083496094 -172.120681762695 2.615066528320 2.896802663803 -1.213256835938 0.284431457520
-155.528106689453 -63.280498504639 -180.332733154297 1.711700439453 4.292459011078 -1.173736572266 3.757343292236
-85.111785888672 -67.757728576660 -107.202674865723 0.488891601563 1.368554711342 0.617935180664 1.118965148926
-152.786254882813 -66.263610839844 -173.739425659180 2.248916625977 3.501850128174 -0.516464233398 -2.634120941162
2.388613939285 -65.508468627930 -261.916961669922 0.524383544922 1.678278207779 1.489664912224 -0.567924499512
-21.649259567261 -73.548110961914 -187.490615844727 -0.835510253906 1.315613627434 -0.152322769165 -1.004768371582
-39.712295532227 -68.367126464844 -166.587203979492 0.336441040039 1.976564049721 -0.685615539551 1.823059082031
-25.828060150146 -73.584297180176 -186.123703002930 0.626541137695 2.081195354462 -1.295156478882 -1.503791809082
42.598087310791 -72.089263916016 -253.498168945313 -0.103012084961 1.101602673531 -0.359294891357 1.036254882813
11.166961669922 -71.554801940918 -218.874969482422 -0.668273925781 1.590252280235 0.840428352356 -1.173027038574
-76.115440368652 -72.580276489258 -135.446273803711 -0.895004272461 0.945608675480 -0.086059570313 -0.292808532715
-76.632644653320 -72.245697021484 -144.231323242188 0.392547607422 0.853542506695 0.528663635254 -0.543098449707
-35.008705139160 -72.400627136230 -188.006332397461 -1.787582397461 2.381769895554 -1.431507110596 -0.654342651367
-38.437423706055 -72.671806335449 -179.228988647461 0.835815429688 1.995214462280 -1.782295227051 -0.325141906738
-155.428665161133 -76.077171325684 -183.212539672852 -1.866958618164 5.852919101715 -5.010742187500 -2.379829406738
-157.864517211914 -69.398391723633 -187.212982177734 -0.861923217773 6.023725986481 -5.657363891602 1.880584716797
-142.482254028320 -65.572372436523 -185.316665649414 1.537017822266 2.121953010559 0.780685424805 -1.237251281738
-21.691886901855 -63.304409027100 -70.555252075195 -1.881729125977 2.223980188370 0.863483428955 0.812145233154
49.217159271240 -74.010261535645 -253.895202636719 -1.508865356445 3.680610179901 2.195663452148 -2.539543151855
-32.336647033691 -71.706909179688 -189.579605102539 -1.276306152344 1.572095513344 -0.837686538696 -0.375244140625
-31.154554367065 -71.062828063965 -188.305847167969 -0.002548217773 0.436915785074 0.344406127930 0.268836975098
94.266975402832 -71.740379333496 -192.052612304688 -0.112930297852 4.842730998993 -4.626808166504 1.425460815430
-55.824958801270 -72.816375732422 -133.320800781250 -0.229141235352 1.303586840630 1.222541809082 -0.390159606934
11.557077407837 -72.966705322266 -197.775329589844 0.974685668945 2.097260713577 0.804280281067 -1.673805236816
22.799867630005 -72.910644531250 -190.648834228516 0.088882446289 0.702495813370 0.594268798828 -0.363929748535
98.572937011719 -71.653533935547 -197.649215698242 -0.288726806641 0.662343323231 0.495674133301 -0.331123352051
-130.643875122070 -76.577377319336 -200.535369873047 0.916671752930 3.060501337051 0.728210449219 -2.827735900879
-125.893737792969 -75.760437011719 -201.713211059570 -1.421875000000 2.634805917740 -1.370079040527 -1.744522094727
-157.358932495117 -67.699974060059 -228.157608032227 -0.751235961914 1.600040912628 1.400039672852 -0.188850402832
-112.465576171875 -65.772117614746 -192.961944580078 -0.894409179688 1.009376883507 -0.357597351074 -0.301658630371
-23.789861679077 -76.255287170410 -214.742248535156 0.978210449219 0.997528910637 0.029376983643 -0.193145751953
-66.435165405273 -72.631225585938 -171.066741943359 -2.289947509766 3.837052822113 -1.240814208984 2.817710876465
5.835876941681 -75.003204345703 -246.639770507813 -1.274932861328 2.622418642044 -1.181088924408 1.963836669922
97.289329528809 -72.040153503418 -205.094375610352 1.197998046875 1.903175234795 -0.982421875000 -1.105316162109
-67.700469970703 -75.337318420410 -292.972076416016 -2.619110107422 2.837731599808 0.803077697754 -0.740303039551
-149.347778320313 -72.059455871582 -213.629867553711 -0.589080810547 1.890659570694 1.147537231445 1.382293701172
-151.484573364258 -62.403511047363 -208.899765014648 -1.921478271484 2.467406272888 -1.351165771484 -0.755226135254
18.423084259033 -74.920799255371 -210.441314697266 -2.195144653320 2.323921442032 0.237707138062 -0.724876403809
86.986030578613 -73.257575988770 -221.023208618164 -2.044403076172 2.269902229309 -0.444557189941 -0.880477905273
16.292301177979 -73.009277343750 -214.661972045898 -0.378814697266 0.810604989529 -0.578325271606 0.423225402832
98.513061523438 -60.285465240479 -87.784393310547 2.371040344238 5.757542133331 -5.226058959961 -0.464504241943
-73.046234130859 -73.331634521484 -158.790985107422 1.319915771484 3.141421556473 -2.802970886230 -0.519332885742
-17.477161407471 -73.215866088867 -218.035659790039 -1.164672851563 2.340283870697 -1.382881164551 -1.485969543457
-99.549415588379 -72.216171264648 -218.452377319336 -0.214706420898 1.268912911415 -1.241622924805 -0.149711608887
-140.487701416016 -72.284431457520 -258.292907714844 -0.424041748047 1.906617999077 0.554367065430 1.774276733398
-79.729904174805 -75.540458679199 -139.782867431641 1.513031005859 3.946739912033 -1.555915832520 -3.296455383301
-1.168367028236 -76.578254699707 -226.792236328125 0.284500122070 0.513229787350 -0.040844082832 0.425201416016
-29.390083312988 -76.625846862793 -222.269592285156 -0.938644409180 3.226669311523 -2.755439758301 -1.392082214355
-121.029823303223 -77.168960571289 -294.336425781250 -3.026855468750 4.184561729431 -2.854972839355 0.444786071777
-153.254714965820 -68.465156555176 -266.903961181641 -0.323547363281 2.098701238632 -1.267501831055 -1.641128540039
83.771545410156 -73.567512512207 -226.316070556641 -0.605422973633 1.643682479858 -0.082756042480 1.525878906250
-23.739929199219 -70.389801025391 -224.455596923828 -1.890930175781 2.187122106552 -0.390249252319 1.027420043945
12.258048057556 -69.656669616699 -186.924835205078 -1.790771484375 2.228745222092 -1.325378417969 -0.061767578125
-125.010818481445 -66.641052246094 -200.455398559570 0.234191894531 2.900970935822 -1.857849121094 -2.215667724609
-9.196344375610 -73.928085327148 -226.269882202148 -0.166244506836 1.217953681946 0.538313865662 -1.079811096191
-11.871070861816 -70.393226623535 -227.698577880859 -0.009216308594 1.207946658134 1.091938972473 -0.516448974609
77.665138244629 -72.662315368652 -226.642425537109 0.327957153320 1.067476391792 -0.161262512207 -1.002967834473
-141.269897460938 -76.237220764160 -233.655838012695 -0.611450195313 1.312197446823 1.147476196289 -0.176887512207
7.635194778442 -74.889076232910 -243.309280395508 -0.574172973633 0.789416432381 -0.149668216705 -0.520675659180
13.944426536560 -72.519561767578 -230.841125488281 -1.054855346680 1.255686640739 -0.501205444336 0.461326599121
-77.326095581055 -74.814086914063 -290.517700195313 -0.824279785156 1.655460596085 1.286499023438 0.637207031250
-144.636993408203 -67.713119506836 -218.120849609375 -1.334579467773 1.935401201248 -1.398742675781 0.090522766113
-152.370269775391 -64.812568664551 -218.710784912109 -3.221618652344 4.614307880402 -2.342498779297 2.329315185547
-159.638122558594 -75.998199462891 -233.522811889648 2.259490966797 2.917876482010 -1.505981445313 -1.068046569824
44.626403808594 -66.834243774414 -19.560050964355 0.759239196777 3.050488710403 2.831268310547 -0.844367980957
-146.728225708008 -72.970352172852 -241.076461791992 0.561691284180 0.826659142971 -0.443542480469 -0.413688659668
-19.352413177490 -70.001647949219 -241.883651733398 -1.622329711914 2.744697332382 -1.661922454834 1.462677001953
-168.217041015625 -74.920585632324 -233.482406616211 2.033432006836 3.013267993927 -0.887817382813 -2.038803100586
4.358542919159 -76.005516052246 -211.540863037109 0.137176513672 2.846202373505 -2.276472091675 -1.702857971191
-102.492813110352 -75.107933044434 -290.937988281250 -0.780181884766 0.869266152382 -0.364044189453 0.120048522949
-152.227890014648 -74.707481384277 -241.703536987305 1.162399291992 1.969140291214 -1.536560058594 -0.406600952148
-156.453445434570 -72.620933532715 -242.496063232422 2.611068725586 2.731243371964 -0.041534423828 0.800178527832
43.798213958740 -61.322711944580 -20.189270019531 2.022422790527 2.126046180725 0.148048400879 0.638717651367
18.403509140015 -63.752086639404 -141.245605468750 1.729797363281 2.359634876251 1.540512084961 -0.450000762939
57.896034240723 -78.706420898438 -246.872116088867 -2.815063476563 5.146653652191 -0.243164062500 -4.301666259766
5.525255203247 -69.815795898438 -205.079589843750 3.823104858398 4.543187141418 -0.857486724854 2.299812316895
-64.144241333008 -69.908889770508 -131.982666015625 -0.383010864258 2.227495431900 -0.580528259277 -2.116134643555
-28.434726715088 -75.004249572754 -241.898818969727 1.856063842773 2.348309993744 -1.313543319702 -0.586677551270
23.334644317627 -68.872520446777 -20.510530471802 -1.637426376343 2.886729717255 1.111160278320 2.101753234863
25.177181243896 -64.176071166992 -12.038035392761 3.699381828308 4.231794834137 -1.885721206665 0.816528320313
-93.922744750977 -71.087554931641 -82.787017822266 0.681434631348 1.546682357788 0.922279357910 1.037918090820
67.225494384766 -75.671585083008 -240.457794189453 0.206481933594 1.494762063026 -0.249839782715 -1.459197998047
-160.246826171875 -79.253494262695 -242.539871215820 -2.337066650391 5.527053833008 1.921569824219 -4.625366210938
-9.392579078674 -72.668869018555 -240.481689453125 -0.341629028320 1.601496338844 -1.436415195465 0.620315551758
-13.275742530823 -66.613052368164 -239.486648559570 1.417602539063 1.912093162537 -1.279006958008 0.103172302246
-24.004798889160 -74.658798217773 -242.707275390625 -0.745544433594 1.247683644295 -0.418054580688 -0.908905029297
-135.400573730469 -71.508743286133 -203.797195434570 -2.014907836914 2.499202966690 1.298019409180 0.708030700684
-171.346755981445 -77.671058654785 -241.489990234375 -2.561294555664 6.938260078430 -5.626541137695 -3.149803161621
-163.133804321289 -76.284011840820 -243.864456176758 -3.661651611328 4.132996082306 -0.965408325195 -1.655883789063
5.417171001434 -74.344848632813 -242.821853637695 0.196807861328 1.001960635185 0.633224964142 0.751144409180
-171.863693237305 -73.038879394531 -244.432998657227 3.254547119141 6.326633930206 -5.412551879883 -0.372161865234
-46.869224548340 -72.463577270508 -292.255371093750 -1.634033203125 2.525417327881 -1.461688995361 1.253448486328
-146.971862792969 -67.858161926270 -193.296539306641 -0.467834472656 2.119174242020 -0.972473144531 -1.823822021484
-150.987335205078 -64.905387878418 -188.511978149414 -0.619064331055 1.783506035805 1.319931030273 1.027343750000
-2.890188932419 -78.366256713867 -245.763000488281 -0.398117065430 2.117942333221 -0.244660854340 -2.065750122070
16.306177139282 -71.823226928711 -248.124389648438 -2.040405273438 2.145774602890 0.544101715088 0.380851745605
-4.751252174377 -76.965179443359 -246.890304565430 1.311614990234 1.697943449020 1.076472759247 -0.062324523926
-95.436988830566 -73.136901855469 -151.392639160156 1.047760009766 4.246516227722 0.763923645020 -4.043701171875
-13.215119361877 -73.409011840820 -244.128814697266 -2.520355224609 2.742323160172 -0.725689888000 -0.800949096680
-138.450119018555 -63.032432556152 -196.903076171875 0.009857177734 1.870332598686 1.669265747070 0.843563079834
-158.114959716797 -77.320732116699 -245.237243652344 -0.130111694336 4.257268905640 -1.703048706055 -3.899620056152
-155.618728637695 -68.948158264160 -242.237899780273 1.499542236328 1.705098867416 0.715286254883 -0.383537292480
-149.581619262695 -68.593437194824 -243.443344116211 2.201675415039 3.265965700150 0.817611694336 -2.269508361816
-160.134292602539 -76.625648498535 -249.435516357422 -0.291809082031 1.990906715393 0.069305419922 -1.968185424805
-80.758453369141 -74.982315063477 -251.289382934570 0.425491333008 0.849671423435 -0.413589477539 -0.608146667480
-62.364955902100 -73.228996276855 -246.787643432617 -0.326812744141 1.073406577110 -0.127677917480 -1.014442443848
-98.788589477539 -76.872566223145 -214.157150268555 3.936355590820 4.867190361023 -2.608718872070 -1.178657531738
-103.041000366211 -79.231895446777 -257.416564941406 1.028045654297 5.889846324921 -1.786056518555 -5.517555236816
-18.194446563721 -75.497657775879 -261.219238281250 0.811889648438 3.540555477142 -3.440838813782 -0.192344665527
-63.098930358887 -72.286468505859 -285.863769531250 1.053863525391 1.504856228828 1.037437438965 -0.278724670410
-144.744659423828 -73.356849670410 -204.766754150391 1.682479858398 1.929395318031 -0.348754882813 -0.877609252930
-145.869644165039 -72.496612548828 -205.958786010742 0.490447998047 1.553302764893 -1.473739624023 -0.017372131348
-151.225494384766 -62.990566253662 -204.849914550781 0.345138549805 2.313064336777 -1.403137207031 -1.806198120117
-96.333618164063 -77.226753234863 -255.980377197266 -0.754165649414 3.732180356979 0.590393066406 -3.607192993164
-82.727012634277 -73.595832824707 -285.632232666016 1.855529785156 2.261305570602 1.249626159668 -0.330070495605
-152.527709960938 -65.573974609375 -231.604217529297 1.106704711914 1.425218343735 0.130432128906 0.888504028320
-127.076271057129 -61.921504974365 -202.626754760742 1.727249145508 2.400412321091 -1.564041137695 0.576511383057
-96.850120544434 -71.600265502930 -288.731994628906 -1.427093505859 1.668126702309 0.559867858887 -0.657722473145
-97.750602722168 -72.672042846680 -289.415863037109 0.860015869141 1.140378952026 -0.330757141113 0.671890258789
-146.600906372070 -69.783035278320 -241.434112548828 0.438720703125 1.593652129173 -0.599624633789 -1.409858703613
-120.392356872559 -63.843833923340 -206.610549926758 -1.552185058594 2.420095920563 0.940238952637 1.601104736328
-152.718185424805 -67.185073852539 -238.770736694336 -2.398162841797 3.621746540070 -1.943328857422 1.894554138184
45.337116241455 -68.320747375488 -17.232885360718 0.836509704590 2.729153394699 -1.228954315186 2.288711547852
10.688690185547 -72.677497863770 -289.093688964844 1.076416015625 1.786859512329 1.027920722961 -0.988723754883
-109.301139831543 -70.452613830566 -173.111892700195 -1.099334716797 3.677242994308 -2.900863647461 -1.974479675293
9.581916809082 -70.936843872070 -291.685119628906 -1.515014648438 1.693188190460 -0.078852653503 0.751930236816
-86.024520874023 -74.191581726074 -293.840057373047 -1.311309814453 3.272818565369 2.554237365723 -1.570884704590
-112.235992431641 -67.751304626465 -191.782241821289 -0.637924194336 1.301726341248 1.079994201660 -0.348075866699
-147.856735229492 -70.357635498047 -225.985351562500 1.272842407227 2.636533260345 1.030853271484 2.066040039063
-157.115936279297 -64.760093688965 -228.874588012695 -0.772277832031 2.639799833298 -1.633987426758 -1.924114227295
-129.798492431641 -64.799102783203 -206.503143310547 -1.443237304688 2.156079053879 -1.438934326172 0.703712463379
-149.684234619141 -64.102851867676 -225.016647338867 -1.463043212891 2.025890827179 0.293853759766 1.370178222656
-147.567443847656 -76.678024291992 -224.810180664063 -2.371673583984 2.705109357834 -1.299453735352 0.064811706543
-81.537834167480 -73.731163024902 -295.684356689453 -4.041809082031 4.940625667572 -2.709365844727 0.856094360352
-150.435119628906 -67.189491271973 -221.888473510742 -0.194030761719 2.161826610565 1.540100097656 1.504638671875
-138.074218750000 -74.720710754395 -291.864349365234 2.239929199219 2.647604703903 -1.102416992188 0.881591796875
-155.972686767578 -69.341224670410 -285.002136230469 0.721740722656 1.158053994179 -0.223205566406 0.877700805664
-5.220370769501 -76.324958801270 -295.770751953125 -3.140930175781 4.548090934753 -3.198141813278 -0.769142150879
-4.201333999634 -61.115394592285 -290.696502685547 -0.399078369141 2.970469474792 -2.278046131134 1.864116668701
94.112907409668 -63.632228851318 -107.874328613281 -0.480102539063 1.410380244255 1.081230163574 0.767864227295
69.705963134766 -72.033248901367 -91.927528381348 -1.313003540039 1.880601644516 1.313919067383 0.293769836426
-9.871417045593 -73.153854370117 -274.688079833984 0.440307617188 1.668385863304 1.554834365845 0.414886474609
10.569443702698 -78.744438171387 -297.902221679688 -4.281677246094 5.097280979156 -2.679164886475 -0.686721801758
-107.288932800293 -64.553283691406 -169.454025268555 -1.796966552734 2.476254940033 -1.647087097168 -0.435722351074
20.213941574097 -69.180442810059 -15.932912826538 2.940191268921 3.987582683563 -2.009542465210 1.793830871582
-64.787811279297 -61.765407562256 -109.499565124512 0.145759582520 0.841195344925 0.813133239746 -0.158676147461
25.758016586304 -72.905067443848 -22.523149490356 0.888734817505 1.190847277641 0.736074447632 -0.294044494629
-13.222105979919 -67.394233703613 -255.126678466797 -1.971893310547 2.161433935165 0.493524551392 0.734756469727
19.882913589478 -73.338043212891 -27.395555496216 -0.206991195679 2.037018299103 -1.205863952637 -1.628646850586
-71.221000671387 -68.019470214844 -49.321239471436 -1.464359283447 1.627254009247 -0.491729736328 0.511672973633
109.888420104980 -71.155685424805 -117.709190368652 -0.978477478027 1.280822515488 -0.173217773438 0.808135986328
29.203285217285 -69.250556945801 -37.062862396240 -1.682239532471 2.679956912994 -1.990760803223 -0.623786926270
111.153892517090 -73.312088012695 -122.588500976563 -0.097755432129 1.320405721664 1.040252685547 0.807334899902
20.391143798828 -74.263610839844 -31.997344970703 1.321910858154 1.856495499611 -0.847814559937 -0.990119934082
112.970863342285 -75.741859436035 -122.488357543945 1.554649353027 1.818994522095 -0.905151367188 0.269271850586
23.958040237427 -72.113082885742 -34.687362670898 0.190944671631 1.280849814415 1.088699340820 -0.647186279297
110.520317077637 -72.339508056641 -121.163681030273 -0.271102905273 0.375867396593 -0.224510192871 0.131813049316
