# This PCD file was generated using the MATLAB® pcwrite function
# from Computer Vision Toolbox®.
# .PCD v.7 - Point Cloud Data file format
VERSION .7
FIELDS x y z
SIZE 8 8 8
TYPE F F F
COUNT 1 1 1
WIDTH 785
HEIGHT 1
VIEWPOINT 0 0 0 1 0 0 0
POINTS 785
DATA ascii
-145.557619175260612 -76.022755159296878 -303.261065946855126
-154.213509136198269 -74.579772643308729 -313.350124108964849
-147.972763104432374 -76.320429219004723 -310.238695801035647
-48.955179077367447 -78.415585621158215 -56.692221198786811
-55.321727659664688 -75.710784516072636 -53.983348159137762
-62.826604119292710 -76.273826904377202 -59.285763303217763
-45.121264253371265 -73.809837934355258 -58.250862538199613
-37.424538150296641 -75.363417272251667 -58.447483119365202
-23.221440212070402 -73.520685965775883 -66.172365654683830
-84.541563900324107 -74.913727431065013 -68.767947117893868
80.934967741294173 -77.202221463610215 -76.663505156497791
-89.525317860676964 -80.616967641987770 -84.192407388261415
82.999214812453459 -80.762467913938295 -84.873483357515141
81.989277464008140 -76.620192487972076 -83.631648229475090
90.154833707198023 -74.023942467423069 -84.125991737153328
-58.409605754859896 -78.939046791523538 -96.882140712650212
85.528295974427806 -74.663472349638411 -94.621255937322346
82.742694565037127 -78.175769853472758 -93.274990077675682
87.006700228994191 -77.975374638024448 -91.272502153318243
-66.132775253593437 -79.115015587335847 -96.556918265024819
53.803245519556228 -76.006959600054529 -100.373603857458576
45.481627187030675 -77.395268041742170 -107.549052011692751
42.847841153125508 -78.153880674053354 -106.559737167078310
39.660001911783141 -81.063011838494702 -110.462171655340427
-92.750292463461435 -81.050474505824923 -115.086259306063695
35.853103398500046 -77.182010025608434 -119.152825723213809
-84.800867135352078 -78.991824083708565 -111.775559010653495
44.059119813569247 -75.661736406836042 -124.719869320592650
35.567259390689976 -78.585041095407590 -124.060153778232333
30.071807169591036 -75.960458513396972 -124.302512484097704
40.657789980307577 -79.109077781508830 -120.512631307841488
39.887457396173090 -76.616320858748821 -125.462464114353921
-56.415364775095767 -74.402436023706230 -136.530571915066758
37.772686222015267 -78.115638482285917 -134.269625716962338
36.872576225794589 -74.903601353145291 -142.732416758519406
-49.892304137317197 -70.822082933960530 -142.092761162687736
-48.694103489860566 -76.247998826097472 -139.707439858258738
33.282648506410297 -78.828860018880249 -145.161041285691738
109.712052450315852 -77.925686307069014 -144.907812599169205
112.739422663346389 -74.005817644783377 -143.915968385569073
27.444988250755060 -79.001213382250825 -144.996087698204519
-41.199051976606597 -75.793673042601256 -147.567680491362268
113.703414866941316 -78.801551261755918 -150.533274778015368
-42.878667488754118 -76.465735164055928 -153.076922453432360
-68.978474250470484 -73.930962752431185 -158.854719067895758
112.971375308104228 -81.639116424568755 -161.693372070791838
23.802251633955393 -74.001139194677179 -162.847856880788754
-0.370778884466208 -77.899937615547927 -163.442359128720625
113.526771252873701 -80.358304460522305 -158.851375774876033
-64.088503720236815 -74.200868131424613 -164.732130735785120
-34.805565672179597 -71.671119484295403 -160.969519386452475
114.921124309003446 -76.370349056793799 -165.623664282496662
27.860453893148321 -76.526477010862322 -161.936006787276028
-66.925426285114796 -75.813275670672539 -168.022479339975916
110.496292995795130 -78.640405338031712 -166.979372749178708
-64.317390882923405 -77.136451732676662 -169.481325383234605
-51.546663419078072 -73.916914683883249 -176.206450368380587
106.853839397731122 -76.568318379155286 -172.621828290348049
-60.167888561405519 -72.689601770255862 -169.656260907814669
109.937985722915798 -75.128082858069433 -174.260384805877266
-59.758188671337123 -74.737876469433274 -175.662317553430853
-13.919150185015081 -75.919446392021882 -180.090763158173274
-11.588100100868221 -75.134795503795871 -176.502217849700742
109.037874739732160 -81.233451443965933 -172.951828181123062
21.308791344720191 -77.071251629689968 -172.246689665041743
24.849800104846395 -78.108086886862907 -172.218197985719002
-55.150603763077811 -74.809285733740467 -178.647272123277020
19.379624037614342 -76.840347657558141 -184.828583858271628
-56.975451120536263 -76.403522206458987 -177.129129209763136
-50.697694379476317 -70.575479169906757 -187.812529029136186
15.522344704124725 -74.787428240434195 -186.323656127841645
-61.899870712204446 -77.058235484305698 -182.260858488342933
106.987444933448757 -75.119635655833804 -187.090613492406050
23.881715911174442 -75.569955859737931 -178.950584955672326
-31.312865691338995 -75.714554259645695 -191.869122868051221
-40.018435785590142 -77.105177912349774 -192.975883379581546
12.876822966049099 -77.437375190472267 -194.408507967799295
-16.767066091139373 -79.146486311850026 -193.395605764813496
-50.825766831666328 -75.109157270745385 -192.196031639469709
106.639433911932784 -79.125204863152021 -185.825081871707312
20.638338763872824 -76.836058638036761 -194.230722216681414
-132.421194822548188 -73.182308130348105 -194.629991538084766
-38.414955069459111 -75.467219539303045 -197.045583585485133
97.887315823525682 -77.688358487646951 -201.810148070128605
-145.542073319300897 -78.662821063841108 -202.789893913626543
18.883598810020736 -72.443383470748557 -194.326647729240761
-42.140658610307383 -74.558903879103894 -207.282279330891043
-31.461129596198329 -74.470175231440635 -202.464688065565497
-35.899117986426958 -78.014351935458805 -206.019179879365709
-38.437674002696511 -74.679494903549667 -196.625084499449855
98.978266237041225 -75.777051052379250 -201.858094425683277
-16.416893031821136 -77.650410456110251 -203.441988547663868
-149.871727128565254 -77.607120813859083 -206.069256180923162
18.170368826289518 -78.945125621275324 -206.383030744770366
-74.263419559345564 -80.026257112064116 -209.656027471772802
-153.298093841726882 -72.365668757580920 -207.582367768806336
99.624003058832372 -73.506792505903604 -210.628757347543853
-32.626743541594735 -75.665122751201565 -208.646279951455512
-28.100570335643223 -77.894749800111867 -215.216549757560273
6.778784594074654 -78.226512692249557 -211.068401066350390
-68.496948277090681 -79.270387837613583 -212.809992221938785
-26.051779490386860 -79.175056808011732 -207.689760487439059
-2.033527143320860 -74.218369987989220 -216.428473187467432
-76.621247547794624 -77.753525521222457 -212.899410105795909
-14.282091768601557 -75.845528619718380 -217.426679426287251
4.959691883319266 -76.834057102673682 -217.250983951383319
20.150770570339702 -75.872300146631503 -221.702944325670416
-144.916885570179119 -73.584651179698440 -217.922876786708770
-6.179456058911573 -76.295953889231441 -216.560510338137050
-92.342564276622667 -72.954843883471540 -225.381533129731707
-20.904574998796949 -75.675960888068033 -221.048842931229501
96.102569474110567 -77.330950077413348 -212.650618190004735
4.016799303503195 -78.157019273759815 -227.058812748702337
15.144545312679316 -75.515051304359019 -214.588512975184784
83.968998989460246 -81.007295212908161 -222.812483091024319
3.893775709799794 -73.336879047686708 -225.431063283309470
87.262814380935225 -77.599688162299799 -218.892186594131260
-17.034603169885241 -74.518731670932340 -226.218505797115682
12.565563324454724 -78.221614643415663 -221.396337017916977
-143.717392288667384 -78.822576805120434 -225.733911079620611
-16.007634512110339 -75.684516671083713 -228.378944005110753
-0.505062925530751 -75.298392901021032 -228.568048562168002
-151.768330546912296 -78.092636680965384 -228.465706877562269
-132.984852016013775 -74.014308858271875 -228.389286074864941
9.698509200088974 -78.043054859350235 -229.693418927328167
-6.074353823345948 -80.933655277100428 -234.228850324703643
-136.477642443021807 -75.619474151330238 -233.706408737450033
-144.669110344839368 -71.530636393890603 -236.669678209908028
-144.709854557179483 -74.628093821529575 -237.738155611208214
-32.609853729981452 -77.028081027926063 -238.164529792284810
-145.359115752951084 -73.206032316462256 -238.862328514513791
23.882042384742444 -76.137468163364602 -244.770735855639543
4.348942041687543 -75.109404993177179 -242.966231341086200
-151.705683454607879 -72.435233912957088 -238.118008000865245
-148.497135117668108 -73.868149799244463 -243.923891430373885
-46.925708170664223 -73.274388531130981 -240.437918170961836
-30.904195284831534 -74.788427157456866 -244.596187254189545
5.023121855210281 -80.651964558336402 -248.548043403934287
-38.723410406290327 -75.852689131599902 -243.788680032919331
23.405195652155360 -77.667917385872158 -248.857506232470200
-4.040103963930544 -75.631899234559839 -249.692509416627900
-151.020458357123260 -74.159035333341151 -249.463250185663355
-4.259971633013890 -76.608251177492662 -251.927480902392688
-147.194752948751784 -77.954595550784276 -254.218451885925163
-67.395586146687052 -75.025103156420215 -247.771577997376994
-149.746977808115417 -81.101471797136256 -258.446503099105939
-124.353073370637475 -74.518920643077450 -260.197301001278674
-145.755457188671130 -73.704929334763591 -262.646122198181445
-14.387050430303358 -73.352840470282160 -264.892877552506604
-143.646096044355573 -71.608102185380886 -263.646576547910399
-150.256694239427304 -72.553713929612115 -265.238826390768111
-9.774479353416712 -77.200305397800349 -271.792634187952729
-147.803170954276169 -75.914194520349085 -270.269406406868711
-3.596804636130880 -78.554046130054417 -282.158481843523418
-46.875743604412875 -77.465444997974075 -287.301103666019173
-134.410077665801083 -74.641413476248971 -290.233091260458764
-131.292773974246046 -73.670870185864686 -287.778053695886797
-128.695754185008354 -77.275137198846025 -286.409509835594633
-53.896381163595152 -75.182061482736543 -286.405560206014400
-115.737336463409406 -75.288159913495377 -286.790242272654893
14.942108258227403 -74.364838927911052 -289.613370805335649
-61.933780909637036 -75.203917157601154 -288.104162227286793
-141.565678949380469 -71.669266663694060 -289.773417380575211
-61.732422812995893 -74.321606162270328 -291.291028704328369
-139.576390102539875 -74.281986326332998 -291.176465632237182
-118.888064482699917 -73.689208671189007 -290.383812686119256
-46.122046478563803 -75.077362896210715 -289.107592300002750
-36.048931083887709 -75.452000627550404 -290.242820498918888
-134.254734895161022 -71.242683176309129 -294.823287947437166
-12.568503074551938 -81.285389117089608 -294.996399888568135
-0.841600078364685 -78.608667412586414 -289.753742779644540
5.228631947993922 -77.123542257960537 -292.719316084281047
15.200058434967842 -75.240334683918491 -293.488136516957979
-146.909263478539572 -72.764233784938256 -294.627410309443064
-150.026383856710197 -78.001297472101086 -298.955167589951088
-71.942004351835351 -74.739018546065964 -59.374287718449239
88.123082071090977 -77.402373429095832 -73.721669917627580
79.467681288619715 -75.621231189942790 -75.908791718611354
-24.460297795912229 -76.505779748460739 -77.661499245428033
84.898016710233236 -77.061848144030989 -78.035693322587093
-32.785060274902790 -75.976891571436397 -81.469114555938702
87.475804610799159 -75.223086985414540 -83.138535981676654
89.693225535598444 -78.236656253836784 -82.000637890208381
-65.591558906261184 -68.208802427253119 -93.406625860770930
77.314968926835633 -75.742072799518738 -95.158732625530007
80.202261579837440 -75.956037822752677 -98.378588749332366
91.886071078264706 -75.962144128485662 -90.896806498271005
56.496379467068536 -76.936148009570246 -98.081161609839370
-81.584880357958866 -78.159059039547543 -98.864246986587091
-74.892283190773853 -71.340236954700345 -101.599045562156363
49.333933501341306 -78.127982843844407 -104.664810339322358
-92.099073778755056 -78.492994834440481 -104.206609915379374
42.340143570286656 -75.850488983512292 -117.054568543271003
110.690551224195460 -74.917267923913499 -118.353283987686567
112.992185772587689 -77.983159775641980 -131.369190383720024
28.493837890953532 -76.630847696474532 -143.149849936634752
111.692469083789334 -76.205489024854501 -126.306175532994999
24.560123723156146 -77.290372930306916 -135.059543778488063
111.690713482069441 -73.998899017812221 -131.420135559043075
37.951442563823782 -76.558521604327268 -136.783055647203525
-50.147462051554086 -78.925889372535892 -147.994347204684431
37.316982115259080 -72.269862904760501 -139.590572186585661
109.773759768533765 -77.793123161858432 -139.585009676285551
-52.926581831251355 -75.978279653133711 -143.460916754392144
31.425979988217751 -75.143482785687780 -149.013801974315612
-57.965189928598178 -73.097470085292457 -141.614467129140024
-51.365529426994172 -78.366442335810291 -152.220842125144287
-47.885932741201103 -75.459828241989868 -150.557203292278587
-63.842226392783559 -76.323868524212273 -156.018699279262904
118.502492580676346 -77.854534788620626 -149.708028957589846
-47.412023082504092 -75.830273094706428 -153.728406874686812
23.632797371367509 -75.297126509869855 -152.919810392032474
111.276113825714319 -73.562189566461811 -158.216390981437087
-66.758910318115539 -75.420229719420462 -156.246671188848893
-48.576632750661332 -74.953084647771448 -153.923179242005205
7.675989353147084 -74.575480881364300 -155.430387981240784
-65.726747901354130 -77.195683746104322 -160.833934697215170
-58.438934280474328 -76.946442190372750 -162.965185809742707
-1.631977352582759 -75.639000925765586 -161.723344107095841
-42.316506330168494 -75.202663604613406 -170.362812578546794
31.296761869541644 -72.874865679907344 -166.059863586717398
-63.355490374904406 -73.490371755127512 -168.011744742108817
-56.613577008849148 -76.412331134682830 -167.731001793638882
23.373150613539611 -76.745496765308999 -163.450171598109335
-32.267911080056990 -76.444185632352628 -169.979477862341326
-30.019403247341149 -77.026595657857172 -166.510783902240007
18.628362888276726 -75.944679880644941 -175.781694454442231
-37.648883790310379 -75.853224194208096 -174.469328041566882
-11.482573554012649 -75.727075598374739 -172.245523834580354
-59.148035824609480 -74.989564407205563 -177.062380543442657
-4.645371457674209 -72.332393715183926 -173.173931075396780
-23.774051462238095 -75.936911054941504 -179.450339932058370
23.301810408189674 -73.623088699484839 -182.995178354289379
-37.540316371377472 -74.404099929897285 -171.738177549322558
15.788495963675075 -76.698709714027103 -178.483368474805388
-23.520382571570561 -71.597231773664646 -183.929202035549764
-31.176074406316086 -78.325921954618934 -181.770934448332724
-147.927984665436355 -70.626522912390428 -188.071696687270276
-21.089321708245958 -77.379650949276268 -183.422724125310225
-145.934801650888375 -72.971508492013442 -186.926771284039660
-147.180891348287105 -72.913357674497675 -189.428471107920444
-46.730575485678926 -73.095551529828569 -188.683602461238735
98.262419254829680 -75.982251744347366 -195.005325064766993
-143.405716384955809 -75.746055730836687 -193.498295552221748
-156.476574791845849 -75.455279031117939 -194.363237161616780
19.770260286440688 -76.788391505925176 -198.234668749518022
-133.332680584882638 -73.968267633126970 -199.529182262541440
19.171738473600602 -74.540748796519765 -202.426172528268921
-138.945294405887495 -71.650298988133812 -195.570978216160029
11.389953897101975 -74.401951774012133 -197.802135768136878
-136.911493043686932 -76.226634889136250 -201.245725412525672
6.690576584721985 -78.660910160058052 -209.965585083449270
-147.733888856004825 -75.614271848755351 -207.902340000863234
92.944683301304721 -74.496607562722943 -203.027818467620875
-12.972928217818914 -72.608214548163545 -203.210093070052494
-30.223906003545917 -73.471701951531259 -207.526416767705712
-11.621734603362281 -76.134024738928730 -209.164039886317909
-147.755709414474666 -74.602678053229482 -208.945848060189093
-35.042911655012531 -76.758054455319424 -206.640282320893334
-79.857253238865368 -80.057385336714162 -212.116722027073820
-25.982135199387034 -76.767405034982090 -210.265187669156035
20.490464190541321 -72.795934735917086 -211.573367689992494
-149.351976105244717 -73.051988920441943 -213.276350691178408
-89.838080148667288 -70.966661103692104 -212.732991770765636
-30.069995995075107 -70.302491675934732 -213.029337788562742
-24.076345437243095 -72.358323155754050 -219.184580033002021
-15.211040990143712 -78.130374757110445 -210.606997011020582
-27.438049865466009 -77.458582329607410 -213.285374414835275
-79.211183315850320 -70.938318126943400 -218.131180995033276
-82.165661369137155 -73.809663879756300 -218.457121807514994
-24.570328157425276 -73.681292379615400 -219.139173658791833
2.386238447988923 -73.051096047423115 -219.023994201737253
-145.460377822199916 -73.131785288453102 -220.065001128756109
-1.797559470859710 -74.552913589644817 -218.595072394620246
85.610891603604031 -74.038610612574189 -220.784412461434584
-142.573190926114705 -76.373053560740289 -223.310207774829053
-11.469752447528766 -77.860791491151076 -221.474533261670473
-141.385793063389229 -75.095359644892397 -225.553426315550212
-145.438033102206361 -80.991070238832734 -226.884209642869081
-6.933130161313930 -75.047009401350479 -229.762440699850771
15.086530483691780 -79.601238650504826 -219.033569730036646
-142.211874251914310 -73.664942202893073 -229.180557629034553
-13.303221812406786 -75.873047084578673 -230.487835497397242
80.874334170353407 -77.563201574742408 -230.949930601566678
78.322471954015427 -73.826107439331480 -232.306311814336738
8.632961533467970 -76.268262290046721 -229.873480792781351
-24.178009176970324 -77.638589513254487 -242.159005076998369
-13.008432109083206 -75.238466984417769 -241.406932668453749
6.798640139141057 -74.178622098916833 -245.299751506493294
-50.034866262269915 -73.040737475972406 -242.692393733223696
-25.033518935715957 -75.126491119479596 -242.603120400305556
5.778087850522375 -78.269276109708329 -243.865790082041713
-63.101466379729374 -74.456607597521213 -245.262844232284920
-26.259440912496789 -74.547951670294992 -245.122082177203367
-44.085871043212606 -72.833862857919257 -242.805237274196770
-151.832676060899757 -74.090886228076656 -246.111765310895237
-46.250359919559102 -74.659876494133258 -245.373251507666623
-57.798249442458243 -75.616413678884243 -250.458142828197992
-67.326759168085289 -76.034588100216823 -250.584711209577108
-8.489881523288449 -78.176923134556347 -249.919930399820430
-80.589124622504499 -72.223028514575958 -250.876823068130875
-152.221705965882279 -78.446196085759652 -256.838793947160241
-143.569862933989498 -77.053335150701344 -257.067361038151375
-125.534614561652234 -75.518801933484923 -258.964214142305195
-152.098386190357274 -74.716460680566584 -267.457565763382888
25.113627812542777 -74.283690761227888 -262.742784969523484
-10.711865099207419 -75.361552475585768 -268.937139671847149
-148.025923759363650 -73.406306518712896 -273.366821497820524
-147.253861892686871 -75.157084561497911 -277.354646095772637
-143.850096098013836 -76.768928548130759 -286.037060108993558
-58.859838931413535 -76.790043240500566 -287.635477066698854
-40.705827513906186 -75.250884963947470 -288.475285664479202
-27.940627643635008 -71.509265426439001 -283.327655882086844
-15.709105990844389 -79.848238331128613 -286.543784042760478
-63.248789028897718 -75.955926297462042 -287.028048279227903
-75.416270317180164 -74.095981007227408 -286.785279465696306
-4.017638747483193 -78.759038867827570 -286.864169132841482
10.984844073836555 -72.785073901017057 -290.598491558669593
-134.650641583986953 -75.959343935614314 -293.101252733859724
-78.269760865199700 -76.003619891241399 -291.759065411509368
-148.028235233334897 -74.571442931855145 -289.125929400447774
-88.589543009931219 -75.551247039522835 -286.495700021543598
-78.014463207338366 -76.272022320632345 -290.057915072243532
-83.423381235404051 -70.255053468757737 -292.810498524146396
-58.497545417138909 -73.333998542168445 -292.507362248071331
-27.456990980768470 -71.783385853716439 -295.972092960856344
-1.937665181726569 -75.688828672550628 -295.019228712616837
-156.956833543115721 -69.239409144100279 -294.909808618451336
-153.633059202694596 -72.899050436211226 -299.126863923318467
-147.640279940821785 -72.292328728841170 -300.949967262112864
-153.757306716031593 -75.032356225606179 -309.260345088090673
-59.419879544126033 -73.980285774910726 -56.044452953544848
-43.585715135161990 -73.615407815080260 -55.214241542933507
-36.851582860732123 -75.211013211311396 -56.004752912566246
-73.301629381028391 -72.246644227870519 -59.346585667245520
-28.622254090609768 -73.076618985091329 -63.463836634832447
-29.400631013421144 -74.814645559320880 -82.244917780376852
78.255470179998497 -74.565153105495426 -80.051826070579040
75.194983648426543 -78.993318106152358 -83.041684201894654
74.433664164686604 -77.387818303672930 -87.252816563182080
93.361125404966558 -75.297606231927489 -88.934175343341252
76.003312894440512 -77.053835770817585 -92.335897706115873
57.211757119551244 -77.914041429155859 -95.452756292667488
48.422610545323948 -76.151351100604813 -96.253625815444238
-68.747298272327441 -73.417506983881268 -100.202286750372735
-70.439936100947349 -68.188029670524159 -102.960934954404621
45.696794805923972 -76.433635104622581 -103.781333420476187
-80.809371218925094 -75.900176834325578 -107.818490826068896
-94.165321820984119 -74.327049610139142 -112.885670008649313
51.051158040489298 -73.332260419716221 -105.561240231323396
107.592688970114139 -71.872989031542943 -110.415560401710820
32.527667811758278 -73.210743827504814 -119.394062763530016
47.772394390982413 -75.926649923841495 -120.577583982001059
42.154773701040170 -78.560237538067341 -128.535661977725823
30.152775581688630 -77.991261006905631 -125.367361696548599
108.873396474994337 -74.531082071405109 -118.781586852719428
41.215157373748767 -73.644171222673947 -127.934648594388861
26.934455346921542 -73.142300559138505 -129.349208839677374
-48.605413490841983 -76.473152459076701 -144.171879641086690
-71.144040310986739 -75.688443353953446 -144.209782545200767
-55.078010519204412 -69.970449807454528 -143.157776532256037
-66.499957092471362 -74.045737340373876 -147.198528059677216
-42.015239415193733 -72.312210420962515 -145.118488585829994
111.334040600450805 -70.132134691550789 -151.038858988718516
-70.611349962823667 -73.518333103633680 -154.563897520903367
27.447425685688852 -76.820707845471787 -148.737820541176291
36.017137794232227 -78.276473289555213 -155.571318665156525
117.733316736175354 -74.043583772032605 -159.990357524176602
10.796421221430304 -74.377360112143464 -157.914986699988219
29.682871421847029 -74.801095296599939 -155.333598403314454
-64.002845505514898 -73.069497960228887 -156.953966817658682
-43.659944701105815 -71.351867111344148 -166.078052613815942
18.846979624267107 -73.373249191052253 -161.609946243843751
-63.004405485972981 -77.617686706240562 -165.262145344117187
-67.292955981619642 -74.230803248143644 -166.586957801150021
106.642797114676242 -75.917375085743785 -162.099566209361001
-5.533033186546184 -76.404372322616908 -169.007615624341724
-61.086526848001611 -77.556530862796251 -179.821916998401150
-24.555529916647796 -76.775985869917093 -174.004586952998608
-55.884209011427174 -74.613301652246790 -173.709567801462867
26.556793157988707 -71.464020384879333 -167.805084233574888
108.303752335392915 -75.655774110786638 -173.015023682375841
102.235529309630053 -76.252550985766760 -184.716245755628563
107.790323041626579 -76.346483569592493 -191.083517470883322
106.707396411587624 -76.692291015654945 -179.572184065966070
-54.912006305728681 -71.377825760573330 -186.850031832688813
-53.805535898390787 -72.471841148363950 -181.269960945390153
24.543709741400789 -75.548367439836724 -182.480610632940710
-50.480245686267878 -74.742653933397946 -188.071038571412004
-19.728030873271972 -75.990867233575386 -185.711937362795453
-48.636265531359285 -74.295490217776504 -191.138494699170053
-149.556636599633805 -73.927566489308902 -195.178814797005202
103.479529016171185 -76.068202577882005 -193.244153441282833
-46.104697241049280 -71.715766321548074 -192.935536002423987
-18.145705630348278 -74.371234292825108 -194.731766484112399
-142.024148188511305 -77.415808244704067 -197.328234750816534
-47.367293182603888 -71.320478338797173 -194.514398587993242
103.359627289328472 -77.097723359918746 -199.912290398917776
104.504364542402698 -76.496526084479768 -186.505285994970563
-47.404440485550182 -75.563367315715837 -196.274753758502840
-21.233104593890406 -73.768746187637390 -193.384692109878927
-150.313423696529242 -77.814212438775456 -199.185653566774363
-25.621674970309233 -78.016651557991963 -199.770831004527537
-152.450684922205966 -76.302625536823854 -203.091198320084487
-149.789820032121440 -73.896402067844832 -200.986268874565894
-139.117205164220792 -74.831224666907247 -203.824003814820344
-37.464549720442591 -72.799607571769656 -198.389271659413765
100.963252701371914 -72.991766084281380 -198.317786960652768
-38.656123262040907 -72.780214031030170 -201.389920440768037
-144.152398246575132 -76.027817541040463 -203.882208385191547
-40.068702668080192 -73.504551178167389 -206.833788289643962
-15.040404249575236 -75.686078573330121 -210.538990380170191
97.294667936981725 -74.432590406858822 -202.588949680885065
94.924492451059223 -72.938511774088880 -211.859875230427463
-29.131824453651493 -73.750171990528855 -221.054347382072592
-84.601061372734677 -75.229222994216812 -213.123252444626587
-74.356603017170372 -73.534748390455050 -211.561112351964482
-17.055449471412370 -80.099971346824489 -220.294528767232549
-147.290080971313898 -77.796666629391666 -211.036235074573966
86.567665055385945 -75.618521998872239 -211.589959962515564
87.788792636984240 -76.731473254360509 -220.648255094835150
91.940584830214164 -73.595953010193213 -219.224868395044666
-99.362864017784318 -74.370231862515737 -222.695872163000331
-148.914224845303806 -76.834952514140554 -225.688100571618975
-20.158343055542165 -72.742427140445386 -222.072315177762107
76.504526444745082 -73.271380160969045 -224.301744209586388
-146.498667450230784 -78.258735151995467 -227.585705841694875
-24.522637449409100 -77.193446578432372 -222.807013143248355
-131.973910244479157 -70.325506305290816 -230.574745317923714
-11.984570340712391 -73.367613334464011 -226.549755204610364
17.656477479935990 -70.731087235933103 -222.755069405507157
19.020889091310764 -74.421693342937488 -231.182615113332503
-152.713327753827571 -74.404833572140006 -233.685449649702491
-125.356474808223339 -72.077164054474991 -234.852292707297039
-7.345983581041384 -72.781847438171525 -234.720071303031972
-0.226346448900664 -73.544028675922135 -236.770031597508108
69.608998365398037 -77.424160961579361 -235.725034931958646
72.521286846648380 -72.465768370799736 -238.904320575028095
-1.821647135228250 -74.883141537943175 -241.210090145690799
15.935415070785432 -72.672900518667589 -240.777552262624567
-30.901227158591976 -71.630808603628850 -243.244100301916944
-31.152598953084532 -72.747463958277052 -236.007557451856002
-41.586698782634471 -76.671981041975613 -244.965663800977381
-36.717961670425140 -74.493217184574988 -244.714149391389753
-19.210086955491679 -74.805510021431331 -241.071958649190861
-53.838652034895048 -72.368767607672766 -243.082484064466144
3.034838140157252 -73.764485051331633 -244.817418344152259
-64.913209937672448 -73.768428380385856 -245.391771145519556
20.074418709943288 -74.101644631598987 -245.492107618325804
-146.753340094702196 -76.000193672842528 -244.402120602731543
-70.442850613562356 -72.010267294900189 -248.975222898962329
12.544496299081352 -75.364749568923386 -246.927381254242846
-161.415522521081215 -72.304935216962633 -249.880973799652679
21.560403211734112 -74.151395608297520 -252.911031800505327
-81.873029444073268 -73.596990925579405 -253.413121205451546
-73.435293713201332 -74.972375420964809 -252.583013930602590
23.461601136493908 -76.007887128536765 -257.292988012381613
-87.936730158609635 -74.748364969882005 -254.877420808350053
-126.645018217333245 -73.701913825945823 -257.656418146534293
-132.975088403136596 -70.820570266085426 -255.376661297272847
-130.416012798592448 -76.965383734180904 -259.111601091769728
-144.953372398240020 -70.140580660568062 -258.705715861210365
-141.385490496540427 -76.772515521830513 -262.934534733440273
-135.963874154518180 -71.799498339373429 -261.442441600785457
-162.531650883789837 -72.888410144801270 -262.935260595754869
-122.847135853418848 -69.197739038872726 -265.527800619608854
-135.317383514501643 -72.587916322845246 -265.620314802690757
-167.194663660680476 -67.536559246024808 -262.657995010210641
-159.428388030065577 -70.736315886717918 -262.864411348815281
-152.109050780280768 -71.552027873037957 -264.230330055124057
-144.910985037053507 -72.312064295669103 -266.543277923439064
15.930650126532255 -75.701271043128500 -276.974773860378264
-164.234882483300339 -73.944420203668642 -269.673134745746950
-150.771555281235976 -71.787238767158428 -272.398835465131924
-4.842421190792653 -78.941649766604669 -271.550337238246811
-162.666690519295145 -67.860780314519886 -266.589598106221217
13.234559245770582 -75.227792436408961 -279.855314808407911
-150.678707973235703 -73.007110946162811 -283.483324179571468
-159.390184685278314 -70.849120495421602 -288.156339798372585
-151.032887348660068 -75.659735618832826 -283.791850142455189
-166.977824344043029 -70.237524403159796 -285.932950199359311
5.574459120090996 -74.685871956116443 -287.892058625363518
9.644608403588549 -78.285657811422865 -284.207528611303303
-94.881228052019779 -69.743624879710751 -292.945044444111375
-144.336760653953263 -72.070429365085772 -288.599757833692479
-149.317068420107859 -73.364805121646967 -287.824694476542334
-110.174300579070518 -70.302227692502498 -287.265006198558297
-147.077689173418037 -70.296165755505200 -290.467361624663056
-145.498567370293642 -73.209760320110632 -288.938755205800362
-62.769309869147492 -71.615176980748032 -293.781431761914064
-158.776358017212402 -73.401629057439393 -292.773305307059843
-125.532279350625743 -71.870846954962303 -291.693684866112164
-41.258901756563006 -77.389778306165866 -289.450657836080268
-157.506180950368218 -73.530367214946921 -287.376010558477162
-138.247987177437892 -70.181716939008965 -292.002642062994482
-15.722691931083670 -71.184722701846738 -294.598759631244661
-127.134145645880039 -73.283237045810210 -296.940290968143927
5.775595965098660 -72.888577013490135 -292.141503417652132
14.917258524105305 -73.630180751752761 -293.515096795884517
-136.179972802169743 -74.415777184408554 -294.546097394581295
-144.266176156692779 -70.077939504749864 -294.160099493798725
-152.664470011226854 -68.998320757713060 -310.437124411569243
-74.070282805276719 -70.456956028123685 -52.430123958049080
-25.644235736913974 -68.768852800287220 -61.566496056720027
-20.205210792751839 -73.769578710153226 -63.264958183547094
74.988746562678998 -71.387262776759030 -76.899115602378870
91.821915342512199 -75.125795450368088 -76.738458779730536
-38.154472179357384 -71.265601656257957 -76.427079461967352
72.604559278857877 -72.841088707571103 -76.639694847476946
88.814510690687712 -75.769613440096578 -79.545952142988597
72.303257028266557 -72.739859276906373 -84.140649345397762
70.249735358172032 -72.009195099957040 -85.459308080261749
-49.860023888237379 -77.855490970615776 -89.478077758719238
-90.568576355103858 -72.157628227608939 -86.291532751897790
58.939188699155608 -74.064298537656015 -91.674672131377164
50.864971408522919 -72.305406964981245 -95.907004936189708
93.475949540508864 -71.613983004581826 -98.135994312628810
-97.729029691544397 -72.255276106382695 -101.857589757327688
82.839421067277854 -73.451791429415039 -101.478643880732420
76.691157873725203 -72.197310752377973 -99.287838964077793
94.120605342583715 -74.754614565048200 -98.056787418095311
82.708339704709999 -75.612576411160489 -99.022541626084205
89.139598539762900 -75.540090366430306 -100.327294558749500
-77.709164710612328 -74.127116243220257 -106.343194472058016
36.464365462536620 -78.339661308846814 -108.839292397912800
107.577319326285775 -74.541538482612481 -110.805615872809213
111.456565187475675 -74.655502784994098 -112.004358609274817
46.050050156440633 -71.894565487037056 -112.899788063494071
108.557283589387168 -76.708555214106440 -119.331383800820433
116.761009824589109 -74.819274854322899 -132.348893593018090
-54.500630749134473 -76.092688332203110 -134.448963591276737
26.515326049022903 -73.023669519823557 -133.481471854055116
41.723873756147917 -73.763906052204646 -131.458311618901433
26.022521226109987 -73.254719019702677 -145.070129643995642
115.927364905637987 -76.489203584014632 -139.262451480374892
113.942259514846626 -76.361961491552876 -133.863188023909714
-73.737680122893835 -73.432692105005827 -148.834811125289406
-45.377873507164921 -77.339210750266034 -146.939232126505345
-71.224516784063084 -70.100460054880855 -150.331647863587989
21.275740015468415 -76.527310468829768 -154.635094175525325
112.182233610403998 -76.704453548183125 -153.162924585252085
-51.152748093532324 -71.318434059992981 -149.532317184617256
-68.277575130908573 -69.808550337640867 -150.974385390845327
-37.359237474094456 -77.476222268654851 -154.744518106938671
32.270039105985248 -70.634910156712323 -154.374587595108636
111.191199225433408 -75.528346717111006 -155.415587628986771
111.814734014508616 -71.972124695685622 -156.757153319967188
-68.641900129024577 -69.614257437567375 -154.563540847360798
-65.451943192319220 -74.357464974134601 -165.392370871165838
23.877462432014202 -74.029015234483580 -161.651631308766667
-60.152414840748918 -71.829555843157266 -167.845001683995889
-34.886249117393049 -72.337879619172270 -161.832893318492182
7.538023615657519 -72.584029751912141 -161.166306118443259
110.645241601195877 -75.007988920587181 -165.033602132530973
5.089456767320943 -71.751664323487489 -160.911707790543517
-33.524837065566345 -73.322814185795266 -165.209607090193316
-1.008648038490431 -74.915158673148511 -171.554182753660513
108.018675249464650 -76.192260741515511 -172.758036205517016
-40.511689719681442 -74.329079108999508 -169.876785506802776
26.490553855505290 -69.630077846917217 -169.120065625839572
112.506018205553048 -74.188291325359643 -168.997771961591070
-58.284846464403600 -72.526762745042006 -178.156632096376512
-26.954295595564144 -72.100687342732584 -172.028703120819472
107.304279659065969 -73.036325643413619 -175.102212745896537
27.565935517367773 -76.483124841839697 -173.384125803862759
115.326749710567782 -74.912730981442650 -178.310062639571726
-38.878412155853397 -71.135791468147602 -178.166534897794349
107.790910118433885 -73.911691400471000 -177.439230754172343
-60.019965086229533 -73.006174587562370 -181.274904758463748
-23.045252946186043 -76.840203736347135 -180.478067533353652
-146.573206826901298 -70.046794205938085 -186.236482755254372
-54.491788671621592 -75.355499036476175 -184.044879857255495
-145.717808097462154 -72.922127785070757 -187.968765632162842
-32.329725201753419 -74.764778354195286 -189.823237588018003
24.805941726793904 -78.557626311392283 -182.116951782215807
109.357479634228966 -73.577037977427040 -183.538874932991547
-29.276365648278922 -77.994037301344918 -191.526207937723285
12.543819462729251 -74.029510659847062 -191.725163207682129
20.388766420476443 -70.346670465463433 -202.559628286656192
-144.981298330119870 -75.521429813860664 -194.874255727959763
103.919630555795379 -73.347593464855578 -191.924634996792406
-16.095049908605393 -71.769393948713741 -197.110317765964538
104.550078977880901 -75.828053546562245 -190.755959979702254
14.342705825098216 -71.244360689692542 -190.353605549159141
-128.631631340146100 -68.587599146076883 -205.521394777584760
-141.858279036390769 -73.808098466531987 -200.566362119879130
98.242079427035492 -73.582866562372800 -197.058745033797038
-10.177267325748812 -75.928957484056582 -200.691960345293722
-14.033633787367481 -72.557810577007729 -202.888739246702244
9.999558624403591 -74.100294565539045 -205.909684488948955
-148.740564427246312 -69.140876793676995 -205.731330194087747
-145.053362781523845 -71.219996027599009 -207.036741263702680
95.057545812174894 -72.211372006060344 -203.677007244617585
-75.660256990620638 -73.358256150030002 -213.346086954582830
-36.419929303556131 -74.328830144308597 -202.361872236625004
18.006974736474049 -71.141640069899779 -208.074725303904472
-25.912374041523076 -73.832848943151774 -211.142421461846027
-80.540025534038207 -75.507706615658549 -210.329622380729717
91.643976217015322 -75.134345649767170 -210.993090037683032
-83.925889074548749 -72.086197123695399 -212.420973855882636
-146.010111265001314 -72.564747456883339 -220.014018332394443
-79.663263443888283 -73.983061960874693 -216.306745015700585
-19.116949985682115 -75.571852516139899 -213.532257378255281
-21.627080264147029 -70.235164648740181 -217.949929118115421
20.308380229788334 -70.253358487124586 -211.226758865377036
-5.220572189877547 -70.203877338854468 -215.340361706231278
-83.466919093087071 -70.770400096007052 -216.991514576798465
91.740463784951999 -73.579719540276628 -213.272241366110080
-94.983854042813988 -73.498048006457267 -219.900768591772362
-149.655174462156282 -71.652516818811620 -226.408821752736145
-15.552665026351125 -70.780421717397132 -227.943835562038942
16.516242258237178 -73.323923445021109 -214.788460696092557
-100.190953657142629 -71.676218380682457 -220.530435693237905
5.215063741879383 -75.941602662384398 -223.282000692362232
-21.914091420506036 -75.212414319122331 -219.999929125832182
83.289896160497022 -72.873997306458477 -224.830030119543949
-148.184006079377525 -76.054435418905541 -222.767265531115726
2.334562763078065 -71.435433473600995 -220.679314875229437
-7.723996640796141 -71.318512711414797 -222.036392834898493
14.093742655071001 -70.190524670892160 -223.031159136247027
84.215463793416518 -73.221205235528373 -220.975773050587435
-8.845248591687618 -71.823879483398102 -227.848832568239374
-128.849979490330185 -71.073473263536357 -225.755318885442989
-11.355025198388109 -74.690373481778835 -227.403392696484048
16.316506845217376 -77.963638222810260 -235.180120521191753
-122.231161113264363 -72.857655054622100 -228.894610174450719
-147.705846182330902 -67.793194401191727 -231.107946067277567
-140.550887238207594 -71.233655720260217 -230.615668212162007
-136.984080660338861 -73.855333113337664 -228.446448811222865
-18.433405175880278 -74.986559196236840 -226.220719044011588
72.126849231476811 -75.267209034721162 -230.083043862770978
-142.017970327400093 -66.253912176609788 -235.054881396277494
76.166607665546195 -76.065130814308986 -232.977153953384459
-16.768435443368698 -72.133710546912909 -227.839177806113725
-141.321660158607699 -77.382472110304576 -232.598446171438525
84.131661648685153 -72.836475571430441 -226.957260376270796
11.140438092222912 -76.901002182593118 -234.311628667544710
-144.900541780323010 -74.991584202320126 -232.864265742791162
-150.734511510915240 -72.318904102535896 -235.355838085250809
13.405464557424100 -73.805678804982207 -233.205240324683217
-0.651889280579873 -70.855155274013043 -234.325461515108060
-23.490524465447461 -74.033302849126869 -241.416823747005765
-3.137082531025790 -73.423491284264543 -241.000091010964638
-158.858287518011537 -71.317070002616816 -236.858065670965260
11.456941972401971 -75.777625868822952 -249.293774453819594
-162.759869297872228 -67.685605829370161 -235.805108503825494
-14.352655037896017 -74.546824854594007 -237.339099790269302
68.611169105928624 -74.330061528236314 -243.074147692949964
-12.613075890385328 -75.883945863706714 -242.314621673536692
-23.621382216769096 -67.236592453992301 -240.286131649979637
-26.088069903507741 -72.651845444378850 -241.576724575945775
-14.449338558254578 -73.603798420037208 -238.542736930756405
-144.895469715102536 -75.617115286036494 -235.786092928757881
8.152095544704522 -75.071255817425055 -245.040897534367559
65.079645010864581 -71.574586848305387 -242.462955882524739
11.379063664703160 -72.966907221867046 -245.129851498668700
-159.294150883300603 -69.041458015164693 -244.859994713627827
-47.743140737994480 -75.130224861859801 -246.133201936888554
2.675506778045271 -77.524027294553477 -245.315843388207782
17.185899175877069 -74.432157370341585 -245.578589260790807
-54.244872206836376 -71.121540771272521 -246.666061623321809
-6.846427109658801 -69.388835306989179 -246.248343958484497
25.671866904620838 -72.634803271923204 -245.335754686746498
-163.454302323836345 -70.763580836867305 -253.520447347700213
-70.436584538375840 -72.075071236693020 -243.305737243881254
-50.484198076932387 -72.575950349624492 -249.396042738096980
-78.251003349304099 -70.597759359056852 -252.506289091226904
-157.085306527719695 -71.988343855418094 -249.274868216581126
-155.314284426400008 -74.148403312905344 -255.736788560302216
-57.691617571319313 -73.099652273050552 -250.218761162618875
-68.931252277443747 -74.406613570060586 -252.389066950276856
-154.142530620181617 -71.962591279378557 -255.191156086678234
-150.216595953683139 -71.391468639296363 -252.928529661149184
-80.733905214662173 -71.553619740075519 -254.298446244046715
-94.346096968555827 -69.550780751773928 -254.931022501116104
-169.895322103497591 -68.919751908102739 -251.611379243960926
-154.461513949072156 -68.822786942824251 -258.716903174833647
-131.615245606163910 -68.789311275757427 -256.209753627044222
-82.982499047403664 -75.423617900479968 -255.130168782359931
-164.709355284882889 -70.103622569474183 -253.449351435328310
-143.323303946208398 -71.171343804360859 -257.859424072933393
-86.368509721218132 -75.811576789257316 -255.634060957040504
-94.289877473336020 -67.646804475451518 -259.883295387819601
-148.267762302746462 -72.787826875692673 -255.102066627952468
-95.249612770513551 -72.222230513530008 -256.043469158603330
-148.523332066528980 -72.270979442801902 -261.245030279739694
-98.403919808469340 -73.084066482706987 -259.891413185987915
-163.301067639049450 -71.886215772636405 -263.766027011103517
-157.975303728634344 -66.917646964849610 -260.113271313280620
-119.827396012762961 -72.345222661608034 -258.723907595359492
-148.567237629198559 -70.681312036818213 -260.856492592244990
-117.970359761127185 -70.162623069601892 -259.930115027755676
-16.344321574032147 -73.245621479090119 -262.669830449357960
-143.014852914108360 -72.127846833307785 -261.633685761231163
-123.385856908120559 -71.795074314446140 -262.789788913783013
-156.661044176997251 -70.181301775602719 -262.143067901863049
21.716245789988342 -71.422022546135224 -267.329677209076408
-144.852228223001902 -71.428242083008598 -279.145083097088730
-165.983489852897293 -68.211418410871630 -278.713079050875422
-7.879560449142073 -74.783307947538503 -281.662087729897166
-148.246692755453211 -74.232887589137903 -282.568660594046094
-7.286142069209877 -72.075924591892459 -285.305672292944848
14.319755415845195 -71.379676124040458 -285.003817274996095
-136.858379603061024 -72.534489155371546 -288.807959979342343
-71.337353900695206 -71.640235242568565 -283.243735564705787
-31.250299534449081 -71.131168266235079 -285.786114183325992
-113.110767758373868 -73.942596891769597 -287.069056401369494
-88.242635689335287 -73.142635145418481 -292.297060175543379
-91.017763889195422 -71.513037832628669 -290.245411010591397
-46.129540883447106 -72.047846669501325 -292.583113181801025
-112.178933287671839 -74.335183019493570 -289.858820173359675
-107.966894754735677 -72.111385381584896 -293.168910977977191
-32.709309674703775 -74.329354503176603 -293.745828988209325
-110.327519913604249 -69.328374104963842 -293.421690398469025
-125.731421224667997 -72.435845951682211 -296.288825633012834
-141.123555477737284 -70.243659772761106 -292.822674087604867
8.684069129440029 -73.256647894772158 -292.985895728789558
14.066278126100206 -74.951132567403079 -292.111991318486446
-155.781626523119741 -72.846543255506361 -297.360671428605315
-151.018886245709041 -73.050733325070894 -303.608336762884505
-142.249342589933292 -73.073092002268936 -314.020875647914124
-148.451168260966909 -70.829090490500079 -313.961504054296597
-152.885192494129285 -73.068140375120720 -314.079562372808823
33.578856421841472 -74.280879257172174 -16.408062397782484
21.184239085847601 -70.568555469374928 -12.569777685131545
22.642354479852084 -70.788164392242578 -23.002358253578091
27.094827915582719 -72.516462370693574 -40.153617129965866
-55.346305142529758 -69.647258627847719 -50.361165175085404
-64.956429713195774 -69.806971921497023 -49.111076244615489
-34.807756286642558 -73.835793271190568 -51.882267859946580
-82.535110661191482 -67.849637437465219 -64.331858421044458
84.910506064541849 -73.091278457252685 -73.041164576174580
-23.566232665649000 -73.385227062838823 -69.460094945544284
88.881256102771161 -79.525343730764661 -71.372307753823790
96.977308094146409 -75.233326698955636 -77.399272919472722
-94.627113582784531 -73.520395654534241 -79.392553346645641
72.404348703928562 -72.811336139732717 -82.672280494006444
-42.839059874585644 -73.576916930809773 -82.558525247933630
100.925926828654653 -73.406065345313237 -82.668511038699009
-53.194003905816757 -73.914228767508405 -93.515220091390148
54.779064547975302 -72.728418809503140 -91.859456182607076
77.201042223720037 -75.470350988023839 -91.245752799784810
58.660347606745646 -74.453246861460684 -100.123982592260262
53.721761573850124 -74.360538681373569 -98.514604734347657
74.082424945261906 -74.014850604717068 -92.922340337722616
44.670806104287720 -68.958149771962141 -100.143483413166180
106.868784434817002 -72.100319556467596 -102.001847565251708
110.694767323646587 -72.709170907148703 -104.005211687026758
86.386481381777358 -69.775535021036688 -105.851782485738227
88.194471621295747 -71.964101522123656 -98.356436823952151
103.545739805188987 -76.021538043538300 -98.606891068743607
110.320349315613967 -71.857529307447408 -101.433327305999498
38.496085122201293 -73.753222282493340 -106.167781541127383
110.338782989728259 -73.107814678159784 -118.968868792631540
113.562194505560129 -73.209389017844046 -116.530787066236073
33.578504741865942 -71.553897127681495 -124.708250977056153
46.560887862668146 -74.634349692792938 -120.102924832505678
116.741373717058309 -70.074860081447838 -126.430236143309983
41.525305087589999 -73.083797611886610 -130.025869252749459
115.222352449061390 -74.575889202156901 -124.685610014234939
112.829354250051466 -73.033435799720394 -122.691549449216765
27.511867716700749 -74.149215601757390 -136.486531157476520
-49.395112325871381 -73.592398877592387 -134.426317515074572
-52.265536849288225 -72.240875329883593 -136.851866088107414
112.337891253156144 -71.703411207201157 -133.645483046209392
-69.637361343568386 -74.463126241071393 -139.287334151042984
-75.476014068192015 -72.849606383198875 -139.251030047130200
-55.919139905703162 -75.996088664718485 -146.438409846849879
36.797604282981276 -69.522557368681376 -142.657415030105511
112.309140256382989 -71.302456523231342 -138.912649059350485
-68.508386204970734 -70.035594084500417 -148.864067762167622
-43.131951086854599 -72.988951065580494 -146.486482834233442
35.642757255281843 -71.527821176066468 -150.146770000389694
-66.361169420253731 -72.934093086551641 -148.748548491628583
113.978695430835302 -75.661813103115350 -143.655898905129078
113.413877416600670 -72.382824464485452 -158.271583693162427
117.811652566847769 -72.063165858955671 -150.350301155146497
-35.401448019472824 -73.959851873262124 -153.966185007316653
-66.366469180501980 -71.160393395809308 -162.496409026928461
-76.163854768890431 -71.492448414409466 -155.846489178617702
34.398470669130631 -77.059034485981698 -151.622475753965176
-0.507788559782899 -74.208391990063944 -162.444018810339060
107.094765273075055 -72.945902928210472 -159.484512243015558
111.140670789934546 -74.063754221767880 -154.058759931983843
115.311201051912690 -70.866146066101038 -154.383858088396636
