# This PCD file was generated using the MATLAB® pcwrite function
# from Computer Vision Toolbox®.
# .PCD v.7 - Point Cloud Data file format
VERSION .7
FIELDS x y z
SIZE 8 8 8
TYPE F F F
COUNT 1 1 1
WIDTH 785
HEIGHT 1
VIEWPOINT 0 0 0 1 0 0 0
POINTS 785
DATA ascii
-47.978632019723825 -81.417281284616266 -174.979384365390757
112.698409358295663 -65.663872673395261 -188.902763877997103
29.452506310680828 -74.731539225002194 -178.292767629272532
-34.131685435303332 -70.718515037747991 -181.459183364508107
-40.305919684963293 -71.602419854577988 -183.425935421215371
15.985038604030127 -71.299120311613706 -190.139457024460739
-21.021544779031103 -67.954580636981845 -192.535983145859603
-46.520208159890309 -84.181178835195425 -180.572795893336348
102.340899386692399 -63.612961776799864 -189.216045880062012
12.192326110428205 -70.250672170760026 -188.714604085789091
-131.459873462550604 -81.205168013366972 -181.053765864012746
-41.285182673044467 -76.604108511110340 -186.620953671553991
99.054940021149349 -67.133410807229339 -207.104678638211283
-147.661104563089566 -89.108150752151090 -192.251107214914015
17.859902567564163 -63.035156193099709 -192.499102990085163
-44.979603812943090 -77.958078394087835 -202.368399978537724
-33.708454366874484 -76.830760474877408 -200.701399916215877
-37.322506498292832 -80.322800701584455 -199.589362252816443
-41.126910207016671 -76.251805691845533 -196.989313599812817
99.233117139105161 -60.975893206007271 -211.642670282235940
-17.781208608194447 -66.407054264561125 -196.716083863644712
-142.766894206321297 -90.023401088721656 -192.969857378424564
13.757592951421039 -68.108998022753113 -198.285993888551332
-69.069347132892716 -78.711772817237375 -205.075785067809392
-146.490113620861479 -84.478102407828970 -202.045848732328011
95.028366359663451 -61.231335966302225 -213.870244502113849
-31.097532786069955 -72.980518260124811 -208.540667833340052
-29.678118351063283 -71.705210946366492 -208.839945575345610
5.061969592879443 -80.707185972599220 -214.120271478079076
-68.463957463219685 -81.746689093067289 -206.024096064570017
-24.647283890182273 -76.581368036236000 -209.569314716843110
-10.103004175671188 -69.169110736149136 -208.063453090200625
-71.692205009948196 -84.973415636197657 -204.574397415425977
-8.716497555114621 -73.722791698635092 -224.056712967478433
8.733068392781895 -70.780042629987292 -211.754874965952155
16.123264514578569 -61.945352764825472 -219.672507617577281
-147.529497173257994 -82.232812071173086 -202.655196000672674
-3.655633750609944 -73.482902384719935 -215.047289336954151
-97.025118155017481 -79.879373530998478 -209.061316408334193
-20.129280987758712 -73.921874108682786 -214.432612718058095
94.307137623288213 -67.911093966408274 -212.202392852404842
8.117477404652821 -69.731780815205326 -230.243913033633646
11.349116479878500 -68.160030230303761 -215.625717796369315
79.671876907439753 -66.717885792198899 -217.069109160685628
-9.050815176842754 -67.349418700227602 -223.022511872750670
86.564010208815716 -60.280934707927230 -219.754766671925239
-13.128359009978844 -74.661875431263113 -216.225810687414594
15.622591552290476 -74.213575594563068 -219.077463096015435
-147.591863443920147 -81.977097664987795 -209.911332149214616
-14.593130764044659 -75.372439083510500 -212.285083359029898
2.135487788707174 -74.277605769646826 -220.552418739191808
-158.940296806440983 -80.054356718075041 -221.366062493309499
-136.890519407502552 -82.535234514355409 -214.091625262976208
7.879831231858351 -70.926397424466145 -220.060211042690554
-4.988808118743492 -76.096149996863787 -233.733698842505532
-139.817318504273942 -84.704891408537804 -217.387014177543932
-147.203435639354865 -93.124107347520450 -227.804887638217593
-149.350703015847785 -92.983337904536654 -220.432997744905009
-33.623236348398343 -77.668480867298541 -234.636837064918211
-143.288008070704592 -87.150071664112986 -230.063306028366355
27.056831314694165 -70.191153207188606 -242.936507994313331
10.352831090708637 -66.791514076142633 -244.371103327202718
-154.322763722578912 -87.027061057977491 -223.892048629075191
-150.702680175380664 -81.599688905705605 -232.621640741499220
-46.654040918857639 -78.356873799224303 -240.749421270262246
-36.527691874422594 -72.947945237976427 -235.640733125909861
6.657331996673928 -79.783077342177634 -240.888641157142615
-40.498756382755452 -73.492532556572812 -245.370220554073001
21.071698577654580 -72.183795659899573 -246.996981097964181
-4.126068010282552 -75.741105166351218 -250.890788977307807
-144.338776155865361 -89.113701023987758 -238.846901628812674
-14.532024766801626 -68.597688387865162 -249.241115485781904
-152.272575645690722 -83.774456848183689 -230.262583950138122
-66.022003616450206 -75.698132800913214 -236.366702060304846
-152.077979132645794 -86.860969976759293 -248.395863711499601
-127.114058240437799 -81.953852059551636 -245.068982301120172
-148.984964141481612 -84.607978204242727 -245.966538783532883
-11.676046754433713 -66.447350648093803 -261.109848582574784
-150.771778487136572 -85.742170729351699 -259.123140182711722
-151.667145195480828 -84.439199166634793 -262.929420604692098
-17.342693396746228 -68.772830865693237 -267.126290987701339
-149.101089001553504 -87.600802453750362 -260.165817866418251
-11.394599754405370 -72.745331281799025 -272.704327539954647
-47.355180913010578 -75.457911721292220 -285.885942496070186
-137.533874914778266 -87.730483385698165 -283.569371305554398
-138.620437036342707 -77.108426308552865 -278.185053796384921
-129.997122646410958 -80.059822552149143 -281.623368627975424
-56.061021824768822 -76.117429531206696 -282.976858923103293
-114.863849728765558 -79.371786759896096 -286.648690814041856
18.115355637587154 -66.453987693808031 -279.917650354445016
-59.665753559791675 -68.507883050410484 -280.716207743098721
-140.983829227088933 -88.055656754039802 -277.891615072763329
-66.884407501064175 -71.996027210513702 -287.242962447920490
-148.123572120466008 -80.032041292136313 -280.692096130240145
-120.269804661674726 -76.844765921063782 -276.192358281535633
-44.389722181928001 -68.327485714740590 -284.842536962742372
-40.992540988578163 -65.279443980099558 -286.003278239922679
-140.651374122823370 -85.510146646562319 -276.785810987530965
-19.316476933296570 -69.170101600459603 -291.949119924470438
5.385630903262026 -68.643457835442902 -286.467492510487375
7.037542103392685 -70.827687267717195 -290.273914950015637
6.734661228849390 -69.183729456999302 -296.639836479898179
-160.099078045581138 -78.754607412435604 -287.580219244852117
-154.971080048734365 -83.609096193800298 -289.026798884551681
-57.320876897972745 -74.862745229369054 -57.115229435620769
89.722160259071302 -63.969813806451498 -78.200728093991444
87.279575004933236 -66.179580495216811 -77.827254473751026
-11.286164373905528 -76.813338891998669 -76.677841133665083
94.754664787894285 -64.748845266639620 -75.386097057374769
-33.556923733028192 -79.601446098440263 -76.946833859357866
97.718517702506702 -60.101284055161287 -79.009684057540198
98.206584338950250 -67.443701726787651 -84.369703997881771
-52.281552473877490 -75.449079573751874 -88.284828450322891
82.427428895834510 -60.848987751163406 -97.031846044692031
88.467523304580254 -70.340316847071179 -100.890227624608031
98.160198185217268 -67.710576183017707 -94.100245975453220
64.041702469181160 -67.106895868491989 -96.921979666902985
-69.907587622616518 -90.099246492209417 -98.483622393089263
-66.364908528317017 -75.470910856329553 -95.650646196303569
59.425849180097657 -68.926753197329333 -102.481919369757691
-80.371816733263728 -85.384117910120651 -106.476398493128528
51.710601768662961 -68.127436110017314 -114.934714607912895
116.732532779783924 -64.404231022383627 -120.691727915156690
115.481462754156524 -65.602848675644864 -134.133140497713896
25.268892766835410 -70.376539608612561 -132.082183750489463
110.819980154634521 -63.641802590423794 -132.354415576410076
26.054839721247532 -66.550700113438737 -139.194821436933125
122.032330088420707 -65.468495408201349 -129.740504252193233
44.537136325638564 -71.390646755687598 -131.585624872356789
-39.030169031466208 -89.460961310604176 -138.128907680566300
37.082773318419449 -67.125209069742326 -134.516188409069628
119.713480014676662 -63.889215435749875 -148.042315999518848
-40.252738769027651 -76.861969771521458 -140.447187136377124
36.443163036972578 -65.791399475317704 -149.842448432215690
-51.188578051179597 -74.456705357757926 -134.323668486919047
-47.018521366819137 -81.159876692067243 -139.197463108105012
-46.147103000669922 -77.648985605594973 -137.021954743000549
-61.877070652058741 -76.284567090202472 -146.289749686592501
123.393390167171390 -64.318895490129833 -150.512535923566077
-50.549881212085303 -75.337755747786261 -140.863456493234139
25.670997094991449 -62.336052159994054 -156.796278996487132
116.933668324303824 -68.839877428791539 -158.885272188296170
-68.492702070184777 -70.683252052915051 -150.971988404603337
-43.539265119781895 -77.810685321497147 -148.553389670238573
7.871695160929463 -73.737358093616606 -153.481383862468590
-63.987095193452596 -86.141636158903211 -158.403999984544157
-54.805905020019658 -76.414420149589574 -158.720529644835011
7.987845926511927 -69.980092643210668 -163.568519765386327
-42.152882306002461 -74.193988881294473 -163.247256048064372
32.425144444950121 -66.440744290559536 -163.535575836332470
-55.651409216899218 -81.309949400598313 -154.486505636769721
-51.185901734822515 -76.255898390239508 -164.166663503643093
32.698985413890163 -70.300256704452877 -158.478206725454015
-26.458560513431095 -73.737160241081042 -162.350667889458805
-22.220168280918145 -74.931702600097736 -164.813045333944018
10.281997582172711 -68.974107529144902 -172.673670495048441
-34.342265689252748 -74.747078645651428 -168.864382378881686
-12.855939826621650 -72.487286540329976 -171.687909039753919
-58.336324319801413 -78.507153482254026 -170.288803169821676
0.950545244440590 -69.665013589264035 -170.907487766350499
-17.627819612434031 -83.460019318648364 -176.350558711191582
28.594384947816909 -72.892721802912632 -182.979821234738552
-37.521403403293569 -74.262237953711775 -170.480427945288085
20.314853619939299 -67.402080115974272 -178.705810663533100
-15.706742031839234 -75.456946637456269 -179.189065748543868
-31.830434993362182 -75.512522201482383 -180.624344749697940
-147.268251491975406 -88.907170214419210 -176.950193758156416
-17.912418953391843 -72.861151686932544 -179.375978160175862
-137.117585612251531 -85.261659305015215 -176.434425474756608
-149.378003477094722 -87.322913677935844 -178.619396514968145
-43.333639965960067 -79.356962309994202 -182.250099057741892
102.623949276769963 -54.869451395426623 -197.904168507655754
-142.894835318237398 -82.093911349920674 -180.586624064206944
-155.688184805750552 -80.951598923523761 -187.074657177936501
21.379637365778699 -66.089368146939549 -196.367636951979023
-133.986361253908768 -85.870699314214178 -190.313389370014619
14.993898640751933 -63.820605846876305 -190.925153180009914
-136.365554250093055 -82.761388234944434 -181.870136083833188
14.488944896009478 -65.931130539370599 -191.386556597902427
-134.861942211436457 -90.471085135812586 -192.343099813450607
5.842931040606725 -74.531163585218096 -204.978748681327232
-150.446950629082295 -85.105144697205532 -196.559769108785787
96.704973586820387 -63.660775322925616 -202.877337282632311
-11.514013064228315 -68.310557651353065 -200.694410591386003
-25.063019939632909 -72.653715959441271 -205.761307456904859
-10.558437418605834 -74.747668028622755 -199.062718644334893
-141.274637507916736 -83.901004452680667 -204.342439484191885
-32.195133858085633 -71.970756686896294 -195.517951254520767
-84.761773648588843 -79.985466575439943 -205.865953902944909
-25.371719164880368 -71.779311072083772 -206.903017806427499
14.318560204198505 -70.427294557143853 -206.338023129594973
-152.707045779164901 -89.778465639707534 -207.816171420998558
-90.878532997174119 -71.672201241310304 -202.888719751694026
-31.612651197221602 -66.235643327774113 -205.143824139863938
-32.113366130195736 -68.320216229362771 -216.901056281422399
-6.623923876178800 -69.825489449095642 -210.023519824859733
-29.186569524205780 -72.616465019054516 -208.634211888414171
-80.347543757201095 -75.688020785528664 -206.435504565047125
-86.783017400832620 -85.256285182498587 -214.055962791122653
-19.530734243550228 -70.187000106038354 -220.197805255392410
-3.729411817591739 -65.927027755045529 -219.629042804991940
-146.934279257673325 -83.287294632155167 -204.084804575980911
-4.173737703408854 -64.719738017783968 -216.904653062071702
82.498658034512033 -64.777757948931864 -223.246069127239252
-143.382493714605175 -81.023192099917551 -212.931090187066701
-14.419417017338169 -79.086561131337703 -230.691424329656201
-144.608069054419616 -81.495147771930860 -221.228955132636600
-147.172518781694436 -82.100136355372058 -215.605645520576815
-10.772163393550358 -77.077602979738387 -224.518010333352095
18.131641779446404 -62.696485119242368 -223.066925585128928
-140.544706505194483 -84.687877212521684 -217.894423882831092
-13.882239931702209 -71.272499631970078 -225.536197974153652
74.837759749060211 -66.073815091045233 -228.639464491612245
73.273542070501250 -65.778557809336334 -232.470599698989361
5.335388022227587 -67.725385718118034 -226.682813162597512
-28.055058413785545 -73.167909779214824 -232.572679349973612
-17.577815172605426 -74.936754728417810 -239.371377041542360
7.449022520062965 -74.147286073426898 -246.308175229254687
-54.002104298393213 -73.663777579136564 -240.717146448904884
-34.500816866731476 -75.221100025946086 -240.995660311645281
5.935926361048384 -66.444731193030606 -235.518653155843907
-68.469933665356393 -84.723754644544144 -235.485151034077745
-40.395511413963654 -72.583659584782211 -240.965921268252714
-42.313346259624872 -69.768408916110985 -237.980407431946759
-153.738867498719003 -77.975594337534631 -239.415809001962771
-50.577399307786159 -76.036734831759716 -242.040248374966325
-55.647632024680611 -76.454397782903001 -243.391801633205034
-76.095431329819178 -78.817588567193482 -238.170626451809738
-6.157051157646855 -73.785040513933637 -249.948216794733526
-79.482744612928684 -76.888594628228546 -246.146868579945590
-154.620361940743180 -86.406350561180304 -252.000846944805517
-143.165913331176000 -85.644198990914362 -248.464964084043402
-132.373406071646571 -79.998954097705095 -249.088281565023465
-148.479063778712856 -78.902988729534741 -252.749082458759574
18.628539133514082 -69.289016036387494 -252.999496043334489
-9.762303631336025 -72.173398737916656 -263.488776444964515
-145.635448175690243 -81.799141464718332 -260.871159620099718
-152.847611292744347 -82.582530831795097 -269.404716381336641
-149.815096728046569 -81.083723452126137 -279.375475762779786
-53.478784786569783 -68.025105752161934 -281.369336096316204
-37.480556892541166 -69.706524915049712 -281.615406338871026
-31.315867287780016 -69.667627657779676 -280.406559476379982
-17.510223029665973 -78.320420315940567 -282.233209909045968
-73.091384908537464 -75.817718962350966 -283.490249889787947
-86.156393939803024 -70.550275591419123 -289.984106289682643
-6.787689420719424 -79.645420356703127 -284.673375049163440
5.720587317767031 -73.172570132553346 -284.477564032277485
-140.212501053410790 -87.301277224184062 -276.400523229106966
-84.978745029120944 -73.671606800815340 -280.377327828879970
-147.121551150077210 -82.069980422743612 -283.774762805628598
-96.105117163216221 -82.983195818165569 -283.518913459520377
-81.665164302525312 -75.330445660162340 -277.944779903384131
-81.012443068095621 -71.740282685981001 -289.654515370527577
-62.261287029249623 -69.002949039287174 -284.728867814723117
-31.664782900878656 -64.497689264605086 -289.329970242756929
-7.562263473427485 -67.463633452497760 -292.941271740473383
-154.751697388566498 -73.850822412352102 -283.228434346959261
-156.938174018034744 -81.806348142269229 -293.604189745425742
-144.385020006995916 -85.934107822780817 -291.472258009677716
-157.348947022839184 -81.665548309902164 -300.058776763340916
-42.223313290045702 -75.888491194538616 -46.753908205147795
-35.102359600461178 -75.494404011295387 -47.967978882186991
-34.626449973061277 -77.967775308333515 -56.870411839618789
-63.027281511351269 -79.356765176479684 -49.813139110906640
-17.741101740285572 -75.668185812955969 -59.822756188808192
-27.218970334682915 -79.141543180427433 -70.861042006610518
81.089413413137081 -61.672575747560259 -76.179630139820659
85.745935458806457 -64.989008230190024 -84.444598428457908
78.957309329826856 -62.029190230618681 -90.293522248555860
103.299664098149236 -62.383370808896046 -94.645620812732574
73.655809578481751 -72.724071156713151 -96.204571715332264
55.034131887454350 -60.062536072848829 -99.034705432208114
56.258654072596755 -73.953045599411666 -94.865647784958270
-60.460911024913578 -74.283373222070125 -97.995352966719196
-68.105991666488706 -73.791607835461519 -100.652425461850385
50.028105596818520 -68.118172774560108 -103.490387107842082
-74.531438976138674 -80.315735590495194 -102.212501098771241
-85.249378713731858 -83.351035253856509 -103.013925596261174
61.989200946163564 -74.364173203590525 -104.639898956797083
118.892855715311697 -66.058657743731672 -115.566073041103408
36.704249554325571 -79.523855769232270 -119.199969639540967
53.186627262193682 -66.046624593330776 -118.793946574439872
49.229265701564941 -71.627288221511506 -123.243680798987100
36.413087802825963 -69.253420165774799 -127.210263398478844
115.657064431004898 -69.107673995067344 -119.751195983826989
42.813705077713081 -74.921134306824143 -123.983376371395082
30.404084063702079 -65.993706181520039 -134.957529435716538
-44.133117560186896 -81.670895114203375 -134.477445785778002
-71.572936589308853 -77.742583464613020 -139.988333755069618
-45.135167714669997 -79.869518617494762 -130.859524735413913
-60.873616187470951 -74.345400768533210 -138.284635953358560
-42.565443757135803 -73.240681328127238 -136.197933105587566
108.581411597478876 -52.034101211246224 -153.457217622283764
-65.973638232885094 -70.795449170905584 -145.446485750566296
26.604406390263350 -65.433509294181277 -154.567825666121649
37.821182875918744 -68.754260356672731 -148.422732047326519
115.774928786350301 -55.613814364906901 -158.519314584845233
11.313282212012858 -69.531369818277128 -160.522361964153816
36.130249027776046 -68.339303006312718 -157.192797859216824
-58.198201514684506 -74.341874111350464 -150.180368719541860
-48.738489703672990 -73.845643159468096 -160.962900638259043
12.920151161284505 -72.555978024258479 -163.782266284899407
-60.087830517775323 -78.127585760703369 -161.605438725232034
-60.036155418979227 -72.744312328027689 -151.600889015200437
106.057128659966651 -57.808844658416263 -170.589074425272855
-6.204415109011691 -68.586722484317463 -168.687909740154879
-60.424041859032137 -80.264090125992098 -164.986682809150835
-20.394872687377315 -76.710198599629322 -163.700736620574986
-50.206244561196321 -80.009115656041502 -166.396137531434249
33.082442007390526 -65.219016243395288 -168.673394029009330
111.405642543481378 -64.802218374098999 -171.785047851181702
107.337625773537638 -58.934027440528752 -187.304439053404877
112.188260294536548 -58.962366577482527 -198.362071661119074
112.761935426652627 -60.001641221522689 -182.404242887641033
-41.618700211086683 -73.605546692740603 -182.957539670214175
-44.927674620026814 -66.017961658448002 -175.086154651849341
29.456161704490377 -70.094157136334289 -173.821997341342779
-51.705079126759493 -78.363808991938782 -186.415623530200008
-19.246695486927607 -78.030136316033420 -179.708765435322221
-53.414707478801382 -69.653187992884554 -181.819654746009576
-152.250190788959884 -82.807245574887617 -183.961557253618196
100.228641755106025 -62.464068437495200 -199.096319088393727
-43.925019176390272 -71.748894319947382 -188.583506301269438
-15.185299801643033 -79.125696337355478 -194.347459831274563
-140.061815988959410 -89.349032823338419 -177.442056172268309
-44.087872545420772 -79.477979468682150 -194.128886720391620
107.412817706617801 -57.637133694976754 -207.932676916591078
109.502447217992227 -59.139682758714812 -188.830151679345505
-41.545526337634421 -76.719925366390811 -186.480883862932217
-25.875013050857866 -76.391455035566622 -195.557487175105706
-146.712970167097723 -95.192287509936634 -192.422149316318894
-26.539990387741440 -71.411350091401374 -193.545287834253543
-153.015449503034176 -83.090178964283979 -185.744388549419881
-146.954546216774645 -89.501044317116396 -196.680861729969308
-143.077481959528455 -83.015254604465852 -190.876138814934109
-37.037518206941705 -78.909276268001008 -196.747376956624805
101.234545150959804 -60.365903844701819 -194.965018910628089
-41.291215928115754 -70.527203453680627 -192.972378469859450
-148.972297340715954 -91.626806339255694 -197.169138198034346
-38.099222293279503 -72.338086902763891 -204.291078860489137
-16.121978865107735 -82.112595087216988 -206.354379059873082
101.032212336992387 -66.842511330245785 -211.357155189054822
89.859583616676815 -59.351643776650860 -216.897281643541817
-36.377211881999152 -72.879554969700322 -214.892615873047703
-85.805800563394428 -78.061114802923868 -199.036954718478540
-76.633808667544031 -78.577731277142121 -207.878541780548829
-17.376147654220198 -78.032467382814659 -211.884433813463318
-145.513695482827359 -80.528296427137676 -201.362681310338388
85.895672908051608 -68.296920029679981 -213.289211007959437
90.648084077075353 -70.673680011429525 -215.692856401931806
90.738088676614339 -63.565634490977502 -223.273829396891756
-103.360761936377713 -71.729304066168183 -213.217034664672184
-141.244173680382318 -80.631757685584972 -208.847474750849784
-16.905391505267019 -77.203389946810844 -218.014395943678949
74.616579776450166 -64.885329902915828 -226.273255616519407
-152.949096583916514 -83.442426149401342 -206.730414225865246
-28.217562125658191 -73.050143473787131 -215.260221118860386
-138.385476705488003 -87.836946623355033 -219.527685364506794
-15.252970458905729 -73.469447451612709 -224.273642398567375
13.669419707133947 -65.677659341863290 -223.525127451150723
17.857040831295127 -69.082575569884213 -236.385060875779516
-154.492077493552671 -84.038973425118144 -220.469167365444235
-124.103010388316108 -79.709197218597737 -216.703193433604127
-4.439221407747596 -67.224513767931157 -231.604137885233939
-7.063488247571293 -65.519809402507576 -235.074476343849710
68.602477294052463 -58.129818922963295 -236.194577546857261
70.078988820106360 -63.011522158278794 -232.383192172759493
-2.989219310090817 -70.476990619090401 -239.695293293532927
13.360554538936295 -74.786288562897667 -233.424184069965293
-29.130515512699901 -65.461708822603299 -233.854392613343862
-43.860788155200332 -73.171792936726803 -235.085172819496734
-38.303847283736481 -70.189549361263303 -237.153718861569246
-36.178590070537062 -73.500754120752504 -238.536578201821953
-16.024772295425670 -67.610033980245873 -240.612232656803883
-55.329280410532768 -71.348691658278057 -240.272792525193211
-6.694594655262868 -68.697839816227130 -244.800916358457755
-75.566681464420128 -72.370797737738769 -242.928208386367771
19.922259837078592 -72.043581469471334 -247.652896184920962
-148.675014727848719 -81.604309684564370 -230.385080764198278
-77.169413265485218 -77.206681800712246 -245.004531403138856
16.350357467160340 -67.648356810693798 -242.956448458684804
-160.123536933102088 -84.251573285162749 -241.365222119991813
16.355184642278097 -68.707158212473914 -249.805110419114726
-81.528436867122480 -73.615599239227421 -241.089185430894474
-70.010088888238755 -74.752354957215559 -244.898530967147508
21.616294840213307 -71.938021050985043 -252.557021915925304
-93.951236121171121 -72.736612435172901 -248.097968522149472
-124.899081574509779 -74.831680465332511 -248.092077150657474
-137.215875182822998 -78.155284892318633 -243.536764623968509
-132.859145118206868 -82.222260139731347 -245.633940657332914
-144.528011531033343 -86.325576939127970 -249.922810350071643
-143.211314338852873 -89.724673756978092 -250.182952950558956
-138.387889091556133 -74.746412446756125 -249.579025655143198
-161.206336413250369 -78.906880874640876 -255.421987003228935
-129.700804313678589 -74.016027894756562 -258.007129013449969
-142.971394163995683 -88.838816076598292 -254.744877608472507
-162.771090550215405 -82.060012150298363 -247.507293585232333
-158.015896933709342 -80.081200729425049 -248.752464207560422
-162.254081222173852 -80.432358310613850 -259.591339013507593
-157.934468371858344 -84.213322099978186 -256.817963148032902
14.762747248600530 -67.781552788377311 -276.144823789944780
-170.742097919529925 -83.698615807719079 -255.875360740010024
-150.579522611253452 -78.984950135523206 -264.523916602893848
-17.285756731757573 -77.165531159460855 -266.670353041474073
-164.222510085280788 -77.322514429555611 -259.066381808705216
7.411835011503268 -70.824028785139774 -280.224632217208807
-154.550849015914025 -82.963702150267977 -273.626385389886707
-165.523547729293568 -88.683862971011564 -278.715323465019367
-160.544247141259007 -80.171612159088710 -268.879573826150875
-168.795732553488961 -82.796605064709595 -276.665396041231816
-6.437832940461433 -75.122940048172779 -288.825924616706061
8.318678264981703 -69.012541337838002 -279.483999273585141
-98.909612674770756 -81.597839462044774 -275.800686974906910
-162.684979849339413 -87.241148243340149 -272.254630390890156
-152.459938748017692 -80.119690956276955 -275.399688394853911
-112.261719554368028 -76.187732632445034 -283.878832979480649
-155.326809082041223 -85.530814034873714 -268.405131226778451
-160.436977500163636 -79.366912002675065 -284.679763528295382
-75.191226154577777 -76.265875594747158 -288.353945818759769
-164.992121245618478 -79.137440906053016 -281.730754625339273
-125.280192592490152 -81.639590575747931 -288.032342641794514
-42.159006963060641 -71.791895780669108 -282.022488453692006
-162.972013342685727 -86.868459985289277 -279.642702201809243
-144.319879974625252 -78.134889281191178 -277.657561268037284
-18.636845023934846 -68.209302849856883 -289.461444300454900
-133.070766975044364 -78.805831602895879 -283.027786106385122
-5.727659221819742 -64.250862891732979 -286.191701335413711
16.323648351620928 -60.098202039850136 -285.171387499558307
-139.054654274679223 -79.207703356327499 -281.926374099188536
-152.057296659266342 -76.604869281445133 -283.190188821585934
-164.784656599743641 -78.875513424832022 -301.349802260300066
-63.806354567158060 -81.809875875674692 -43.763818953708771
-10.090344499212044 -75.612834084345977 -55.827541290415972
-10.095633704675166 -70.364928614995932 -63.004992911820374
81.733861245020790 -65.795536902833518 -76.387338964970979
101.568976354647788 -66.011679877924990 -77.669246807238181
-33.938580658262246 -70.618420347003394 -69.394035031896721
81.267483880188365 -65.272985411836160 -86.717621223008678
90.920501749421703 -64.410865091940039 -89.428199675661602
76.210642708007825 -66.852795367378945 -89.142088627726366
77.131492175333705 -63.524041897506649 -86.187766078137798
-36.041901703039862 -77.843784634784754 -82.336230593805084
-91.510736164708874 -77.676955862448040 -81.495913748201559
60.361645844477287 -65.888529735726493 -89.630223810965418
46.644791982850272 -68.554969937059440 -99.450661307248538
91.544144431176264 -66.285662587344461 -104.150565506243055
-81.720505179930967 -78.492010680335227 -95.298563492672713
83.732622844571381 -69.943632134236069 -95.306965538168441
77.964825391813662 -68.135108818056764 -103.155186310052017
103.051860700102281 -69.311799045389577 -102.736238625038339
85.693902939157510 -62.051484849733839 -97.151280157200006
93.544991481158746 -64.989988407478464 -103.841932269564694
-68.888168871299001 -82.856007441526373 -95.898723167718629
44.353885083570404 -69.380713043229022 -112.276711177860051
115.108527719487796 -62.005344862105801 -111.773991025087838
117.360996375268343 -63.188072160426373 -111.126066508209902
51.870935412970880 -69.531613571418433 -118.761712375521796
108.827700787816354 -62.235423229029138 -127.460085956297462
119.271340749489156 -56.605816342272675 -141.564197542586101
-39.449029841262295 -74.664828369423631 -132.781481375702782
33.405038038100180 -72.510510213880181 -131.170447590627560
41.943621827889537 -67.824603513212821 -133.008471708936014
25.625988489349577 -65.266155391988633 -137.878729373116187
121.869842294178511 -60.759346784463261 -142.773633402142991
109.503061019333074 -62.548278283242354 -136.484029027922787
-68.455157332726770 -82.590890179252668 -134.795669760790730
-37.874574857166103 -72.601445928083422 -143.156063418602429
-68.108674589585718 -76.160635637217382 -140.192050340000463
13.076737693211527 -67.436671300032202 -153.829722283012217
116.815836018965371 -60.228397763146546 -157.574448625172806
-50.502697397208841 -72.879066660412661 -142.963193619335215
-62.047336672755073 -74.719389351214602 -145.546896480089060
-36.890455186765131 -78.632363281789708 -150.219380655035309
38.153026609471937 -65.714640770767545 -150.553999763647170
110.487353715644502 -62.915837853436500 -154.008879681800977
116.398602133269350 -65.639675429192891 -161.983233072170123
-63.601876622909167 -75.770260682186915 -140.949042367070490
-60.908299534375196 -78.061950109987833 -157.685326508850551
25.815641315011515 -73.979106852751343 -174.129295409051281
-59.153252105144325 -73.558477646596856 -154.789069206224809
-36.032338106436548 -72.557943765734038 -155.559832094736151
1.883722446355712 -68.507331347520406 -159.508426614737971
114.143834642373974 -60.495901366542341 -168.259046528456423
9.172750575849250 -70.572876066044302 -166.317314152909148
-31.139640169682771 -73.531744480251348 -164.209799079606739
4.223526839370663 -71.389539119357693 -165.086155302802041
112.352812636391889 -58.807351677016030 -172.394717393274448
-39.434014811355460 -66.932689631733595 -165.656372064667238
35.029247991617815 -62.624959282308780 -161.847115434613841
117.139542111691668 -57.475545034020456 -175.230294202019110
-57.925419946405121 -70.518520266168153 -171.670921869118587
-24.168536882755653 -71.415721234564387 -176.172063561075646
99.582639950334141 -52.657367609946391 -178.540130614486173
28.465899024032346 -66.180262334823695 -171.582130648905803
114.545196935355165 -62.354103105208523 -179.759855047561132
-38.036856293612253 -77.067530374778514 -176.385112920460926
109.097283594848562 -56.429632781037881 -184.331202045906110
-55.984345529405140 -76.359589209815610 -176.792319416388949
-25.201959909023905 -75.885615695267475 -176.974949453145030
-133.877913387256740 -80.069788142744784 -178.852192992944509
-57.831409215926179 -74.897308538120512 -177.513925498668357
-144.949632932667072 -82.218508161431103 -174.341552598692829
-29.350552736694176 -72.110722024415523 -182.816761642460136
24.031802873105406 -66.221361358537749 -183.739225407656050
105.943873664653495 -58.496710508042000 -190.269364472190517
-31.022651910117411 -70.739664964609858 -185.184191395235416
9.243408261726607 -64.805317910422914 -186.049990198703568
20.631847402628047 -67.877899698508728 -200.912343540882631
-140.891222179157467 -87.260369091927984 -178.195290581452269
102.283855865582552 -56.417091508790207 -200.823464154279662
-12.369446399718647 -71.733701708652674 -191.314935480929421
96.936887743703579 -53.920034980080999 -193.681023673209808
12.829090206717275 -60.564947210082721 -182.390517515550471
-134.166432529473042 -81.021332764225079 -187.999395537688343
-139.548275910413281 -88.140925360754835 -194.262971250628254
95.363949257598378 -59.034825060949032 -196.164510805053311
-14.479872006592906 -69.799584899223504 -197.463194500603464
-15.399132329991673 -70.084266658760242 -195.238516968645314
11.904292426421229 -68.497345064371487 -202.449027702367317
-145.290877971036309 -76.492428477596476 -194.068771645570024
-142.723663281715034 -84.170259516788647 -198.689467160778548
102.064212271308804 -60.045020260738184 -199.845310015837356
-78.028717698356928 -74.054826913201026 -200.911997969248546
-35.639323796635630 -73.325218804670442 -200.161607201167755
14.359514572121409 -67.413440164808719 -210.165129349008197
-22.380009330079986 -76.189230541094261 -212.744453535601878
-77.096258453673840 -80.025892192772673 -205.212873433069774
91.586371692982539 -59.639302356349560 -214.266775339181720
-83.541888821420144 -77.292412613040128 -208.937174665614378
-151.195304351788195 -87.996672801431998 -208.376128489418278
-79.834876477548505 -79.026401341220733 -211.170658893220775
-20.179682606076192 -69.634014659162403 -209.396457736564855
-25.014076682517562 -67.568763260289955 -212.605168185766189
21.340393320234753 -67.896472511079764 -210.488231888540469
-6.293649735973865 -74.049472313508488 -216.072505580811736
-90.207344449261626 -78.292896792255490 -213.358062676294850
87.081865736306383 -62.140603012425856 -213.978870434262234
-100.338005953998220 -79.650995707820087 -207.934839292982957
-153.401281438572568 -84.778945419023870 -210.018110651041638
-22.026477985273353 -67.590581006423264 -222.441406555825552
17.350877197374466 -68.446673420794241 -214.882712500919155
-93.588671092064402 -74.176799714943272 -221.719014354263379
3.556895896222180 -70.900035935034978 -217.668819322436946
-25.357112030832425 -77.507353050096796 -208.547853085388965
81.132106069546396 -60.061872865487686 -228.474510847535811
-147.545041657955096 -89.742066436871085 -216.324981965718621
1.522591726120702 -64.903842726800676 -221.932400668268940
-9.582348760969801 -66.756958079695195 -223.660541191669267
20.556364980682623 -69.651218561854208 -217.760964693811843
77.568901286677146 -63.669965575855414 -223.288412236467735
-8.769396620094156 -60.611317927556243 -227.456614213597817
-131.895929051471597 -76.894832119008072 -211.235372922383334
-17.207771871998752 -72.273221175545245 -225.041127612747118
14.403968419919856 -68.542847133152463 -233.352405250467797
-121.199242290127785 -83.828279533534030 -212.732717833587543
-151.916436106082642 -82.496651429532093 -222.329084149521321
-141.262154162101041 -81.291472479713605 -219.703410349889907
-136.258860423258113 -74.418005541005826 -217.193848881065293
-19.395252230683830 -76.742067485007340 -222.851202028310155
69.504594071497024 -67.893866861449197 -229.300129994691844
-146.396919529499627 -82.121660269075591 -222.178068226936091
71.199733958680952 -60.465886970750248 -231.561829783217263
-20.762535381356031 -63.521757536536825 -228.600481672850776
-139.566821702759967 -87.768681252236888 -213.272483423856698
77.371467744124317 -56.840883211079898 -232.331681315284385
11.564400910045222 -65.634687030395895 -234.141856161523123
-146.598129837663208 -77.846118368413443 -216.105135526072587
-152.836471869083226 -86.108136818249562 -219.249477455410471
21.190786579013896 -70.860500493380783 -234.140313879602701
-6.181292757134614 -69.037346946451677 -224.920814114147106
-33.430375726722936 -70.779875924545948 -231.777007080776201
-3.741198242176168 -69.821846398108846 -242.469361062530311
-164.931893578473392 -83.370487136355550 -227.822962636606889
8.129560008069198 -64.909307389310968 -245.819443985216935
-164.280275158930777 -87.433388877750986 -220.547724378582501
-15.724160123238413 -71.825621586598402 -238.250699230199558
56.286217003975040 -64.014122940587242 -241.370255448847672
-8.712890441183703 -67.965012645141840 -232.657757080436511
-24.189428065369256 -69.688735648856763 -238.307337339619210
-24.749809119184093 -68.803878456734139 -235.665095435371740
-16.578814619331638 -76.105469808964102 -242.179425250086808
-143.675463383670007 -81.573122571401868 -228.198014704965232
3.637232073620655 -69.785798393511087 -248.095012735327998
61.297398576201843 -62.015846340267956 -237.553310353784497
10.080578023162825 -64.127628783130717 -247.235317403449585
-162.610919785114874 -89.501911210923851 -225.606677024575930
-47.382903173441555 -75.564915793373004 -241.050076201258150
-0.979387800153866 -70.833907279342057 -246.517221433769180
16.561008349061922 -60.046475764083581 -245.795763182815335
-60.095897074059089 -68.974602776625460 -241.735546904957744
-8.442744290088648 -60.935169015483112 -243.550018661276852
18.243484595561650 -64.998070904083079 -245.515072331330543
-171.782719676477541 -77.590064422700507 -229.569085373429999
-73.345487655329435 -79.654500516585358 -249.682668130663615
-49.728841321965298 -70.563685120941955 -241.622684192734880
-75.514781057578148 -75.818338445643889 -240.560708186462819
-157.072769142531882 -87.727637010603843 -239.259853880080243
-147.735035609899313 -82.944110251560204 -243.059591591510639
-62.393331834880705 -73.601728111811411 -244.476588070047910
-78.117569977731875 -76.492200785403213 -250.009611957197819
-153.215263971514673 -84.011577934085437 -238.741122913037202
-156.417967751968746 -76.995580626217688 -238.442659854472907
-79.892622168062616 -68.187242175333054 -244.946836260500845
-93.486309122686436 -73.967837587999199 -247.955605726728379
-171.364307251437879 -84.472883748807831 -238.194126125361095
-158.607873358543316 -84.984805144433437 -252.712504435908158
-138.320855922004910 -85.795080884995613 -249.221955110418719
-84.999248267030765 -77.367022387274062 -242.905744826004991
-167.133412223284239 -88.288828095683328 -241.541608367871561
-136.226154808012012 -85.066812064985911 -250.369191827357099
-83.555173322334156 -71.787366285041998 -247.072723657347410
-101.815828358045309 -74.264350207943238 -252.190507287599303
-152.148063977210512 -75.487886831389190 -245.866612893826698
-99.335213910846761 -79.670723677070256 -249.862330923176330
-153.616567613631162 -81.328463216677008 -243.670114113453735
-99.780891671454071 -77.148017737579508 -247.256426464703679
-164.980911977990786 -83.150484601770742 -244.151999791536923
-164.438786202468947 -81.015029261795434 -238.498296829585968
-133.300102383965054 -79.589796150766361 -246.815675892861918
-155.795037398296984 -78.864211818450286 -251.611907625548554
-116.739631843081185 -74.089832773996662 -252.338098071166144
-22.009671788507262 -67.012774370065301 -262.206407954146641
-143.253139868682268 -80.042684329631484 -249.637745412768197
-123.856627496311063 -78.485544507221007 -245.494535129041139
-156.829982925093105 -80.985900662635260 -244.267046799245122
17.301386280368753 -67.051847523197694 -271.126259379667601
-148.281600831718833 -71.391472989275542 -267.129707099904920
-169.536237309394608 -79.416713811845312 -267.305874185842413
-15.088156641745741 -66.256466053084438 -271.813429061302543
-153.118593787699780 -79.709029361267156 -266.807990113784626
-16.987240030818441 -72.904159675059219 -281.439050244362875
8.829123359437105 -68.385770698121377 -284.297408447337602
-142.919035954693697 -82.923983495208162 -281.698515526178539
-76.423559573895858 -74.163076938090740 -288.465545901174664
-40.396271034787326 -68.841024501934086 -281.534285504039872
-124.970416499957025 -72.065546818058323 -277.986506708888783
-105.370475948797520 -76.836815239105505 -283.356495602482198
-91.332356759335937 -72.245285110683710 -280.744802208426734
-55.403483912968206 -68.669758085190168 -285.310223865867783
-119.534706519976822 -72.184879517461113 -276.149892011585962
-109.110007802762738 -75.015238924299865 -280.599444331960342
-44.591527214301102 -74.822404908902456 -287.159447519826131
-119.310833957265515 -76.929526799013416 -281.396832813000231
-129.390955341929896 -72.961540715722720 -285.066094901568647
-152.201503101148546 -81.402945971715539 -287.719169597712266
1.792964139597963 -59.450183174365378 -296.474287896881208
6.330084005085112 -61.951246716575213 -292.896385546590295
-160.506032315720034 -83.880130237706226 -282.684333750472604
-163.003786898492422 -73.666481036850371 -293.458452763181413
-151.914792879188525 -82.902560868633486 -297.015461077373573
-155.604327962919143 -72.720190161103446 -299.734234607293558
-155.825371520435993 -76.726062969069673 -297.279224937985759
41.572671447042843 -74.331283248899311 -18.496639437813187
30.079047927789638 -71.311080448411630 -14.011347176522243
32.787894683749087 -69.149746114908510 -11.761640844368713
37.786496030110570 -68.840468189518617 -41.745066109564405
-46.017403031816734 -78.356081007217540 -43.921143391024984
-53.421461564543769 -73.598376979116907 -39.117958297038648
-32.793502184729370 -77.229952745308466 -48.069294715516584
-67.587381990722804 -75.996709850420757 -59.680863280047241
91.439780004346474 -60.170526345188691 -77.601990687778653
-12.819831887553590 -71.768997004522078 -67.963478645247335
97.699064571374990 -68.629431728511406 -73.880357621381449
110.552902154103151 -60.661268998005539 -84.310624684854929
-82.163198085731523 -69.849094743441412 -70.392522298035942
74.734037753910599 -67.976259222823060 -82.965618081027998
-31.967614428915432 -72.764127733919793 -85.670983357565007
104.307547479857192 -62.842602095358401 -89.150968893958407
-43.158492422545073 -75.763046421495972 -90.389552782289229
56.825259837153062 -62.328614978835560 -101.587451486005762
86.349688344869179 -64.539623815738722 -96.196053324301005
63.010089380966463 -66.828903046148866 -98.090506348144459
63.584139282388236 -67.298039929995014 -95.326932144863349
74.454105459508568 -65.779822064157599 -98.555787592592509
55.268289048416413 -62.488263611842129 -111.290306816739019
113.152515214650180 -63.086341076818400 -100.557372048978550
110.261272269863980 -60.587693054238017 -108.791205589327888
89.059343205241134 -59.373457294012866 -104.870868654308055
97.624991550135746 -65.675755444264041 -98.308774567484107
105.870131012958382 -64.356397467738987 -100.909153096504724
111.530233851746488 -64.888246093162095 -100.392697625601272
49.139027627984078 -67.998099860256175 -101.133179158762772
123.463148797572956 -55.248574367688278 -123.270690931700557
119.192005358088267 -61.221217813261205 -117.200025894727332
34.285781597555683 -73.881419077243834 -118.749644905712927
54.924610324912017 -71.467206198121843 -120.354160209569983
114.652088158970315 -65.919805504207218 -128.991587648178324
44.442066467709616 -69.729414181101149 -120.825286250744256
114.572953895956346 -58.916298145114567 -136.710776411619690
113.774317099700028 -61.637447660638472 -120.918298716212547
25.015185499122651 -72.883622487641730 -139.947553642257787
-48.393755714166581 -76.351277569169412 -133.270946654845886
-38.329616230132906 -72.471891319867964 -131.638814362889462
115.236964020650447 -54.114015749219192 -140.772860075758899
-66.098863967948603 -71.920021077535594 -142.219566064927449
-66.205871315737994 -82.248471875443002 -133.017349845291534
-55.620584756064282 -77.440623098152486 -132.644854587444826
34.017037287330702 -68.408584760254271 -142.658720452493810
117.186097152694202 -56.002114753208431 -148.990512993923090
-70.462209693602489 -70.594569704390892 -141.447479575960955
-41.644255180717813 -72.717453895057062 -137.987384197745712
35.406621789918375 -70.166717184830731 -149.491390486526399
-56.080738030154443 -76.919187830018259 -138.132067025054852
119.022588851638830 -59.165520634930630 -151.453901820799388
115.112409416342899 -56.773503238965105 -163.684770448100551
120.650431623119516 -58.755206969572541 -149.324487744472350
-33.549950306567958 -78.380521785042333 -149.692019063927205
-66.388820812323161 -81.151383165444003 -157.325949014593334
-67.865525698767811 -75.063653261630009 -149.410347419677322
37.018421726266929 -68.314830712712990 -150.777398906583954
-2.046912431119971 -76.660473398642438 -160.405830256248066
114.011698178287389 -57.454614067095250 -165.162935273919516
116.360317750175113 -60.031066421791806 -162.212223657061770
112.189623819897150 -54.640896013691375 -158.663618805542626
-62.572188241858420 -74.573086777868212 -158.647601134555657
-41.993311280995137 -73.018280422004352 -158.445007964844507
-0.119924431047224 -67.199810370466935 -159.386420417505235
-24.204814678256120 -69.707780017627044 -166.089737024107393
110.033971874815677 -54.745214399510431 -171.174216749841094
-31.461551643208061 -71.811009066372009 -155.111894245571989
108.776734489458477 -60.456585862689636 -180.032368653143351
-39.410632064676641 -73.049043545303277 -173.232897637746817
113.174739651413233 -55.050670997078569 -171.075041999306649
-141.642822710051718 -82.542492670506874 -173.740628988831560
-28.033997584701659 -70.943099393926786 -167.983211467099750
-21.875851186507312 -69.636619834066082 -192.002921779152160
27.027125284956718 -71.745702760147779 -173.193951218321502
16.766644927953035 -72.901446489406439 -181.017062245119064
28.073865082390036 -69.357961442023992 -179.034891104004515
105.127089240837762 -55.034489844187732 -182.608783485748603
-151.008591769583063 -78.441011956593101 -168.010893492692446
-15.129975122353038 -75.654500386236407 -183.037854394161542
107.776316341079308 -60.936551226117317 -186.915782704615566
105.781608846917095 -63.005633921825449 -193.517830410807505
106.528697942105367 -62.379526147413927 -184.107393202634569
92.954352504343603 -59.787239501634787 -199.812510799119678
-149.613455408243937 -81.983331724575649 -183.699125151069921
104.603239881258389 -55.882270165081223 -203.537554886873437
-19.670213455097127 -65.776577073444827 -190.004761267255759
98.532438352195982 -57.403981232778705 -201.168524400400145
-123.814802451113906 -77.985987508037965 -189.942828249094276
-29.870403766657596 -70.578141826436948 -189.671058650796738
-138.413050571386179 -86.557839547950223 -192.815665471591046
97.732832794553531 -53.766302748911656 -201.840242691571973
12.412340666337645 -69.206913474968758 -198.320364914689293
27.637898589806859 -63.179235709745555 -195.920799407853906
-142.511869341684758 -74.599050669463651 -194.825363730025344
-133.586344969086269 -69.444825801929852 -188.323592776706704
-12.184202296671494 -73.362437678157278 -206.916904335295783
-121.566321233380052 -84.522538169796604 -186.796629980292693
-134.845083146275158 -90.181854929000309 -196.841764624598454
11.389477849158439 -65.483050074711855 -193.359940384514971
-20.834457794290174 -67.026302475544796 -197.264008004886563
21.146059335110500 -61.855412785180391 -202.203306672281229
6.674115191207314 -71.088526340719866 -209.936898357141246
90.284720860048253 -57.074186598613721 -198.245664486650270
-22.264206547971831 -67.257469187542398 -211.567725661786767
96.040533977429931 -61.969068422918525 -210.057597691986672
93.311381931248775 -58.893230381924084 -206.048866556903761
-144.139121781521339 -81.314601252777706 -206.694419602068308
98.879252109058342 -57.897708916455898 -213.235614845947623
4.541653124835356 -67.032544740115952 -210.610459885788458
8.750822144895533 -71.536736013129882 -204.748638045038462
-27.990117117731167 -71.211075614665077 -206.610208948525241
-96.289604251166111 -77.984192010842094 -209.321535824741346
-28.236476366251736 -68.583266282527816 -208.004097988899986
90.896493361797496 -66.953506689976450 -213.445362732931358
82.543258443183163 -57.845286294038317 -223.404462671142966
-31.811380822672483 -65.263969981665909 -207.325049358257502
-81.509780860826737 -71.003295751301494 -211.187033157881984
-0.009349526033780 -72.752028242291033 -214.802374785672725
91.979208024998030 -58.791328503831465 -222.332960080928160
-154.086914661081750 -79.171598458071912 -214.651194878293751
-167.750240017377791 -81.033374823172053 -201.991085951579009
-158.751637518434478 -82.383407470922151 -210.845106461470976
-23.090673121569765 -72.662621757026926 -227.654271019862222
-153.515789374893671 -82.201993477782040 -209.638464889792544
-3.420999477857983 -68.636768960187609 -224.242017921523598
6.685589198189323 -65.903125351675484 -223.237877480497730
-162.156247512142670 -83.815473111146659 -208.133014083488746
-158.284923966106021 -75.625217596712801 -217.130447948913343
80.606174468390932 -61.813689989485866 -233.734437383994191
-1.501517248600884 -70.144581637613456 -224.593048190773061
-147.560809094087801 -84.194280526465761 -217.987032066079621
-134.176215525218765 -80.446802612035654 -213.873582437094115
