# This PCD file was generated using the MATLAB® pcwrite function
# from Computer Vision Toolbox®.
# .PCD v.7 - Point Cloud Data file format
VERSION .7
FIELDS x y z
SIZE 8 8 8
TYPE F F F
COUNT 1 1 1
WIDTH 783
HEIGHT 1
VIEWPOINT 0 0 0 1 0 0 0
POINTS 783
DATA ascii
-76.248545580706974 -59.370882340141122 -144.051633259809194
11.365709862426263 -65.977544225350684 -147.838480712076290
-72.705237460894679 -58.599567266815519 -146.849561445745081
-50.091842653588067 -62.081526638253251 -154.082645245355479
-95.960524186808286 -58.076104085082804 -138.159181703899065
29.351261788761711 -72.581534605742561 -147.239711744881419
-47.750565651332842 -57.186380105410919 -154.231102649433922
-40.612675787551474 -68.296692261392323 -160.164242197307203
24.718124961143499 -64.034197623914991 -162.082109310255760
27.111145244974562 -67.732785985929866 -168.746125653853710
26.673744158497986 -66.063122315536575 -172.304749729445945
18.086162555372738 -60.655844472398854 -169.541052637396973
19.704909990811199 -63.604636425809659 -169.458469012471085
-148.043290469029870 -55.698143439971922 -174.565786861644341
-112.816624967210458 -63.646823974244768 -177.474624623336638
11.075453563894364 -69.479957684043825 -180.881020644380669
-110.386836581523596 -60.615294377717596 -174.748254853707692
-107.212180462272670 -54.640167369918288 -182.627161991345559
23.969252019072272 -70.289054113816277 -194.771311278532608
-111.946333387230709 -58.429389851001602 -183.618741597710368
-142.815276660345717 -49.224922111214688 -189.803161106028767
11.745945826084654 -61.995909213924961 -200.686252838026661
-133.600197152859266 -55.320754133752871 -187.813778754403359
-140.734051972779156 -54.353714057488503 -197.679601719103999
-139.188164689597045 -59.501775448464564 -193.782414889487029
-161.763878483416534 -50.913807712052716 -196.532681078227569
-119.729807885576449 -58.075228953039527 -203.172682477068406
14.643661223221045 -66.351721330185313 -201.896569813490771
-112.327971771352395 -60.133198497185816 -196.744770653016417
-108.066592704158694 -60.476274340928192 -199.268525532085590
-162.545111531567244 -50.574051949335455 -198.220582255230738
-169.737094091966071 -51.944467140621114 -199.596621140427118
7.577626180707076 -61.010398619841354 -204.465183982312396
-163.707306190974009 -56.052626037574626 -199.691890351786327
14.429854644383099 -64.159340328449801 -204.490345088330514
-19.651876731363600 -65.561380135508301 -208.546215278995703
-120.931887870909122 -55.772945661665709 -205.909888411833492
-169.893543316794563 -57.798645052878037 -201.713999914390541
-128.946431342301338 -55.340221759827905 -200.796471932313409
-11.196956172258112 -65.087718114538035 -205.686045094366193
-146.815309109307520 -58.200471442366251 -201.860243271201171
-154.331168882639361 -61.946576905263136 -203.047944069208768
-20.910577688135636 -54.869968420821671 -216.688805791177117
9.411955476770741 -66.046325309482114 -215.688309602938659
-174.624228024661988 -52.877117951111067 -208.065190442535794
-2.469038950160503 -59.181253213401043 -215.357571692516018
-163.239117948427349 -49.708009920798659 -224.035666937850038
-110.101939676603763 -53.202523322024824 -222.915836302472911
-104.734768248226629 -56.601079568805453 -224.929509146437283
-149.340846684528316 -52.463988874829646 -230.912320538939412
-145.043174665041221 -53.182986330894003 -223.706245873419959
-135.882284640453690 -55.269195752260543 -224.711813243186640
-172.738817646845490 -52.709062172894996 -222.967390097339717
-108.587720625589640 -59.516481617858766 -222.633726289337091
-157.954655931820582 -44.974452050319755 -223.266535163978574
-8.263455392121291 -60.909213674149548 -231.034710496035643
-147.774744056404700 -55.270726193764219 -231.591574762371408
-112.297031864748817 -59.605672828590322 -227.754014367120391
-150.703164174441156 -52.620275165470474 -224.510962672781147
-114.306749120806231 -61.642418778601083 -234.563041446675186
-155.980956422650479 -52.801391845556864 -225.053967570347879
-148.407254973321471 -61.546979315564819 -230.180316312755082
8.042853834189220 -68.918763460954580 -230.304762870774255
11.491407779438440 -65.998724541756189 -233.078697114086481
-163.842122481489383 -48.249504126968390 -232.217655110476926
-124.177219546757328 -55.752572849232529 -240.773339712024438
56.526799086380436 -65.579171720096355 -241.765331426810434
69.851052794864700 -70.077966994957492 -237.276002438538768
-162.497544357083285 -51.323681777668746 -236.377203459653089
59.986705686539260 -61.540800162160110 -234.951966927984699
-4.652117726397605 -58.747828457244474 -240.257959516248292
-1.594334063874627 -62.350729101113217 -242.461252344739080
5.080657823839150 -63.228924403365333 -239.057663791440831
-161.903058775984988 -54.398749957514092 -238.322195320654174
-11.579443409519353 -59.352320963756547 -245.214736964319314
5.100748124041493 -65.674376721978561 -238.277210439542870
59.594387862637191 -73.947781086643161 -248.433683077034601
-13.292331092676243 -63.839234326236237 -250.381811963586216
47.656721535857294 -63.260718215439326 -244.226586769605746
61.413038615602360 -64.803253504349414 -248.817256478076644
58.419043970235784 -69.685961153827151 -248.556434561096438
52.305697757761791 -65.542076788878063 -249.871382554713563
-163.715377545042969 -50.420238087085394 -243.698472639266328
44.296745728303506 -64.655600562565510 -251.228162257284822
45.401235927546679 -69.938775044562192 -255.242600069588519
45.081062581622859 -69.755182731713205 -255.567395603731853
51.778244965003807 -67.438882424420257 -253.186477652166815
-138.631249663592655 -56.102572113296631 -254.860307189781707
-97.114660431000090 -51.943699730663710 -257.446697401635959
-94.012730044261858 -49.709279048072638 -260.407078604793355
16.832245685580666 -65.793440859351179 -259.758670784493972
40.075613496018640 -68.524034591342229 -251.537426502833256
-138.603785773968070 -58.138523713397134 -254.025426597427980
-129.997723439005171 -54.619735664011579 -254.376888336529788
-151.537309007071997 -54.734685693630652 -255.630718435954435
-156.714427809311218 -57.510492802494419 -255.256784155246322
36.726056531442879 -71.440699227322824 -265.189440239323346
-103.723810126392223 -58.433672227594101 -259.713927855343343
22.227159283438450 -71.566237282985199 -269.032115399586530
-156.471868411987828 -52.379775237451476 -261.601373390083154
-109.050234210480610 -55.028837525734140 -260.438393239115840
24.009274085804524 -65.311802900330790 -267.314117120474748
-142.344870427509079 -53.263498318116518 -259.382653625848434
-113.736339591462425 -54.357646608760930 -260.156499812384538
-138.648628731010263 -61.862390091075866 -261.523037286923056
26.886517940457264 -67.327227296863128 -260.146640369985562
-12.045599033183212 -68.718381587618410 -263.491747537081210
-137.349237548453829 -50.026378486519924 -260.517006030679909
-135.856213463393487 -55.965457439137978 -261.532612564991837
-152.822615803632885 -57.548770535399541 -263.043636025496028
-7.886738353735400 -61.228597420159808 -263.706290045945593
-154.113384654971753 -52.596815772521801 -279.863780934994622
-2.240281177222450 -59.916518755794904 -284.417081365233685
-157.539276059915096 -51.544476417803594 -287.621806357911908
-132.236945406157304 -52.863286569118422 -289.911102038485240
-140.492955373579946 -56.251076996793167 -286.237325271441989
-131.763240900949000 -56.222603628276993 -286.605087461407152
-118.928835300193867 -60.817408793342281 -292.704683497146448
-119.049389426688109 -56.176753977408772 -289.677890947750598
-109.565733168967256 -57.830224379302521 -285.968041284950061
-134.356387677670881 -51.094987212406373 -289.088371090283033
-123.821508102431295 -56.669789146407041 -289.477379528827896
-124.909649883465846 -59.578551053892241 -286.007026350055185
-125.276102322609887 -60.282302117132232 -292.107729965896851
-158.332459715536856 -50.928516969252634 -300.228052469930333
-153.204281235368683 -54.131358463990118 -298.114326637112015
-151.248710791261772 -50.075276509252276 -300.134215711031516
-162.310102349601607 -52.583696942187778 -300.693383855823640
-145.151085573737447 -52.862531649001134 -301.147331352934884
-154.869733061412830 -51.474863067884222 -314.516770815178063
-150.702878945967740 -59.292733057037523 -310.570611344302449
-156.538842175577486 -53.128710192000980 -313.236213867974811
-13.639686266097723 -60.779461076284683 -55.329861042779982
-83.961475382647748 -57.118139884784441 -55.972769638865088
77.132579924270630 -68.048821616700238 -65.758794488749174
-11.969728185756050 -62.908947462079112 -68.065775996653826
-13.096150270551828 -67.782957444314775 -73.794698985370204
96.300853029847104 -69.330503450647598 -73.007323884725196
-19.016892086328987 -61.838944274099426 -68.158210896641066
-93.958646259992236 -52.955204462076367 -79.194896183752348
-35.636850272361237 -62.923687935079798 -79.400765559631793
-38.061524529385373 -63.391252465488918 -76.986459062046350
-33.635741195480144 -63.719207666758756 -77.469382683551373
65.234431139125462 -65.370472533941225 -83.522833638635618
45.950644501052572 -70.757106296726747 -93.460953482384213
99.825770502544856 -62.131038516193662 -96.859337605471012
-66.369984629978759 -61.128796334152639 -97.138478273928072
50.526757873589730 -63.610826095488981 -101.000927971858914
105.146150945810945 -63.279517936233077 -100.256521758376849
103.406667544964733 -70.638352143154165 -101.239760382537185
100.837770136020112 -66.425376210818058 -100.105578866879000
105.399790576293995 -66.974287859021203 -108.209413217174642
50.029309700190943 -64.957512059136874 -97.676605308311025
48.524557455983057 -66.170004922819061 -103.832934573947469
-71.284615014490683 -55.916009376262771 -105.086703327030136
53.976700783899503 -64.499012860080839 -105.493158812142710
-65.598701045929218 -66.621053716932039 -105.326940424275008
-85.943528245150347 -59.945291831171559 -103.097555855837683
50.518495845122303 -57.988925821627880 -103.628220893962990
101.667535931224876 -67.028237786273678 -111.273449949187466
41.153590926407340 -68.794975129877784 -115.726003213659311
105.809927570166266 -71.625461557332486 -115.628330955367275
-104.150535401388268 -54.048317140010290 -114.245183775036736
-103.543353682256182 -57.894963879629515 -113.326296592751973
-83.914122767694536 -56.266311900309404 -125.041184934166623
-57.563672403768955 -57.679548980683371 -134.612999810614099
-80.927112793963332 -57.817243121875563 -130.963006397180465
-89.678099038050760 -60.661395326773210 -137.647614484229564
-51.814308739051604 -60.335763484233617 -135.493450867932978
-82.601849632747118 -54.011702756189784 -129.237622999727506
-52.982891426805580 -57.562066843695497 -133.875515468627469
-78.687949802078009 -57.619223150993498 -137.703133999115551
-66.239282042071508 -52.491045738609245 -137.843862929319670
-79.643638987137848 -50.448673805677799 -141.198171930341147
-94.438048815567001 -50.207199646483929 -136.528109375135273
-47.117638841281178 -66.325346100759347 -146.757987336731730
-57.218094301288474 -54.194902761124581 -151.638539507080196
-100.407218876518399 -53.997073639128935 -144.596535454625467
13.611273802263796 -66.861246554785495 -151.982370138068774
15.862453835077279 -67.675228130775068 -158.020751852153921
18.872217081972021 -66.573876184309583 -156.184484211461069
-104.066332691644021 -56.959084006143527 -156.548342824102946
-98.914493636731521 -55.604478967570294 -157.104583316109796
-106.820396751651003 -53.681779760342977 -164.339835435693516
-103.746907628496388 -50.420778880704425 -167.602316374425243
23.236154255555121 -67.611129607900821 -175.771044449078090
19.876024859285614 -61.060555513185363 -169.955517211409443
-145.508259208391252 -48.648760414468384 -168.425662105964648
20.768304709860033 -62.779950527115552 -188.401104075767023
-109.192686035955262 -58.692234987296345 -177.745256249493110
18.907809706062537 -62.077563694458085 -185.967100238100215
-152.846989554551385 -51.516162291898404 -185.633563523211080
-148.076013881138579 -55.763091058581061 -184.222819478133488
14.311804189436813 -64.214299216360132 -196.373600533233713
-123.041689965895785 -50.226918419563539 -191.700089745088491
-155.917042731145642 -55.154923079076660 -191.290701705816446
-129.385990241101837 -56.910789291333323 -196.924965587073103
13.721259795434086 -66.589968663932694 -200.245243808497378
-158.901662907128724 -55.619721721122296 -191.472777567110512
15.179005764962199 -61.886613763820598 -203.404720039563443
-20.678191149237751 -62.018664126685621 -201.177070222952722
-161.972908452612018 -51.657865254074039 -201.312866086985707
-167.957473289595328 -47.351556052537006 -199.647712220586783
-159.705341778204826 -45.497551463660621 -202.126635302812502
-142.756988670337762 -49.436444758535714 -194.898375734840357
-117.289560257988398 -53.583873376462442 -205.774161800336486
-17.592387233954170 -55.186418394758967 -194.769538439261510
-140.429702994177489 -51.954366492900945 -197.276634475099883
-153.478228321652040 -45.752818629974946 -203.985320407037619
-20.044520830368256 -61.321545035820378 -202.846796520199348
-168.268289696849337 -50.306561203749851 -204.963752461903965
-18.381853966376354 -58.664379623331627 -213.289855167912805
-16.404049547722774 -62.246515552126354 -215.972432577044685
-165.024585868231611 -54.923056231500425 -213.920098321260070
-16.144912135516382 -57.897759045356430 -217.955862473017248
-168.744380569616567 -50.876897278372667 -216.425360418604470
-151.586849651531651 -54.676347588767506 -225.999536359189989
-9.168235692632042 -64.542658555874496 -229.093306060622638
-135.737839730573256 -53.674209299894031 -227.998430839385890
-116.961239290446386 -61.797706868862143 -227.987080467825592
-165.049919101348678 -52.347114575885726 -227.962412508399296
-114.717864901358070 -61.469897784618809 -227.561350901924783
-0.671400119869324 -70.075061221088319 -231.310609385513857
-2.959835631798163 -58.531783808188642 -231.835257868425430
-152.015899424465516 -52.453571856954412 -229.790932564203445
-132.700124918598561 -59.226189977089113 -242.594219443615629
-125.382537288115913 -53.222031164778869 -243.847789504996712
0.968342279064229 -63.098005465355804 -234.799658527479608
-1.472198256709862 -62.604094962281557 -240.001521280717213
-13.241869236701753 -59.396778323779706 -237.270600778723804
-15.533230537811068 -64.260547191703211 -239.320872255618866
2.381130191903460 -62.166566424563605 -243.936830824721028
58.235478019764791 -64.886039852662279 -246.094858724042808
8.979585288836084 -66.650531757271267 -248.585937319853343
5.388850995788510 -64.530435820783467 -239.983233212742590
-14.461346336989429 -58.426669110294213 -240.660967775783377
54.895588038746091 -66.544354265891258 -252.577508266454942
-14.315142793740982 -62.124710880754016 -251.504381523894466
-148.749292406279920 -49.191031028626441 -253.746869279584160
-150.476926356371024 -53.103633580512955 -258.386278265190754
37.604018938143476 -68.273989074309483 -255.614784799962564
29.186215145288759 -63.608382208194193 -255.121643459312082
-141.079411526414475 -48.698852419008546 -256.628749537724730
-99.555427842889856 -57.407104609016947 -256.589533420065720
-116.618942843813798 -56.449796014799595 -264.596934466541995
-125.704582908897777 -56.024491979569397 -255.462326490322226
-112.670118099846846 -52.593394404990981 -256.293165539356607
-144.143467936734595 -59.694209296379313 -261.157708385335638
28.754042523922877 -60.245043685978629 -263.499118532954469
-120.954789810920431 -51.254523002451499 -258.753712374312613
0.472921026626607 -62.537754364632299 -265.323005291727156
-154.297550871268186 -54.166903116669467 -271.233894491854983
-7.301542928890167 -62.430762493586471 -273.724709925789512
-13.989280575762528 -64.360348144179795 -293.922017580114073
-139.873608380229086 -46.159387941791088 -284.419502765463108
-10.269447027612895 -64.305778105490418 -294.820455677276129
-140.088118682353468 -53.580266106536257 -291.790151973791581
-136.188175970250569 -54.333523704681454 -298.091991200243058
-150.917664325758068 -55.854223161338190 -302.599122926619430
-148.274846174268134 -52.934506886954082 -309.911312022641255
-156.672395803977139 -55.468045990835201 -309.274430813633955
28.072066305668336 -62.654526555865587 -33.078946018713324
31.048249694613794 -57.112918686941093 -41.393859237521902
46.974970471114887 -68.376515427688560 -41.100160265247091
-65.632938183815767 -64.176588569268233 -40.024519967911672
-58.294898474228873 -62.010030916083991 -43.031054775664934
-71.146803141292679 -61.566576747332256 -50.956979402692212
-34.320134781639702 -61.655870453541525 -44.235681405592118
-71.870791571914282 -56.793912002696977 -36.239872628329643
89.694224123976056 -64.860541419861860 -62.848476657076411
-12.491988951337113 -63.719518423546575 -74.057799153458276
64.448641827161850 -63.264797258721110 -68.759039204315727
107.238212401566614 -73.639136173961077 -78.711904497725058
63.108941185964959 -64.707569797186821 -75.264896097647068
-32.267370506144054 -67.913510455095164 -80.380684748690371
62.687485615148638 -67.778053083329922 -85.390600793831084
-47.095550510464591 -59.298935937701494 -78.860496012281089
65.502324389250418 -70.442042699936664 -84.492220956056855
-52.136417820364642 -62.189789336897675 -83.949206486145854
-65.478961453663132 -64.667186383990099 -91.331613570844638
53.362227172072586 -66.487308918604199 -97.277840378956000
-98.234963937295035 -62.048263032421609 -97.766554252073050
65.804910061868469 -68.510729117294133 -94.496783686236824
104.775265755548773 -70.604291725317339 -107.302519317254507
-74.446565487642061 -53.321072116856996 -103.631297972640184
51.603568371214472 -57.421490507436850 -109.892594730859543
51.038536774368218 -66.195432147411779 -108.051889782076671
-95.363333434208869 -54.480969610909710 -102.459055043589629
77.244307976044723 -70.554230523989744 -118.884491947001536
-85.677182590902234 -62.934565218971713 -120.521571627708298
-79.866829704931575 -55.649825340756763 -109.748457788793743
-91.881023992595686 -66.307975861223255 -119.968898395838707
-63.109950254342507 -56.354715942300757 -119.520871309733010
-57.220815075283411 -57.417448713842028 -121.437827780872269
-59.657416355297514 -56.027202507837863 -122.325768169778016
-90.767598932198410 -56.133602700183651 -117.711856598559251
-74.484910271163486 -63.232329612502674 -125.054288788986312
-80.775629172422029 -55.125242445504753 -123.294628955264201
-52.932073519219401 -62.333812073419850 -123.448344160590423
-85.837128060511617 -63.008035948621121 -123.125704415120666
-76.061458752954920 -56.729715961014982 -132.023696474659772
-49.554866543421575 -61.040133012394044 -132.234903231037862
-48.551603054911283 -60.972115083717618 -133.813581422692721
-98.536809830582882 -60.380294648889141 -136.601781181312958
-72.561110663203351 -57.631089288777368 -140.434831308785334
-54.875027212049403 -65.511288333402106 -136.437688718979786
-61.255859569353618 -61.147528514798651 -138.816611130676364
-86.723856958479203 -59.946774355477864 -138.717876449602812
-51.238471251914731 -59.656160495124183 -147.564096294846735
25.378819593435200 -62.255506931052572 -150.542948869268372
-87.957060340993024 -54.298062086270555 -149.799040032896471
21.891916144680955 -65.597914529493764 -155.361857929045186
12.252956748362680 -64.139608513188506 -154.581953222218146
-88.863434535894939 -53.686618871310998 -161.500624488685901
-108.814329869891338 -52.465152175938215 -179.449532449272311
-155.151881853308652 -54.284155300182839 -181.950148592954235
-105.148065654787956 -59.994835518541592 -182.276196589178113
-144.572747020063332 -57.407695851600430 -183.017212799874926
-152.709097724736552 -50.799981509652561 -182.356238470466963
-109.202174604590823 -54.750356284496910 -189.030936979128995
-152.653963237154215 -49.809121907904824 -194.954605998691164
-117.797588202519904 -52.463601642850598 -197.352028400409353
-153.127044064579593 -53.464057632983611 -192.437760334618588
-145.932996647753868 -49.725456596078466 -204.883937577430544
-147.033051913338198 -53.488717431501726 -194.630314058420794
-134.220911902753329 -53.403613934006223 -204.327864250407998
-134.858988875769029 -55.286635932860300 -213.283932668196229
-114.500564638668507 -56.602796009144825 -205.058542634104242
-146.847184943423315 -53.651110255686582 -226.244176020027083
-141.795148139898487 -49.937143357363162 -227.766187910536217
-132.004112598225532 -52.109706489108447 -224.946999745494622
-123.830370975990036 -56.056616708614023 -226.070360960278464
-109.861336111251475 -49.176132238739044 -226.537053969238571
-111.219523126951358 -53.349506955548165 -234.897804893557947
-126.388548339659792 -55.148343666637857 -225.265939602573013
-132.569673227327570 -54.946793870009031 -228.184845943898523
-8.216866964153237 -53.778526229627190 -236.612932443955998
-5.663424967656401 -59.455318297059691 -237.953064320807584
-116.673294426123604 -57.342111028396722 -237.099599173208333
-124.274387600342777 -47.284411242786078 -230.557444882445282
-153.670381544072427 -51.716364186150784 -235.476697731574689
-150.996754030712026 -53.237236304938186 -229.914105980243164
-9.596666806289072 -61.213436347861382 -237.724741791925908
-6.263346215635335 -58.559206854378338 -245.147326377652576
9.101592536276980 -58.822552737214870 -241.991974477115718
15.566989761045622 -61.472005745356199 -241.862788618960451
53.781841304190728 -60.117729602970293 -245.828110346696945
50.903468217616094 -63.792046134951882 -247.027104668623991
13.198266603042143 -64.195467528576842 -246.624862817369291
-156.294391831414316 -56.263448415063422 -254.319213223220885
49.106790606524598 -65.942125179833582 -255.136023361578651
30.910273492352648 -65.180372947139261 -249.921166222945232
-130.933528942897283 -52.064706024810164 -261.105251105429943
-132.461570191318003 -52.385623645532164 -253.770735586205006
22.118295459538601 -60.161270653840255 -259.625020642813809
30.432567737896274 -64.482238372937630 -260.818746583495511
-127.073399546366772 -52.157740164909292 -257.834811090263656
-130.200995393300957 -52.584541765368144 -266.411157832761944
-127.088744307200500 -53.014722448700738 -270.179272812149350
-1.221420245045688 -59.285739088278056 -268.359494322350713
15.410638143345079 -61.014271128084737 -276.698082168281815
-130.740541606195023 -46.904015408191924 -289.141026244943191
-7.685408459501669 -61.754751962614272 -287.835206537510203
10.803898193195099 -62.665966586086718 -292.483454500480548
-136.136660363499232 -60.978230108249740 -282.742924950870304
-125.724311937705295 -55.969146139783945 -287.608299292967502
-136.920203702270499 -45.294033340593501 -289.298293656432293
-3.272249478114031 -58.708482515020087 -288.349224737033978
1.197485929068058 -55.299201271316996 -294.492481004083800
34.448198146726533 -65.954240776683065 -38.427462757275762
26.951496923540368 -65.809181842199223 -35.959486297671098
42.003054798877912 -65.215365664779881 -40.578301601565300
-54.793153978839278 -48.576905970672946 -42.051776542304552
-12.892356664793223 -53.318397292780908 -56.832816322022076
-90.994571020712556 -57.506370021524177 -71.507675109603397
-32.796296699960749 -61.768499178677089 -78.922764765607056
106.798905051786647 -64.768880916818588 -86.511935060849794
-101.124745018458071 -56.228587510339189 -84.013524051482136
-47.924056138202381 -60.406363129753764 -80.616094148139453
-50.445904392321083 -58.431562171768263 -81.114620120606958
100.896437917867360 -66.721917434604165 -86.801633288805817
111.349189807539673 -72.484746391964649 -100.614972288092332
52.792253026025321 -68.946581041969210 -94.127533041358163
63.999480413757645 -69.727859672481614 -94.179545660411534
61.282201529008610 -68.137280208046491 -101.932050325386129
-70.078253869507066 -59.828309749853389 -98.599649908769663
59.523643725981223 -63.490860162822401 -100.041602282210249
71.577180094471743 -69.599630818605988 -107.449157360704262
-74.544441743615593 -57.223762586722110 -107.768161018009266
88.375198175719561 -66.227566454444855 -114.934335268759924
-89.667347688037381 -57.612442052785326 -112.448270202271686
-85.562926055762432 -56.455075180286833 -115.856090689303954
-58.507263108095245 -59.925871914083345 -118.291535546904399
-73.433438794220834 -59.795410605390430 -116.366461603862604
-67.858314469163545 -53.773095684188895 -116.552256522908081
-93.803284661421912 -55.039229975891388 -118.768429506450246
-79.521874300139913 -58.581020781817458 -127.306229449164832
-87.879909055775855 -55.328978308181540 -137.423384887325938
-82.729048510532365 -58.543401613430461 -122.775991118537533
-60.916388773059865 -60.484804256434053 -134.202658977822949
-57.054183157777636 -53.878844581958440 -131.322834726247066
-59.515898011216919 -53.022760197409895 -130.718687572719006
-85.715907276128149 -55.477755686272403 -125.222796939466278
-84.298929641865499 -60.690604178534507 -135.248956583766699
-80.113501834532784 -51.784471388522448 -129.707168532676178
25.536655446649938 -59.304073224506666 -143.197713700724051
-63.202640847057197 -66.923760170785457 -141.095189094648845
-63.370169277089360 -52.612839785920329 -141.240849954471514
-50.509365041991522 -60.425114414821110 -138.422555303342023
31.783380959543138 -60.458270437808984 -143.186901232142162
-63.935400897319596 -52.288131009071705 -142.449512136372675
-98.235770623413998 -56.335468544886389 -144.903412364503509
14.265297880551309 -62.098181105624299 -143.981874312178064
-95.952603648162210 -59.114161426603864 -155.036713005123119
-109.712214438557325 -58.452601484257514 -163.840646380318333
-98.712586453512927 -55.482894657535581 -165.162832078538571
-106.779100676768536 -56.221517204603870 -169.836031832621757
-149.959414322425033 -52.124719099865764 -177.360723494206184
-136.370836957937883 -56.377726688391014 -174.507966117367886
-111.109086168004808 -57.725398179431195 -180.271521312214986
-154.900342318799744 -54.963159220261758 -183.120333586923920
-117.075183419777275 -51.010541725457230 -190.030036828740720
-142.647786651717183 -51.288161723063887 -192.932887595088260
-119.732182680893033 -55.164378343062758 -191.439786186180640
-141.865752680175291 -47.348986476135103 -198.512303474262040
-134.266780482290500 -49.596954993873531 -197.827720201549766
-117.167731101626913 -53.169224482861317 -203.836255097945383
-116.663602393101911 -52.389677004638884 -195.142070920975243
-124.699542171190529 -49.270363646826709 -191.392092499203130
-104.162147321044742 -52.065935102405213 -201.743900198242329
-134.099956083684219 -51.324404090516417 -202.037557659199621
-119.140187539359871 -54.396569852658700 -204.799495415754933
-120.318676069805377 -55.331377207376818 -206.638042430363100
-117.418219869375719 -60.788745042927019 -208.555733409876410
-144.349274353343901 -53.637225706237118 -207.882481814733296
-157.741299105147220 -48.138897325305173 -206.774616415226575
-150.845429087146670 -52.915608945703276 -215.544126063710110
-153.194284012054027 -52.489774464172690 -228.270101341916018
-122.412361393117919 -52.947856244406246 -222.556632218750735
-135.740644631916552 -55.181262505109792 -222.625795433311453
-122.167388858896828 -52.414619589184156 -226.927636336181735
-127.317053629267377 -57.668688790376308 -234.037187731566803
-120.648986757482078 -51.763831855948766 -234.189203392970057
-142.936270444237067 -52.978751674365014 -227.652294900442229
-134.812762389556383 -53.678273608304849 -230.658223244955366
-119.194347147278407 -52.995690876436989 -242.648029558930205
-1.579661472877214 -58.736631217629643 -248.600857058132050
11.067223822000134 -63.658676541970671 -243.145138592272303
-18.778656949155508 -59.891836787345078 -257.490670422969004
48.028549345835742 -62.434655677273014 -253.133442442622510
35.130872771457454 -57.983785428638569 -255.320281706590919
48.342884862074932 -66.197997756807510 -251.020063673148542
-8.351533380234432 -60.598373114292613 -259.631651928584745
-137.393787859031590 -51.651628770902015 -255.199993575134073
39.035678626431249 -57.185335480706300 -264.943258876288155
-137.928820086019044 -49.842518031840292 -263.001553112036561
-128.309320325206841 -55.733035063211538 -261.027169179582131
20.448973043754307 -64.647049946270826 -268.593197809573894
20.832847385333320 -60.112187588575196 -261.983425187753994
25.142499106794872 -59.026260260368417 -262.077715855010297
26.286816546045394 -61.953246013601301 -266.851875950789520
-151.728650606633551 -50.000361550674882 -277.789888583537390
-159.860838568824988 -53.385954388628221 -283.670193788077995
-152.099157007706481 -52.502364966127715 -287.357519145717902
-151.729718356639466 -51.293212312246354 -288.386699228247949
-152.314857329431845 -53.330211169708740 -291.703342088003865
-158.212709795502462 -52.408166819127530 -286.830436303250622
-123.835896059056239 -61.959024108278911 -286.515843180341278
-142.730665323670593 -47.731012252808839 -292.101822081880698
-3.343487834101443 -54.746535580102055 -298.415242720948299
-148.755373627679688 -53.323643167804896 -291.100585225493944
37.771571924705448 -59.157622250794503 -15.301433662367611
45.573208113081776 -60.474470152221080 -27.892317148586727
26.284315238302657 -68.118520572999216 -36.306789745563400
34.710400227066245 -67.423471937372966 -46.067710026017565
-39.713665295213936 -54.708394761382579 -45.280344121112336
-25.257462565057033 -54.751148921286756 -47.934598428175661
-7.742994032702994 -54.232535909152077 -62.877403540162270
81.886477065136262 -69.515300047554163 -64.264747602272664
80.660498401167445 -60.714246551410334 -66.879894587900949
-10.738326124529905 -56.234449038172777 -62.775260672878993
93.973917154514595 -66.297376455287193 -63.423821305185918
70.681236805230299 -64.466552830177761 -67.180374390071705
62.648366514194869 -67.048404570227774 -69.746067197450543
55.869184030237584 -68.147447676619706 -78.087221605820190
-39.727914141434738 -55.863213470926993 -79.593463108898760
-54.076912855039915 -53.635959550261767 -86.073709461413046
-57.704181653688075 -55.068869487497643 -92.693253318299625
97.671835429210091 -65.519883679031949 -91.631549205722592
58.715371808703814 -64.290069714981186 -95.290563637625198
50.149351871308014 -67.580863786183428 -95.431904571652922
-74.450717081751094 -55.792587820102966 -98.994019264624697
-75.339991494143391 -54.489042251217853 -102.790809228622948
-93.500603957323946 -55.160266906461786 -109.232397465231614
-79.898160128591343 -55.964504337891583 -119.783366811733572
-74.051205625066316 -60.385375062106341 -117.595359608992283
-64.128590595984818 -59.878214675969183 -121.197670307754564
-61.467799435712280 -53.321558656301811 -122.077400537148023
-68.959668555300553 -59.623042403319424 -127.674008668410735
-89.661160539346312 -50.190265979791334 -133.903820777528523
24.026299098139294 -60.403409424143881 -130.556599161615310
-87.680711669792288 -49.155863586098612 -134.993218710928915
-98.434857976751246 -61.513091927731864 -138.586480495983949
-91.340522954165706 -55.008694489696587 -137.046324489878742
20.339419190904405 -65.089371125818474 -146.134068386268041
-91.902755175141976 -51.527369779318640 -148.765876810661410
15.780550437083964 -54.399305391901791 -156.608748152580773
-98.567671832322247 -51.416799236173851 -148.802548234054086
-106.158150511201313 -54.539168542412618 -159.278855411329687
-106.758601648161942 -56.556662368946967 -174.092757310084522
-112.150604573363381 -60.676823132784790 -177.987099886760404
-115.412570301510499 -45.426135230287038 -190.542089333995847
-148.785807909377695 -46.564544381166883 -189.982004972272648
-150.432738498002720 -51.362857988890966 -188.156476909973975
-145.699068330108673 -49.975082730870120 -184.569712579353506
-113.968492806123933 -56.227877199175175 -194.123200232481480
-151.737741893596137 -53.315126097611810 -197.297210477522157
-136.370542153768014 -50.375290544479903 -195.666947041022979
-115.784914654109272 -47.875888135714682 -196.558806602110053
-119.412322757615399 -51.164722951004734 -201.321160618760757
-144.857941861712590 -45.065265642602654 -201.321673113314120
-126.722695333546852 -50.726508098029520 -208.399166920898523
-132.130058692904441 -55.320847639473413 -197.567709712411897
-129.761463805723537 -55.531306824115646 -202.668687929403347
-135.718461535085538 -49.162189791376946 -232.291354321990184
-127.691883852058396 -56.584456518659771 -233.801370718662270
-0.773052081079000 -59.121637503935332 -242.692091044484869
-3.709418259196306 -62.800054031032055 -249.716478754749886
4.104244050728322 -53.593612958136781 -241.801829689742618
-6.143426422067361 -59.532063223506796 -246.411448086403908
-12.051915246267669 -58.222877690127611 -246.496419706544089
-154.083369913290198 -57.453738784006262 -251.442951746418117
38.941820360603593 -65.349584058591972 -250.105142999363665
-8.891243081950829 -62.158899790159076 -256.093772864818618
-159.728684812598715 -47.499782985576651 -256.592718326787633
34.453905605730867 -57.057317362018537 -257.711034153742844
-153.410458934048478 -50.212398795257322 -255.683558855664359
33.608334972752736 -60.296465072534694 -257.819611650481534
-148.993828406693240 -51.309721766977802 -259.551334218037994
2.043974338069473 -59.369735504438573 -262.095711895935665
27.812774034264709 -63.227206565481403 -248.534751491032040
-156.607623522937104 -53.388550797952838 -261.069136253068223
-156.631241527872277 -49.228093272523552 -263.347758081977872
-153.439278401290920 -47.926145445844213 -260.997211212898151
-148.252252942664654 -48.270688513385167 -259.156393306238442
18.432405538303531 -59.898505455944587 -265.238930681736747
-156.767353070618014 -47.027820923070088 -271.957136173602237
-154.188835630445084 -52.388847111338023 -269.814629032125026
14.517358740902317 -62.262731115028465 -281.484204473747695
15.883890207871577 -61.156751355037535 -287.363551068548986
-150.298419205562141 -50.706070476765660 -283.544537562487221
-158.505976306155503 -49.364352048476910 -281.886201410860906
-145.422613071809565 -55.138748429721716 -279.241911454870490
-150.674087423007677 -53.097248662048642 -287.854305305771732
-158.658974479886297 -49.778781210271390 -285.176514577811133
-157.111683386148343 -53.802760091529947 -286.453495238219659
-150.728086492484778 -55.173894976340186 -291.919002406822472
-134.953320687446933 -51.251655248880333 -288.236093873023492
-154.951830854332798 -48.260198258769890 -294.746662492272549
9.929761248874224 -58.187089137991464 -298.865681126087225
-149.674982373428293 -55.507099689732911 -291.022160566096204
-158.476415440226219 -51.082272404635113 -286.898515435459331
-144.528137146057361 -51.739104629853685 -298.505082774929065
38.039831644143902 -65.594320039496566 -20.459764209974832
45.394079286670696 -60.019514401769818 -30.004574656772718
-60.072491236051746 -49.754284798243816 -39.000323051234858
-73.378031603425981 -54.557019148653502 -46.627740813837569
-76.823820536729272 -50.883573277463363 -44.040692046708749
-21.566481687830606 -52.370305704531610 -59.955988361430677
-89.817763970814340 -55.718389542416823 -56.109033120926256
-92.597936534542654 -46.562843996275056 -55.919917059983028
-20.523600408032191 -61.436155578403508 -68.705613822824589
102.844233414967192 -65.575443715861226 -81.021612040733743
-48.706858785156172 -59.781222200128731 -80.938555737445384
62.515841590924580 -65.888986403785708 -85.630522335095023
-58.911173108983739 -55.106067994117389 -86.154690393874603
63.593892713468833 -61.420027526583084 -83.265710083291424
67.554830799065869 -57.626746820895939 -92.735613450580857
-95.295694653258721 -55.531162926293618 -83.843000765839321
-61.926848284929221 -50.135223061573107 -90.220295585948961
59.621143821840398 -65.175086390484054 -89.287500048985692
68.785845664342730 -65.823198739321114 -98.767948829012198
-66.841952229132517 -52.819799284933445 -99.480170621400845
56.883760523690697 -56.441021222164167 -103.207321486064600
56.923906688993426 -60.977779545227207 -105.615122415183507
60.951273052225552 -67.836337818200391 -101.634385271947181
67.187250330708977 -62.876486799781539 -99.280036599882280
102.900933521739447 -60.071554011902464 -108.554257041980108
-70.551888802575405 -53.015758660841726 -111.950708489846861
-77.590292179676425 -49.286021208812969 -114.161805551820123
-77.280898408051016 -53.742853502499052 -110.255454040776897
69.522972320744785 -68.401322384014932 -116.240862597148592
77.740184026436012 -61.285638268186737 -112.779495692736205
-87.613703892244928 -54.178193242352933 -109.133828920180306
-62.003061158017417 -60.936997718032089 -117.645942977311066
-69.589441629924309 -49.381294735532308 -117.305796647334745
-81.691732008835189 -52.865579689587811 -114.931976556601057
-79.075016392607395 -53.674610120897086 -118.382641036070922
-63.212538133647968 -52.626425739097456 -122.455519324531295
-62.620661430464367 -48.705733652463117 -119.073304457952176
-77.624722488418982 -49.812179993110945 -133.099031114220708
-77.043195174789247 -54.619130330273116 -125.017251098836468
29.356936418033921 -62.655630997441222 -129.757130836699133
-80.842791459858830 -57.788708652784244 -135.790905266392656
30.668091077219561 -58.266288096194003 -130.929898084369626
-64.191264093770201 -51.455747911850153 -125.303404567357532
-57.153903377849751 -52.502309483034196 -138.159598599772863
28.599933386754692 -62.399114241473313 -137.288187002439031
-92.824732460240753 -56.371395828898713 -142.805933984466662
-53.784219416239679 -55.184446510661722 -135.976813349204321
-53.719305711015927 -53.512520199874317 -140.586558065300295
26.859196909737328 -58.033098391051709 -140.242084330120548
-100.583241173171146 -45.808110158522958 -146.866661781656006
-97.636368582955484 -48.558725658587889 -146.753455995238824
17.943638193599902 -63.785574355113809 -145.488442335129974
-97.146211819118378 -56.393527723972092 -146.694420071619192
20.438008359257680 -59.209801417371558 -157.924318403843699
16.259759186509747 -56.843558687581393 -151.001590004891057
-92.392570256256121 -57.530429710027910 -154.604057544620304
-99.985630186098106 -57.402595817707756 -155.853872157529281
-109.743038836799002 -56.744576194846076 -162.001560652016309
-114.002068631932445 -57.685537146212376 -161.635276056329900
-111.932881655022754 -52.257011165403355 -169.476052547317465
-106.366899615347847 -51.770857646752134 -179.385849748966706
-143.929903952316522 -52.279783599064260 -180.321563597720257
-154.435954911312848 -55.137201128069364 -180.798867279369261
-144.926657681966418 -48.175046803275563 -192.721719194500253
-128.310132185922356 -50.234479125881812 -197.892102589868983
-127.506371523019652 -55.354335937985361 -204.567121263348270
-117.461969439249074 -56.356674804744834 -230.467621284674493
-151.786282401191670 -56.443496482344472 -227.921410333198878
-154.962226312838567 -45.767346512047816 -223.781712217622584
-147.615022429987675 -45.922335563740461 -230.691082944871425
-150.612881312050604 -48.896416580168456 -232.656865140586433
-146.736588691901545 -48.014304043664005 -236.987036935452096
-3.800217402707339 -58.833842894000476 -241.504161951408804
0.330240125530089 -58.954062089137437 -246.255842196427096
-6.225934545409243 -58.665860805952754 -249.533941844296265
14.833565328751387 -56.363113429650760 -234.162887733333605
20.353561525461387 -61.762060825653109 -242.396606621448370
-147.907939594030324 -51.902202460700813 -242.300717501232043
-11.008636578340472 -57.112812079536830 -246.804147024554993
-7.357894809137245 -60.264041705012296 -248.355302709473989
-156.585582790640672 -49.079403029818373 -254.639850711420735
-152.904077736298319 -46.595071076499607 -260.575514061472916
-152.333944266458303 -49.581068184839658 -255.263088269023314
-147.400965487115656 -48.785337610265898 -256.177918955438827
-156.445528667230889 -45.206905548391568 -254.383920223830302
-156.794241481732541 -44.526643690778712 -261.716569033680230
26.833792821528945 -68.255305747533654 -258.222320786049636
-145.104327534503398 -49.538706665182687 -256.529860301209226
-160.223143577869877 -48.565987073699347 -257.723683569620903
-151.983934429450898 -51.776150843586727 -260.554525272574665
-154.724308522589382 -50.837940109610187 -258.068956812643592
20.421577376305969 -64.490420466723151 -257.385422960172775
-146.152217295325272 -54.815091189612595 -265.795515454395115
-8.121980682528843 -59.736923517237635 -257.116384819179416
-157.289216703856283 -54.397487659639481 -261.822554617293690
-149.237826665976797 -44.495016641729585 -264.953507536109555
-148.810195217352259 -51.457650237589611 -258.511883142632200
-152.729675973022296 -54.127358333134261 -268.612926042214099
-151.342669629025863 -45.861519216205039 -265.409842349773612
-147.103457143675882 -56.439582249196242 -269.399107798941316
-159.144834810793867 -51.213427869152390 -282.352576039889527
-3.148233066415380 -58.674219865054987 -278.954461344707340
-157.518135505476351 -44.606715545849688 -281.954811704097665
-4.573015723845935 -56.570706913422988 -287.422535145329277
9.331367012354576 -58.785910463621335 -294.765017827963447
-150.104795119176487 -48.040062804026995 -287.038892788611349
-151.035329781760339 -46.961692960274462 -287.812198054120472
-3.560467255381366 -56.137629453817624 -286.017155997909583
0.365967873569885 -55.042261360393539 -294.629111598202087
-157.427219974437492 -47.449420279614934 -294.885926920299539
32.373359236243239 -62.813486970878017 -18.836814241639541
30.924519303420738 -65.644634599568491 -14.993749125347787
42.748545186720698 -71.693174113235855 -25.268346142413506
25.666830427635990 -61.155997944392318 -34.935322251217833
-27.344467502879546 -53.281649185420946 -43.927878354687415
-14.093239017144437 -60.108846407784910 -53.302014633920855
85.981062391243611 -64.116999517620329 -63.006368546256873
97.271398678540294 -60.860686199399225 -67.560914365653431
65.867328195102857 -62.554971048006273 -66.546086395568693
-95.521357174285953 -61.076003336578061 -82.883650991138666
-37.747874623403760 -61.340485042712523 -73.569133798615738
56.061842650841641 -61.183349797801519 -85.203322995796881
-57.172756938825394 -60.568706964762264 -85.221402921582026
63.765512798352511 -60.727682607533552 -91.769934969201671
-63.984933088134142 -56.706933252770746 -93.491210268188524
59.324395544621865 -58.930007629508964 -99.219944478419791
-62.836649787763491 -59.766784503396082 -92.729106322788795
103.913466749847458 -64.351654439965955 -103.977862982191468
-62.135034277139923 -55.563668277104973 -109.158144334799886
96.753175540734262 -64.668998411035659 -101.710871468244335
73.874029883278922 -62.738927556198156 -115.946667996190044
71.865561612963091 -61.008323686766893 -104.875610031640534
86.491627722438849 -67.657527049734696 -116.168189564831735
-88.683966490281023 -56.310628002730937 -113.011675506863142
-80.629957630692743 -56.693051171834334 -107.225499709288925
-84.532460073722746 -54.599296794708160 -115.452075637610008
-88.528737797594815 -46.625145199903663 -111.131678005868935
-76.811962019868375 -50.289202485513897 -116.962185444214114
-91.657711490437308 -50.123994836740259 -129.258726706291753
-81.521372716536021 -53.407655394628918 -121.246307638682609
-54.753553442077347 -54.360406503001805 -131.989120630221834
-68.873434178263309 -55.785868685107353 -128.697201074989351
23.164678135145920 -56.883720993522786 -133.865316691170221
31.373622083586167 -53.989666535264412 -142.372635057341682
22.116130514485238 -57.275509722828943 -143.511296846047543
-143.061100772162035 -46.998689647026254 -175.225910508894145
-146.562422492231093 -53.185971312521275 -177.377868670049168
-142.767273509500853 -45.691867161399429 -177.793489788880947
-152.141953114882170 -51.660317493049661 -187.807219370822537
-156.493364685291823 -48.111789306669095 -192.836009552608516
-125.979390604619937 -49.558074101392279 -195.639115735417619
-148.638791817671347 -46.466532352839749 -208.541923131836711
-152.880272964578381 -46.884500765622143 -207.521372658438565
-148.228377777909714 -48.818825337845013 -219.855284619316421
-149.444322585824779 -47.812737763808983 -219.766432320798714
-152.601575691545349 -43.263040096611647 -232.084051805250937
-141.057856234662609 -54.200126551332339 -224.742326542003980
-151.067479196264770 -47.517325054439766 -223.141085016460607
-155.904879370887983 -48.803123517999488 -229.495780555525499
-152.790861554710830 -53.082498074216275 -227.645301111532490
-142.827456513409373 -52.594155678846292 -228.730106687150197
-153.386408740079332 -37.955322318585097 -229.447079806705403
-146.378230848159433 -53.150422086899439 -232.096655798572897
-149.778641721179781 -45.797197697267436 -230.140777778254829
-158.712271618300150 -48.659909506599341 -233.833657821381422
-146.909491681198233 -44.250567243589728 -233.942277566105446
-150.524877035851233 -41.760067899056679 -235.812098078228615
-155.220662981801070 -45.818848725675707 -235.450166733098484
12.799018181994185 -58.949818990456933 -245.047311098514058
2.873788771002917 -55.790261347429784 -247.428611466118554
18.146030751641774 -51.610400854745272 -252.050623912471366
16.926138420997262 -59.075147655648763 -250.773836296719963
-158.886556926244111 -47.974952463679088 -251.714630946417145
18.540038609517428 -63.102236308397778 -252.054158005820767
-147.860164568618472 -47.088647509289743 -252.709444951655513
-161.315944424357525 -52.203137346141048 -254.901931372720838
-146.495590444757028 -43.688402419296466 -248.665854703910185
-145.008613326197462 -48.896164051959772 -257.877904872368674
21.674954192388025 -61.003061653238362 -256.974506311184427
23.034069750301025 -56.730725623033685 -271.073378416857906
1.316946894120724 -66.852238793249143 -287.139863134802624
39.665617127162143 -63.646561928799606 -16.424992680694963
23.050377063710933 -57.014461732225293 -18.756953753436044
50.264389735776447 -62.575115292752962 -24.677865810290243
25.604071132339548 -53.763811645426891 -25.067575636259328
47.969447311438998 -61.601055705391552 -35.827729116504955
31.903530127525293 -58.267368407084057 -42.946917651847599
-59.709655503454158 -52.718470408931765 -48.547593056262691
-39.449076553673343 -55.229937087179763 -49.539238648205846
-84.756154646708339 -45.992660122505676 -49.646566025968419
-23.381023513468463 -57.218474108638866 -49.097355007932634
-22.307750153903626 -61.077859979411009 -61.032034309891593
92.594296609480324 -66.606343658833438 -71.693462880992143
-53.517679808521656 -55.315261481825587 -73.801747654899970
63.315235602005743 -59.235348385071923 -88.471990129880950
48.055207875722516 -63.239740225519569 -95.971527299129818
64.694494749125781 -61.413812891105771 -102.739520465044365
-60.952702605568007 -54.814805379834596 -96.752183544686559
103.992848393502840 -67.148886971231335 -99.836888210181741
-69.618203216845743 -47.698681750772636 -104.352014601093884
-67.998868061834045 -51.575211619978397 -108.243924638251542
-57.379081586395117 -57.036726861434268 -114.814159974700686
-83.836457281255221 -52.419931856941936 -111.310647852170447
-73.675448203566717 -50.256367646772325 -121.179726874301778
-80.983972365695706 -56.239539461453013 -118.162109075270450
-83.082011836538697 -47.305974087493453 -123.861618892331123
-60.200038890350697 -53.424967575723457 -130.005794815975122
31.678173761542762 -61.144127532122226 -127.492742023609608
-81.274034605063179 -57.968298748306090 -129.981296658069084
-53.104787480108925 -54.132018270420865 -133.166516909775311
-53.998565945520319 -66.555886842476625 -132.155764534518170
-55.322286513567093 -56.085159108800532 -135.474930336993594
-58.017612058140180 -57.040113112503711 -134.826918273659373
-143.570898118975805 -43.873165567135182 -193.125316477297616
-152.034349372024963 -41.828201258542165 -200.614507889632705
-159.206925468041078 -53.620720156520100 -192.299697514383666
-145.505811671094904 -50.198503758318004 -203.522789717033419
-150.418493919069959 -52.674361797625991 -204.321074148118356
-149.118798554626210 -47.051953440487083 -204.657136858985751
-147.193589427006231 -51.022533028790143 -203.276218696785946
