# This PCD file was generated using the MATLAB® pcwrite function
# from Computer Vision Toolbox®.
# .PCD v.7 - Point Cloud Data file format
VERSION .7
FIELDS x y z
SIZE 8 8 8
TYPE F F F
COUNT 1 1 1
WIDTH 786
HEIGHT 1
VIEWPOINT 0 0 0 1 0 0 0
POINTS 786
DATA ascii
78.959739555811367 -77.609006815674036 -78.439386704351506
-96.547963124868787 -72.938542047986431 -92.102404651275705
67.054351121015657 -76.436919348535525 -84.921693406917115
83.836547711622430 -75.490079943184284 -81.525749155203883
-55.933707028701264 -77.654806581729574 -89.101767212912435
88.096655195818101 -75.714712610315715 -89.007571785840980
73.661967226216120 -75.737346732244688 -88.305213990322429
65.830276079367735 -73.522044210848634 -90.011260694521951
74.874408996497792 -74.356571523247609 -97.668944699007653
-72.082767662580665 -77.409536195193539 -102.659165465515059
46.997018147803189 -75.241589489649812 -98.684453182323523
40.251216156666302 -77.774082113581954 -99.243947562597981
-87.548405777946044 -77.335713105919467 -111.515620649705298
43.235955467014421 -76.315137674861248 -105.992551689562930
40.133364305070202 -76.640415603709073 -105.580193315436134
43.414856008810290 -78.074256557734117 -106.065195872615902
31.599671850493227 -78.767426305235716 -110.750500884321099
-90.925678888417508 -79.775536779847812 -121.899916056568813
105.401902475558046 -76.640350404253027 -127.938166311497568
21.117010826918591 -75.325390430827397 -136.122947539251811
35.388417768422727 -76.386056398117660 -132.386112374718664
108.401154710257359 -75.971114655756125 -137.554893885702938
-54.519344643832639 -73.510500262361447 -143.836056971532741
28.803127005015927 -77.537840819912347 -147.816685310609273
23.293568674836411 -76.961270206342647 -146.820204324081772
108.164622056646905 -80.286705385140962 -142.079428924641007
-55.177894641446770 -74.610087990860379 -153.392327751928121
108.753971468448313 -78.640059103814508 -149.577430987088775
29.209410944214913 -76.009770054205021 -151.823150244463903
105.376891025516230 -77.616188377914483 -149.919283367535598
-55.566392920400276 -76.976898625923553 -156.020916366638318
-43.597192726345824 -74.485133494485041 -153.954001123845330
-71.427472621608928 -76.676368394063289 -163.254112309130733
112.578376417311290 -74.948027782896574 -162.560859580117153
-38.905048016119764 -76.219150289453040 -166.103170357344140
18.711312086802810 -75.498888341920036 -163.456349535223893
-70.400982931782394 -77.779074999477359 -171.911060703966029
26.818433532759084 -80.391508126189962 -166.385561661549843
-45.013315045213645 -76.711902851595312 -171.382076244332353
-64.217591081078112 -74.991089001750169 -175.486198603629759
-61.632950467918292 -75.738629506624008 -180.400294434822683
25.827433630084801 -71.163178111698528 -177.696209899738193
-30.789691770320054 -76.816569280953019 -180.335054601546659
-28.252232759052983 -76.889463669030206 -175.850249623336055
-17.279209602982505 -74.920721469784283 -177.815637789256385
15.047313693255067 -75.010704205393978 -178.467385890769009
16.580963032837083 -75.773930991144525 -181.996197120662060
-39.515122544224127 -78.508056969621478 -183.668238501556374
-36.219497819797667 -74.026880723122687 -185.783398323501558
-58.284608330186629 -75.844420128926970 -183.440147044729372
-32.377487718233454 -76.480212412409372 -192.725677397343674
-21.760948965167863 -78.342782115842653 -191.598264775344035
-53.513198773986986 -75.408559346889348 -195.723694677925522
-43.858296151004865 -72.580060183699544 -195.914023430011440
-152.998763569329583 -72.434635716135730 -204.367219581056816
-51.975596198099595 -75.463745291463397 -204.660066965035583
-31.226214724828417 -75.563335818345976 -201.730110288150541
-23.867835487148945 -72.410967098760580 -199.448065928529644
-140.329154791890602 -77.377059159724439 -205.634855652508861
-40.160684824591662 -76.957046318337632 -201.007981679706262
-157.846927880911892 -74.648964378211474 -206.383014225405873
-47.861214852132733 -72.709643965652603 -205.194783774970347
21.353578411377082 -73.582967961355862 -202.083454287636357
-136.215196509619261 -74.693270467640176 -206.724669680282261
-10.503108943359358 -75.998588409137454 -206.076914102427679
-39.735908711948738 -75.901237716505946 -205.981907476868344
-18.866016005092746 -77.636630346245198 -211.355432390432782
16.847920432970927 -76.382040412932142 -207.760634998717876
-34.118026085118871 -74.666416531537081 -212.530723732159544
-10.856946040404422 -72.299833166164973 -211.008105368198471
-34.595992905607410 -73.689306296553298 -214.702370610749711
12.863621033720026 -76.282730484946214 -211.647887705924404
95.212528420004176 -74.858029213723881 -207.661638993674927
-74.844063995454718 -73.578677564444277 -216.290718370324328
-148.470448414494626 -75.820602504466223 -224.880506444505386
-37.797488764588358 -74.752508876476156 -211.820778975219923
83.452896729452732 -75.249827924187144 -210.233734749815028
-76.004588140966064 -75.056450286611465 -219.376735118673167
-18.049172206327246 -77.085345969289335 -219.919984546490667
-12.111174088769257 -73.676126027895123 -220.000067290235677
-149.436499297341982 -75.930956393426015 -221.811262561337998
-7.525529207108634 -76.016857877863998 -222.126800064315944
0.892603073726139 -75.731738580859812 -218.606670146460033
87.570156567158620 -76.550268771342587 -218.100930427257026
-30.068040727958206 -74.183368207485046 -222.458226261948141
79.445419495277022 -77.829203684181749 -219.032377288398152
-12.899412482110749 -75.172294184908694 -224.557986951916661
17.823533687678839 -73.138779122008373 -226.341599412667676
-22.736118511251092 -73.972357044394130 -224.939866966382453
-0.151367706363597 -73.553615901752636 -230.130633365027677
84.334648612725388 -74.087406207496215 -225.463774643319397
5.517078807464557 -73.476165047935410 -229.212508802749483
-7.262645230581924 -75.360543553491965 -230.817504483075112
-143.860840702523234 -72.628300630843000 -235.538064107773124
78.986996482013907 -74.358588338627740 -226.818303130406974
-14.165805071501453 -75.102596193902301 -230.929391982427177
-138.544939696259632 -73.396813247538134 -235.656909215645101
14.545652873315547 -73.930877141301835 -228.918932959201868
18.542447969111123 -75.482247330497273 -232.531698420159046
-141.058967587604627 -73.856464219220740 -241.355398309209420
3.594345382321869 -76.477258318955450 -234.562159238011020
-145.706917661642478 -73.195927097828644 -244.646265755543936
18.429957753075982 -76.698477090610979 -240.317443345095342
-151.918896233765594 -74.078120373021093 -249.530807013160171
-145.691346828485479 -71.738794536078572 -253.642609717532508
15.442074316492885 -71.153239659179093 -245.138699541320733
6.214508269808817 -74.155947792892277 -243.925130054822489
3.586049374732223 -72.529215624529300 -249.127097220233026
-35.653009788993650 -74.795610366898217 -246.918635364589420
21.573281862584427 -77.679696036889894 -246.441651497522059
-3.203249195842261 -73.084188807239443 -251.795128016012285
-72.329576410688205 -72.680191368015443 -257.068351673119992
-62.794106319304390 -75.493899260434219 -254.245021699730529
-75.938168677302784 -74.646907936143165 -257.881365211900629
-67.005582053813839 -75.470037189064229 -256.848140174645721
-147.626902721520310 -73.809403443940269 -259.856924430489414
-149.040933919832270 -75.838213746511414 -261.504350057763588
-126.799189333902987 -70.869058807279998 -268.361846271298930
-131.760419823799680 -70.922866537676782 -272.690034104517451
-125.572529948112035 -73.068596705084886 -268.062855082988392
-138.104667035054632 -74.577966841059506 -272.656410010503635
-148.872226699325267 -72.091982160826973 -274.986402776218597
19.916671593811603 -76.177724351054621 -265.621508284973345
-153.171146012175768 -75.159622759685348 -283.845915584413035
-1.925580469283954 -70.890190568019278 -283.650962419059397
-131.697846141327233 -73.162720029997843 -295.238435005320071
-123.643969468308967 -74.371126041142830 -296.797930561372368
7.696242499972065 -73.618904729069911 -290.897282938161140
-53.410412843797587 -71.569086450889273 -290.998558202369964
-7.721529126992394 -73.540043933810239 -289.754775506187798
-64.436802141333331 -74.742160128315774 -292.830954713917379
-0.474636602723006 -72.754925101105854 -290.563834060127817
-116.894049603714237 -74.336549039911546 -296.935855568249110
-75.014149855325400 -70.953963295856639 -295.552729137133326
-55.562021074231495 -70.664157239713290 -294.482228059043337
-67.535354504257811 -71.593098546268763 -295.289413594280575
-140.511400130053943 -72.352916167927461 -301.291179953130381
-125.414273103611890 -76.344312706636231 -299.042348435658369
-50.644037521876996 -72.596105546684925 -297.896827270208519
-145.342550990623863 -72.213741015154838 -305.521074997208530
-145.126081161449974 -71.897410640212541 -307.227529011834804
-62.731845046567315 -73.060025506323598 -61.914658412733168
-73.471085075338195 -75.078302286801517 -59.503212766436597
-48.098407538067477 -77.336592938407207 -65.292558872586113
-29.640134636308957 -76.990125157208865 -73.906196935840171
72.164627668482751 -78.072817009118651 -74.525424387293768
72.242237693551331 -79.890891620201899 -76.042992856521309
68.953352608450459 -78.441402583956844 -78.423055054082738
-52.476204193634288 -76.205648407444116 -88.435732686055303
65.326964349160889 -75.959985823523098 -87.482527270336561
-96.315053696633740 -76.041632691633453 -97.541974527300184
49.455850615832119 -75.007081834374119 -93.281590956914627
80.520776209062447 -76.745942749323845 -93.247295913585788
88.136874987495460 -77.264736857702530 -96.478776766671444
70.592689456043473 -75.391306349754174 -98.333532322550070
43.746616770412061 -72.566998644391347 -100.522905355091112
85.386516872488244 -74.746303621431778 -95.351095699131676
49.218558241492701 -73.409270054761222 -100.338626356762290
-90.821279965565921 -76.664250886369956 -113.989461080434197
30.273907304726183 -77.591661403457422 -113.533986990201811
42.475676935456136 -74.685302393397933 -117.498974558565450
31.872471824048798 -76.527703742609646 -120.005604499928580
100.463047701501907 -76.163498329295066 -117.046387658252087
23.090021216072092 -76.968140272593004 -122.177893472342490
104.922176728562960 -76.253895760587170 -118.328783193882387
105.688299958101553 -74.087304600697308 -119.070468157694265
27.573799872627998 -74.797285846793159 -129.150253061767188
110.673439435261059 -74.914254351255536 -130.685293847035467
-59.673057366260977 -72.873394350719579 -144.669413760228167
107.388241943449074 -76.745856581708850 -138.789291907857034
25.724722225261008 -73.163927502534932 -145.346113354371340
-53.637654217102195 -73.226453316753847 -147.078769945151009
-55.766089886392379 -75.651351435042102 -143.912114397261320
30.783024220607320 -73.567467804144940 -140.720900316527405
-74.943106854413656 -76.870780932900729 -155.040253560378488
-76.428596307500982 -73.712791151353287 -153.493819363879453
-55.157933484214965 -75.077734884087874 -155.673924776736413
-44.603543345804226 -74.313749603943378 -158.203452015498669
-44.753701192714416 -74.617494953509265 -156.781478225600665
114.164100801185455 -76.183395067725868 -151.922923069853425
27.014530401376685 -73.439014481592665 -156.460378903262125
-70.731458354378177 -73.707226781529087 -158.215061023335267
-73.861265326322211 -75.110248485284345 -159.319371383675815
14.878100806472386 -73.012095038997131 -156.663695101048660
18.398815777452391 -77.747066052085657 -157.131860442810563
3.676800313700133 -72.420929691239962 -159.296840683541291
105.058648900636072 -74.031844984775304 -151.793973358017979
26.659270889945628 -72.676337484281120 -161.048432408133579
9.076371752991488 -74.869990173746402 -161.571551606203769
-67.243240723803467 -74.793529581689313 -166.368981549950860
-4.725975126323730 -75.891933311025454 -166.701068883158825
24.337046864952345 -74.550110350229374 -165.394729027971948
-34.821664445171606 -71.498196550617919 -169.922410666108846
-35.657413083630814 -77.656093706077328 -173.790328499634370
-13.374184634631638 -74.568952342068044 -172.729615893867987
105.523612152471188 -74.781009600775818 -169.077851375523750
-6.691164647350605 -74.719641007711488 -174.462086506790968
-9.350026684483423 -74.422388677745744 -171.973420333107384
-61.410736276798914 -73.026665922355022 -179.757676430882213
14.565555759834353 -75.785335775827619 -177.325992516409315
100.901092657287037 -74.742684818791631 -174.086079328501825
103.874759054677867 -74.795712913175691 -174.812698975647351
-66.338333300235291 -75.381364146375461 -184.376276667240717
106.274138675839808 -73.841529633747527 -175.759304103496333
-52.270723761347185 -75.114066074916394 -183.742844758137039
23.109705354260658 -77.822888350122355 -178.813258619718738
106.478069232324202 -74.398881769441715 -180.079743395903876
104.924359868468343 -79.363430857335871 -177.895030883249802
-25.694540514605375 -76.455184929228366 -185.083125902274872
-149.284004456006187 -74.317732384932071 -194.579203064562904
-153.186052448876126 -76.596502360595906 -193.791310725024090
98.474232547490089 -75.707769526567631 -188.303706970070067
102.907958102592531 -74.559648330160002 -186.572400833849514
-32.920790727058233 -75.237615412171479 -194.713900176674599
-48.783988458914436 -75.619615974606504 -194.717244686805572
19.903250098314373 -74.640422991323575 -191.712392622357726
103.292961316101511 -74.825002039892681 -184.160380129372271
6.928531229364214 -73.755866984708319 -192.477790379175389
-22.556150998705519 -75.628225460161630 -197.300974008754395
106.085396890223038 -75.301100872094381 -186.411870613342501
-146.563166520400785 -74.617323288129001 -201.202996038981922
94.367421381149995 -75.937456795771936 -193.498039656503266
16.804522604179915 -74.538518075600010 -196.674348360092040
-137.264008996128752 -77.238190982390933 -209.307563457167817
98.983927327343650 -73.396067971962424 -194.999138078502256
-150.688813455817495 -71.786191979887747 -207.640009795387527
-46.237083293484929 -72.259410341569108 -204.285203674749567
-23.709357948438033 -72.142609205329336 -202.352394491071550
-140.441963396438155 -73.767357925018871 -207.939388648781886
97.212126861559554 -77.692546627761217 -205.425022672046339
91.823189409549570 -74.818403824321237 -203.779218350267939
-150.522126763803328 -72.626353338364069 -217.504179742980625
-23.366413313149494 -75.702744434412267 -208.918227048740533
-144.385737821039754 -69.271073292347680 -218.564692205232461
95.865698438446671 -73.371071273751170 -206.333908698395447
-10.777263416358721 -76.958425794562416 -214.031180421366713
92.578268671113889 -74.888523508678333 -206.830647451082115
2.923319683222273 -76.536508330685592 -213.326575673697619
9.631635788616414 -72.902733030948937 -212.003724494717204
-40.226124944486415 -75.459341413640644 -213.582358206418235
-78.679094255819422 -72.700318371212290 -219.086316419818615
-28.648467929834109 -77.631165807777862 -216.324944933000552
-150.166537218874851 -74.872055838813210 -221.085994906491578
-85.760755756468200 -75.041371313692594 -219.670067753485256
-150.008734838546559 -76.843271374153773 -219.511365684216486
-29.497884008145853 -73.592975865900883 -218.049700134321682
-24.888665754608596 -72.117618838190751 -219.509839504673153
-2.883607708049693 -71.076202490599954 -217.796745379643767
-93.220040237470968 -72.885144084007777 -219.994189817632019
-151.405082402457737 -71.266127913537630 -227.875162583416937
-97.906266322267058 -75.258404816061969 -226.061530885831104
10.852670519553890 -77.405224719987544 -221.709061839359009
-25.803740285667779 -73.401406579906691 -223.836126672368863
-20.177252691362867 -74.941057842791409 -225.425276047993151
-151.246210861694436 -73.251404992685281 -229.998430561593977
-149.707283754429454 -71.821017217848620 -233.969054541132408
-19.320169881794996 -72.447290763390043 -230.832826962184470
-8.378480186353981 -79.794419231048551 -230.579331803099990
0.863383570847875 -73.987290576351441 -226.737161178490027
-24.956359794372325 -73.026022720904436 -227.053194431286130
75.452253195090734 -73.721833050237436 -224.090722229050527
83.387432851853561 -70.283597470563720 -227.830107240570072
-14.639727762485688 -73.297768708370938 -235.144037918169403
5.989561656341088 -70.522232800418962 -233.844134848246881
-10.021029542220271 -72.297728509499507 -233.949406151961057
-4.064582982232187 -72.608107037385196 -233.586668893508545
-14.895284476439311 -73.239166353666704 -245.236195025819114
-33.172070047227947 -71.480023937603832 -243.441145503687380
-2.223870128081511 -74.189179501280620 -242.564458379633862
-35.963908987887351 -74.366369273334996 -248.701324332644305
-45.045306633791213 -75.164203573058032 -247.998274452436078
-20.565165973886142 -72.914613961136894 -245.018232230481914
5.873733904286599 -72.172685817231724 -243.330091832299246
-28.314990561915273 -75.649017637506077 -250.015147781787533
-58.234359466025140 -72.647365161928590 -249.683442813182950
-33.496596016389219 -70.773742908680248 -248.450826790787914
7.121076658114745 -71.635724176976368 -247.137007960524585
-38.934547463726105 -73.659123504055799 -252.873138099164095
10.897866108371272 -75.589898401245662 -247.318587001157852
-1.177561211224063 -76.012613428491889 -243.960035295688982
-42.937276654784341 -72.233579447329021 -251.368122891083061
-152.429630954230106 -73.658158626060299 -255.956490883823363
-146.485471112404326 -73.644841109847036 -253.958369627712926
-74.580441324858171 -74.505728529537208 -252.250272249807523
-58.971080814564601 -72.971157640728165 -252.571737690741912
18.459863126138583 -73.816835265314779 -250.163330423182941
-80.110355280176066 -72.633728070328459 -261.099790923095782
-65.838568936673894 -72.801929084428636 -256.478430707656571
-9.882373668086565 -74.291520494257085 -255.233669777630297
-84.237095517763890 -71.135125846102497 -259.722634405703786
-129.357549070569092 -73.148362111677429 -263.603883253784545
20.751283654639881 -73.513752211393083 -261.453888153746846
-133.065611105013232 -74.443449657158567 -267.009663926724727
-141.471334548599970 -70.373641921278008 -268.791312765866621
17.448066163420616 -72.161273420638054 -279.996577632068806
-161.452306599682771 -73.969516319372531 -290.245846828772471
-150.447625739097333 -72.884418125655515 -291.904722215244988
-146.034150243106126 -75.789046254186857 -291.527684555088967
-32.511954018931313 -73.741483962072607 -290.455245573822310
-150.163462685368927 -74.131928126389923 -298.172706380277248
-66.448774914527704 -73.665127499407319 -293.968163175578297
-23.110558883548414 -76.322536436784816 -288.648246643616574
-67.853987851820364 -73.889262145741355 -294.952635781485071
-164.870761476685828 -73.731799634941780 -296.797139078512998
-141.574645220052389 -75.084758100951760 -295.581402841655290
-145.319757463507045 -71.310601769903329 -296.119683936838101
5.049992708371228 -74.734390566439501 -292.845407951421350
-112.831073302192692 -73.031937450115464 -297.488508706870050
-135.551488929541819 -73.714879417028030 -296.131893111387171
-94.610117912960717 -72.453385898995833 -294.974399068202217
-71.671228704054897 -72.635215595368351 -298.161024496288348
-133.302283995150901 -73.858619856100475 -299.814829862910699
-81.197496147291815 -73.582936772636401 -299.022507878765111
-61.176186816450368 -71.548344516469044 -298.609750303733563
-39.998125165870249 -74.249078580699504 -296.332992632727667
-24.531053973668786 -72.854657909631257 -296.089878236680022
-4.780833526778640 -72.373808473503985 -295.164743932728413
7.583616604954088 -71.444491903262318 -295.538782727793091
-135.248718524811665 -70.978946628591672 -302.720092340964300
-126.580448857797080 -71.230936646726292 -304.548900620335132
17.689066614731594 -71.569210003315931 -296.657744572460444
-151.596665530264801 -71.705586873094077 -312.378490540903158
-152.287949321300829 -71.019318371092410 -321.687284251989638
-56.690482701298734 -74.356011594951610 -53.427314344601122
-81.684838734231121 -75.024907377177598 -57.260420844555703
-30.233297951906035 -74.631462771791902 -67.173857034854549
-28.539794235433686 -76.931427755639760 -69.999986545130483
81.622702163250608 -74.483105946295510 -72.616586106063110
-96.932824469773536 -75.927052703954942 -78.365543352380612
-34.597013581795387 -74.125683777175169 -79.422577545479115
76.616605180651646 -75.614411255313058 -77.828221161133882
66.139349014416226 -74.196933686587244 -81.500989009080953
-54.569307804321824 -74.227893829902570 -87.398069771089482
89.486292938715380 -73.474018244677893 -84.085429754914713
-99.738483351431000 -73.468937978916870 -104.497051802249686
68.492318551166662 -74.536741514557249 -97.525584539154465
45.105936508108002 -78.060207912653368 -100.886524691223599
-72.771110815492079 -73.767528873480444 -106.103077757801969
75.596047613283389 -73.378110632845392 -100.295429592636012
-85.447354437916545 -73.337338221433029 -107.789735612315454
101.270077540210210 -77.963099413101332 -105.606350494127540
42.100880399102138 -75.511584443545260 -110.685935839359260
29.056055499623678 -75.362618594706746 -109.857670248453232
102.718361076602562 -75.249219520271907 -112.227394745907105
-97.040984376862397 -73.960591637990788 -120.700762342235478
107.474467079778748 -75.282454905543673 -112.856030000689813
38.225364696635296 -72.990219140156441 -120.180119220688766
30.460861700877945 -76.486357677555020 -121.290078599413604
35.845290171656046 -76.628661760158877 -121.507224479059815
38.454231747007427 -75.873699691786484 -126.193741600792933
105.467182222589443 -73.836808561853061 -128.428918199853968
39.668993052075379 -75.567872836542534 -132.415323571659769
-58.637207847405492 -74.630348344236467 -139.828839496937462
-62.706145180515193 -73.736233349354990 -142.489199545151223
102.942702121850274 -76.877086396764369 -138.370016114234318
-79.851229100425158 -72.565138732152533 -146.001238730251032
-48.701520241968694 -71.397624287436471 -149.592168851389346
-74.230122747705266 -74.091070793855508 -153.461841367730216
28.633728938203010 -76.106005027534195 -150.036559688484061
104.128419873736021 -74.368340592421873 -149.611399681323633
-60.178497150638492 -72.702050848220594 -158.588598562175122
-67.936368751146603 -71.659883273726024 -159.710274584774680
-67.666162742616521 -75.629600500521093 -161.501139170014767
-53.376365199020896 -74.816037981003163 -160.994765062689879
109.645849831901586 -72.838550917552269 -156.141277837541196
104.124040334966395 -74.975136391942826 -159.599055968075987
15.189350211341040 -73.196215854857741 -159.372574198661795
112.311414521182499 -74.419820186074972 -160.830165572499823
-68.078629742760754 -74.225789243335910 -165.936863086706921
-63.348171713604557 -72.236815638791896 -170.085066534210057
-60.574069386740589 -74.259893395685509 -169.379240320306792
-72.845714085954299 -73.279693316921282 -173.802661858483589
-50.247494806495638 -73.724346514862034 -171.728150226109904
-0.856040754181986 -72.106640009248380 -174.355790092352464
14.639783445154652 -72.214025792343762 -170.197169644407694
111.006589537561368 -72.246229611290460 -168.515640410341604
26.507396630066768 -68.710973136790741 -172.654418619827851
-59.488741114022005 -79.490351010158918 -178.447105897330403
13.633909128822921 -74.740071255017980 -176.011633844072833
-61.457577914406514 -72.580760216314090 -184.004855688281225
-54.282473934905411 -73.583469905112423 -184.759515828319877
9.733311509502698 -73.046298680023241 -187.314060736801366
13.101368515395095 -74.320056872538032 -187.166923353035827
-24.658768128049374 -76.470139855326465 -186.491013063914693
-33.898847586087413 -74.588121359223038 -189.428679621949783
22.000650624841409 -74.961026609353354 -183.297970838645313
20.612176748084533 -74.882627605199389 -189.452425454104258
-54.274245464505697 -72.209797797712838 -190.878074408160415
-148.088492028893029 -72.844640909019390 -193.981122201583560
-150.170791878859347 -75.030587397074939 -199.611956783754067
-33.428465926811498 -69.792153466621016 -193.279939967887145
-47.853104658366490 -73.050013210055909 -195.349136903518399
-152.387976315215099 -74.274476266191684 -204.594684399166596
23.099375659391445 -73.806568590655573 -197.835646768289678
15.423658652653032 -71.769932172677002 -197.236959270461966
-49.068131879478571 -76.200538758334858 -203.832049014999598
9.412621265928117 -75.343059370369417 -198.905634051033417
-141.577967115456971 -75.887720071061082 -207.718289213179105
89.044713444525058 -72.175077247527824 -196.350707499920702
-48.832342656136873 -72.758489129925948 -204.624925382958821
-140.495117891089876 -71.525628118168740 -211.436725909932278
-38.097536315604479 -74.376845977617805 -209.936842875649177
14.278173096124338 -70.242874475170552 -207.019395362853317
20.434990701624834 -72.390064411285195 -210.987536202748686
-5.946840226143840 -72.824866977051812 -212.038542184464376
-36.670944856115085 -73.042921246283029 -213.212052281921814
-16.832813404953509 -74.457367348912939 -217.218279294734401
-79.068715556311162 -72.489329646965359 -220.720128911350031
89.538071296431752 -73.576876160186643 -211.870802245930292
-89.989349068242788 -75.153674268208178 -223.308525828493401
14.746622828502606 -75.932838280180476 -215.724204221856269
84.737555814899935 -72.781764515675050 -215.653339189589559
88.016983268535014 -73.451837688916967 -215.660425841603768
-146.465816938162504 -73.161747818733005 -227.369472607864708
87.896236835837712 -74.077478970490461 -218.761128880909467
-17.878413188944695 -75.852943911984866 -223.556460303950161
-3.692624722693491 -72.226318878244854 -223.012334730384850
-101.069721211418070 -74.836663608517142 -230.239439096017065
-96.492933506001975 -75.094843934054381 -225.804502161155540
3.987576784833863 -72.471366312525817 -225.529080563685113
-28.771705660291701 -78.005401623888872 -225.993172683232416
-102.273284294379934 -71.533965278180375 -231.431171969392807
89.071567032296457 -73.361934617978108 -225.343724702033683
14.611410132865124 -76.094184104150557 -225.614434080906761
-20.758676982080011 -76.645533101455200 -230.084079275559844
82.029500999522455 -75.215415681359033 -226.273135055738607
-0.488263398446517 -75.212363840876790 -228.237376327581529
80.215707108331841 -70.896467236586133 -223.483553349297154
-15.213599098232459 -75.681690124931251 -231.198866928170560
-13.665960797917313 -73.498831683903433 -230.476864894984942
-130.156040207121208 -70.880805303585973 -233.528421257447775
-126.120218345366879 -71.664509974848485 -236.412697912992712
12.965538876020094 -70.955506537838573 -231.032734560036573
-143.365888607945209 -73.506024534834864 -241.192837496177447
-9.165199125804170 -71.793456605601818 -230.570861022542601
-131.482768639043854 -70.143174573976964 -240.058871119587025
-123.464716110002371 -74.602799303767796 -236.292569032808444
4.019298599934251 -75.571556358023273 -235.329117089751179
68.423040774305363 -71.563358141449015 -236.993725552132332
-20.894340453120570 -70.119005911693691 -240.390417414113813
71.020521074663677 -74.744508971514634 -235.315552464873974
-166.478901783793333 -70.504711197622910 -246.345905494260705
64.182889343453169 -71.527005188895913 -238.843468460915403
3.237983052981566 -73.542049402542673 -239.735244436469458
62.048754867884114 -71.485316293708976 -242.882801834430239
-36.206605931501016 -73.140823081443358 -244.285801727414167
-26.039806973212286 -72.307401091823422 -244.658535426975135
-48.695268733063500 -70.872706626637978 -249.949619011607780
18.383127450259934 -71.666830782708828 -250.742314577804080
19.109287184911619 -73.449471089353011 -247.086401483351267
-157.433598240354712 -73.858992140321703 -261.544422976713747
-87.858424706373199 -73.855021985334361 -257.807219567907566
-93.191348083000790 -69.310719527172779 -262.898804253415108
-78.789662436995670 -69.379432269960290 -262.093007881394385
-94.207093057168620 -68.090308314336866 -260.469394540018072
-85.495750854902568 -72.735869583197712 -262.003068069510562
-132.623639590649390 -73.493748042852914 -266.904613134001977
-126.697965406512694 -72.327285041470319 -270.240049365234370
-162.719526495257185 -72.556864012293175 -271.635411286689873
-149.762367061639594 -72.770976813469659 -270.368635380003013
-139.772173430594279 -69.349681229885178 -272.217255656613645
-163.550043501181960 -72.299374493295204 -272.208538549548109
-149.695283894141795 -71.994832964632806 -272.046948209787274
-126.093865932779920 -73.623437152463438 -270.684288587668107
-152.526968363683153 -73.838737919138424 -272.297301388840708
-144.613704695506215 -74.098778438418535 -277.880015727288139
-160.217397676272640 -69.949294706463533 -276.800552115977382
-164.579384554262901 -71.728593385398725 -276.614351673859630
-150.054033642393478 -73.726209749172455 -279.675676561336672
-168.676982294130710 -71.148141285577736 -285.365855491586160
-149.230046438084656 -74.624476433568375 -283.941440776757418
-149.149646021031856 -73.004262380259675 -288.756797707744454
-150.027025371749488 -71.352650120914234 -293.816909765912044
-162.825352695368196 -70.825340142046130 -294.398935328054165
-124.321546169856248 -70.942612783678300 -293.280245698002773
-25.275855986364014 -70.712591446315940 -288.337850038751810
-43.358981459324411 -70.098648127328772 -292.549611383169747
-155.428820221340288 -72.976150266245085 -293.563806432523563
-6.577207975107465 -72.353444708574287 -289.744608971522382
-86.903283094160159 -72.221618007125542 -291.639781402235030
-96.988427135421446 -69.094272346474838 -290.153587368139767
-121.786872580155062 -69.449637773951139 -296.818776293966948
-110.235185885095987 -71.028566892205973 -293.657345052282380
-97.991340115353452 -71.014990179155973 -296.825752244537796
-151.438731978023498 -73.328056014357713 -302.426106405762141
15.701028207600189 -74.900746338683916 -289.735311148245671
-120.238719254111132 -70.786942545338135 -299.754862810317604
-107.919261629228103 -69.518601565266678 -298.061683586570496
-58.697545521928490 -73.226889159828318 -295.003458197299494
-99.330741713513277 -69.498916374977810 -300.213005182599659
-156.658034623546371 -74.040227694267244 -305.095115897931692
-14.299939116419672 -72.074331620265951 -295.213226147931039
-139.852770397223225 -68.075357567312210 -301.919551769090674
-127.516285335505728 -68.962019946880204 -300.194950574310269
-157.160411099842747 -71.204244045322156 -304.880181078278383
-151.133706183488243 -71.299656951795001 -304.590254902307947
-143.488322206779287 -74.849748963669214 -304.967352134996247
-152.075985272869559 -70.306991341423426 -309.092611555744384
-143.738140487747103 -73.629143705118608 -310.636039193099066
-143.781390122919220 -72.607074723778524 -309.397826143478540
-141.710948539552248 -70.029001283300616 -317.797303409826384
-144.594643186523797 -71.565549383847312 -324.975887616544242
-71.496489311399557 -71.300286786878004 -57.074872316235776
-62.293350471998423 -76.602244995010707 -53.781486663883349
-42.905318715256215 -71.894232781099973 -57.626310612838559
-37.748098594874818 -76.306413899943337 -61.777400999148064
82.819192265990608 -70.605307756197803 -71.342161316783702
66.541552924566332 -73.612237972312272 -70.822974369268394
61.297837404864183 -74.650619852760087 -73.797915965336884
-45.702496698517237 -73.190924756377783 -84.552540480961639
88.287785848102615 -77.593316581949921 -78.895774621261495
89.697421138274336 -74.911833044630626 -84.223133110710137
63.965664262743857 -72.545526736790492 -83.063238287886350
53.487911584157814 -73.508420403615673 -90.923743831812132
50.083591919814637 -73.086578327454987 -93.877329689321101
43.198233928810168 -74.279225496399789 -97.726896438698304
49.905275534000793 -75.859971772685839 -97.803352483539953
95.116535238222696 -73.697003687686973 -96.303656145723025
37.639791520435367 -75.246101798503631 -100.886828868442706
69.932494169434250 -72.317579393728181 -97.730451634586245
35.895835384676730 -74.426175477430206 -100.619430504864198
49.468939727891652 -73.095113930500062 -103.401691969830395
84.331765967325524 -76.225008357308525 -98.798687583225842
93.154838941195550 -75.578209481921434 -101.427697127265930
-100.731277247396889 -73.094506194740831 -116.676165577660925
33.158278823362039 -75.077581425351298 -109.123860933889162
-91.884303563361641 -74.650497679115517 -122.028396166052104
43.690427773515410 -73.895739246083721 -121.334236278289993
102.373604457367449 -70.261030193196348 -122.733565339307958
24.144405898798713 -73.846891764038048 -127.049602989723397
26.549484681391174 -74.953273385667472 -124.898411484983555
107.536980191538404 -75.311933883527360 -125.612628423644381
102.600190177572031 -73.499138822232197 -128.454427235401653
32.178599141068531 -72.746447411668541 -132.281806895039352
26.012448942853364 -73.790483343663041 -132.614399187860812
22.163913467034231 -72.310144771022067 -135.510892485141198
107.928643409281634 -72.707169272913546 -131.848865249623373
-76.675963479188269 -71.405678349689097 -148.666621208695290
-52.705330640038397 -70.217931471037687 -145.508271795277238
107.900953569998478 -72.371342826318553 -142.355493787102773
108.192411924200329 -73.864728565519798 -139.214572485023524
-51.403396806726050 -73.791397366816909 -149.782676437002607
-63.654498535216348 -77.718078768855463 -148.681640176701507
17.342309426026517 -72.883047354785518 -149.152287218189713
-78.927123651785195 -71.806270559860906 -152.334741273428421
30.148639623747460 -71.302153559842921 -147.932563513787528
-74.585391908749699 -72.728705522262658 -158.024593385093254
-78.087439456876453 -74.287312305726317 -156.895488019213843
-45.416199645712865 -73.246554451242389 -155.612783135191478
-40.616219728830977 -69.815463464934155 -158.117866574162747
7.006566409619992 -72.518448007173262 -154.916433822998982
109.716785854540063 -72.033131127365095 -155.485252724297027
111.573310365909592 -71.792102626299211 -151.755774616805695
18.118620477095071 -73.817780853706111 -157.708717167556898
7.877947499484623 -74.273382810125227 -156.184327050808065
28.023454021084515 -69.239152199507231 -162.577984578577968
-70.412622264664606 -73.405673510253138 -163.511631100890668
-36.919406044894181 -75.604762352346185 -163.574708262944569
3.291384465720574 -74.837666506582792 -159.444098457248629
18.611844555954129 -72.380390063531777 -161.545170052284334
29.700701440947395 -71.939809384070202 -166.120483480363731
-50.305247442459319 -74.709153105682901 -169.638538577333293
-7.878305260285005 -71.611414902232724 -169.577446531081989
102.606665572433073 -72.914710314699875 -161.821538949260514
-7.511393165714685 -71.501689500226050 -171.283243401517780
-71.250551372190898 -70.740093265984228 -172.815192105910569
106.579882481432705 -73.170583295405379 -169.122287756939130
-62.096342115057752 -69.815355807044739 -180.813525527481886
-31.373465200322453 -72.626999555306980 -178.805893669687151
-59.237564968547488 -73.922275028881643 -180.084779198439065
21.936305079082086 -72.714929243089827 -177.886372422834313
106.037798545372297 -78.362026772790813 -174.153886835839103
-25.497207095576769 -75.239950751636172 -183.313717575136678
-40.365765880239508 -72.528481842647253 -181.823560820300742
-41.837694068600229 -72.728435431873919 -181.034542810304288
-151.811434255944022 -70.125881696570303 -189.351781609186929
-57.104118533658578 -74.807354889129769 -183.389504673886279
103.707353653454163 -72.216718407242737 -178.026867061194309
-147.702235394479743 -70.160993402923992 -191.054157002915048
102.189193566240576 -75.355294010138692 -181.903990467477684
-19.955365063586704 -70.497411302088665 -188.758882740240608
107.388676497777681 -74.405564318925798 -185.266756178511997
-152.367306664578223 -71.599321935092632 -197.923301253051704
95.785189133415074 -73.231732816694773 -189.492977584848887
104.554652925335773 -71.635718096285530 -184.907640341188994
98.172026511273771 -73.442920822149560 -191.066873135598115
-21.310269834640501 -72.527574052393746 -196.089761300635388
5.374118251880674 -75.767106376851245 -191.983291359132323
-17.064947529687448 -73.474378248287792 -202.378988138197883
-135.717685830428849 -70.832480312979882 -205.640671414014037
-129.103714170503537 -72.177844046650478 -206.791388549524186
100.492214312491043 -70.976055628593798 -197.635043230148455
-133.865208681092554 -71.422658079627240 -208.084736211353999
100.249524113130221 -72.493082555239894 -199.504626290395464
-18.146165364689395 -73.454009944180697 -210.596163115347935
4.912477819761818 -73.036436180149693 -205.189531111934286
-41.492619395929566 -72.603311126944533 -209.440045435683260
88.779927991714516 -69.770093652036294 -205.260733874079847
92.323280882444550 -76.836513378015610 -205.311612918963988
4.041991499457170 -71.064394002555815 -210.562296585762141
102.286725628568519 -74.770442366631784 -207.416069459987455
91.912817271781734 -71.100526814951706 -210.907442140948547
-19.329613820569421 -70.748877683708173 -218.443664266830638
-86.730835895600052 -73.133343685958494 -220.752420604855303
-32.386269673427961 -65.848633757438805 -220.762260705324906
-26.969707612017459 -72.600240249230552 -218.655399946881829
89.101725728290120 -72.123107550801720 -212.290995229630511
-84.870711990615618 -70.465005764691597 -222.928564452817369
-147.259231044413241 -72.294444540069819 -226.793627797249485
-5.979133116596904 -69.117394523603949 -220.280242595485902
-88.906283224696296 -70.118670654597764 -227.170581485562451
-18.330424244199662 -68.239160641985322 -224.916841868738260
3.747002135069165 -72.917814744108910 -219.779364973773312
81.828078801900503 -73.892929190908603 -218.757251923300515
-22.201559237018252 -71.327148323762287 -225.323904235103498
-149.717083572937099 -69.440481019006583 -233.211948385491809
-14.591031548633278 -69.513392404211984 -225.046582149917327
12.574457388858779 -70.825165576491614 -226.100467440595992
78.240026230040002 -72.512225339584333 -221.247451417997439
-163.229320015917182 -72.044731723458455 -236.626352991504774
76.837030178944531 -72.518617800373221 -222.973039735013515
-132.383056940457408 -69.937524873699417 -236.153394750671680
-26.353917858086248 -72.069556950440230 -229.086421719893053
6.331216842368583 -70.485882528785055 -228.853983912251266
-138.998381254176508 -72.878619389614983 -236.088529786867326
-147.450766975457412 -73.825821471522801 -238.416263670304460
69.524171493216969 -73.072578539089363 -229.616333845322117
-141.253115325134758 -69.426673368578562 -238.979482476236512
-134.849640641426674 -69.658619276213898 -241.081381638310063
-153.291302236170679 -71.583171087753030 -240.367402587673979
75.501464050722873 -70.659858342929041 -234.077264608378584
-135.109134113910471 -70.104313356496306 -243.906723585551703
-126.877646722735037 -71.739976330384238 -242.057092394358506
8.828494255130156 -73.191331497056069 -237.985920090248868
-13.741973137207609 -71.836260494314971 -239.285391727981249
-158.260831184924143 -68.512047761020014 -242.927187717812529
-152.456836592125399 -69.928893179501060 -250.144711942370662
16.654071173806273 -70.764190280951112 -240.361270813549879
-162.944235682228594 -72.264009822138888 -247.104279511296482
-2.791189752751578 -69.790893652251526 -235.055565895479475
-5.296197272471312 -73.159819661251547 -238.952019470150162
-144.291341149778361 -73.449810296190634 -245.052635385928767
62.425741604445506 -71.712385372223181 -240.267216985276093
-29.697175054343599 -74.694383895083661 -246.222560596249451
-153.931404430177821 -71.184200420155591 -248.644129759971094
-156.017289531802078 -71.632561142038767 -250.491935323445915
-166.550122353227891 -74.814405906274985 -252.280827718654365
10.679868538340315 -72.266718202875524 -243.561940723899994
-7.297463043146175 -69.626528154853489 -244.897356705063658
19.075352048529098 -73.590220724582053 -245.283005630961924
-59.039080920819814 -68.992016125877839 -251.022242704212118
-49.675229927648672 -73.054465931120959 -254.655838691631828
9.287648977283180 -72.569802088948151 -249.245609307751494
60.274300133759269 -71.976695010019711 -246.994437256452130
-46.942895208487315 -71.221860004704112 -251.512595990976848
0.629550760594208 -73.543314798883301 -251.151943221230539
-152.855812746116470 -72.163628755516228 -253.243196059484916
-67.927512213029360 -72.112219471507245 -253.188562583919719
18.100469860750596 -70.216931469580373 -249.091619893519606
-151.249564916854979 -74.214988599383972 -254.878796080195258
-161.576657936391513 -69.795262338849582 -257.999307081341328
16.649605082091469 -72.356407565757749 -250.928958478933879
-164.272210075814371 -69.821358084127766 -259.600950740578639
-147.850788710180524 -71.992666016633166 -265.243577434335009
-154.273500019592319 -72.144214211195901 -262.919133543333999
-162.542691633265264 -74.595229187923920 -262.411640051134896
-130.658858629809771 -66.765844483227795 -264.377956183056426
-14.922753817527600 -73.158110905003468 -256.464025967396310
-155.274751107879240 -67.846430303800062 -264.201359578725885
-117.896838796564211 -71.433132763257674 -263.533289315994011
-96.947916983918589 -71.740493974067107 -264.281486849870873
-120.870358080243506 -70.106153070506565 -264.310327990788664
-103.343631567909654 -71.335246056773329 -264.939323139030876
-97.460771003325931 -72.002618272668300 -261.636032676201580
-93.344423451921514 -72.428618702141847 -266.639473392843456
-147.637594537916414 -68.866043567870804 -269.225053157831269
-116.599883815971239 -71.850135332124722 -268.500771191987155
-148.191073971882332 -75.407728018971909 -267.587964240491942
-113.974186389541984 -70.330869726934068 -271.319474468540079
-16.135805831287531 -71.833913566049191 -264.513350104697736
-155.152874663071060 -73.138466941032732 -269.948584272123014
-139.886744340876447 -70.259285746086334 -272.210643825746502
-164.158835200388637 -71.414051015727324 -278.981222501617026
-9.445351034442437 -74.582624545053363 -278.650402148179126
-166.705862148565842 -71.499897517687657 -294.573850494181215
-134.628433732364556 -71.622341952634599 -296.010684371724210
-73.831807718749957 -71.802419764469292 -289.527657073569173
-28.582046133108705 -72.962687213803548 -290.955594672451127
-25.724638332658991 -69.985588073292035 -292.759008210110267
-114.806882592323689 -70.383104749053103 -294.407882691049849
-2.168875948293863 -72.022434003686740 -292.411859587090873
9.780127229575459 -69.942310042193654 -288.114701143004197
16.136481937957893 -72.210847636150646 -295.262431119047619
-45.245823570970543 -72.332157961450022 -296.498667551697622
-72.418266765968198 -70.552418389137657 -298.096227415419889
-110.713453781600947 -74.059332964636354 -301.263691056330515
-17.267269298546100 -72.759447360338228 -295.648842062846143
-12.574756370520323 -73.613719835359788 -294.738328951382812
-123.182856335497377 -70.709064046779005 -302.043581731103643
0.530705606595488 -70.410242015538088 -298.171321408479457
18.224090129798153 -72.144771303691101 -293.874077659738873
10.539302349126814 -73.810653576878437 -297.574625005021915
-159.889592285311949 -70.604224397810881 -305.974396011644274
16.448125036327866 -73.699850043259133 -19.154339504548325
19.275354853585757 -75.582846527998683 -20.706546997488978
18.371350510246621 -76.346630454484526 -22.739871959139968
13.454154544095058 -71.893372459200350 -28.778020818129079
14.388074156263940 -75.024886501466440 -27.496281702956388
10.827964909141226 -73.869571739940255 -28.493333084763137
14.486709487722603 -74.427624360271011 -35.301919080341719
34.114378027114071 -73.176177825065096 -36.733029510816451
16.355694675595743 -72.990119342224816 -37.587311751743108
25.089650965636874 -74.550762033448379 -39.119511877525348
28.665888676428384 -75.441889956106436 -42.232344039322406
22.538741090143322 -72.828188360083914 -43.655031749425476
-89.364106566675872 -69.760274242380575 -68.213267620289116
-30.193442494552457 -73.740445922922120 -62.512741611177667
-94.940618834750097 -73.620844805669719 -75.481872336209847
-29.933359332601679 -72.431281558544129 -71.656816667049924
64.597421101138110 -72.696794297508717 -73.837623706886774
-37.022541606829435 -76.934638926886947 -81.682633688711419
-53.486394395960616 -72.890169871701758 -89.596097677424723
89.879902340718374 -74.592969165065767 -83.273320961632962
90.939741355386417 -73.187813329679486 -95.726312191885953
55.029977574225782 -74.563153462595963 -96.736918778505583
41.931032212164325 -72.776484399151883 -100.362992484793253
45.874601475001640 -76.019441298958810 -102.666926949691302
-81.122469649403314 -72.466771141311852 -101.914526491331017
87.788187733160854 -72.874328301619684 -97.886252409823570
-78.462713075188304 -71.905776367093054 -105.818059019548784
-82.771894700840150 -73.457038356560588 -106.984527858428947
72.158329890722854 -70.479585781741491 -104.343247703502229
47.424777527372029 -74.066410629484878 -105.572987719531710
32.284727310545023 -75.575796898294243 -109.132496567593734
44.951341205125786 -71.820720149749775 -111.042082565075162
103.849671491765605 -73.150991847521055 -111.517406053969069
34.376550230307032 -76.787190586412677 -115.952718514462319
-99.296519792329519 -69.855626792656849 -126.279632169207943
106.858495502605933 -74.023088115087404 -116.187289092500762
104.364074913825277 -75.438912056834539 -119.148492699033056
41.777277988191088 -69.901263009662031 -121.378753203431998
33.420705859084066 -74.923833906019425 -127.637364592127014
101.346789594194760 -74.063031365322743 -126.077367787165414
-57.469047337186083 -68.953248861493506 -138.888555381971088
108.470461464622218 -73.429272576925385 -129.078243616123785
-80.732630040683603 -71.735408121371947 -140.324650739320475
111.595937290537691 -73.567259243170113 -135.478317664973304
-51.114451277646353 -75.538651782392961 -142.995184764213263
106.487743384490372 -74.708790477160633 -132.750692217230835
33.816079125104082 -69.553426600983727 -139.966580362540583
-47.275074956810229 -72.736512661536764 -148.353483198862733
109.097195812264587 -72.277820964940730 -142.774617833978112
-69.911250429470485 -70.836631032779565 -152.299964460701744
22.561219651019503 -74.951154345700132 -147.510446858181837
-60.404874425991110 -72.579261934527963 -151.204470194448760
-75.229205893827412 -71.681504457290060 -153.764433375092779
29.208375985863999 -71.356261647579643 -151.344163957685112
102.844014753061842 -71.611406721283629 -149.673189304811530
-70.728331470730183 -73.024544564222140 -158.624444971140548
2.368028972258614 -72.394075818976404 -154.642434658055407
8.682491694352969 -74.788918832704425 -157.276140800767962
106.389608538948266 -74.135924237995965 -150.586371508973883
-56.309454186289585 -69.412532290531459 -159.987034077734648
-54.181458684226698 -71.361096344071143 -158.607310022719929
-68.454350066601492 -70.989953901451756 -166.112257102580315
110.640841552313390 -75.350810283310594 -156.381653099581058
108.365055385213992 -73.472064722964816 -159.895172121874765
8.385350586018845 -74.724860536641316 -162.920181017786035
-72.921848015284411 -70.559168858455749 -165.017827519025616
-38.976940574151271 -72.969265019197536 -165.237672752733545
102.867038152709085 -72.566277137299664 -160.214530072572018
-52.629222633222227 -72.134561817818280 -167.965437975274824
-65.292636467473784 -73.730585810812954 -170.639132752865379
108.906069791742198 -71.503378010600969 -162.149395522416143
-65.001641546413168 -71.164794042056627 -171.063436891226360
25.331082728696519 -71.604149147430334 -171.925435776955339
106.959661681256193 -70.055437489711252 -167.213992688494244
-46.084202890851998 -72.629633210123515 -176.319490169227294
-45.560063252141205 -69.447976033962547 -176.867005256365616
-31.066821194923243 -76.407789193765353 -177.207647445017386
-150.798863088178706 -70.175155159292274 -186.905068860019298
-146.510769291713046 -74.429795290690905 -183.673349201166019
100.289725812927301 -74.264927207062030 -176.880724374880060
107.262838864180409 -76.089973204000472 -176.404975451549262
10.427730186793951 -71.442128642741466 -181.953747276090866
103.108201333061075 -74.180399119879269 -183.023248937725384
