# This PCD file was generated using the MATLAB® pcwrite function
# from Computer Vision Toolbox®.
# .PCD v.7 - Point Cloud Data file format
VERSION .7
FIELDS x y z
SIZE 8 8 8
TYPE F F F
COUNT 1 1 1
WIDTH 799
HEIGHT 1
VIEWPOINT 0 0 0 1 0 0 0
POINTS 799
DATA ascii
-11.437500000000000 -51.024898529052734 -249.750000000000000
-13.343799591064453 -51.455398559570313 -250.149993896484375
-12.390600204467773 -51.940601348876953 -250.527999877929688
24.549699783325195 -51.940601348876953 -250.149993896484375
30.770799636840820 -51.940601348876953 -250.149993896484375
-12.390600204467773 -51.940601348876953 -250.630004882812500
-11.437500000000000 -51.005001068115234 -250.550003051757813
14.736300468444824 -51.940601348876953 -250.550003051757813
28.744199752807617 -51.940601348876953 -250.550003051757813
-13.343799591064453 -51.266899108886719 -250.949996948242188
-12.354700088500977 -51.940601348876953 -250.949996948242188
-12.390600204467773 -51.940601348876953 -251.128005981445313
-11.437500000000000 -51.150199890136719 -250.949996948242188
8.578120231628418 -51.065601348876953 -250.949996948242188
29.546899795532227 -51.039299011230469 -250.949996948242188
-12.693900108337402 -51.940601348876953 -251.750000000000000
-13.343799591064453 -51.044700622558594 -252.149993896484375
-12.390600204467773 -51.798400878906250 -252.149993896484375
5.718750000000000 -50.995399475097656 -252.149993896484375
8.578120231628418 -51.107601165771484 -252.149993896484375
11.437500000000000 -51.064998626708984 -252.149993896484375
31.044599533081055 -51.940601348876953 -252.149993896484375
-13.769300460815430 -51.940601348876953 -252.550003051757813
-13.343799591064453 -51.024200439453125 -252.550003051757813
26.362800598144531 -51.940601348876953 -252.550003051757813
28.935199737548828 -51.940601348876953 -252.550003051757813
-12.656900405883789 -51.940601348876953 -252.949996948242188
6.671879768371582 -51.011100769042969 -252.949996948242188
11.437500000000000 -51.077598571777344 -252.949996948242188
-12.424699783325195 -51.940601348876953 -253.350006103515625
-13.343799591064453 -51.160800933837891 -253.350006103515625
-12.390600204467773 -51.940601348876953 -253.483001708984375
-11.437500000000000 -51.460201263427734 -253.350006103515625
-9.531250000000000 -51.076900482177734 -253.350006103515625
16.472099304199219 -51.940601348876953 -253.350006103515625
-13.995900154113770 -51.940601348876953 -254.149993896484375
8.578120231628418 -51.124698638916016 -254.149993896484375
11.437500000000000 -51.131900787353516 -254.149993896484375
14.296899795532227 -51.011501312255859 -254.149993896484375
16.736600875854492 -51.940601348876953 -254.149993896484375
26.493099212646484 -51.940601348876953 -254.149993896484375
5.718750000000000 -51.003700256347656 -254.550003051757813
-14.027999877929688 -51.940601348876953 -254.949996948242188
7.625000000000000 -51.148799896240234 -254.949996948242188
28.593799591064453 -51.426399230957031 -254.949996948242188
30.155500411987305 -51.940601348876953 -254.949996948242188
-9.531250000000000 -51.309398651123047 -255.350006103515625
5.718750000000000 -51.004199981689453 -255.350006103515625
11.437500000000000 -51.147499084472656 -255.350006103515625
16.203100204467773 -51.059398651123047 -255.350006103515625
8.578120231628418 -51.187500000000000 -255.750000000000000
13.343799591064453 -51.118698120117188 -255.750000000000000
16.203100204467773 -51.141201019287109 -255.750000000000000
17.244800567626953 -51.940601348876953 -255.750000000000000
17.156200408935547 -51.525199890136719 -255.750000000000000
29.740499496459961 -51.940601348876953 -255.750000000000000
-10.484399795532227 -51.615200042724609 -256.149993896484375
-13.343799591064453 -51.485900878906250 -256.549987792968750
6.671879768371582 -51.086601257324219 -256.549987792968750
11.437500000000000 -51.225799560546875 -256.549987792968750
26.168100357055664 -51.940601348876953 -256.549987792968750
27.640600204467773 -51.940601348876953 -257.207000732421875
-13.940999984741211 -51.940601348876953 -257.350006103515625
-8.578120231628418 -51.388801574707031 -257.350006103515625
17.430999755859375 -51.940601348876953 -257.350006103515625
-12.390600204467773 -51.318199157714844 -257.750000000000000
14.296899795532227 -51.205898284912109 -257.750000000000000
-9.531250000000000 -51.584201812744141 -258.149993896484375
17.156200408935547 -51.452999114990234 -258.149993896484375
-6.671879768371582 -51.171100616455078 -258.549987792968750
6.671879768371582 -51.178100585937500 -258.549987792968750
11.437500000000000 -51.305198669433594 -258.549987792968750
16.203100204467773 -51.288799285888672 -258.549987792968750
27.640600204467773 -51.456199645996094 -258.549987792968750
29.105899810791016 -51.940601348876953 -258.549987792968750
-13.343799591064453 -51.815200805664063 -258.950012207031250
-11.437500000000000 -51.064800262451172 -259.350006103515625
-9.531250000000000 -51.769298553466797 -259.350006103515625
9.531250000000000 -51.256198883056641 -259.350006103515625
25.238700866699219 -51.940601348876953 -259.350006103515625
-8.578120231628418 -51.645099639892578 -259.750000000000000
4.765620231628418 -51.063098907470703 -259.750000000000000
7.625000000000000 -51.247398376464844 -259.750000000000000
14.296899795532227 -51.330600738525391 -259.750000000000000
29.211999893188477 -51.940601348876953 -260.149993896484375
29.546899795532227 -51.022800445556641 -260.149993896484375
-4.765620231628418 -51.041698455810547 -260.549987792968750
6.671879768371582 -51.167499542236328 -260.549987792968750
10.484399795532227 -51.323501586914063 -260.549987792968750
17.156200408935547 -51.329898834228516 -260.549987792968750
-12.390600204467773 -51.728801727294922 -260.950012207031250
-7.625000000000000 -51.620498657226563 -260.950012207031250
15.250000000000000 -51.331298828125000 -260.950012207031250
-7.625000000000000 -51.633201599121094 -261.750000000000000
-5.718750000000000 -51.337001800537109 -261.750000000000000
5.718750000000000 -51.138301849365234 -261.750000000000000
17.563100814819336 -51.940601348876953 -261.750000000000000
5.718750000000000 -51.192199707031250 -262.149993896484375
10.484399795532227 -51.362800598144531 -262.149993896484375
14.296899795532227 -51.329200744628906 -262.149993896484375
17.156200408935547 -51.407199859619141 -262.149993896484375
25.278099060058594 -51.940601348876953 -262.149993896484375
-10.484399795532227 -51.282001495361328 -262.549987792968750
27.603599548339844 -51.940601348876953 -262.549987792968750
29.271299362182617 -51.940601348876953 -262.549987792968750
-3.812500000000000 -51.212200164794922 -262.950012207031250
5.718750000000000 -51.180900573730469 -262.950012207031250
11.437500000000000 -51.317699432373047 -262.950012207031250
16.203100204467773 -51.305198669433594 -262.950012207031250
-9.531250000000000 -51.168098449707031 -263.350006103515625
-5.718750000000000 -51.535900115966797 -263.350006103515625
-0.953125000000000 -51.034400939941406 -263.350006103515625
2.859380006790161 -51.053501129150391 -263.350006103515625
5.718750000000000 -51.232398986816406 -263.350006103515625
11.437500000000000 -51.378501892089844 -263.350006103515625
27.594400405883789 -51.940601348876953 -263.350006103515625
-11.437500000000000 -51.803398132324219 -264.149993896484375
-6.671879768371582 -51.780200958251953 -264.149993896484375
-4.765620231628418 -51.408401489257813 -264.149993896484375
-0.953125000000000 -51.027198791503906 -264.149993896484375
1.906250000000000 -50.987499237060547 -264.149993896484375
4.765620231628418 -51.157398223876953 -264.149993896484375
29.149700164794922 -51.940601348876953 -264.149993896484375
8.578120231628418 -51.354999542236328 -264.549987792968750
14.296899795532227 -51.379600524902344 -264.549987792968750
29.125699996948242 -51.940601348876953 -264.549987792968750
28.593799591064453 -51.025600433349609 -264.549987792968750
-0.953125000000000 -51.197799682617188 -264.950012207031250
17.639299392700195 -51.940601348876953 -264.950012207031250
27.750600814819336 -51.940601348876953 -264.950012207031250
-4.765620231628418 -51.538600921630859 -265.350006103515625
0.000000000000000 -51.096599578857422 -265.350006103515625
8.578120231628418 -51.246898651123047 -265.350006103515625
10.484399795532227 -51.337398529052734 -265.350006103515625
16.203100204467773 -51.317699432373047 -265.350006103515625
17.156200408935547 -51.396999359130859 -265.350006103515625
-10.484399795532227 -51.754501342773438 -265.750000000000000
-8.578120231628418 -51.230098724365234 -265.750000000000000
5.718750000000000 -51.224098205566406 -265.750000000000000
1.906250000000000 -51.169998168945313 -266.549987792968750
12.390600204467773 -51.357200622558594 -266.549987792968750
27.640600204467773 -51.833198547363281 -266.549987792968750
-5.280819892883301 -51.940601348876953 -266.950012207031250
28.593799591064453 -51.291698455810547 -266.950012207031250
-2.859380006790161 -51.526500701904297 -267.350006103515625
0.000000000000000 -51.323898315429688 -267.350006103515625
4.765620231628418 -51.271499633789063 -267.350006103515625
-9.531250000000000 -51.690200805664063 -267.750000000000000
11.437500000000000 -51.307300567626953 -267.750000000000000
24.781200408935547 -51.281799316406250 -267.750000000000000
8.578120231628418 -51.276000976562500 -268.149993896484375
-8.578120231628418 -51.612400054931641 -268.549987792968750
-3.812500000000000 -51.790699005126953 -268.549987792968750
3.812500000000000 -51.282199859619141 -268.549987792968750
11.437500000000000 -51.361499786376953 -268.549987792968750
16.203100204467773 -51.365200042724609 -268.549987792968750
17.438299179077148 -51.940601348876953 -268.549987792968750
28.593799591064453 -51.392601013183594 -268.549987792968750
17.156200408935547 -51.602100372314453 -268.950012207031250
27.640600204467773 -51.509399414062500 -268.950012207031250
-8.578120231628418 -51.635398864746094 -269.350006103515625
-2.859380006790161 -51.680698394775391 -269.350006103515625
0.953125000000000 -51.321701049804688 -269.350006103515625
8.578120231628418 -51.266300201416016 -269.350006103515625
28.593799591064453 -51.869998931884766 -269.350006103515625
-1.906250000000000 -51.635898590087891 -269.750000000000000
2.859380006790161 -51.351799011230469 -269.750000000000000
14.296899795532227 -51.393501281738281 -269.750000000000000
27.640600204467773 -51.413600921630859 -269.750000000000000
-6.671879768371582 -51.382400512695313 -270.549987792968750
-0.953125000000000 -51.559398651123047 -270.549987792968750
3.812500000000000 -51.323200225830078 -270.549987792968750
8.578120231628418 -51.288799285888672 -270.549987792968750
12.390600204467773 -51.311199188232422 -270.549987792968750
16.203100204467773 -51.358501434326172 -270.549987792968750
-5.718750000000000 -51.312599182128906 -270.950012207031250
0.953125000000000 -51.505599975585938 -270.950012207031250
17.156200408935547 -51.776298522949219 -270.950012207031250
28.267999649047852 -51.940601348876953 -270.950012207031250
14.296899795532227 -51.353199005126953 -271.350006103515625
16.203100204467773 -51.458000183105469 -271.350006103515625
24.781200408935547 -51.791698455810547 -271.350006103515625
27.640600204467773 -51.181098937988281 -271.350006103515625
-7.625000000000000 -51.728801727294922 -271.750000000000000
-0.953125000000000 -51.683700561523438 -271.750000000000000
2.859380006790161 -51.399299621582031 -271.750000000000000
7.625000000000000 -51.294998168945313 -271.750000000000000
-4.765620231628418 -51.219299316406250 -272.149993896484375
11.437500000000000 -51.371200561523438 -272.149993896484375
17.042299270629883 -51.940601348876953 -272.149993896484375
24.446399688720703 -51.940601348876953 -272.149993896484375
26.687500000000000 -51.622898101806641 -272.549987792968750
27.989099502563477 -51.940601348876953 -272.549987792968750
27.640600204467773 -51.150199890136719 -272.549987792968750
-6.671879768371582 -51.653400421142578 -272.950012207031250
-0.953125000000000 -51.828498840332031 -272.950012207031250
0.953125000000000 -51.560901641845703 -272.950012207031250
3.812500000000000 -51.448898315429688 -272.950012207031250
7.625000000000000 -51.348800659179688 -272.950012207031250
14.296899795532227 -51.381099700927734 -272.950012207031250
16.203100204467773 -51.470798492431641 -273.350006103515625
27.640600204467773 -51.516998291015625 -273.350006103515625
27.640600204467773 -51.940601348876953 -274.006988525390625
0.953125000000000 -51.700000762939453 -274.149993896484375
5.718750000000000 -51.444698333740234 -274.149993896484375
8.578120231628418 -51.425899505615234 -274.149993896484375
20.968799591064453 -51.940601348876953 -274.436004638671875
22.875000000000000 -51.126098632812500 -274.149993896484375
23.828100204467773 -51.679798126220703 -274.149993896484375
26.158000946044922 -51.940601348876953 -274.149993896484375
26.687500000000000 -51.259799957275391 -274.149993896484375
-5.718750000000000 -51.680099487304688 -274.549987792968750
-3.812500000000000 -51.318000793457031 -274.549987792968750
2.859380006790161 -51.615501403808594 -274.549987792968750
27.363599777221680 -51.940601348876953 -274.950012207031250
-5.718750000000000 -51.743198394775391 -275.350006103515625
19.697900772094727 -51.940601348876953 -275.350006103515625
-2.859380006790161 -51.319999694824219 -275.750000000000000
9.531250000000000 -51.505599975585938 -275.750000000000000
16.742399215698242 -51.940601348876953 -275.750000000000000
3.812500000000000 -51.691600799560547 -276.149993896484375
19.062500000000000 -51.940601348876953 -276.460998535156250
6.671879768371582 -51.577201843261719 -276.549987792968750
10.484399795532227 -51.495399475097656 -276.549987792968750
15.250000000000000 -51.540699005126953 -276.549987792968750
-4.765620231628418 -51.752899169921875 -276.950012207031250
13.343799591064453 -51.487098693847656 -276.950012207031250
22.875000000000000 -51.834701538085938 -276.950012207031250
7.625000000000000 -51.636600494384766 -277.350006103515625
12.390600204467773 -51.586601257324219 -277.350006103515625
16.203100204467773 -51.728801727294922 -277.350006103515625
19.062500000000000 -51.834701538085938 -277.350006103515625
25.187400817871094 -51.940601348876953 -277.350006103515625
25.734399795532227 -51.144298553466797 -277.350006103515625
26.687500000000000 -51.940601348876953 -277.540008544921875
4.765620231628418 -51.809200286865234 -277.750000000000000
22.581699371337891 -51.940601348876953 -277.750000000000000
21.921899795532227 -51.375000000000000 -277.750000000000000
-0.953125000000000 -51.196300506591797 -278.149993896484375
13.343799591064453 -51.560798645019531 -278.149993896484375
16.203100204467773 -51.616901397705078 -278.149993896484375
18.109399795532227 -51.902500152587891 -278.149993896484375
-3.812500000000000 -51.782901763916016 -278.549987792968750
7.625000000000000 -51.780101776123047 -278.549987792968750
10.484399795532227 -51.651599884033203 -278.549987792968750
18.109399795532227 -51.812599182128906 -278.950012207031250
21.921899795532227 -51.654701232910156 -278.950012207031250
26.154899597167969 -51.940601348876953 -278.950012207031250
7.625000000000000 -51.799800872802734 -279.350006103515625
11.437500000000000 -51.614799499511719 -279.350006103515625
15.250000000000000 -51.684700012207031 -279.350006103515625
8.578120231628418 -51.882499694824219 -279.750000000000000
14.296899795532227 -51.730899810791016 -279.750000000000000
24.781200408935547 -51.130500793457031 -279.750000000000000
25.734399795532227 -51.940601348876953 -279.941986083984375
25.734399795532227 -51.225799560546875 -279.750000000000000
11.437500000000000 -51.707401275634766 -280.549987792968750
13.343799591064453 -51.645198822021484 -280.549987792968750
23.828100204467773 -51.678199768066406 -280.549987792968750
25.397399902343750 -51.940601348876953 -280.549987792968750
0.000000000000000 -51.387001037597656 -280.950012207031250
13.343799591064453 -51.775901794433594 -280.950012207031250
20.968799591064453 -51.769100189208984 -280.950012207031250
-2.903700113296509 -51.940601348876953 -281.750000000000000
-1.906250000000000 -51.686000823974609 -281.750000000000000
11.437500000000000 -51.801101684570313 -281.750000000000000
14.296899795532227 -51.792098999023438 -281.750000000000000
20.015600204467773 -51.499198913574219 -281.750000000000000
-0.953125000000000 -51.604198455810547 -282.549987792968750
20.015600204467773 -51.706798553466797 -282.549987792968750
2.859380006790161 -51.214401245117188 -282.950012207031250
-0.953125000000000 -51.741100311279297 -283.350006103515625
0.953125000000000 -51.483699798583984 -283.350006103515625
2.859380006790161 -51.354099273681641 -283.350006103515625
22.229299545288086 -51.940601348876953 -283.350006103515625
19.062500000000000 -51.638198852539063 -283.750000000000000
23.929800033569336 -51.940601348876953 -283.750000000000000
2.859380006790161 -51.362499237060547 -284.149993896484375
5.718750000000000 -51.172000885009766 -284.549987792968750
18.533000946044922 -51.940601348876953 -284.950012207031250
0.953125000000000 -51.593399047851563 -285.350006103515625
20.784299850463867 -51.940601348876953 -285.350006103515625
22.634300231933594 -51.940601348876953 -285.350006103515625
0.000000000000000 -51.795200347900391 -286.149993896484375
5.718750000000000 -51.270198822021484 -286.149993896484375
7.625000000000000 -51.075298309326172 -286.549987792968750
17.156200408935547 -51.759101867675781 -286.549987792968750
0.266876012086868 -51.940601348876953 -286.950012207031250
2.859380006790161 -51.544101715087891 -286.950012207031250
5.718750000000000 -51.383998870849609 -286.950012207031250
16.203100204467773 -51.533401489257813 -286.950012207031250
7.625000000000000 -51.156299591064453 -287.350006103515625
21.450599670410156 -51.940601348876953 -287.350006103515625
13.343799591064453 -51.031799316406250 -287.750000000000000
15.250000000000000 -51.368801116943359 -287.750000000000000
16.203100204467773 -51.797599792480469 -287.750000000000000
18.947500228881836 -51.940601348876953 -287.750000000000000
2.859380006790161 -51.615200042724609 -288.149993896484375
7.625000000000000 -51.343898773193359 -288.149993896484375
12.390600204467773 -51.305198669433594 -288.149993896484375
20.968799591064453 -50.987499237060547 -288.149993896484375
0.953125000000000 -51.882900238037109 -288.549987792968750
15.250000000000000 -51.753601074218750 -288.549987792968750
11.437500000000000 -51.204898834228516 -288.950012207031250
13.343799591064453 -51.388198852539063 -288.950012207031250
17.865499496459961 -51.940601348876953 -288.950012207031250
9.531250000000000 -51.323299407958984 -289.350006103515625
3.812500000000000 -51.572200775146484 -289.750000000000000
8.578120231628418 -51.472999572753906 -289.750000000000000
19.681200027465820 -51.940601348876953 -289.750000000000000
12.390600204467773 -51.496898651123047 -290.149993896484375
13.343799591064453 -51.756999969482422 -290.149993896484375
2.859380006790161 -51.817600250244141 -290.549987792968750
9.531250000000000 -51.459300994873047 -290.549987792968750
15.809000015258789 -51.940601348876953 -290.950012207031250
18.624099731445313 -51.940601348876953 -290.950012207031250
4.765620231628418 -51.761901855468750 -291.750000000000000
9.531250000000000 -51.818199157714844 -291.750000000000000
13.343799591064453 -51.940601348876953 -292.661987304687500
11.988800048828125 -51.940601348876953 -293.350006103515625
9.531250000000000 -51.940601348876953 -294.233001708984375
3.812500000000000 -51.689800262451172 -294.549987792968750
5.718750000000000 -51.940601348876953 -294.623992919921875
7.625000000000000 -51.940601348876953 -294.574005126953125
3.812500000000000 -51.388801574707031 -294.950012207031250
5.718750000000000 -51.319999694824219 -294.950012207031250
5.718750000000000 -51.095100402832031 -295.350006103515625
3.812500000000000 -51.940601348876953 -295.799011230468750
5.718750000000000 -51.940601348876953 -296.075012207031250
8.578120231628418 -51.940601348876953 -295.993011474609375
35.265598297119141 -50.987499237060547 -12.520199775695801
33.359401702880859 -50.578998565673828 -12.949999809265137
36.218799591064453 -50.548000335693359 -12.949999809265137
31.453100204467773 -50.798198699951172 -13.350000381469727
36.218799591064453 -50.605300903320313 -13.350000381469727
40.031200408935547 -50.565399169921875 -13.750000000000000
29.546899795532227 -50.694198608398438 -14.149999618530273
31.453100204467773 -50.547199249267578 -14.149999618530273
33.359401702880859 -50.431098937988281 -14.149999618530273
40.031200408935547 -50.337001800537109 -14.149999618530273
29.546899795532227 -50.719799041748047 -14.550000190734863
37.171901702880859 -50.404300689697266 -14.550000190734863
40.984401702880859 -50.373001098632813 -14.949999809265137
42.890598297119141 -50.861801147460938 -14.949999809265137
27.640600204467773 -50.749198913574219 -15.350000381469727
27.640600204467773 -50.849098205566406 -15.750000000000000
34.312500000000000 -50.437999725341797 -15.750000000000000
36.218799591064453 -50.403701782226563 -15.750000000000000
41.937500000000000 -50.269100189208984 -15.750000000000000
42.890598297119141 -50.381999969482422 -15.750000000000000
27.640600204467773 -50.741798400878906 -16.149999618530273
31.453100204467773 -50.568099975585938 -16.149999618530273
33.359401702880859 -50.570499420166016 -16.149999618530273
35.265598297119141 -50.591899871826172 -16.149999618530273
37.171901702880859 -50.477001190185547 -16.149999618530273
40.984401702880859 -50.352100372314453 -16.149999618530273
43.843799591064453 -50.502700805664063 -16.149999618530273
29.546899795532227 -50.903400421142578 -16.950000762939453
37.171901702880859 -50.559799194335938 -16.950000762939453
39.078098297119141 -50.259201049804688 -16.950000762939453
43.843799591064453 -50.208801269531250 -16.950000762939453
28.593799591064453 -50.662200927734375 -17.350000381469727
29.546899795532227 -50.674999237060547 -17.350000381469727
39.078098297119141 -50.576499938964844 -17.350000381469727
42.890598297119141 -50.328899383544922 -17.350000381469727
45.671699523925781 -50.987499237060547 -17.350000381469727
44.796901702880859 -50.424900054931641 -17.350000381469727
44.796901702880859 -50.169799804687500 -18.149999618530273
27.640600204467773 -50.795101165771484 -18.549999237060547
40.031200408935547 -50.910499572753906 -18.549999237060547
46.606098175048828 -50.987499237060547 -18.549999237060547
26.687500000000000 -50.793598175048828 -18.950000762939453
40.984401702880859 -50.827598571777344 -18.950000762939453
41.937500000000000 -50.334201812744141 -18.950000762939453
25.053600311279297 -50.987499237060547 -19.350000381469727
41.937500000000000 -50.550399780273438 -19.750000000000000
43.843799591064453 -50.250400543212891 -19.750000000000000
47.466800689697266 -50.987499237060547 -19.750000000000000
24.781200408935547 -50.879398345947266 -20.149999618530273
46.703098297119141 -50.193801879882813 -20.149999618530273
48.092201232910156 -50.987499237060547 -20.549999237060547
42.411201477050781 -50.987499237060547 -20.950000762939453
43.843799591064453 -50.345901489257813 -21.350000381469727
46.703098297119141 -50.159198760986328 -21.350000381469727
47.656200408935547 -50.296798706054688 -21.350000381469727
43.469699859619141 -50.987499237060547 -22.549999237060547
44.796901702880859 -50.289600372314453 -22.549999237060547
48.888698577880859 -50.987499237060547 -22.950000762939453
47.656200408935547 -50.212501525878906 -23.350000381469727
44.014701843261719 -50.987499237060547 -23.750000000000000
44.796901702880859 -50.379798889160156 -23.750000000000000
46.703098297119141 -50.191600799560547 -23.750000000000000
48.609401702880859 -50.449001312255859 -23.750000000000000
47.656200408935547 -50.177501678466797 -24.950000762939453
49.331901550292969 -50.987499237060547 -24.950000762939453
45.750000000000000 -50.227600097656250 -25.350000381469727
44.414501190185547 -50.987499237060547 -26.549999237060547
48.609401702880859 -50.284301757812500 -26.549999237060547
44.796901702880859 -50.612701416015625 -27.350000381469727
45.750000000000000 -50.283500671386719 -27.350000381469727
49.277599334716797 -50.987499237060547 -28.149999618530273
44.156398773193359 -50.987499237060547 -28.950000762939453
44.796901702880859 -50.447101593017578 -28.950000762939453
48.609401702880859 -50.544200897216797 -30.149999618530273
47.656200408935547 -50.233699798583984 -30.549999237060547
43.670398712158203 -50.987499237060547 -30.950000762939453
44.796901702880859 -50.324699401855469 -31.350000381469727
43.843799591064453 -50.495300292968750 -31.750000000000000
47.656200408935547 -50.391799926757813 -32.150001525878906
43.843799591064453 -50.401199340820313 -32.549999237060547
46.703098297119141 -50.227401733398438 -32.549999237060547
48.182998657226563 -50.987499237060547 -32.549999237060547
46.703098297119141 -50.319099426269531 -33.750000000000000
42.890598297119141 -50.429298400878906 -34.549999237060547
47.159301757812500 -50.987499237060547 -34.549999237060547
42.890598297119141 -50.351001739501953 -34.950000762939453
45.750000000000000 -50.315399169921875 -34.950000762939453
40.031200408935547 -50.987499237060547 -35.750000000000000
27.640600204467773 -50.987499237060547 -35.788101196289063
40.984401702880859 -50.564399719238281 -35.750000000000000
44.796901702880859 -50.328201293945313 -35.750000000000000
46.205501556396484 -50.987499237060547 -35.750000000000000
40.984401702880859 -50.441299438476563 -36.150001525878906
43.843799591064453 -50.256198883056641 -36.150001525878906
29.546899795532227 -50.680599212646484 -36.950000762939453
39.078098297119141 -50.625301361083984 -36.950000762939453
42.890598297119141 -50.390098571777344 -36.950000762939453
45.152900695800781 -50.987499237060547 -36.950000762939453
39.078098297119141 -50.473899841308594 -37.349998474121094
43.843799591064453 -50.438899993896484 -37.349998474121094
36.218799591064453 -50.761798858642578 -37.750000000000000
28.593799591064453 -50.794998168945313 -38.150001525878906
31.453100204467773 -50.721500396728516 -38.150001525878906
31.453100204467773 -50.840900421142578 -38.549999237060547
38.125000000000000 -50.399200439453125 -38.549999237060547
40.984401702880859 -50.329898834228516 -38.549999237060547
31.453100204467773 -50.664798736572266 -38.950000762939453
41.937500000000000 -50.786399841308594 -38.950000762939453
40.031200408935547 -50.541801452636719 -39.750000000000000
36.218799591064453 -50.565799713134766 -40.150001525878906
36.218799591064453 -50.834999084472656 -40.950000762939453
-73.390602111816406 -50.987499237060547 -43.400001525878906
-57.187500000000000 -50.987499237060547 -45.105598449707031
-84.951103210449219 -50.987499237060547 -46.950000762939453
-50.515598297119141 -50.421199798583984 -46.950000762939453
-45.750000000000000 -50.478099822998047 -48.150001525878906
-41.937500000000000 -50.987499237060547 -49.741298675537109
-42.890598297119141 -50.145000457763672 -49.750000000000000
-39.078098297119141 -50.632900238037109 -50.150001525878906
-39.078098297119141 -50.071800231933594 -50.549999237060547
-33.359401702880859 -50.230598449707031 -50.950000762939453
-31.453100204467773 -50.630100250244141 -50.950000762939453
-18.109399795532227 -50.987499237060547 -51.647300720214844
-28.593799591064453 -50.106098175048828 -51.750000000000000
-14.296899795532227 -50.987499237060547 -51.890201568603516
-20.015600204467773 -50.055000305175781 -52.150001525878906
-92.923797607421875 -50.987499237060547 -52.950000762939453
-10.068499565124512 -50.987499237060547 -52.950000762939453
-9.050749778747559 -50.987499237060547 -53.750000000000000
-94.359397888183594 -50.987499237060547 -55.114700317382813
-62.906200408935547 -50.090698242187500 -54.950000762939453
-94.981002807617188 -50.987499237060547 -55.750000000000000
-61.953098297119141 -50.592300415039063 -55.750000000000000
-62.906200408935547 -50.885101318359375 -56.150001525878906
-61.000000000000000 -50.465301513671875 -56.150001525878906
-95.283699035644531 -50.987499237060547 -56.549999237060547
-95.765098571777344 -50.987499237060547 -56.950000762939453
-63.859401702880859 -50.987499237060547 -57.349998474121094
74.343803405761719 -50.987499237060547 -57.591899871826172
77.203102111816406 -50.987499237060547 -57.442001342773438
79.109397888183594 -50.987499237060547 -57.496898651123047
-60.046901702880859 -50.274700164794922 -57.750000000000000
-96.394401550292969 -50.987499237060547 -58.150001525878906
-8.895830154418945 -50.987499237060547 -58.150001525878906
72.267799377441406 -50.987499237060547 -58.150001525878906
88.640602111816406 -50.987499237060547 -58.213500976562500
90.546897888183594 -50.987499237060547 -58.476799011230469
81.289398193359375 -50.987499237060547 -58.549999237060547
91.668197631835938 -50.987499237060547 -58.950000762939453
-60.546100616455078 -50.987499237060547 -59.349998474121094
-10.430399894714355 -50.987499237060547 -59.349998474121094
69.966201782226563 -50.987499237060547 -59.349998474121094
82.921897888183594 -50.987499237060547 -59.635700225830078
84.872901916503906 -50.987499237060547 -59.349998474121094
-20.015600204467773 -50.987499237060547 -60.132999420166016
-97.642402648925781 -50.987499237060547 -60.549999237060547
-64.894096374511719 -50.987499237060547 -60.549999237060547
-64.812500000000000 -50.082000732421875 -60.549999237060547
-60.715698242187500 -50.987499237060547 -60.549999237060547
-21.686399459838867 -50.987499237060547 -60.549999237060547
-23.828100204467773 -50.987499237060547 -61.178600311279297
68.240798950195313 -50.987499237060547 -60.950000762939453
-64.812500000000000 -50.118000030517578 -61.750000000000000
-98.171897888183594 -50.987499237060547 -62.359500885009766
97.712303161621094 -50.987499237060547 -62.549999237060547
-98.577796936035156 -50.987499237060547 -62.950000762939453
66.927803039550781 -50.987499237060547 -62.950000762939453
-32.406200408935547 -50.124298095703125 -63.349998474121094
-64.812500000000000 -50.716999053955078 -63.750000000000000
98.697700500488281 -50.987499237060547 -63.750000000000000
-32.846599578857422 -50.987499237060547 -64.150001525878906
66.646102905273438 -50.987499237060547 -64.150001525878906
-61.953098297119141 -50.780498504638672 -64.949996948242188
66.718803405761719 -50.068401336669922 -64.949996948242188
-34.312500000000000 -50.773300170898438 -65.349998474121094
99.389396667480469 -50.987499237060547 -65.349998474121094
-62.906200408935547 -50.789699554443359 -65.750000000000000
-34.812500000000000 -50.987499237060547 -66.150001525878906
66.097602844238281 -50.987499237060547 -66.550003051757813
-99.543403625488281 -50.987499237060547 -66.949996948242188
100.882003784179688 -50.987499237060547 -67.349998474121094
65.765602111816406 -50.649299621582031 -67.750000000000000
70.531196594238281 -50.211101531982422 -68.150001525878906
101.366996765136719 -50.987499237060547 -68.550003051757813
-37.171901702880859 -50.307998657226563 -68.949996948242188
65.765602111816406 -50.615600585937500 -68.949996948242188
66.718803405761719 -50.987499237060547 -69.134597778320313
67.671897888183594 -50.495300292968750 -68.949996948242188
70.531196594238281 -50.522201538085938 -69.349998474121094
74.343803405761719 -50.526298522949219 -69.349998474121094
77.203102111816406 -50.425899505615234 -69.349998474121094
63.859401702880859 -50.072101593017578 -69.750000000000000
66.718803405761719 -50.113800048828125 -69.750000000000000
77.203102111816406 -50.684501647949219 -69.750000000000000
64.812500000000000 -50.593498229980469 -70.150001525878906
65.765602111816406 -50.500701904296875 -70.150001525878906
69.578102111816406 -50.987499237060547 -70.250000000000000
74.343803405761719 -50.987499237060547 -70.230003356933594
77.203102111816406 -50.987499237060547 -70.317298889160156
78.156196594238281 -50.761798858642578 -70.150001525878906
81.968803405761719 -50.987499237060547 -70.873802185058594
-38.100799560546875 -50.987499237060547 -70.949996948242188
85.781196594238281 -50.433898925781250 -70.949996948242188
83.419197082519531 -50.987499237060547 -71.349998474121094
86.734397888183594 -50.407699584960938 -71.349998474121094
85.781196594238281 -50.987499237060547 -71.814498901367188
103.414001464843750 -50.987499237060547 -71.750000000000000
-38.539699554443359 -50.987499237060547 -72.150001525878906
62.906200408935547 -50.103900909423828 -72.150001525878906
64.812500000000000 -50.667400360107422 -72.150001525878906
89.593803405761719 -50.379199981689453 -72.150001525878906
87.895401000976563 -50.987499237060547 -72.550003051757813
63.859401702880859 -50.803600311279297 -72.949996948242188
65.765602111816406 -50.064498901367188 -72.949996948242188
103.706001281738281 -50.987499237060547 -72.949996948242188
-39.078098297119141 -50.444698333740234 -73.349998474121094
62.906200408935547 -50.544998168945313 -73.349998474121094
90.025398254394531 -50.987499237060547 -73.349998474121094
102.938003540039063 -50.121898651123047 -73.750000000000000
-100.037002563476563 -50.987499237060547 -74.150001525878906
93.406196594238281 -50.406799316406250 -74.150001525878906
63.859401702880859 -50.836498260498047 -74.550003051757813
62.906200408935547 -50.859798431396484 -75.349998474121094
64.812500000000000 -50.503200531005859 -75.349998474121094
98.171897888183594 -50.047100067138672 -75.349998474121094
101.984001159667969 -50.213298797607422 -75.349998474121094
94.175399780273438 -50.987499237060547 -75.750000000000000
98.171897888183594 -50.340599060058594 -76.550003051757813
63.859401702880859 -50.865798950195313 -76.949996948242188
97.218803405761719 -50.632999420166016 -76.949996948242188
101.030998229980469 -50.416599273681641 -76.949996948242188
-40.031200408935547 -50.510898590087891 -77.750000000000000
97.427200317382813 -50.987499237060547 -77.750000000000000
100.078002929687500 -50.601600646972656 -77.750000000000000
101.030998229980469 -50.987499237060547 -78.250000000000000
-40.984401702880859 -50.987499237060547 -79.132598876953125
-44.796901702880859 -50.987499237060547 -79.650001525878906
-41.937500000000000 -50.987499237060547 -79.592300415039063
63.859401702880859 -50.766101837158203 -80.150001525878906
-46.069301605224609 -50.987499237060547 -80.550003051757813
-48.810798645019531 -50.987499237060547 -82.150001525878906
61.620098114013672 -50.987499237060547 -82.150001525878906
-50.515598297119141 -50.987499237060547 -82.903198242187500
-52.421901702880859 -50.987499237060547 -83.556602478027344
-53.343601226806641 -50.987499237060547 -83.750000000000000
-100.692001342773438 -50.987499237060547 -84.550003051757813
-56.234401702880859 -50.987499237060547 -84.883003234863281
63.859401702880859 -50.723300933837891 -84.550003051757813
61.522701263427734 -50.987499237060547 -84.949996948242188
101.030998229980469 -50.987499237060547 -85.333297729492188
-57.187500000000000 -50.987499237060547 -85.394897460937500
101.984001159667969 -50.576499938964844 -86.150001525878906
102.938003540039063 -50.987499237060547 -86.919197082519531
99.672302246093750 -50.987499237060547 -86.949996948242188
101.030998229980469 -50.430400848388672 -86.949996948242188
-100.724998474121094 -50.987499237060547 -87.750000000000000
101.984001159667969 -50.383499145507813 -87.750000000000000
100.078002929687500 -50.578998565673828 -88.949996948242188
101.030998229980469 -50.335399627685547 -88.949996948242188
-62.471500396728516 -50.987499237060547 -89.349998474121094
-62.906200408935547 -50.987499237060547 -89.730499267578125
99.528900146484375 -50.987499237060547 -89.349998474121094
61.641700744628906 -50.987499237060547 -89.750000000000000
101.984001159667969 -50.578201293945313 -90.150001525878906
64.812500000000000 -50.034400939941406 -90.550003051757813
61.726200103759766 -50.987499237060547 -90.949996948242188
101.984001159667969 -50.881599426269531 -90.949996948242188
-64.812500000000000 -50.987499237060547 -91.418197631835938
100.078002929687500 -50.905998229980469 -91.349998474121094
101.030998229980469 -50.563899993896484 -91.349998474121094
-67.629699707031250 -50.987499237060547 -94.150001525878906
64.812500000000000 -50.848499298095703 -94.150001525878906
62.311798095703125 -50.987499237060547 -94.550003051757813
-100.565002441406250 -50.987499237060547 -96.550003051757813
62.906200408935547 -50.913200378417969 -96.949996948242188
-70.192398071289063 -50.987499237060547 -97.349998474121094
-70.531196594238281 -50.987499237060547 -97.666000366210938
65.765602111816406 -50.882701873779297 -97.750000000000000
-100.477996826171875 -50.987499237060547 -98.150001525878906
-71.484397888183594 -50.987499237060547 -99.018302917480469
66.718803405761719 -50.289901733398438 -98.949996948242188
-71.817001342773438 -50.987499237060547 -99.750000000000000
63.859401702880859 -50.737300872802734 -99.750000000000000
-72.075401306152344 -50.987499237060547 -100.150001525878906
-72.618202209472656 -50.987499237060547 -100.949996948242188
-73.390602111816406 -50.987499237060547 -102.113998413085938
64.812500000000000 -50.662998199462891 -101.750000000000000
67.671897888183594 -50.861000061035156 -102.150001525878906
-73.954101562500000 -50.987499237060547 -103.349998474121094
65.765602111816406 -50.781200408935547 -103.349998474121094
68.625000000000000 -50.559398651123047 -103.349998474121094
66.718803405761719 -50.987499237060547 -104.016998291015625
66.718803405761719 -50.608299255371094 -104.949996948242188
69.578102111816406 -50.718498229980469 -104.949996948242188
-74.988800048828125 -50.987499237060547 -105.349998474121094
67.671897888183594 -50.567798614501953 -106.150001525878906
68.625000000000000 -50.954299926757813 -106.150001525878906
-75.791900634765625 -50.987499237060547 -106.550003051757813
71.484397888183594 -50.558601379394531 -106.550003051757813
-98.846496582031250 -50.987499237060547 -107.349998474121094
68.625000000000000 -50.435199737548828 -107.349998474121094
70.531196594238281 -50.913501739501953 -107.349998474121094
73.390602111816406 -50.368698120117188 -107.349998474121094
-76.648300170898438 -50.987499237060547 -107.750000000000000
-65.765602111816406 -50.770500183105469 -107.750000000000000
-98.629898071289063 -50.987499237060547 -108.150001525878906
-66.718803405761719 -50.790298461914063 -108.150001525878906
70.531196594238281 -50.595901489257813 -108.150001525878906
72.437500000000000 -50.551799774169922 -108.150001525878906
70.531196594238281 -50.495098114013672 -108.550003051757813
76.250000000000000 -50.370800018310547 -108.550003051757813
-67.671897888183594 -50.851299285888672 -109.349998474121094
-66.718803405761719 -50.749198913574219 -109.349998474121094
72.437500000000000 -50.433200836181641 -109.349998474121094
-79.109397888183594 -50.252300262451172 -109.750000000000000
74.343803405761719 -50.453201293945313 -110.150001525878906
75.296897888183594 -50.376300811767578 -110.150001525878906
-97.883697509765625 -50.987499237060547 -110.949996948242188
-81.015602111816406 -50.048000335693359 -111.349998474121094
-80.042602539062500 -50.987499237060547 -111.750000000000000
-97.486297607421875 -50.987499237060547 -112.150001525878906
-82.910202026367188 -50.987499237060547 -114.550003051757813
-84.828102111816406 -50.040401458740234 -115.750000000000000
-95.972801208496094 -50.987499237060547 -116.949996948242188
-94.550003051757813 -50.987499237060547 -118.949996948242188
-89.593803405761719 -50.873100280761719 -119.750000000000000
-92.453102111816406 -50.715198516845703 -120.150001525878906
10.484399795532227 -50.987499237060547 -235.942993164062500
5.718750000000000 -50.987499237060547 -236.404006958007813
13.343799591064453 -50.987499237060547 -236.281005859375000
6.671879768371582 -50.784500122070313 -236.550003051757813
8.578120231628418 -50.560901641845703 -236.550003051757813
10.484399795532227 -50.307998657226563 -236.550003051757813
17.156200408935547 -50.987499237060547 -237.031005859375000
3.812500000000000 -50.987499237060547 -237.617004394531250
8.578120231628418 -50.757701873779297 -237.350006103515625
9.531250000000000 -50.855400085449219 -237.350006103515625
11.437500000000000 -50.840000152587891 -237.350006103515625
13.343799591064453 -50.403301239013672 -237.350006103515625
5.718750000000000 -50.987499237060547 -238.078994750976563
5.718750000000000 -50.791801452636719 -237.750000000000000
20.674600601196289 -50.987499237060547 -238.550003051757813
17.971700668334961 -50.987499237060547 -238.949996948242188
21.607799530029297 -50.987499237060547 -239.350006103515625
22.276199340820313 -50.987499237060547 -239.750000000000000
14.296899795532227 -50.987499237060547 -240.466003417968750
13.343799591064453 -50.857200622558594 -240.550003051757813
-1.906250000000000 -50.987499237060547 -241.294998168945313
11.437500000000000 -50.716400146484375 -240.949996948242188
15.250000000000000 -50.604698181152344 -240.949996948242188
0.000000000000000 -50.506401062011719 -241.350006103515625
0.953125000000000 -50.740798950195313 -241.350006103515625
11.437500000000000 -50.188701629638672 -241.350006103515625
13.343799591064453 -50.987499237060547 -241.593994140625000
14.296899795532227 -50.332199096679688 -241.350006103515625
21.921899795532227 -50.283000946044922 -241.350006103515625
-5.718750000000000 -50.987499237060547 -241.822006225585938
8.578120231628418 -50.987499237060547 -242.143005371093750
23.791900634765625 -50.987499237060547 -241.750000000000000
-0.953125000000000 -50.987499237060547 -242.397994995117188
9.531250000000000 -50.318500518798828 -242.149993896484375
11.437500000000000 -50.749198913574219 -242.149993896484375
13.343799591064453 -50.263801574707031 -242.149993896484375
15.250000000000000 -50.034400939941406 -242.149993896484375
16.203100204467773 -50.569099426269531 -242.149993896484375
22.875000000000000 -50.113800048828125 -242.149993896484375
-11.437500000000000 -50.493999481201172 -242.550003051757813
-3.812500000000000 -50.987499237060547 -242.613006591796875
-1.906250000000000 -50.583499908447266 -242.550003051757813
3.812500000000000 -50.987499237060547 -242.725006103515625
10.484399795532227 -50.796901702880859 -242.550003051757813
12.390600204467773 -50.471199035644531 -242.550003051757813
15.250000000000000 -50.570499420166016 -242.550003051757813
16.203100204467773 -50.987499237060547 -242.731994628906250
18.109399795532227 -50.650100708007813 -242.550003051757813
-9.531250000000000 -50.987499237060547 -243.333999633789063
-6.671879768371582 -50.875400543212891 -242.949996948242188
-4.765620231628418 -50.446498870849609 -242.949996948242188
0.953125000000000 -50.504901885986328 -242.949996948242188
6.671879768371582 -50.726699829101563 -242.949996948242188
17.156200408935547 -50.104999542236328 -242.949996948242188
24.781200408935547 -50.987499237060547 -243.020004272460938
-12.390600204467773 -50.861801147460938 -243.350006103515625
-7.625000000000000 -50.240001678466797 -243.350006103515625
-4.765620231628418 -50.211700439453125 -243.350006103515625
9.531250000000000 -50.695400238037109 -243.350006103515625
11.437500000000000 -50.487701416015625 -243.350006103515625
16.203100204467773 -50.401000976562500 -243.350006103515625
18.109399795532227 -50.551799774169922 -243.350006103515625
22.854299545288086 -50.987499237060547 -243.350006103515625
23.828100204467773 -50.190898895263672 -243.350006103515625
-9.531250000000000 -50.067600250244141 -243.750000000000000
0.000000000000000 -50.398200988769531 -243.750000000000000
7.625000000000000 -50.987499237060547 -243.863998413085938
10.484399795532227 -50.571800231933594 -243.750000000000000
16.203100204467773 -50.669799804687500 -243.750000000000000
19.062500000000000 -50.617900848388672 -243.750000000000000
25.734399795532227 -50.987499237060547 -243.949996948242188
-11.045999526977539 -50.987499237060547 -244.149993896484375
3.812500000000000 -50.819301605224609 -244.149993896484375
14.296899795532227 -50.647098541259766 -244.149993896484375
17.356899261474609 -50.987499237060547 -244.149993896484375
17.156200408935547 -50.860401153564453 -244.149993896484375
18.109399795532227 -50.093898773193359 -244.149993896484375
24.781200408935547 -50.110599517822266 -244.149993896484375
3.812500000000000 -50.587799072265625 -244.550003051757813
5.718750000000000 -50.711898803710938 -244.550003051757813
7.625000000000000 -50.540699005126953 -244.550003051757813
14.296899795532227 -50.554298400878906 -244.550003051757813
17.502799987792969 -50.987499237060547 -244.550003051757813
17.156200408935547 -50.442901611328125 -244.550003051757813
19.062500000000000 -50.569801330566406 -244.550003051757813
15.250000000000000 -50.842098236083984 -244.949996948242188
19.062500000000000 -50.265399932861328 -244.949996948242188
23.828100204467773 -50.847301483154297 -244.949996948242188
-10.484399795532227 -50.102500915527344 -245.350006103515625
-0.953125000000000 -50.305801391601563 -245.350006103515625
24.781200408935547 -50.390201568603516 -245.350006103515625
26.687500000000000 -50.327598571777344 -245.350006103515625
3.812500000000000 -50.604499816894531 -245.750000000000000
8.578120231628418 -50.606201171875000 -245.750000000000000
13.343799591064453 -50.666198730468750 -245.750000000000000
20.015600204467773 -50.651599884033203 -245.750000000000000
20.015600204467773 -50.396800994873047 -246.149993896484375
24.781200408935547 -50.751899719238281 -246.149993896484375
26.687500000000000 -50.262298583984375 -246.149993896484375
-12.390600204467773 -50.550701141357422 -246.550003051757813
-11.437500000000000 -50.987499237060547 -246.850006103515625
-10.484399795532227 -50.165798187255859 -246.550003051757813
-1.906250000000000 -50.216598510742188 -246.550003051757813
8.578120231628418 -50.773300170898438 -246.550003051757813
13.990500450134277 -50.987499237060547 -246.550003051757813
13.343799591064453 -50.655200958251953 -246.550003051757813
-11.459699630737305 -50.987499237060547 -246.949996948242188
-12.390600204467773 -50.431499481201172 -246.949996948242188
-8.578120231628418 -50.139400482177734 -246.949996948242188
1.906250000000000 -50.569698333740234 -246.949996948242188
5.718750000000000 -50.777999877929688 -246.949996948242188
10.484399795532227 -50.619499206542969 -246.949996948242188
27.640600204467773 -50.423000335693359 -246.949996948242188
20.015600204467773 -50.325199127197266 -247.350006103515625
26.687500000000000 -50.672901153564453 -247.350006103515625
-11.624699592590332 -50.987499237060547 -247.750000000000000
5.718750000000000 -50.730201721191406 -247.750000000000000
7.625000000000000 -50.777999877929688 -247.750000000000000
10.484399795532227 -50.690799713134766 -247.750000000000000
-10.484399795532227 -50.361999511718750 -248.149993896484375
-3.812500000000000 -50.034400939941406 -248.149993896484375
2.859380006790161 -50.637100219726563 -248.149993896484375
13.343799591064453 -50.683101654052734 -248.149993896484375
29.657400131225586 -50.987499237060547 -248.149993896484375
-6.671879768371582 -50.118301391601563 -248.550003051757813
21.542800903320313 -50.987499237060547 -248.550003051757813
28.593799591064453 -50.604400634765625 -248.550003051757813
-4.765620231628418 -50.065399169921875 -248.949996948242188
14.296899795532227 -50.794998168945313 -248.949996948242188
30.205699920654297 -50.987499237060547 -248.949996948242188
-12.952699661254883 -50.987499237060547 -249.350006103515625
-11.621399879455566 -50.987499237060547 -249.350006103515625
-12.390600204467773 -50.190299987792969 -249.350006103515625
-11.437500000000000 -50.806701660156250 -249.350006103515625
8.578120231628418 -50.868400573730469 -249.350006103515625
10.484399795532227 -50.803398132324219 -249.350006103515625
29.546899795532227 -50.577598571777344 -249.350006103515625
-12.390600204467773 -50.308799743652344 -249.750000000000000
-11.437500000000000 -50.987499237060547 -250.070007324218750
-10.484399795532227 -50.585300445556641 -249.750000000000000
-9.531250000000000 -50.493801116943359 -249.750000000000000
-0.953125000000000 -50.352100372314453 -249.750000000000000
