# This PCD file was generated using the MATLAB® pcwrite function
# from Computer Vision Toolbox®.
# .PCD v.7 - Point Cloud Data file format
VERSION .7
FIELDS x y z
SIZE 8 8 8
TYPE F F F
COUNT 1 1 1
WIDTH 788
HEIGHT 1
VIEWPOINT 0 0 0 1 0 0 0
POINTS 788
DATA ascii
-62.906200408935547 -78.120697021484375 -206.149993896484375
-60.321498870849609 -78.628097534179688 -206.149993896484375
-34.312500000000000 -78.385398864746094 -206.149993896484375
-13.343799591064453 -77.776901245117188 -206.149993896484375
-65.765602111816406 -78.264297485351563 -206.550003051757813
-64.812500000000000 -78.071296691894531 -206.550003051757813
-61.953098297119141 -78.077201843261719 -206.550003051757813
-29.908399581909180 -78.628097534179688 -206.550003051757813
-69.578102111816406 -78.628097534179688 -207.333999633789063
-67.671897888183594 -78.535301208496094 -206.949996948242188
-34.312500000000000 -78.238197326660156 -206.949996948242188
-10.555999755859375 -78.628097534179688 -206.949996948242188
-65.765602111816406 -77.781600952148438 -207.350006103515625
-63.859401702880859 -77.858398437500000 -207.350006103515625
-38.125000000000000 -78.628097534179688 -207.705993652343750
-35.265598297119141 -77.681503295898438 -207.350006103515625
-71.290496826171875 -78.628097534179688 -207.750000000000000
-68.625000000000000 -77.689102172851563 -207.750000000000000
-67.671897888183594 -77.684997558593750 -207.750000000000000
-62.906200408935547 -77.937500000000000 -207.750000000000000
-61.105899810791016 -78.628097534179688 -207.750000000000000
-61.953098297119141 -78.119796752929688 -207.750000000000000
-14.296899795532227 -77.955596923828125 -207.750000000000000
-74.343803405761719 -78.628097534179688 -208.410003662109375
-71.484397888183594 -77.759201049804688 -208.149993896484375
-28.782400131225586 -78.628097534179688 -208.149993896484375
12.390600204467773 -77.947303771972656 -208.149993896484375
13.343799591064453 -78.036499023437500 -208.149993896484375
-17.020099639892578 -78.628097534179688 -208.550003051757813
-12.390600204467773 -77.873397827148438 -208.550003051757813
14.296899795532227 -77.963699340820313 -208.550003051757813
17.104099273681641 -78.628097534179688 -208.550003051757813
-65.765602111816406 -77.682403564453125 -208.949996948242188
-63.859401702880859 -77.940597534179688 -208.949996948242188
-31.453100204467773 -77.997398376464844 -208.949996948242188
11.437500000000000 -77.720596313476563 -208.949996948242188
-150.039993286132813 -78.628097534179688 -209.350006103515625
-76.766296386718750 -78.628097534179688 -209.350006103515625
-36.218799591064453 -78.628097534179688 -209.714004516601563
-27.793699264526367 -78.628097534179688 -209.350006103515625
-17.156200408935547 -78.115997314453125 -209.750000000000000
-14.296899795532227 -77.750198364257813 -209.750000000000000
-144.481994628906250 -78.628097534179688 -210.149993896484375
-79.474700927734375 -78.628097534179688 -210.149993896484375
-65.765602111816406 -77.896797180175781 -210.149993896484375
-13.343799591064453 -77.953201293945313 -210.149993896484375
-11.437500000000000 -77.849700927734375 -210.550003051757813
-66.718803405761719 -78.025802612304688 -210.949996948242188
-31.453100204467773 -77.708602905273438 -210.949996948242188
-30.500000000000000 -77.875999450683594 -210.949996948242188
-10.484399795532227 -77.680397033691406 -210.949996948242188
13.343799591064453 -78.166297912597656 -210.949996948242188
-67.671897888183594 -78.125900268554688 -211.350006103515625
-34.638198852539063 -78.628097534179688 -211.350006103515625
8.578120231628418 -78.528099060058594 -211.350006103515625
-146.781005859375000 -78.628097534179688 -212.087005615234375
-145.662994384765625 -78.628097534179688 -211.750000000000000
-25.820100784301758 -78.628097534179688 -211.750000000000000
-11.437500000000000 -77.976699829101563 -211.750000000000000
11.437500000000000 -78.031898498535156 -211.750000000000000
-83.875000000000000 -77.936996459960938 -212.149993896484375
-29.546899795532227 -77.764396667480469 -212.149993896484375
-13.343799591064453 -77.681701660156250 -212.149993896484375
-12.390600204467773 -77.977798461914063 -212.149993896484375
10.484399795532227 -77.704902648925781 -212.149993896484375
17.156200408935547 -78.521499633789063 -212.149993896484375
-84.828102111816406 -77.792297363281250 -212.550003051757813
-70.028198242187500 -78.628097534179688 -212.550003051757813
-25.083499908447266 -78.628097534179688 -212.550003051757813
-85.781196594238281 -78.066299438476563 -212.949996948242188
-5.718750000000000 -77.684402465820313 -213.350006103515625
14.296899795532227 -78.056297302246094 -213.350006103515625
13.343799591064453 -78.254501342773438 -213.750000000000000
-75.296897888183594 -78.628097534179688 -214.475006103515625
-73.827499389648438 -78.628097534179688 -214.149993896484375
-15.250000000000000 -77.713096618652344 -214.149993896484375
12.390600204467773 -78.327697753906250 -214.149993896484375
-85.781196594238281 -78.514900207519531 -214.550003051757813
-31.453100204467773 -78.472503662109375 -214.550003051757813
-9.531250000000000 -78.038497924804688 -214.550003051757813
-8.578120231628418 -77.854598999023438 -214.550003051757813
-80.062500000000000 -78.628097534179688 -215.320999145507813
-78.156196594238281 -78.628097534179688 -215.266006469726563
-11.437500000000000 -77.826301574707031 -214.949996948242188
10.484399795532227 -77.977699279785156 -215.350006103515625
-147.733993530273438 -78.628097534179688 -215.841995239257813
-146.781005859375000 -78.628097534179688 -215.906997680664063
-86.734397888183594 -78.171302795410156 -215.750000000000000
-30.500000000000000 -78.181602478027344 -215.750000000000000
-10.484399795532227 -78.027702331542969 -215.750000000000000
-9.531250000000000 -78.118202209472656 -215.750000000000000
16.948299407958984 -78.628097534179688 -215.750000000000000
-145.975006103515625 -78.628097534179688 -216.149993896484375
-83.875000000000000 -78.374000549316406 -216.149993896484375
-149.641006469726563 -78.628097534179688 -216.647003173828125
-145.464004516601563 -78.628097534179688 -216.949996948242188
-10.484399795532227 -77.809700012207031 -216.949996948242188
-7.625000000000000 -77.985000610351563 -216.949996948242188
14.296899795532227 -78.143600463867188 -216.949996948242188
-145.070999145507813 -78.628097534179688 -217.350006103515625
-28.593799591064453 -78.239601135253906 -217.350006103515625
-20.968799591064453 -78.264099121093750 -217.350006103515625
10.484399795532227 -78.151603698730469 -217.750000000000000
14.296899795532227 -78.245796203613281 -217.750000000000000
-150.445007324218750 -78.628097534179688 -218.149993896484375
-27.640600204467773 -78.210197448730469 -218.149993896484375
-3.363970041275024 -78.628097534179688 -218.149993896484375
9.531250000000000 -77.736801147460938 -218.149993896484375
-20.015600204467773 -78.185997009277344 -218.550003051757813
-9.531250000000000 -77.705902099609375 -218.550003051757813
-7.625000000000000 -78.138000488281250 -218.550003051757813
15.250000000000000 -77.697998046875000 -218.550003051757813
-144.973007202148438 -78.628097534179688 -218.949996948242188
-26.687500000000000 -78.135803222656250 -218.949996948242188
-8.578120231628418 -77.940200805664063 -218.949996948242188
-2.723220109939575 -78.628097534179688 -218.949996948242188
7.405620098114014 -78.628097534179688 -219.350006103515625
-20.015600204467773 -78.437500000000000 -219.750000000000000
-19.062500000000000 -78.094596862792969 -219.750000000000000
-5.718750000000000 -78.260696411132813 -219.750000000000000
14.296899795532227 -78.375297546386719 -219.750000000000000
-21.921899795532227 -78.628097534179688 -220.488006591796875
7.443830013275146 -78.628097534179688 -220.149993896484375
-19.062500000000000 -78.208099365234375 -220.550003051757813
-1.765050053596497 -78.628097534179688 -220.550003051757813
9.531250000000000 -77.879898071289063 -220.550003051757813
17.027700424194336 -78.628097534179688 -220.550003051757813
-23.828100204467773 -78.250198364257813 -220.949996948242188
-7.625000000000000 -78.014999389648438 -220.949996948242188
-6.671879768371582 -78.310401916503906 -220.949996948242188
-3.812500000000000 -77.933601379394531 -220.949996948242188
-150.458999633789063 -78.628097534179688 -221.750000000000000
-145.041000366210938 -78.628097534179688 -221.750000000000000
14.260700225830078 -78.628097534179688 -221.750000000000000
-21.921899795532227 -78.206398010253906 -222.149993896484375
-18.109399795532227 -78.147399902343750 -222.149993896484375
15.250000000000000 -77.927597045898438 -222.149993896484375
7.231450080871582 -78.628097534179688 -222.550003051757813
-144.970001220703125 -78.628097534179688 -222.949996948242188
-19.062500000000000 -78.211601257324219 -222.949996948242188
-5.718750000000000 -78.120498657226563 -222.949996948242188
17.244400024414063 -78.628097534179688 -222.949996948242188
-150.516998291015625 -78.628097534179688 -223.350006103515625
-20.015600204467773 -78.059303283691406 -223.350006103515625
-6.671879768371582 -77.681396484375000 -223.350006103515625
-3.812500000000000 -78.332099914550781 -223.350006103515625
-2.859380006790161 -78.146301269531250 -223.350006103515625
-1.906250000000000 -77.841903686523438 -223.750000000000000
0.297378987073898 -78.628097534179688 -223.750000000000000
-152.128997802734375 -78.628097534179688 -224.149993896484375
-152.330993652343750 -78.628097534179688 -224.550003051757813
-142.968994140625000 -78.628097534179688 -224.694000244140625
-3.812500000000000 -78.255599975585938 -224.550003051757813
-152.830001831054688 -78.628097534179688 -224.949996948242188
-142.572006225585938 -78.628097534179688 -224.949996948242188
17.500400543212891 -78.628097534179688 -224.949996948242188
-4.765620231628418 -77.827003479003906 -225.750000000000000
-141.061996459960938 -78.628097534179688 -226.378997802734375
-137.250000000000000 -78.628097534179688 -226.483001708984375
-3.812500000000000 -78.021102905273438 -226.149993896484375
-1.906250000000000 -78.057197570800781 -226.149993896484375
15.250000000000000 -78.420600891113281 -226.149993896484375
7.058730125427246 -78.628097534179688 -226.550003051757813
-154.048004150390625 -78.628097534179688 -226.949996948242188
-146.781005859375000 -78.628097534179688 -227.276000976562500
9.677889823913574 -78.628097534179688 -226.949996948242188
17.641700744628906 -78.628097534179688 -226.949996948242188
-134.832992553710938 -78.628097534179688 -227.350006103515625
1.906250000000000 -78.571403503417969 -227.350006103515625
15.239999771118164 -78.628097534179688 -227.350006103515625
-146.356002807617188 -78.628097534179688 -227.750000000000000
-134.582992553710938 -78.628097534179688 -227.750000000000000
-154.287002563476563 -78.628097534179688 -228.149993896484375
-2.859380006790161 -77.711097717285156 -228.149993896484375
-1.906250000000000 -77.887298583984375 -228.149993896484375
9.581419944763184 -78.628097534179688 -228.149993896484375
17.797100067138672 -78.628097534179688 -228.149993896484375
-145.960998535156250 -78.628097534179688 -228.550003051757813
-134.468002319335938 -78.628097534179688 -228.550003051757813
-5.718750000000000 -78.195999145507813 -228.550003051757813
-154.266998291015625 -78.628097534179688 -229.350006103515625
-146.113006591796875 -78.628097534179688 -229.750000000000000
-134.572006225585938 -78.628097534179688 -229.750000000000000
15.622400283813477 -78.628097534179688 -229.750000000000000
-146.781005859375000 -78.628097534179688 -230.546005249023438
6.998499870300293 -78.628097534179688 -230.149993896484375
9.559559822082520 -78.628097534179688 -230.149993896484375
-134.850997924804688 -78.628097534179688 -230.550003051757813
-154.033004760742188 -78.628097534179688 -230.949996948242188
-148.259994506835938 -78.628097534179688 -230.949996948242188
-141.061996459960938 -78.628097534179688 -231.244995117187500
-136.296997070312500 -78.628097534179688 -231.145996093750000
-0.953125000000000 -77.681198120117188 -230.949996948242188
0.000000000000000 -77.710700988769531 -230.949996948242188
3.812500000000000 -78.003898620605469 -230.949996948242188
18.372999191284180 -78.628097534179688 -230.949996948242188
-141.610000610351563 -78.628097534179688 -231.350006103515625
-142.097000122070313 -78.628097534179688 -231.750000000000000
15.925700187683105 -78.628097534179688 -231.750000000000000
-142.156005859375000 -78.628097534179688 -232.149993896484375
7.016200065612793 -78.628097534179688 -232.149993896484375
9.531250000000000 -78.430603027343750 -232.550003051757813
-152.882995605468750 -78.628097534179688 -232.949996948242188
16.322299957275391 -78.628097534179688 -232.949996948242188
18.708900451660156 -78.628097534179688 -232.949996948242188
7.107880115509033 -78.628097534179688 -233.350006103515625
-2.859380006790161 -77.702201843261719 -233.750000000000000
-151.304992675781250 -78.628097534179688 -234.149993896484375
-144.121994018554688 -78.628097534179688 -234.149993896484375
-151.095993041992188 -78.628097534179688 -234.550003051757813
9.713470458984375 -78.628097534179688 -234.550003051757813
-0.953125000000000 -78.406600952148438 -235.350006103515625
4.765620231628418 -77.933296203613281 -235.350006103515625
7.368639945983887 -78.628097534179688 -235.350006103515625
-150.529006958007813 -78.628097534179688 -235.750000000000000
-145.136993408203125 -78.628097534179688 -235.750000000000000
17.156200408935547 -78.300201416015625 -235.750000000000000
19.602399826049805 -78.628097534179688 -236.149993896484375
-0.953125000000000 -77.708999633789063 -236.949996948242188
10.015500068664551 -78.628097534179688 -236.949996948242188
19.646699905395508 -78.628097534179688 -236.949996948242188
0.000000000000000 -78.188201904296875 -237.350006103515625
3.812500000000000 -78.300399780273438 -237.350006103515625
-145.052993774414063 -78.628097534179688 -237.750000000000000
-150.563995361328125 -78.628097534179688 -238.149993896484375
-25.734399795532227 -77.675003051757813 -238.149993896484375
17.556800842285156 -78.628097534179688 -238.149993896484375
-26.687500000000000 -78.355102539062500 -238.550003051757813
-23.828100204467773 -78.333000183105469 -238.550003051757813
-21.921899795532227 -78.113800048828125 -238.550003051757813
1.906250000000000 -78.204498291015625 -238.550003051757813
3.812500000000000 -78.168998718261719 -238.550003051757813
4.765620231628418 -77.946403503417969 -238.550003051757813
-33.359401702880859 -78.628097534179688 -239.022003173828125
-24.781200408935547 -78.628097534179688 -238.988998413085938
10.275300025939941 -78.628097534179688 -238.949996948242188
20.190999984741211 -78.628097534179688 -238.949996948242188
-36.218799591064453 -78.628097534179688 -239.647003173828125
-39.078098297119141 -78.628097534179688 -240.026000976562500
-22.398399353027344 -78.628097534179688 -239.750000000000000
-20.015600204467773 -78.151603698730469 -239.750000000000000
-150.451995849609375 -78.628097534179688 -240.149993896484375
-22.354299545288086 -78.628097534179688 -240.149993896484375
-150.330993652343750 -78.628097534179688 -240.550003051757813
-145.322998046875000 -78.628097534179688 -240.550003051757813
7.996170043945313 -78.628097534179688 -240.550003051757813
18.314800262451172 -78.628097534179688 -240.550003051757813
-20.015600204467773 -77.682601928710938 -240.949996948242188
-149.542007446289063 -78.628097534179688 -241.350006103515625
-23.289899826049805 -78.628097534179688 -241.350006103515625
-21.921899795532227 -78.187400817871094 -241.750000000000000
8.278059959411621 -78.628097534179688 -242.149993896484375
-50.515598297119141 -78.347503662109375 -242.550003051757813
-24.781200408935547 -78.428596496582031 -242.550003051757813
-22.875000000000000 -77.675003051757813 -242.550003051757813
10.484399795532227 -77.740699768066406 -242.550003051757813
19.054000854492188 -78.628097534179688 -242.550003051757813
-50.892898559570313 -78.628097534179688 -242.949996948242188
-54.328098297119141 -78.076797485351563 -243.750000000000000
-56.234401702880859 -78.172302246093750 -244.149993896484375
-35.265598297119141 -78.628097534179688 -244.304992675781250
-55.042999267578125 -78.628097534179688 -244.550003051757813
21.655000686645508 -78.628097534179688 -244.550003051757813
-38.569801330566406 -78.628097534179688 -244.949996948242188
-57.187500000000000 -78.344100952148438 -245.350006103515625
11.181099891662598 -78.628097534179688 -245.350006103515625
-148.688003540039063 -78.628097534179688 -245.776000976562500
-60.046901702880859 -78.304199218750000 -245.750000000000000
-58.140598297119141 -78.519203186035156 -245.750000000000000
-56.123600006103516 -78.628097534179688 -245.750000000000000
3.812500000000000 -78.077400207519531 -245.750000000000000
4.765620231628418 -78.322303771972656 -245.750000000000000
8.578120231628418 -78.339302062988281 -245.750000000000000
20.015600204467773 -78.507102966308594 -245.750000000000000
-150.014007568359375 -78.628097534179688 -246.149993896484375
-146.384002685546875 -78.628097534179688 -246.149993896484375
-50.515598297119141 -78.628097534179688 -246.408004760742188
2.859380006790161 -78.308799743652344 -246.149993896484375
4.765620231628418 -78.628097534179688 -246.389999389648438
8.578120231628418 -78.571601867675781 -246.149993896484375
10.849900245666504 -78.628097534179688 -246.149993896484375
10.484399795532227 -78.628097534179688 -246.332000732421875
22.445600509643555 -78.628097534179688 -246.149993896484375
-146.037002563476563 -78.628097534179688 -246.550003051757813
-54.328098297119141 -78.628097534179688 -246.869995117187500
-48.609401702880859 -78.336601257324219 -246.550003051757813
9.531250000000000 -78.532798767089844 -246.550003051757813
-61.953098297119141 -78.034698486328125 -246.949996948242188
-60.046901702880859 -78.286499023437500 -246.949996948242188
-58.140598297119141 -78.426597595214844 -246.949996948242188
-50.515598297119141 -78.537902832031250 -246.949996948242188
-1.906250000000000 -77.682601928710938 -246.949996948242188
0.000000000000000 -78.441703796386719 -246.949996948242188
11.437500000000000 -78.072601318359375 -246.949996948242188
-150.921005249023438 -78.628097534179688 -247.350006103515625
-56.234401702880859 -78.284599304199219 -247.350006103515625
-52.421901702880859 -78.399101257324219 -247.350006103515625
-61.000000000000000 -78.064697265625000 -247.750000000000000
-58.140598297119141 -78.130996704101563 -247.750000000000000
-3.812500000000000 -77.946296691894531 -247.750000000000000
11.437500000000000 -78.628097534179688 -248.026000976562500
20.968799591064453 -78.628097534179688 -247.934997558593750
-61.953098297119141 -77.675003051757813 -248.149993896484375
-60.046901702880859 -78.151603698730469 -248.149993896484375
-57.187500000000000 -78.002098083496094 -248.149993896484375
14.296899795532227 -78.067703247070313 -248.550003051757813
-151.020996093750000 -78.628097534179688 -248.949996948242188
-145.651992797851563 -78.628097534179688 -248.949996948242188
13.076899528503418 -78.628097534179688 -248.949996948242188
15.250000000000000 -78.281196594238281 -250.149993896484375
-6.671879768371582 -78.561996459960938 -250.550003051757813
16.203100204467773 -77.691200256347656 -250.550003051757813
-8.578120231628418 -78.440002441406250 -251.750000000000000
17.156200408935547 -77.839599609375000 -251.750000000000000
-151.052993774414063 -78.628097534179688 -252.149993896484375
-9.531250000000000 -78.229301452636719 -252.949996948242188
-151.839004516601563 -78.628097534179688 -253.350006103515625
-144.132995605468750 -78.628097534179688 -253.750000000000000
-153.259994506835938 -78.628097534179688 -254.149993896484375
-9.506810188293457 -78.628097534179688 -254.149993896484375
18.109399795532227 -78.628097534179688 -254.363006591796875
-153.927001953125000 -78.628097534179688 -254.949996948242188
-10.168399810791016 -78.628097534179688 -255.350006103515625
-11.437500000000000 -78.182701110839844 -255.750000000000000
19.062500000000000 -78.628097534179688 -256.042999267578125
-141.061996459960938 -78.068702697753906 -256.549987792968750
-137.250000000000000 -78.246902465820313 -256.549987792968750
-135.740997314453125 -78.628097534179688 -257.350006103515625
-135.440994262695313 -78.628097534179688 -257.750000000000000
-135.240997314453125 -78.628097534179688 -258.950012207031250
-149.826004028320313 -78.628097534179688 -259.750000000000000
-147.246002197265625 -78.628097534179688 -259.750000000000000
-11.540800094604492 -78.628097534179688 -260.149993896484375
-135.768005371093750 -78.628097534179688 -260.549987792968750
-154.841003417968750 -78.628097534179688 -260.950012207031250
-142.016006469726563 -78.628097534179688 -261.148986816406250
-141.061996459960938 -78.628097534179688 -261.069000244140625
-138.203002929687500 -78.628097534179688 -261.160003662109375
-138.203002929687500 -77.907096862792969 -260.950012207031250
-153.880996704101563 -78.628097534179688 -262.549987792968750
-11.725999832153320 -78.628097534179688 -263.350006103515625
-152.154006958007813 -78.628097534179688 -264.149993896484375
20.015600204467773 -78.198501586914063 -264.549987792968750
-151.123992919921875 -78.628097534179688 -264.950012207031250
19.008199691772461 -78.628097534179688 -265.350006103515625
-146.313003540039063 -78.628097534179688 -265.750000000000000
-11.680700302124023 -78.628097534179688 -265.750000000000000
20.015600204467773 -77.690399169921875 -265.750000000000000
-11.437500000000000 -78.505996704101563 -266.950012207031250
19.062500000000000 -78.428001403808594 -266.950012207031250
-150.789993286132813 -78.628097534179688 -267.750000000000000
-10.872300148010254 -78.628097534179688 -268.549987792968750
18.689699172973633 -78.628097534179688 -269.750000000000000
18.109399795532227 -78.628097534179688 -270.489990234375000
-146.942993164062500 -78.628097534179688 -270.950012207031250
-9.673029899597168 -78.628097534179688 -270.950012207031250
-150.085006713867188 -78.628097534179688 -271.350006103515625
-147.649993896484375 -78.628097534179688 -271.350006103515625
-147.733993530273438 -78.334396362304688 -271.750000000000000
-149.641006469726563 -78.399902343750000 -272.149993896484375
17.560800552368164 -78.628097534179688 -272.549987792968750
-148.688003540039063 -78.601699829101563 -274.149993896484375
-149.641006469726563 -78.467002868652344 -274.549987792968750
-149.641006469726563 -78.628097534179688 -275.549987792968750
-147.895996093750000 -78.628097534179688 -276.149993896484375
14.913599967956543 -78.628097534179688 -276.149993896484375
16.203100204467773 -78.072097778320313 -276.149993896484375
-147.108001708984375 -78.628097534179688 -276.549987792968750
-150.593994140625000 -78.628097534179688 -277.350006103515625
-147.190994262695313 -78.628097534179688 -276.950012207031250
-5.718750000000000 -78.385902404785156 -277.350006103515625
-147.080001831054688 -78.628097534179688 -277.750000000000000
15.250000000000000 -77.766799926757813 -277.750000000000000
-147.044998168945313 -78.628097534179688 -278.950012207031250
14.296899795532227 -78.067497253417969 -278.950012207031250
-150.785995483398438 -78.628097534179688 -279.750000000000000
-147.246002197265625 -78.628097534179688 -279.750000000000000
13.343799591064453 -78.039596557617188 -279.750000000000000
11.437500000000000 -78.392402648925781 -280.149993896484375
-1.906250000000000 -78.417396545410156 -280.549987792968750
-0.953125000000000 -78.628097534179688 -281.101989746093750
0.953125000000000 -78.628097534179688 -281.653991699218750
-147.246994018554688 -78.628097534179688 -281.750000000000000
-1.906250000000000 -78.087303161621094 -281.750000000000000
8.309519767761230 -78.628097534179688 -281.750000000000000
9.531250000000000 -78.237297058105469 -281.750000000000000
-150.800994873046875 -78.628097534179688 -282.149993896484375
2.859380006790161 -78.628097534179688 -282.524993896484375
-152.339996337890625 -78.628097534179688 -282.950012207031250
-146.097000122070313 -78.628097534179688 -282.950012207031250
1.906250000000000 -78.245399475097656 -282.950012207031250
6.425380229949951 -78.628097534179688 -282.950012207031250
-145.272003173828125 -78.628097534179688 -283.350006103515625
3.812500000000000 -78.628097534179688 -283.486999511718750
4.765620231628418 -78.628097534179688 -283.548004150390625
-154.147994995117188 -78.628097534179688 -284.149993896484375
-144.255996704101563 -78.628097534179688 -284.149993896484375
6.671879768371582 -78.023498535156250 -284.149993896484375
-154.406005859375000 -78.628097534179688 -284.744995117187500
3.812500000000000 -78.088203430175781 -284.549987792968750
-155.236999511718750 -78.628097534179688 -286.149993896484375
-142.968994140625000 -78.628097534179688 -286.317993164062500
-148.688003540039063 -78.628097534179688 -286.911010742187500
-142.113006591796875 -78.628097534179688 -286.950012207031250
-140.108993530273438 -78.330299377441406 -288.149993896484375
-138.203002929687500 -78.278800964355469 -288.149993896484375
-31.453100204467773 -77.727996826171875 -288.149993896484375
-35.265598297119141 -77.935798645019531 -288.549987792968750
-32.406200408935547 -78.120300292968750 -288.549987792968750
-22.875000000000000 -77.945999145507813 -288.549987792968750
-18.109399795532227 -77.719299316406250 -288.549987792968750
-142.016006469726563 -78.246902465820313 -288.950012207031250
-140.108993530273438 -78.344001770019531 -288.950012207031250
-137.250000000000000 -78.460800170898438 -288.950012207031250
-39.078098297119141 -77.675003051757813 -288.950012207031250
-34.312500000000000 -78.087799072265625 -288.950012207031250
-27.640600204467773 -78.200897216796875 -288.950012207031250
-21.921899795532227 -78.096900939941406 -288.950012207031250
-18.109399795532227 -77.967498779296875 -288.950012207031250
-150.593994140625000 -78.628097534179688 -289.734008789062500
-142.016006469726563 -78.468101501464844 -289.350006103515625
-38.125000000000000 -77.701103210449219 -289.350006103515625
-31.453100204467773 -78.248100280761719 -289.350006103515625
-155.925994873046875 -78.628097534179688 -289.750000000000000
-148.018005371093750 -78.628097534179688 -289.750000000000000
-138.203002929687500 -78.451103210449219 -289.750000000000000
-32.406200408935547 -78.132499694824219 -289.750000000000000
-25.734399795532227 -78.224899291992188 -289.750000000000000
-19.062500000000000 -78.119201660156250 -289.750000000000000
-16.203100204467773 -78.003700256347656 -289.750000000000000
-12.390600204467773 -77.689399719238281 -289.750000000000000
-149.641006469726563 -78.628097534179688 -290.300994873046875
-148.688003540039063 -78.628097534179688 -290.282989501953125
-142.016006469726563 -78.448898315429688 -290.149993896484375
-140.108993530273438 -78.540100097656250 -290.149993896484375
-29.546899795532227 -77.900703430175781 -290.149993896484375
11.437500000000000 -78.180702209472656 -290.549987792968750
14.296899795532227 -78.292396545410156 -290.549987792968750
-142.968994140625000 -78.628097534179688 -291.096984863281250
10.484399795532227 -78.196601867675781 -290.950012207031250
10.484399795532227 -78.134201049804688 -291.350006103515625
14.296899795532227 -78.447700500488281 -291.350006103515625
15.250000000000000 -77.971099853515625 -291.750000000000000
14.296899795532227 -78.154403686523438 -292.549987792968750
-154.190002441406250 -78.628097534179688 -292.950012207031250
-153.197998046875000 -78.628097534179688 -293.750000000000000
-152.227005004882813 -78.628097534179688 -294.549987792968750
-150.593994140625000 -78.628097534179688 -295.026000976562500
-148.688003540039063 -78.628097534179688 -295.283996582031250
-147.533004760742188 -78.628097534179688 -294.950012207031250
-149.641006469726563 -77.827499389648438 -300.149993896484375
-148.688003540039063 -78.374000549316406 -300.549987792968750
-151.546997070312500 -78.184799194335938 -301.350006103515625
-148.688003540039063 -78.417602539062500 -302.149993896484375
-148.688003540039063 -78.539703369140625 -302.950012207031250
-146.781005859375000 -77.939796447753906 -303.750000000000000
-151.546997070312500 -78.285896301269531 -304.149993896484375
-148.688003540039063 -78.511398315429688 -304.149993896484375
-151.546997070312500 -78.406898498535156 -304.950012207031250
-148.688003540039063 -78.593200683593750 -305.350006103515625
-146.781005859375000 -77.792198181152344 -305.350006103515625
-151.546997070312500 -78.378303527832031 -305.750000000000000
-151.546997070312500 -78.265800476074219 -306.549987792968750
-149.641006469726563 -78.559196472167969 -306.549987792968750
-148.688003540039063 -78.569000244140625 -306.549987792968750
-146.781005859375000 -78.080596923828125 -306.549987792968750
-151.546997070312500 -78.487297058105469 -306.950012207031250
-146.781005859375000 -77.782501220703125 -306.950012207031250
-148.688003540039063 -78.628097534179688 -307.781005859375000
-146.781005859375000 -78.080703735351563 -308.149993896484375
-152.500000000000000 -78.028503417968750 -308.950012207031250
-152.500000000000000 -78.250198364257813 -309.350006103515625
-151.546997070312500 -78.521896362304688 -310.149993896484375
-146.781005859375000 -78.085899353027344 -310.149993896484375
-152.500000000000000 -78.192703247070313 -310.549987792968750
-150.335998535156250 -78.628097534179688 -310.549987792968750
-146.781005859375000 -77.997200012207031 -310.950012207031250
-151.546997070312500 -78.308898925781250 -311.350006103515625
-148.688003540039063 -78.447998046875000 -311.350006103515625
-148.688003540039063 -78.176902770996094 -311.750000000000000
-57.187500000000000 -77.005500793457031 -57.349998474121094
-58.140598297119141 -77.202903747558594 -57.750000000000000
-52.421901702880859 -77.171501159667969 -57.750000000000000
-62.906200408935547 -77.093696594238281 -58.150001525878906
-58.140598297119141 -77.304298400878906 -58.150001525878906
-54.328098297119141 -77.239799499511719 -58.150001525878906
-49.562500000000000 -77.066101074218750 -58.150001525878906
-64.812500000000000 -77.241401672363281 -58.549999237060547
-58.140598297119141 -77.466300964355469 -58.549999237060547
-55.281200408935547 -77.487503051757813 -58.549999237060547
-51.468799591064453 -77.430198669433594 -58.549999237060547
-44.796901702880859 -76.946098327636719 -58.549999237060547
-43.843799591064453 -76.737602233886719 -58.549999237060547
-63.859401702880859 -77.458702087402344 -59.349998474121094
-59.093799591064453 -77.624702453613281 -59.349998474121094
-55.281200408935547 -77.675003051757813 -59.407100677490234
-50.515598297119141 -77.535102844238281 -59.349998474121094
-44.796901702880859 -77.238998413085938 -59.349998474121094
-41.937500000000000 -76.803802490234375 -59.349998474121094
-68.625000000000000 -77.330101013183594 -59.750000000000000
-64.812500000000000 -77.675003051757813 -60.040901184082031
-48.609401702880859 -77.588897705078125 -59.750000000000000
-43.843799591064453 -77.364501953125000 -59.750000000000000
-40.984401702880859 -77.054100036621094 -59.750000000000000
-70.531196594238281 -77.330497741699219 -60.549999237060547
-42.890598297119141 -77.456298828125000 -60.549999237060547
-71.484397888183594 -77.398803710937500 -60.950000762939453
-40.984401702880859 -77.450500488281250 -60.950000762939453
-38.125000000000000 -76.987602233886719 -60.950000762939453
-70.531196594238281 -77.675003051757813 -61.777801513671875
-38.125000000000000 -77.252700805664063 -61.750000000000000
-36.218799591064453 -76.721900939941406 -61.750000000000000
-74.343803405761719 -77.337501525878906 -62.150001525878906
-71.927696228027344 -77.675003051757813 -62.150001525878906
-40.240898132324219 -77.675003051757813 -62.150001525878906
-36.218799591064453 -77.064399719238281 -62.150001525878906
-76.250000000000000 -77.327697753906250 -63.349998474121094
-74.280197143554688 -77.675003051757813 -63.349998474121094
-77.203102111816406 -77.438301086425781 -64.550003051757813
-76.054199218750000 -77.675003051757813 -64.550003051757813
-34.712799072265625 -77.675003051757813 -65.349998474121094
-80.062500000000000 -77.023101806640625 -65.750000000000000
-31.453100204467773 -77.276603698730469 -65.750000000000000
-78.015403747558594 -77.675003051757813 -66.150001525878906
-32.519298553466797 -77.675003051757813 -66.949996948242188
-29.546899795532227 -77.268600463867188 -66.949996948242188
-27.640600204467773 -77.115196228027344 -67.349998474121094
-30.367000579833984 -77.675003051757813 -68.150001525878906
-81.968803405761719 -77.245498657226563 -68.550003051757813
-80.610000610351563 -77.675003051757813 -68.550003051757813
-29.146600723266602 -77.675003051757813 -68.550003051757813
-26.687500000000000 -77.313400268554688 -68.550003051757813
-81.101303100585938 -77.675003051757813 -69.349998474121094
-82.921897888183594 -77.220100402832031 -69.750000000000000
-27.294000625610352 -77.675003051757813 -69.750000000000000
-24.781200408935547 -77.180000305175781 -69.750000000000000
-23.828100204467773 -76.721900939941406 -69.750000000000000
-82.921897888183594 -77.342498779296875 -70.550003051757813
-23.828100204467773 -77.146003723144531 -70.949996948242188
-83.099403381347656 -77.675003051757813 -72.150001525878906
-25.047399520874023 -77.675003051757813 -72.150001525878906
-23.828100204467773 -77.324600219726563 -72.150001525878906
-84.828102111816406 -77.053596496582031 -72.949996948242188
-23.828100204467773 -77.241302490234375 -73.349998474121094
-83.844100952148438 -77.675003051757813 -73.750000000000000
-23.828100204467773 -76.761901855468750 -74.150001525878906
-85.781196594238281 -77.060096740722656 -74.550003051757813
-24.781200408935547 -77.277099609375000 -74.949996948242188
-26.217500686645508 -77.675003051757813 -76.150001525878906
-85.600601196289063 -77.675003051757813 -76.949996948242188
-27.280199050903320 -77.675003051757813 -77.349998474121094
-87.687500000000000 -76.760002136230469 -78.550003051757813
-28.941200256347656 -77.675003051757813 -78.550003051757813
81.968803405761719 -76.858001708984375 -78.550003051757813
-86.420402526855469 -77.675003051757813 -78.949996948242188
-31.220699310302734 -77.675003051757813 -79.750000000000000
81.968803405761719 -77.163696289062500 -79.750000000000000
87.687500000000000 -76.721900939941406 -79.750000000000000
-33.359401702880859 -76.811401367187500 -80.150001525878906
-32.926101684570313 -77.675003051757813 -80.550003051757813
83.875000000000000 -77.230499267578125 -80.550003051757813
-35.265598297119141 -77.547302246093750 -81.349998474121094
87.687500000000000 -76.729896545410156 -81.349998474121094
78.156196594238281 -77.184303283691406 -82.150001525878906
80.062500000000000 -77.196296691894531 -82.150001525878906
81.968803405761719 -77.458503723144531 -82.150001525878906
83.875000000000000 -77.483802795410156 -82.150001525878906
84.828102111816406 -77.238296508789063 -82.150001525878906
85.781196594238281 -76.799499511718750 -82.150001525878906
87.687500000000000 -77.164901733398438 -82.150001525878906
-39.078098297119141 -77.052696228027344 -82.949996948242188
88.640602111816406 -77.297500610351563 -82.949996948242188
77.203102111816406 -77.185997009277344 -83.349998474121094
-40.031200408935547 -77.382797241210938 -83.750000000000000
80.062500000000000 -77.493301391601563 -84.150001525878906
85.781196594238281 -76.970298767089844 -84.150001525878906
-43.843799591064453 -77.675003051757813 -85.034896850585938
79.109397888183594 -77.329101562500000 -84.949996948242188
89.593803405761719 -77.180603027343750 -84.949996948242188
-88.640602111816406 -77.545303344726563 -85.349998474121094
78.156196594238281 -76.927001953125000 -85.349998474121094
83.875000000000000 -77.463500976562500 -85.349998474121094
86.734397888183594 -77.407600402832031 -85.349998474121094
84.828102111816406 -77.018699645996094 -85.750000000000000
-47.656200408935547 -77.675003051757813 -86.349998474121094
77.203102111816406 -77.047096252441406 -86.150001525878906
90.546897888183594 -77.205200195312500 -86.150001525878906
80.062500000000000 -77.570098876953125 -86.550003051757813
-89.593803405761719 -77.198402404785156 -86.949996948242188
82.921897888183594 -77.589996337890625 -86.949996948242188
84.828102111816406 -76.954299926757813 -86.949996948242188
86.734397888183594 -77.436698913574219 -86.949996948242188
77.203102111816406 -77.191497802734375 -87.349998474121094
79.109397888183594 -77.367698669433594 -87.349998474121094
89.593803405761719 -77.312202453613281 -87.349998474121094
91.500000000000000 -77.015197753906250 -87.349998474121094
78.156196594238281 -77.388702392578125 -88.550003051757813
84.828102111816406 -77.333801269531250 -88.550003051757813
86.734397888183594 -77.576797485351563 -88.550003051757813
88.640602111816406 -77.624801635742188 -88.550003051757813
-50.751998901367188 -77.675003051757813 -89.750000000000000
78.156196594238281 -77.237602233886719 -89.750000000000000
83.875000000000000 -77.580200195312500 -89.750000000000000
85.781196594238281 -77.394302368164063 -89.750000000000000
87.687500000000000 -77.665000915527344 -89.750000000000000
91.500000000000000 -77.183296203613281 -89.750000000000000
-51.708198547363281 -77.675003051757813 -90.550003051757813
80.062500000000000 -77.510902404785156 -90.949996948242188
81.968803405761719 -77.605796813964844 -90.949996948242188
84.828102111816406 -77.287002563476563 -90.949996948242188
88.640602111816406 -77.586700439453125 -90.949996948242188
90.546897888183594 -77.474601745605469 -90.949996948242188
82.921897888183594 -77.530799865722656 -91.349998474121094
-54.328098297119141 -76.753601074218750 -91.750000000000000
91.500000000000000 -77.213302612304688 -91.750000000000000
-55.281200408935547 -76.867301940917969 -92.150001525878906
80.062500000000000 -77.010696411132813 -92.550003051757813
81.968803405761719 -77.271896362304688 -92.550003051757813
82.921897888183594 -77.176498413085938 -92.550003051757813
88.640602111816406 -77.283401489257813 -92.550003051757813
90.546897888183594 -77.153503417968750 -92.550003051757813
-56.234401702880859 -77.675003051757813 -93.067901611328125
82.921897888183594 -76.756896972656250 -92.949996948242188
86.734397888183594 -77.088500976562500 -92.949996948242188
-62.906200408935547 -76.914001464843750 -94.150001525878906
-61.953098297119141 -77.675003051757813 -94.466102600097656
87.687500000000000 -76.744400024414063 -94.150001525878906
-64.812500000000000 -77.357299804687500 -97.750000000000000
52.421901702880859 -76.948501586914063 -97.750000000000000
-65.765602111816406 -76.890602111816406 -98.550003051757813
50.515598297119141 -77.244598388671875 -98.550003051757813
53.375000000000000 -76.892601013183594 -98.550003051757813
48.609401702880859 -77.068496704101563 -98.949996948242188
51.468799591064453 -77.455902099609375 -99.750000000000000
-69.101600646972656 -77.675003051757813 -100.550003051757813
-90.945198059082031 -77.675003051757813 -100.949996948242188
-77.203102111816406 -77.675003051757813 -101.119003295898438
45.750000000000000 -77.041702270507813 -100.949996948242188
52.421901702880859 -77.324996948242188 -100.949996948242188
-75.296897888183594 -77.675003051757813 -101.637001037597656
-72.437500000000000 -77.675003051757813 -101.656997680664063
-91.005096435546875 -77.675003051757813 -103.349998474121094
-80.062500000000000 -77.612701416015625 -103.750000000000000
42.890598297119141 -76.901603698730469 -103.750000000000000
52.421901702880859 -77.096298217773438 -103.750000000000000
48.609401702880859 -76.849700927734375 -104.550003051757813
41.937500000000000 -76.941802978515625 -104.949996948242188
45.750000000000000 -76.807601928710938 -104.949996948242188
-91.009902954101563 -77.675003051757813 -105.750000000000000
41.937500000000000 -77.616203308105469 -105.750000000000000
44.796901702880859 -76.867301940917969 -105.750000000000000
45.750000000000000 -77.104202270507813 -105.750000000000000
47.656200408935547 -77.188201904296875 -106.150001525878906
48.609401702880859 -76.952102661132813 -106.150001525878906
-90.971603393554688 -77.675003051757813 -106.949996948242188
48.609401702880859 -76.810699462890625 -107.349998474121094
47.656200408935547 -77.160202026367188 -107.750000000000000
-82.317497253417969 -77.675003051757813 -108.550003051757813
-90.653602600097656 -77.675003051757813 -108.949996948242188
41.937500000000000 -76.854103088378906 -108.949996948242188
-91.500000000000000 -76.746498107910156 -109.349998474121094
49.812099456787109 -77.675003051757813 -109.349998474121094
-83.240798950195313 -77.675003051757813 -109.750000000000000
47.656200408935547 -76.930000305175781 -109.750000000000000
-84.428298950195313 -77.675003051757813 -110.949996948242188
40.984401702880859 -77.242301940917969 -110.949996948242188
48.986198425292969 -77.675003051757813 -111.349998474121094
-85.444396972656250 -77.675003051757813 -111.750000000000000
37.736400604248047 -77.675003051757813 -111.750000000000000
-90.546897888183594 -77.369903564453125 -112.150001525878906
-88.640602111816406 -77.675003051757813 -112.873001098632813
45.750000000000000 -77.468101501464844 -112.949996948242188
-90.546897888183594 -77.053703308105469 -113.349998474121094
-89.593803405761719 -77.485702514648438 -113.349998474121094
-87.687500000000000 -77.327598571777344 -113.349998474121094
48.158599853515625 -77.675003051757813 -113.349998474121094
35.894100189208984 -77.675003051757813 -114.949996948242188
47.262500762939453 -77.675003051757813 -115.349998474121094
38.363300323486328 -77.675003051757813 -115.750000000000000
46.446300506591797 -77.675003051757813 -117.349998474121094
34.033401489257813 -77.675003051757813 -118.150001525878906
33.483501434326172 -77.675003051757813 -119.349998474121094
45.376201629638672 -77.675003051757813 -119.750000000000000
32.840499877929688 -77.675003051757813 -120.550003051757813
32.095600128173828 -77.675003051757813 -122.150001525878906
34.312500000000000 -76.779602050781250 -122.150001525878906
31.792800903320313 -77.675003051757813 -122.949996948242188
40.984401702880859 -77.675003051757813 -124.012001037597656
43.479301452636719 -77.675003051757813 -124.150001525878906
42.890598297119141 -77.675003051757813 -125.342002868652344
30.728000640869141 -77.675003051757813 -125.750000000000000
40.031200408935547 -77.675003051757813 -126.091003417968750
33.049900054931641 -77.675003051757813 -126.949996948242188
42.136699676513672 -77.675003051757813 -127.349998474121094
41.808898925781250 -77.675003051757813 -127.750000000000000
29.847900390625000 -77.675003051757813 -128.149993896484375
32.144001007080078 -77.675003051757813 -128.949996948242188
39.078098297119141 -76.772003173828125 -129.750000000000000
40.895801544189453 -77.675003051757813 -129.750000000000000
28.976200103759766 -77.675003051757813 -130.550003051757813
28.793199539184570 -77.675003051757813 -131.350006103515625
39.431598663330078 -77.675003051757813 -132.949996948242188
37.073898315429688 -77.675003051757813 -133.350006103515625
38.456199645996094 -77.675003051757813 -135.350006103515625
27.129199981689453 -77.675003051757813 -135.750000000000000
26.387199401855469 -77.675003051757813 -138.149993896484375
37.171901702880859 -77.554496765136719 -138.949996948242188
35.265598297119141 -76.764801025390625 -139.750000000000000
-52.421901702880859 -76.852600097656250 -140.949996948242188
-51.468799591064453 -77.056396484375000 -140.949996948242188
36.521099090576172 -77.675003051757813 -140.949996948242188
-48.609401702880859 -77.153503417968750 -141.350006103515625
-47.656200408935547 -76.870300292968750 -141.350006103515625
-51.468799591064453 -77.288902282714844 -142.149993896484375
-49.562500000000000 -77.430603027343750 -142.149993896484375
25.260700225830078 -77.675003051757813 -142.149993896484375
-50.515598297119141 -77.555000305175781 -142.949996948242188
-47.656200408935547 -77.496299743652344 -142.949996948242188
-52.421901702880859 -77.266502380371094 -143.350006103515625
-45.750000000000000 -77.296096801757813 -143.750000000000000
33.359401702880859 -77.418098449707031 -143.750000000000000
35.556900024414063 -77.675003051757813 -143.750000000000000
33.359401702880859 -76.753898620605469 -145.350006103515625
-53.375000000000000 -76.981101989746094 -145.750000000000000
34.916500091552734 -77.675003051757813 -145.750000000000000
-49.562500000000000 -76.747200012207031 -146.149993896484375
-48.609401702880859 -76.963600158691406 -146.149993896484375
-53.375000000000000 -76.819000244140625 -146.550003051757813
-46.703098297119141 -76.882896423339844 -146.550003051757813
-42.890598297119141 -76.906997680664063 -146.550003051757813
24.316200256347656 -77.675003051757813 -146.550003051757813
-45.750000000000000 -76.849403381347656 -147.350006103515625
-46.703098297119141 -77.184700012207031 -147.750000000000000
-49.562500000000000 -76.952003479003906 -148.149993896484375
-44.796901702880859 -76.907302856445313 -148.550003051757813
23.950700759887695 -77.675003051757813 -148.550003051757813
113.421997070312500 -76.913902282714844 -148.550003051757813
-48.609401702880859 -77.181602478027344 -149.350006103515625
-46.703098297119141 -77.408096313476563 -149.350006103515625
31.582199096679688 -77.675003051757813 -149.350006103515625
34.043201446533203 -77.675003051757813 -149.350006103515625
-52.421901702880859 -76.987899780273438 -149.750000000000000
-49.562500000000000 -76.911201477050781 -149.750000000000000
112.469001770019531 -76.896499633789063 -149.750000000000000
-45.750000000000000 -77.633201599121094 -150.149993896484375
-40.901100158691406 -77.675003051757813 -150.550003051757813
-42.890598297119141 -77.124397277832031 -151.350006103515625
-40.286201477050781 -77.675003051757813 -151.350006103515625
-48.609401702880859 -77.045303344726563 -151.750000000000000
-41.937500000000000 -76.783599853515625 -152.149993896484375
23.142299652099609 -77.675003051757813 -152.149993896484375
25.881799697875977 -77.675003051757813 -152.149993896484375
113.421997070312500 -77.020896911621094 -152.149993896484375
-67.671897888183594 -77.099800109863281 -152.550003051757813
-48.609401702880859 -76.947502136230469 -152.550003051757813
23.054800033569336 -77.675003051757813 -152.949996948242188
24.781200408935547 -76.756202697753906 -152.949996948242188
-68.625000000000000 -77.350303649902344 -153.350006103515625
-39.185501098632813 -77.675003051757813 -153.350006103515625
-66.718803405761719 -77.284896850585938 -153.750000000000000
-38.727001190185547 -77.675003051757813 -153.750000000000000
32.982799530029297 -77.675003051757813 -153.750000000000000
-69.578102111816406 -77.189796447753906 -154.550003051757813
-38.431800842285156 -77.675003051757813 -154.550003051757813
22.578899383544922 -77.675003051757813 -154.550003051757813
30.500000000000000 -77.500297546386719 -154.550003051757813
111.515998840332031 -76.812301635742188 -154.550003051757813
112.469001770019531 -77.103103637695313 -154.550003051757813
-65.765602111816406 -77.305801391601563 -154.949996948242188
24.781200408935547 -77.105499267578125 -155.350006103515625
-37.582199096679688 -77.675003051757813 -155.750000000000000
-69.578102111816406 -77.095298767089844 -156.149993896484375
-48.940200805664063 -77.675003051757813 -156.149993896484375
32.373199462890625 -77.675003051757813 -156.149993896484375
113.421997070312500 -77.071800231933594 -156.149993896484375
-36.775901794433594 -77.675003051757813 -156.949996948242188
112.469001770019531 -77.172798156738281 -157.350006103515625
-39.261001586914063 -77.675003051757813 -157.750000000000000
24.781200408935547 -77.312797546386719 -157.750000000000000
-38.125000000000000 -76.727798461914063 -158.149993896484375
-45.750000000000000 -77.052803039550781 -158.550003051757813
29.546899795532227 -77.388397216796875 -158.550003051757813
-35.439800262451172 -77.675003051757813 -158.949996948242188
31.694900512695313 -77.675003051757813 -159.350006103515625
-47.039901733398438 -77.675003051757813 -159.750000000000000
21.696699142456055 -77.675003051757813 -159.750000000000000
110.561996459960938 -76.858001708984375 -159.750000000000000
111.515998840332031 -77.188102722167969 -159.750000000000000
