# This PCD file was generated using the MATLAB® pcwrite function
# from Computer Vision Toolbox®.
# .PCD v.7 - Point Cloud Data file format
VERSION .7
FIELDS x y z
SIZE 8 8 8
TYPE F F F
COUNT 1 1 1
WIDTH 773
HEIGHT 1
VIEWPOINT 0 0 0 1 0 0 0
POINTS 773
DATA ascii
-58.124294280992189 -79.328887939537509 -250.847015380912495
-57.184848785386720 -221.495493650520785 -251.988380432182026
-58.656932830796876 -208.303285598839267 -259.895294189506217
-58.453372955308595 -84.751525878990634 -267.191238403373404
-58.669620513902345 -81.367294311607822 -254.297149658256245
-57.095676422105470 -208.869203567589267 -267.023063659721061
-58.735424041734376 -80.916961670006259 -268.981185913139029
-54.356258392320314 -212.917465686882480 -271.751770019584342
-56.533000946031251 -280.257862091148809 -282.306282043510123
-56.349491119371095 -201.522581100548251 -272.728004455619498
-54.007411956773439 -204.464965820396884 -278.758789062553092
-58.256519317613282 -283.354263305748418 -270.941551208549186
-54.127490997300782 -282.516674041832403 -281.099311828666373
-56.672473907457032 -282.338531494224981 -287.316635131889029
-59.062534332261720 -208.010795593346103 -282.429046630912467
-56.293697357164064 -198.443332672203525 -285.762763977103873
-52.011653900132814 -279.487174987877324 -281.174308776908561
-57.175830841050782 -203.197973251427157 -280.460548400931998
-56.973720550523439 -282.092754364098028 -286.784690856986686
-58.904209136949220 -110.081840515221103 -288.615806579642936
-53.763637542710939 -205.157705307091220 -287.366409301810904
-56.783847808824220 -114.424453735435947 -296.952529907279654
-57.214946746812501 -207.856419563377841 -292.918670654349967
-59.873905181871095 -121.311416626060947 -289.383926391654654
-56.232181549058595 -279.472545623863653 -291.395874023490592
-54.966144561753907 -118.915084838951572 -300.827682495170279
-58.796039581285157 -207.403313636864169 -296.792861938529654
-59.344326019273439 -110.244041442955478 -290.474151611381217
-58.550045013414064 -117.763153076256259 -299.010925293021842
-53.231777191148439 -285.618400573814824 -297.916946411185904
-61.256511688218751 -113.944076538170322 -299.202850341849967
-54.989444732652345 -205.802409172142490 -300.068069458060904
-57.571430206285157 -97.123092651451572 -300.886535644584342
-57.250995635972657 -116.789741516197665 -297.655334472709342
-55.775913238511720 -204.240703582848056 -303.143539428764029
-57.104816436753907 -125.528144836510165 -303.376556396537467
-57.420612335191407 -103.006393432701572 -303.092636108451529
-56.860897064195314 -283.271308899010137 -305.293365478568717
-55.258716583238282 -131.902420044029697 -308.467712402396842
-59.230213165269532 -116.859069824303134 -307.203582763724967
-59.037601470933595 -123.490501403892978 -306.147232055717154
-56.570590972886720 -279.135814666832403 -304.011291503959342
-60.382976531968751 -120.287445068443759 -308.664627075248404
-54.733516693101564 -188.159553527916415 -306.968338012748404
-58.926555633531251 -275.917705535973028 -314.032455444389029
-52.427196502671876 -104.475837707603915 -312.112075805717154
-56.574001312242189 -103.493202209557040 -313.599319458060904
-57.400745391832032 -123.464263916100009 -309.803985595756217
-55.704952239976564 -174.411495208824618 -310.063476562553092
-58.542308807359376 -107.329376220787509 -314.925628662162467
-60.062992095933595 -201.459997177208407 -317.962844848685904
-58.515254974351564 -280.090461731041387 -308.947540283256217
-57.034748077378907 -110.355484008873447 -313.705169677787467
-55.916301727281251 -124.583732605064853 -313.688720703178092
-58.549427032457032 -161.731876373375400 -320.841461181693717
-57.943958282457032 -123.851615905846103 -317.654891967826529
-61.652980804429689 -128.158905029381259 -316.633300781303092
-58.435916900621095 -189.300600051964267 -314.565933227592154
-57.665805816636720 -138.327133178795322 -312.374771118217154
-57.363941192613282 -203.772795677269443 -314.851287841849967
-53.741115570054689 -107.060195922935947 -315.850524902396842
-57.929210662828126 -110.849227905357822 -322.225250244193717
-59.517406463609376 -187.611412048424228 -321.063018798881217
-55.280445098863282 -108.449737548912509 -318.158676147514029
-55.401218414292970 -137.560714721764072 -323.019210815482779
-56.123157501207032 -160.253761291588290 -322.782470703178092
-61.074138641343751 -145.758186340416415 -322.310577392631217
-53.739696502671876 -130.648284912193759 -322.598342895560904
-56.813892364488282 -109.096603393639072 -327.157226562553092
-58.712589263902345 -190.526500701988681 -323.032913208060904
-59.690662384019532 -128.980453491295322 -326.905624389701529
-60.258960723863282 -152.419754028404697 -326.727508544974967
-57.085865020738282 -115.393463134850009 -322.650207519584342
-53.584667205796876 -165.911659240807040 -328.114929199271842
-57.954273223863282 -283.108394622887090 -326.349868774467154
-49.320079803453126 -188.074644088829501 -332.657424926810904
-51.808773040757814 -187.920984268272861 -323.248260498099967
-52.526149749742189 -279.664428711021856 -328.459976196342154
-56.942104339585939 -108.575317382896884 -331.762268066459342
-58.762813568101564 -147.556373596275790 -331.890670776420279
-60.571880340562501 -192.564197540367587 -329.941238403373404
-52.743061065660157 -138.206527710045322 -331.666259765678092
-57.764560699449220 -279.357093811119512 -331.860931396537467
-51.367527008042970 -192.487520217979892 -341.034988403373404
-55.422351837144532 -144.091590881432040 -334.987350463920279
-57.988979339585939 -120.816200256432040 -335.898345947318717
-54.364368438707032 -142.473731994713290 -334.314941406303092
-53.863697051988282 -110.315307617271884 -333.619400024467154
-54.995227813707032 -29.873382568443759 -336.885559082084342
-56.784679412828126 -144.270606994713290 -336.815399169974967
-55.955554962144532 -21.655456543053134 -339.592575073295279
-61.593769073472657 -151.545791626060947 -338.946884155326529
-54.717563629136720 -24.381652832115634 -336.533218383842154
-58.306743621812501 -14.830718994225009 -339.414459228568717
-53.579402923570314 -127.391891479576572 -342.220153808646842
-56.642864227281251 -275.535606384361699 -341.144912719779654
-54.787837982164064 -270.524715423668340 -345.503265380912467
-55.785465240464845 -186.014274597252353 -346.849227905326529
-56.404521942125001 -33.029968261803134 -345.282257080131217
-57.876598358140626 -28.889678955162509 -347.212982177787467
-54.708827972398439 -29.284759521568759 -348.283828735404654
-58.440608978257814 -16.908981323326572 -348.767501831107779
-61.416797637925782 -184.649326324547275 -348.153640747123404
-55.538356780992189 -192.532526016319736 -342.906341552787467
-53.957134246812501 -32.045791626060947 -347.761993408256217
-57.999446868882814 -32.576309204185947 -346.610000610404654
-57.536342620835939 -144.987495422447665 -348.600463867240592
-56.686405181871095 -268.817134857262090 -350.002105712943717
-55.412441253648439 -189.808387756432040 -344.548065185599967
-49.679637908921876 -27.654830932701572 -348.846450805717154
-56.236415863023439 -264.830284118736699 -347.154052734428092
-55.322536468492189 -129.966171264732822 -355.506835937553092
-56.368938446031251 -184.957225799644931 -353.270980835014029
-50.598011016832032 -31.175338745201572 -352.124298095756217
-55.218753814683595 -35.741104126060947 -351.085494995170279
-55.800266265855470 -158.364158630455478 -356.933197021537467
-60.220188140855470 -125.035644531334384 -358.421081543021842
-57.089893341050782 -151.573501586998447 -353.017837524467154
-52.237834930406251 -178.167987823570712 -358.154113769584342
-57.536159515367189 -21.278839111412509 -358.604888916068717
-58.537044525132814 -261.577713012779668 -356.520828247123404
-56.223072051988282 -161.248962402428134 -355.718811035209342
-54.531497955308595 -269.040172576988653 -356.537796020560904
-55.910289764390626 -137.751617431725009 -356.628890991264029
-56.795635223375001 -154.810600280846103 -361.610275268607779
-58.536762237535157 -162.994747161949618 -359.726608276420279
-52.960079193101564 -87.295501709068759 -361.840667724662467
-61.714099884019532 -19.176055908287509 -365.577011108451529
-59.431423187242189 -89.277877807701572 -360.218460083060904
-51.971652984605470 -137.434684753502353 -357.119384765678092
-55.811321258531251 -151.697937011803134 -360.968261718803092
-57.375125884996095 -178.118370056236728 -357.341751098685904
-55.672130584703126 -90.303482055748447 -363.903945922904654
-51.238773345933595 -87.766448974693759 -363.591644287162467
-57.933650970445314 -177.451938629234775 -363.561141967826529
-59.449352264390626 -18.450195312584384 -361.875305175834342
-55.985141754136720 -138.192512512291415 -364.770599365287467
-54.353191375718751 -79.484497070396884 -366.217346191459342
-56.583095550523439 -138.269264221275790 -364.807937622123404
-57.078609466539064 -145.516632080162509 -364.952255249076529
-54.748439788804689 -95.180793762291415 -365.507080078178092
-58.166805267320314 -187.797527313316806 -361.000534057670279
-58.504795074449220 -190.803337097252353 -365.115097045951529
-60.493808746324220 -21.754058837975009 -365.314559936576529
-60.602352142320314 -83.720214843834384 -366.565643310599967
-55.684955596910157 -141.410598754967197 -368.880432128959342
-58.486103057847657 -145.900733947838290 -369.680038452201529
-59.396076202378907 -155.829826355064853 -371.478286743217154
-61.060939788804689 -90.252212524498447 -365.762145996146842
-59.149837493882814 -143.425788879478915 -368.770187377982779
-59.312183380113282 -87.056411743248447 -367.962905883842154
-56.059696197496095 -179.081279754723056 -365.691452026420279
-55.114299774156251 -78.680465698326572 -365.155685424857779
-56.726230621324220 -73.419250488365634 -372.050994873099967
-54.783908843980470 -140.654319763267978 -371.905212402396842
-55.234889984117189 -148.114204406822665 -374.078674316459342
-57.962284088121095 -167.622089386070712 -374.864852905326529
-54.800922393785157 -18.311355590904697 -368.367752075248404
-54.304065704332032 -171.157569885338290 -372.500488281303092
-53.735630035386720 -183.400836944664462 -373.745040893607779
-55.489337921128907 -149.084625244225009 -371.284713745170279
-62.128780364976564 -170.955291748131259 -370.913208007865592
-59.699085235582032 -255.024742126549228 -379.149002075248404
-56.930866241441407 -151.893157959068759 -372.398727417045279
-60.007907867417970 -24.838897705162509 -376.262542724662467
-58.048366546617189 -162.676853180016025 -376.576492309623404
-59.623386383042970 -249.264871597374423 -379.556472778373404
-57.019237518296876 -27.025588989342197 -376.038742065482779
-56.129428863511720 -158.171913147057040 -379.107910156303092
-57.733051300035157 -190.222660064781650 -379.481475830131217
-59.082035064683595 -24.277816772545322 -380.009521484428092
-55.921703338609376 -170.602867126549228 -380.682998657279654
-57.152576446519532 -162.996742248619540 -376.090606689506217
-55.148349761949220 -253.012943267906650 -379.993072509818717
-59.298297882066407 -27.133697509850009 -385.251174926810904
-57.922046661363282 -176.107559204185947 -380.490524292045279
-57.129878997789064 -186.388622284019931 -379.512847900443717
-56.873691558824220 -30.261245727623447 -380.831665039115592
-59.998058319078126 -151.734352111900790 -381.327117919974967
-61.801738739000001 -242.593479156578525 -385.038284301810904
-59.325908660875001 -162.841217041100009 -387.682327270560904
-52.325176239000001 -242.219480514610751 -382.579345703178092
-56.948863983140626 -17.404403686607822 -386.437088012748404
-57.079860687242189 -174.808959961021884 -389.640502929740592
-56.339511871324220 -178.388126373375400 -387.809249877982779
-58.805446624742189 -240.123409271324618 -390.433822631889029
-59.729785919175782 -185.995868682945712 -384.539810180717154
-58.154026031480470 -146.049514770592197 -388.969390869193717
-54.677616119371095 -23.101821899498447 -395.226043701224967
-57.361469268785157 -148.757720947350009 -395.048080444389029
-49.621219634996095 -125.839248657310947 -392.326278686576529
-53.647251129136720 -154.911170959557040 -393.834472656303092
-55.924007415757814 -174.189006805504306 -394.502319335990592
-56.725383758531251 -181.331077575767978 -390.493789672904654
-59.601512908921876 -120.857582092369540 -395.747329711967154
-63.044170379625001 -145.565826416100009 -396.264556884818717
-62.575275421128907 -174.880104065025790 -395.873779296928092
-54.520397186265626 -115.392097473228915 -397.385406494193717
-58.108509063707032 -146.395896911705478 -394.246887207084342
-61.727077484117189 -110.944664001549228 -394.206832885795279
-58.982326507554689 -134.954856872642978 -398.666854858451529
-57.710285186753907 -172.227340698326572 -394.316879272514029
-54.545497894273439 -180.310424804771884 -397.519210815482779
-53.133190155015626 -104.275321960533603 -399.685668945365592
-54.258167266832032 -130.613136291588290 -396.014450073295279
-54.367115020738282 -125.084869384850009 -399.586181640678092
-57.843914031968751 -18.695907592857822 -399.864334106498404
-56.140445709214845 -122.803016662682040 -397.017623901420279
-54.824977874742189 -97.486747741783603 -398.063476562553092
-54.402736663804689 -116.556571960533603 -404.078094482474967
-56.362529754625001 -101.521224975670322 -406.465789794974967
-57.245441436753907 -157.861171722496493 -398.823883056693717
-59.836666107164064 -94.260437011803134 -399.410903930717154
-53.148258209214845 -93.236579895103915 -404.796615600639029
-57.416248321519532 -87.838836670006259 -400.198104858451529
-58.031009674058595 -90.731246948326572 -407.535888671928092
-54.903774261460939 -92.020416259850009 -405.550888061576529
-61.504650115953126 -14.216323852623447 -405.173126220756217
-58.934337615953126 -28.763137817467197 -408.879791259818717
-55.966495513902345 -17.205673217857822 -408.271820068412467
-58.626186370835939 -155.874820709312900 -413.727508544974967
-56.813030242906251 -27.035324096764072 -407.994506835990592
-53.556102752671876 -33.310211181725009 -413.817581176810904
-54.738811492906251 -42.053680420006259 -410.311386108451529
-54.246181488023439 -13.880737304771884 -417.285140991264029
-54.057338714585939 -193.164615631187900 -422.586334228568717
-56.240535736070314 -159.217041015709384 -418.066314697318717
-57.864719390855470 -22.028289795006259 -420.863403320365592
-59.109409332261720 -18.445526123131259 -430.154632568412467
-56.931781768785157 -24.377838134850009 -433.292236328178092
-53.647182464585939 -183.251319885338290 -438.480712890678092
-54.299762725816407 -134.999565124596103 -436.936035156303092
-54.467014312730470 -12.663604736412509 -441.079528808646842
-57.161632537828126 -119.396545410240634 -439.241516113334342
-55.924213409410157 -131.328277587975009 -442.366455078178092
-56.663425445542970 -138.051048278892978 -436.890319824271842
-53.984500884996095 -158.481578826988681 -442.181945800834342
-57.133785247789064 -98.676277160728915 -438.546264648490592
-51.508411407457032 -168.668884277428134 -440.793609619193717
-55.387599945054689 -94.700340271080478 -439.823516845756217
-56.956485748277345 -165.663135528648837 -437.857391357474967
-53.679904937730470 -86.250991821373447 -434.814392089896842
-59.107242584214845 -168.294338226402743 -436.298583984428092
-60.817073822007814 -175.644279480064853 -440.102386474662467
-55.542873382554689 -22.248092651451572 -436.623596191459342
-54.454784393296876 -34.130416870201572 -442.105041503959342
-54.704120635972657 -45.779556274498447 -442.728302002006217
-56.977909088121095 -84.031387329185947 -443.969299316459342
-56.365726470933595 -92.836761474693759 -442.676574707084342
-58.890918731675782 -20.634567260826572 -441.635925293021842
-53.618122100816407 -12.676773071373447 -442.513275146537467
-52.285816192613282 -92.012725830162509 -441.198272705131217
-55.784496307359376 -182.637039184654697 -442.572418212943717
-57.607784271226564 -73.454315185631259 -438.904418945365592
-53.602565765367189 -96.074493408287509 -441.179870605521842
-58.158496856675782 -76.536239624107822 -444.862487793021842
-56.859569549546876 -33.630187988365634 -440.862731933646842
-55.538272857652345 -88.425109863365634 -446.829071044974967
-59.099323272691407 -104.704483032310947 -443.145904541068717
-53.858669280992189 -125.414299011314853 -443.233337402396842
-55.425434112535157 -27.481002807701572 -443.693969726615592
-59.678089141832032 -142.056533813560947 -445.364349365287467
-57.513736724839845 -149.894645691002353 -442.550445556693717
-58.662509918199220 -156.545440673912509 -444.083648681693717
-56.382434844957032 -164.293354034508212 -444.753509521537467
-56.879802703843751 -13.691543579185947 -448.455627441459342
-57.460590362535157 -14.663497924889072 -447.969116210990592
-58.942012786851564 -12.773208618248447 -455.837127685599967
-57.565029144273439 -20.075912475670322 -449.761718750053092
-57.398509979234376 -23.730194091881259 -452.469696044974967
-59.482700347886720 -13.496917724693759 -459.866363525443717
-56.604373931871095 -112.702629089439853 -209.582977294974995
-57.054676055894532 -118.146369934166415 -207.301620483451558
-51.860774993882814 -102.822151184166415 -209.401432037406636
-54.533184051500001 -100.505302429283603 -206.840591430717183
-51.412082672105470 -123.477767944420322 -207.765495300346089
-56.104343414292970 -124.002807617271884 -209.039966583305073
-52.014301300035157 -133.856986999596103 -205.083381652885151
-53.901630401597657 -97.168670654381259 -208.778682708793355
-55.243183135972657 -136.556953430260165 -212.774600982719136
-59.267803192125001 -136.218032836998447 -211.570678710990620
-58.183444976792970 -145.732482910240634 -217.936164856010151
-55.646511077867189 -153.427932739342197 -222.931327819877339
-52.508724212632814 -151.219970703209384 -228.285041809135151
-52.700496673570314 -241.530645370567782 -223.726116180473042
-53.884357452378907 -255.495998382652743 -229.717819213920308
-54.163471221910157 -255.687026977623447 -227.463668823295308
-55.492527008042970 -135.132270813072665 -233.631347656303120
-59.694858551011720 -241.939483642662509 -228.039222717338276
-53.569393157945314 -268.419952392662481 -233.195068359428120
-59.880596160875001 -243.033315658653720 -234.826835632377339
-59.331699371324220 -250.255121231163486 -233.932830810599995
-56.010044097886720 -265.068206787193731 -238.454330444389058
-61.687534332261720 -244.848098754967197 -242.002037048392964
-57.700542449937501 -219.195463597858890 -242.939834594779683
-55.423397064195314 -223.789159774864657 -245.826271057182026
-59.171810150132814 -220.548733592117770 -247.510742187553120
-58.445835113511720 -221.937803506935580 -246.636924743705464
-55.013690948472657 -103.227165222252353 -248.721687316947651
-54.635303497300782 -103.046218872154697 -254.830680847221089
-49.331340789781251 -95.489036560142978 -255.336387634330464
-55.500698089585939 -218.838003575886233 -251.236610412650776
-57.554721832261720 -222.650715589607699 -257.226524353080436
-60.338665008531251 -83.877960205162509 -260.775382995658561
-56.108692169175782 -219.907869607294543 -259.505416870170279
-57.361125946031251 -79.097503662193759 -262.977325439506217
-53.632061004625001 -277.065864563072637 -261.353767395072623
-57.706172943101564 -89.529663086021884 -264.384552002006217
-57.852710723863282 -220.802023649300082 -263.160919189506217
-54.923801422105470 -220.147153616035922 -262.938819885306998
-56.598865509019532 -274.951236724937871 -270.368583679252311
-57.685253143296876 -277.399089813316778 -260.206314086967154
-58.210712432847657 -218.644175589169009 -269.348793029838248
-57.824626922593751 -200.596910476768954 -267.445053100639029
-54.035869598375001 -277.541637420738653 -268.135536193900748
-56.226139068589845 -218.483135581100925 -268.455795288139029
-59.927387237535157 -214.771689415062411 -276.219764709525748
-58.931774139390626 -200.429748535240634 -278.531845092826529
-56.869655609117189 -283.266414642418340 -272.521232605033561
-57.848728179917970 -276.484523773277715 -277.284027099662467
-56.294475555406251 -210.482901573265536 -273.782081604056998
-56.388912200914064 -210.282287597740634 -285.041831970267936
-51.238025665269532 -113.736740112389072 -282.866127014213248
-56.807163238511720 -204.174043655479892 -282.232490539603873
-55.582088470445314 -281.097366333092168 -288.397354126029654
-55.923625946031251 -285.824081420982793 -287.300445556693717
-60.793445587144532 -124.648323059166415 -288.261352539115592
-59.720111846910157 -196.672351837242587 -295.431152343803092
-49.995899200425782 -95.349403381432040 -290.980529785209342
-54.002323150621095 -93.743583679283603 -293.886444091849967
-53.072467803941407 -287.238052368248418 -295.836242675834342
-55.655971527085939 -100.217697143639072 -296.201614379935904
-59.691463470445314 -113.284996032799228 -292.982849121146842
-55.979419708238282 -195.594512939537509 -296.105300903373404
-56.063251495347657 -122.203628540123447 -296.397720336967154
-54.613605499253907 -129.895729065025790 -304.663650512748404
-54.118946075425782 -101.272789001549228 -301.356002807670279
-53.522502899156251 -97.964653015221103 -301.260375976615592
-56.433742523179689 -133.862953186119540 -301.161468505912467
-56.116916656480470 -100.673751831139072 -303.680786132865592
-56.029544830308595 -210.037663459862216 -305.254608154349967
-54.627918243394532 -279.298812866295293 -302.896331787162467
-55.610607147203126 -191.958854675377353 -306.022109985404654
-59.062480926500001 -194.366674423302157 -303.587066650443717
-57.255519866929689 -99.343376159752353 -308.872772216849967
-58.397388458238282 -282.965732574547246 -313.416320800834342
-54.317577362046876 -197.711904525841220 -305.100219726615592
-57.523548126207032 -131.219474792564853 -308.613525390678092
-54.171909332261720 -283.825164795006231 -305.766494751029654
-58.361965179429689 -179.475372314537509 -306.390869140678092
-55.359783172593751 -204.723767280662997 -307.458007812553092
-56.006801605210939 -107.065452575767978 -314.152923584037467
-53.101840972886720 -108.291358947838290 -310.351577758842154
-56.210559844957032 -290.022941589439824 -309.002380371146842
-55.022762298570314 -101.885818481529697 -308.919509887748404
-56.007755279527345 -178.183887481773837 -313.624526977592154
-56.488513946519532 -200.884696960533603 -308.354858398490592
-54.906185150132814 -104.289123535240634 -314.452545166068717
-56.393848419175782 -104.573440551842197 -313.440765380912467
-58.272129058824220 -122.123703003014072 -315.184234619193717
-55.527217864976564 -108.420082092369540 -318.305740356498404
-54.824573516832032 -197.155771255577548 -313.411041259818717
-59.364376068101564 -99.121467590416415 -314.617919921928092
-56.772800445542970 -167.280872345055087 -316.459991455131217
-51.379604339585939 -190.986537933433993 -315.582412719779654
-55.433216094957032 -185.136924743736728 -319.855346679740592
-52.719097137437501 -275.501461029137090 -312.859802246146842
-55.750225067125001 -110.464134216392978 -315.664321899467154
-60.170162200914064 -105.113769531334384 -324.431213378959342
-55.922275543199220 -139.815086364830478 -318.452590942435904
-54.603710174546876 -284.618431091392949 -318.310745239310904
-54.917163848863282 -272.682701110924199 -322.283645629935904
-57.906871795640626 -159.588893890465243 -321.061508178764029
-56.742343902574220 -164.787277221764072 -319.448104858451529
-56.287349700914064 -281.227886200035528 -324.298049926810904
-56.197727203355470 -163.920711517418368 -323.280654907279654
-51.214076995835939 -141.974952697838290 -325.788177490287467
-61.724369049058595 -105.201316833580478 -325.189361572318717
-55.573627471910157 -143.830902099693759 -324.558090210014029
-54.023036956773439 -115.823295593346103 -328.978561401420279
-55.341114044175782 -117.568908691490634 -328.604583740287467
-58.505336761460939 -195.490470886314853 -325.121505737357779
-58.777973175035157 -276.072975158775762 -321.448715210014029
-53.191341400132814 -278.222850799644903 -327.150695800834342
-58.004268646226564 -278.860454559410528 -332.742431640678092
-54.380290985093751 -186.327850341881259 -329.358047485404654
-57.044254302964845 -187.947744369591220 -329.264129638724967
-56.585468292222657 -130.211036682213290 -336.174713134818717
-57.289318084703126 -115.074188232506259 -329.286788940482779
-56.808055877671876 -272.311744690025762 -331.874542236381217
-59.283786773667970 -154.559722900475009 -333.622283935599967
-57.429653167710939 -195.744810104454501 -338.418594360404654
-60.303073883042970 -276.889694213951543 -334.877395629935904
-58.502994537339845 -282.759838104332403 -332.393692016654654
-55.309032440171876 -20.043746948326572 -339.935287475639029
-55.109920501695314 -272.224727630699590 -337.428710937553092
-56.350124359117189 -119.951950073326572 -341.327545166068717
-53.691303253160157 -120.455467224205478 -341.541595459037467
-54.487087249742189 -196.423452377403720 -335.740173339896842
-50.506404876695314 -115.221984863365634 -338.066604614310904
-53.274936676011720 -138.354080200279697 -339.130554199271842
-58.323467254625001 -116.705062866295322 -339.491714477592154
-55.066768646226564 -152.171638488853915 -337.334609985404654
-58.060703277574220 -120.110877990807040 -345.278350830131217
-56.573238372789064 -271.253089904869512 -342.997436523490592
-53.562343597398439 -21.252853393639072 -342.826263427787467
-53.759433746324220 -129.600379943932040 -343.249832153373404
-55.117420196519532 -30.733856201256259 -345.429565429740592
-53.997623443589845 -120.238037109459384 -348.878906250053092
-55.986278533921876 -153.051345825279697 -343.254791259818717
-57.509479522691407 -271.512855529869512 -341.574768066459342
-59.792919158921876 -127.660179138267978 -342.254348754935904
-55.679470062242189 -148.221580505455478 -347.861160278373404
-55.283390045152345 -194.703392028892978 -341.731933593803092
-54.489200592027345 -31.138977050865634 -356.048202514701529
-54.482944488511720 -123.580635070885165 -350.038864135795279
-58.567554473863282 -153.952659607017978 -347.211044311576529
-61.623554229722657 -277.158111572349981 -346.752807617240592
-58.407108306871095 -269.887802124107793 -339.719467163139029
-53.431827545152345 -126.105751037682040 -347.003082275443717
-56.309055328355470 -142.696975708092197 -347.924224853568717
-58.397136688218751 -265.196208953941778 -353.179199218803092
-58.223072051988282 -21.239089965904697 -352.117355346732779
-54.806209564195314 -145.692634582603915 -354.723754882865592
-53.742092132554689 -269.476829528892949 -349.613967895560904
-56.694065093980470 -12.195541381920322 -355.001602172904654
-57.699970245347657 -187.141399383629306 -355.056686401420279
-57.525287628160157 -158.360607147301181 -353.889617919974967
-61.566440582261720 -176.579486847008212 -349.892150878959342
-58.519397735582032 -17.438796997154697 -352.830963134818717
-57.723392486558595 -130.374496460045322 -353.015243530326529
-58.999454498277345 -29.295394897545322 -355.208221435599967
-57.130901336656251 -134.478965759361728 -352.853286743217154
-54.071475982652345 -266.183219909752324 -353.698379516654654
-57.057544708238282 -129.825157165611728 -355.608764648490592
-55.872539520250001 -262.985698700035528 -355.025009155326529
-55.890453338609376 -132.929885864342197 -355.294998168998404
-57.587795257554689 -25.770523071373447 -355.610015869193717
-55.080440521226564 -189.747743606651767 -354.849182128959342
-57.460597991929689 -132.856224060142978 -359.357696533256217
-58.520092010484376 -152.867408752525790 -366.892547607474967
-58.586956024156251 -266.266860961998418 -362.661132812553092
-57.006549835191407 -254.831195831383212 -362.276077270560904
-52.536899566636720 -261.351119995201543 -356.547302246146842
-56.380611419664064 -163.413600921715243 -365.167175293021842
-57.079486846910157 -270.378459930504278 -368.876937866264029
-56.731197357164064 -133.470436096275790 -364.755966186576529
-56.442905426011720 -87.711959838951572 -364.821990966849967
-58.333705902085939 -190.685602188194736 -357.899917602592154
-57.056285858140626 -95.140365600670322 -367.103546142631217
-58.285915374742189 -171.986869812096103 -368.103607177787467
-59.414630889878907 -167.215270996178134 -366.555740356498404
-55.942287445054689 -77.120681762779697 -370.772857666068717
-52.428417205796876 -146.285614013756259 -367.116744995170279
-54.305614471421876 -20.387084961021884 -365.360717773490592
-53.868511199937501 -143.515151977623447 -374.829544067435904
-59.371425628648439 -255.683193206871493 -367.917831420951529
-58.361225128160157 -257.749443054283574 -374.635116577201529
-56.970767974839845 -141.206039428795322 -368.503738403373404
-52.766445159898439 -263.051082611168340 -372.867507934623404
-57.439365386949220 -165.139923095787509 -378.018188476615592
-57.201000213609376 -251.321386337364657 -375.283004760795279
-55.312435150132814 -256.167774200523809 -368.352630615287467
-52.990154266343751 -70.050765991295322 -373.386123657279654
-53.273349761949220 -151.305511474693759 -371.088638305717154
-53.787647247300782 -151.404594421471103 -374.650039672904654
-53.097698211656251 -156.477756500328525 -374.216613769584342
-58.730854034410157 -15.555358886803134 -373.727630615287467
-58.635715484605470 -21.914642334068759 -376.636154174857779
-50.780544280992189 -155.993095398033603 -375.793685913139029
-55.690776824937501 -241.878906250084384 -373.351135253959342
-55.214221954332032 -142.862228393639072 -371.464935302787467
-55.082973480210939 -156.805664062584384 -384.434341430717154
-56.162754058824220 -163.036125183189853 -386.181716918998404
-60.997516632066407 -18.880523681725009 -378.815551757865592
-53.974956512437501 -42.527877807701572 -377.594039917045279
-55.571414947496095 -146.507713317955478 -377.004165649467154
-54.549137115464845 -42.825546264732822 -380.472946167045279
-59.118953704820314 -36.325256347740634 -379.852722168021842
-57.916141509996095 -161.293151855553134 -376.724212646537467
-55.206691741929689 -170.908115387047275 -382.695999145560904
-58.446857452378907 -185.060489654625400 -375.362182617240592
-54.339496612535157 -39.499130249107822 -381.438674926810904
-52.960292816148439 -161.935974121178134 -383.044387817435904
-54.736682891832032 -190.297132492149814 -385.342330932670279
-52.737018585191407 -38.637466430748447 -377.146514892631217
-54.687648773179689 -185.757137298668368 -381.778991699271842
-57.172306060777345 -16.460861206139072 -381.950561523490592
-54.108493804917970 -40.820343017662509 -385.221343994193717
-56.369396209703126 -243.980272293175204 -383.904739379935904
-55.866748809800782 -164.724163055504306 -385.498199462943717
-54.794651031480470 -167.694450378502353 -383.278366088920279
-56.675624847398439 -159.948020935142978 -386.152145385795279
-57.577678680406251 -167.989273071373447 -385.043884277396842
-55.979869842515626 -165.605350494469150 -392.227798461967154
-58.705753326402345 -231.564955711449130 -391.500946044974967
-51.128406524644532 -245.170650482262118 -387.874923706107779
-57.057704925523439 -167.514667511070712 -391.205062866264029
-55.481922149644532 -187.858091354454501 -392.562301635795279
-59.744312286363282 -139.775878906334384 -387.003372192435904
-57.039730072007814 -141.643272399986728 -386.808624267631217
-56.315914154039064 -135.766212463463290 -391.691009521537467
-58.128376007066407 -174.169055938805087 -394.503250122123404
-55.675289154039064 -127.581069946373447 -392.600921630912467
-58.093662261949220 -135.943565368736728 -398.627685546928092
-56.843227386460939 -135.537979126060947 -393.003509521537467
-56.753261566148439 -147.739044189537509 -397.636108398490592
-54.256244659410157 -119.765960693443759 -391.454101562553092
-53.612979888902345 -171.601181030357822 -396.173477172904654
-61.076503753648439 -179.226264953697665 -395.351425170951529
-54.764537811265626 -110.925682067955478 -394.007446289115592
-54.905048370347657 -131.260086059654697 -395.140823364310904
-53.551845550523439 -170.450908660973056 -393.162353515678092
-54.535999298082032 -112.476669311607822 -394.717071533256217
-52.223110198960939 -125.943923950279697 -397.578399658256217
-57.841922759996095 -102.976577758873447 -397.736938476615592
-52.912441253648439 -186.718082428062900 -400.294281005912467
-60.843761444078126 -99.192985534752353 -399.343292236381217
-57.091358184800782 -190.019533157433017 -393.667556762748404
-61.125858306871095 -24.049682617271884 -392.690032959037467
-56.179790496812501 -11.427734375084384 -406.895416259818717
-59.684741973863282 -96.102897644127353 -400.934555053764029
-59.042858123765626 -186.489734649742587 -395.462020874076529
-54.896686553941407 -8.330337524498447 -399.942382812553092
-55.465839385972657 -84.441314697350009 -400.656066894584342
-62.103473663316407 -187.146503448570712 -404.679275512748404
-58.055088043199220 -81.726928711021884 -401.368270874076529
-54.617008209214845 -92.608924865807040 -404.993362426810904
-53.569225311265626 -75.678359985435947 -409.246841430717154
-55.097026824937501 -91.223144531334384 -404.845825195365592
-55.473529815660157 -191.592706680382236 -411.379837036185904
-57.013660430894532 -74.978973388756259 -404.838363647514029
-52.914356231675782 -47.011581420982822 -405.551910400443717
-56.746700286851564 -29.042449951256259 -407.903900146537467
-58.935146331773439 -21.353866577232822 -408.843063354545279
-54.141025543199220 -45.971755981529697 -407.028808593803092
-54.571674346910157 -190.734426498497470 -407.392562866264029
-54.752216339097657 -23.854537963951572 -410.667327880912467
-53.091800689683595 -33.343322753990634 -411.785491943412467
-54.959362030015626 -31.741073608482822 -412.486633300834342
-59.576099395738282 -40.234527587975009 -411.055938720756217
-53.276012420640626 -156.278556823814853 -412.950134277396842
-52.383686065660157 -14.709060669029697 -409.035491943412467
-54.706104278550782 -39.055450439537509 -410.249771118217154
-53.586353301988282 -24.261352539146884 -413.106033325248404
-53.160717010484376 -26.814559936607822 -407.991989135795279
-59.759281158433595 -35.478561401451572 -412.743240356498404
-55.177082061753907 -36.670379638756259 -408.100769043021842
-58.599163055406251 -42.306076049889072 -416.499694824271842
-51.704982757554689 -7.494415283287509 -411.003585815482779
-55.859752655015626 -42.634613037193759 -422.282165527396842
-52.834720611558595 -193.436439514244540 -418.785583496146842
-59.276264190660157 -41.889343261803134 -416.632995605521842
-57.871257781968751 -1.824768066490634 -411.488540649467154
-56.037853240953126 -3.969055175865634 -413.665237426810904
-55.031993865953126 -13.283157348717197 -417.785903930717154
-58.456920623765626 -9.716064453209384 -417.389694213920279
-56.620563507066407 -20.086257934654697 -422.486694335990592
-53.583934783921876 -13.042297363365634 -423.501373291068717
-56.621128082261720 -21.383193969810947 -417.468933105521842
-55.840839385972657 -2.824264526451572 -422.201629638724967
-61.458988189683595 -187.824171066368564 -429.769866943412467
-53.633258819566407 -2.975997924889072 -428.031188964896842
-54.174152374253907 -18.247116088951572 -426.435455322318717
-53.629123687730470 -161.546188354576572 -429.037719726615592
-54.046283721910157 -11.282730102623447 -426.513244628959342
-51.652698516832032 -23.912658691490634 -434.492828369193717
-51.394939422593751 -16.530151367271884 -429.641723632865592
-58.456821441636720 -163.224056243980868 -435.720489502006217
-56.488079071031251 -182.559295654381259 -430.165527343803092
-56.936176300035157 -18.168731689537509 -435.091400146537467
-56.958896636949220 0.247558593665616 -432.362457275443717
-57.721813201890626 -20.993057251060947 -435.238769531303092
-51.250064849839845 -154.843833923424228 -434.749023437553092
-54.157138824449220 -24.921554565514072 -433.385162353568717
-56.215206146226564 -17.902313232506259 -438.054565429740592
-56.081409454332032 -6.079818725670322 -437.376770019584342
-54.018344879136720 -5.461547851646884 -433.796875000053092
-53.492237091050782 -14.290557861412509 -438.998687744193717
-54.650005340562501 -3.993103027428134 -435.366912841849967
-56.728969573960939 -31.650497436607822 -438.957366943412467
-57.217472076402345 -104.343902587975009 -441.054992675834342
-60.390026092515626 -139.702255249107822 -438.985900878959342
-58.240993499742189 -140.333267211998447 -438.856811523490592
-54.193462371812501 -162.539405822838290 -437.501983642631217
-57.485088348375001 -165.809463501060947 -439.626007080131217
-51.067790985093751 -168.161224365318759 -439.891510009818717
-59.362934112535157 -177.451473236168368 -439.447753906303092
-56.410808563218751 -71.125961303795322 -442.531860351615592
-61.311244964585939 -174.699748993004306 -439.274627685599967
-51.544841766343751 -50.363723754967197 -439.943603515678092
-59.385829925523439 -60.200042724693759 -438.477416992240592
-53.087223052964845 -19.776794433678134 -436.201232910209342
-57.888225555406251 -19.935012817467197 -437.985992431693717
-60.448131561265626 -181.060646057213290 -442.520721435599967
-56.247692108140626 -68.890426635826572 -442.689178466849967
-53.755161285386720 -21.654113769615634 -442.383453369193717
-58.599422454820314 -22.865844726646884 -446.554199218803092
-60.378948211656251 -43.146652221764072 -446.699035644584342
-58.962337493882814 -57.865615844810947 -447.479339599662467
-54.696384429917970 -88.887802124107822 -440.726409912162467
-53.649097442613282 -101.480476379478915 -447.041381835990592
-56.933719634996095 -8.862335205162509 -442.175750732474967
-54.358379364000001 -6.561264038170322 -440.226379394584342
-56.016208648667970 -47.061325073326572 -442.727081298881217
-58.041507720933595 -130.435867309654697 -442.297149658256217
-62.036769866929689 -181.688140869225009 -441.362091064506217
-53.512729644761720 -14.910110473717197 -443.269256591849967
-55.768726348863282 -139.410980224693759 -446.023925781303092
-52.142009735093751 -35.668212890709384 -447.516723632865592
-56.216091155992189 -158.312625885094150 -444.017852783256217
-57.498844146714845 -171.451095581139072 -443.981994628959342
-58.818538665757814 -44.521270752037509 -442.487457275443717
-52.617565155015626 -179.539558410728915 -447.692047119193717
-50.976947784410157 -185.615242004478915 -448.050537109428092
-55.571430206285157 -35.715866088951572 -447.051208496146842
-59.176914215074220 -24.454025268639072 -447.361968994193717
-55.176410675035157 -25.989334106529697 -450.748992919974967
-53.882198333726564 -18.108474731529697 -470.614288330131217
-56.130420684800782 -23.687515258873447 -462.593261718803092
-49.590740203843751 -98.362655639732822 -200.614585876517964
-55.770709991441407 -103.045486450279697 -208.925861358695698
-54.905551910386720 -127.821968078697665 -205.315856933646870
-61.545566558824220 -135.539833068932040 -214.158477783256245
-49.185077667222657 -145.467086792076572 -207.525470733695698
-48.690639495835939 -142.036170959557040 -215.078712463432026
-50.308132171617189 -149.467239379967197 -211.686241149955464
-51.421802520738282 -79.752655029381259 -219.344123840385151
-52.152812957750001 -148.834365844810947 -217.131008148246480
-54.775424957261720 -254.408870697105868 -225.532848358207417
-56.593494415269532 -248.781253814781650 -221.123901367240620
-56.741542816148439 -259.383235931480840 -224.513198852592183
-59.285472869859376 -146.081741333092197 -227.408439636283589
-54.437038421617189 -245.562742233360751 -228.170036315971089
-58.514430999742189 -262.447898864830449 -229.512893676810933
-56.406757354722657 -133.135574340904697 -231.136360168510151
-55.925289154039064 -244.958330154503329 -228.420593261771870
-54.183917999253907 -261.955997467125371 -230.668006897025776
-58.205638885484376 -239.273220062340243 -232.736557006889058
-52.888935089097657 -237.124300003136142 -238.757774353080464
-60.699184417710939 -122.048553466881259 -238.570137023978901
-54.489475250230470 -246.043582916344150 -242.239929199271870
-50.850543975816407 -75.409439086998447 -238.370780944877339
-44.964450836167970 -227.885374069298251 -243.575981140189839
-55.886638641343751 -238.694398880089267 -242.980575561576558
-53.421627044664064 -77.235595703209384 -240.794944763236714
-52.578296661363282 -228.001031875694736 -243.633506774955464
-53.725894927964845 -219.241191595877154 -248.354095459037495
-52.938358306871095 -239.452722549522861 -252.779998779349995
-54.818675994859376 -262.958221435631231 -244.922813415580464
-54.351406097398439 -221.362753629768832 -249.111114502006245
-49.940685272203126 -77.641967773521884 -244.492973327689839
-60.541439056382814 -255.958038330162509 -249.758972168021870
-61.205310821519532 -261.513759613121465 -249.027748107963276
-51.532375335679689 -247.127552032555087 -247.047256469779683
-57.690036773667970 -262.403888702476934 -249.557502746635151
-52.436153411851564 -248.186056137169345 -253.480667114310933
-49.370037078843751 -255.473880767906650 -252.195884704642964
-57.761211395250001 -253.554531097496493 -247.024589538627339
-56.599407196031251 -253.151187896812900 -247.750877380424214
-57.196407318101564 -214.586743831718906 -255.467346191459370
-57.258632659898439 -211.341851234520419 -254.404113769584370
-55.431568145738282 -271.320915222252324 -251.845962524467183
-51.228778839097657 -87.614318847740634 -257.900756835990592
-56.411548614488282 -78.761337280357822 -254.065490722709370
-55.071125030503907 -209.830047607506259 -257.484725952201529
-55.035388946519532 -275.496875763023809 -260.514617919974967
-54.765270233140626 -274.556213378990606 -261.343597412162467
-57.587810516343751 -282.308574676598028 -261.823020935111686
-53.783573150621095 -204.241235733116611 -263.491043090873404
-49.393276214585939 -216.821851492012485 -272.954223632865592
-50.957782745347657 -198.447057724083407 -271.117706298881217
-56.966960906968751 -212.641755580986484 -266.210884094291373
-56.354236602769532 -272.888595581139043 -269.291061401420279
-57.881214141832032 -279.549980163658574 -274.119079589896842
-56.913013458238282 -280.669017791832403 -283.239303588920279
-58.322818756089845 -286.172744751060918 -283.949707031303092
-51.494052886949220 -116.629669189537509 -288.209602356010123
-52.213459014878907 -111.156723022545322 -284.681632995658561
-50.642971038804689 -117.631126403892978 -287.507431030326529
-54.113956451402345 -200.540758133018954 -282.469352722221061
-55.596897125230470 -208.643543243492587 -284.786590576224967
-57.645206451402345 -279.673786163414434 -281.401199340873404
-57.806980133042970 -193.925863266075595 -284.954093933158561
-56.143405914292970 -126.834197998131259 -293.312164306693717
-57.964664459214845 -206.857615470970615 -293.733474731498404
-58.225101470933595 -278.254577636803106 -291.724472045951529
-54.787212371812501 -97.421493530357822 -290.231094360404654
-54.680233001695314 -197.399389267052157 -299.102462768607779
-55.460796356187501 -96.525161743248447 -294.466598510795279
-56.493991851792970 -193.736930847252353 -295.697631835990592
-53.884357452378907 -99.305923461998447 -299.834381103568717
-51.787822723375001 -118.467353820885165 -296.400527954154654
-50.999591827378907 -131.081878662193759 -294.626327514701529
-52.705493926988282 -284.993553161705449 -291.861114502006217
-54.525997161851564 -281.077697753990606 -291.391494751029654
-59.151584625230470 -278.686119079674199 -296.692520141654654
-57.551021575914064 -205.888851165855868 -300.124938964896842
-62.120517730699220 -117.583786010826572 -299.863220214896842
-57.712802886949220 -93.396896362389072 -295.705764770560904
-59.276996612535157 -130.355651855553134 -302.719772338920279
-54.637004852281251 -96.657455444420322 -305.750854492240592
-53.823917388902345 -191.178363800133212 -301.236846923881217
-54.469379425035157 -99.817970275963290 -305.702453613334342
-55.517581939683595 -104.286537170494540 -305.696044921928092
-53.102313995347657 -280.093688964928106 -301.104049682670279
-52.969524383531251 -122.014747619713290 -305.978866577201529
-57.263927459703126 -102.185058593834384 -305.799011230521842
-56.563770294175782 -132.999885559166415 -302.793609619193717
-55.585056304917970 -202.481914520348056 -309.756668090873404
-59.892658233628907 -96.092765808189853 -311.893447876029654
-53.902530670152345 -273.988361358726934 -311.229354858451529
-52.488681793199220 -189.255189895714267 -309.921920776420279
-58.257419586167970 -285.490287780846074 -301.847305297904654
-55.278728485093751 -282.359951019371465 -314.789459228568717
-51.490520477281251 -97.115249633873447 -306.360473632865592
-53.189632415757814 -124.340904235924228 -305.906967163139029
-51.091266632066407 -177.995742797935947 -309.071304321342154
-58.081539154039064 -102.006309509361728 -314.174209594779654
-53.139446258531251 -97.986053466881259 -315.084976196342154
-57.920749664292970 -100.001266479576572 -316.132858276420279
-51.292087554917970 -195.868154525841220 -313.592681884818717
-50.259654998765626 -109.456153869713290 -316.506408691459342
-57.703502655015626 -138.171806335533603 -310.922698974662467
-51.410556793199220 -172.711963653648837 -313.970245361381217
-54.264446258531251 -278.398414611900762 -311.186203002982779
-53.665554046617189 -278.874824524010137 -311.891555786185904
-53.086742401109376 -281.755653381432012 -312.613021850639029
-55.281208038316407 -173.766067504967197 -320.700027465873404
-53.766086578355470 -134.857048034752353 -320.785598754935904
-50.149341583238282 -169.539890289391025 -320.121994018607779
-54.246326446519532 -280.247837066734746 -315.585723877006217
-56.389354705796876 -171.726272583092197 -319.812484741264029
-56.328411102281251 -200.344839096153720 -325.191665649467154
-56.339458465562501 -277.243503570640996 -319.259216308646842
-56.029689788804689 -126.787094116295322 -321.883850097709342
-54.440631866441407 -285.022834777916387 -317.883255004935904
-52.918987274156251 -127.602958679283603 -324.973541259818717
-56.247303009019532 -142.134803772057040 -321.759277343803092
-55.350170135484376 -188.005290985191806 -322.869400024467154
-51.358417510972657 -200.851100921715243 -323.442123413139029
-56.961826324449220 -283.830001831139043 -318.772628784232779
-55.357357025132814 -116.154907226646884 -323.436767578178092
-56.392688751207032 -128.003318786705478 -326.466445922904654
-52.258434295640626 -141.005874633873447 -325.431442260795279
-54.322261810289064 -104.566085815514072 -324.389495849662467
-51.745639801011720 -278.887916565025762 -329.317687988334342
-58.259922027574220 -273.224716186607793 -329.504577636771842
-59.265232086167970 -108.778327941978915 -326.048156738334342
-52.386966705308595 -197.214277267540439 -323.807083129935904
-58.340328216539064 -275.985664367760137 -324.990966796928092
-54.267459869371095 -112.768348693932040 -330.194793701224967
-55.183475494371095 -137.696105957115634 -335.292648315482779
-55.686336517320314 -148.325294494713290 -335.074401855521842
-55.422702789292970 -277.403526306236699 -335.438003540092154
-53.208827972398439 -25.500350952232822 -325.591217041068717
-57.010951995835939 -108.060729980553134 -337.136840820365592
-54.818302154527345 -147.073379516685947 -331.133895874076529
-54.168682098375001 -280.837326049889043 -331.990173339896842
-58.605724334703126 -24.857971191490634 -334.559646606498404
-53.658473968492189 -111.407371521080478 -331.213104248099967
-53.396099090562501 -128.240249633873447 -334.996185302787467
-56.105014801011720 -150.053474426353915 -333.290283203178092
-53.517795562730470 -19.582824707115634 -331.418014526420279
-58.454326629625001 -28.383758545006259 -336.840728759818717
-54.554729461656251 -132.720756530846103 -332.438476562553092
-56.331317901597657 -182.947269439781650 -337.714523315482779
-54.078693389878907 -23.385757446373447 -335.471984863334342
-57.667507171617189 -184.508556366051181 -334.605194091849967
-54.314243316636720 -27.930480957115634 -338.331222534232779
-57.324436187730470 -138.907814025963290 -335.903671264701529
-56.837459564195314 -186.107025146568759 -339.269241333060904
-53.286510467515626 -180.290218353355868 -340.133544921928092
