# This PCD file was generated using the MATLAB® pcwrite function
# from Computer Vision Toolbox®.
# .PCD v.7 - Point Cloud Data file format
VERSION .7
FIELDS x y z
SIZE 8 8 8
TYPE F F F
COUNT 1 1 1
WIDTH 772
HEIGHT 1
VIEWPOINT 0 0 0 1 0 0 0
POINTS 772
DATA ascii
-59.830608367889063 -212.198469161956041 -265.940780639682771
-58.022701263396876 -207.070713043181627 -269.473930358921052
-58.744037628142969 -216.296813487975328 -265.651245117221833
-61.381458282439844 -210.426019668547838 -270.797851562534333
-60.533649444549219 -213.023193359343736 -272.121780395542146
-59.688152313201563 -212.970417499510972 -277.409080505405427
-59.762065887420313 -209.317037582366197 -276.147125244174958
-56.163082122771876 -209.915101051299303 -284.518669128452302
-59.226375579803126 -205.034907340972154 -284.318252563510896
-61.051815032928126 -202.867160797087877 -284.144561767612458
-61.683765411346094 -196.672718048064439 -289.885169982944490
-58.479152679412501 -200.684019088713853 -293.469680786167146
-59.654788970916407 -207.379789352385728 -285.677490234409333
-58.830463409392969 -206.756546974150865 -290.907211303745271
-60.813251495330469 -201.436418533293931 -290.168785095249177
-60.621303558318751 -203.186590194670885 -295.097259521518708
-58.662166595428126 -196.097436904875963 -302.059112548862458
-60.167804717986719 -125.152000427214830 -297.829971313510896
-59.822681426971094 -129.447883605925767 -304.829010009799958
-60.710498809783594 -195.318944930999010 -305.160125732456208
-57.902286529510157 -201.505525588957994 -302.545227050815583
-58.539585113494532 -117.764236450164049 -300.627761840854646
-60.901866912810938 -122.719291686980455 -303.567474365268708
-60.848903655975001 -196.321102142302720 -304.948806762729646
-60.921314239471094 -201.046588897673814 -306.787048339878083
-58.845928192107813 -122.483932495085924 -308.484512329135896
-59.126560211150782 -193.769025802581041 -319.553115844760896
-58.485469818084376 -106.134056091277330 -309.401153564487458
-60.470897674529688 -131.355979919402330 -310.068130493198396
-56.167423248260157 -197.459671020476549 -313.025711059604646
-59.677799224822657 -103.508750915496080 -317.414489746128083
-60.450222015350001 -107.027717590300767 -315.953430175815583
-60.613819122283594 -126.567192077605455 -309.791702270542146
-58.668010711639063 -133.426193237273424 -319.607162475620271
-58.795001983611719 -200.841356277434556 -310.129791259799958
-62.541309356658594 -201.053665161101549 -313.333251953159333
-59.321048736541407 -170.521717071501939 -315.823348999057771
-59.159267425506251 -135.899429321257799 -317.703155517612458
-59.571155548064844 -165.520298004119127 -317.997970581089021
-57.553028106658594 -199.165447235076158 -314.147354126010896
-59.704166412322657 -166.879375457732408 -320.543457031284333
-59.559520721404688 -110.751014709441392 -319.142623901401521
-58.062931060760157 -130.460227966277330 -318.227752685581208
-56.384220123260157 -196.628902435271470 -316.896804809604646
-58.148845672576563 -133.364952087371080 -321.802047729526521
-60.601963043182032 -139.351776123015611 -321.152633667026521
-61.557735443084376 -133.985809326140611 -325.378311157260896
-60.611331939666407 -196.079854965178697 -326.063583374057771
-58.313632965057032 -106.834892272917955 -325.952072143589021
-62.649204254119532 -165.711967468230455 -323.993072509799958
-61.737621307342188 -130.642944335906236 -323.992340087924958
-60.512157440154688 -115.733863830535142 -325.176818847690583
-58.356899261443751 -114.563926696746080 -329.919296264682771
-58.510555267303126 -145.483055114714830 -331.565994262729646
-59.030078887908594 -195.085357665984361 -329.558258056674958
-58.800983428924219 -110.460662841765611 -331.040084838901521
-60.718570709197657 -151.610282897917955 -333.483474731479646
-57.543895721404688 -116.919944763152330 -333.387741088901521
-58.275821685760157 -138.867256164519517 -331.106170654331208
-58.881778717010157 -144.606559753386705 -334.049316406284333
-58.160518646209376 -148.168739318816392 -334.240295410190583
-58.281772613494532 -154.775337219207017 -331.679779052768708
-59.906566619842188 -194.897789001433580 -332.239120483432771
-57.532436370818751 -143.462753295867174 -336.598327636753083
-60.036754608123438 -120.054420471160142 -338.296295166049958
-58.702487945525782 -136.809455871550767 -331.502975463901521
-57.337459564178126 -143.651870727507799 -335.301101684604646
-61.255084991424219 -116.336547851531236 -335.478164672885896
-60.447689056365626 -189.591699600188463 -335.819442749057771
-60.564777374236719 -124.168411254851549 -341.457489013706208
-61.322460174529688 -140.333862304656236 -341.288848876987458
-59.583019256560938 -144.923332214324205 -340.843536376987458
-59.899181365935938 -118.880073547332017 -339.441970825229646
-60.573329925506251 -129.581062316863267 -345.756912231479646
-59.289386749236719 -140.698638915984361 -342.290023803745271
-56.395786285369532 -124.849845886199205 -343.136306762729646
-57.926197051971094 -123.744720458953111 -349.933212280307771
-59.812770843475001 -189.099458694426744 -342.059509277378083
-59.650730133025782 -29.574920654265611 -348.179580688510896
-58.594738006560938 -146.360046386687486 -344.902954101596833
-60.559581756560938 -148.915702819792955 -347.453125000034333
-63.193599700896876 -35.050491332976549 -351.825149536167146
-60.548679351775782 -146.625885009734361 -348.649688720737458
-60.150615692107813 -25.379470825164049 -349.917251586948396
-60.372714996307032 -19.912719726531236 -353.921157836948396
-62.155681610076563 -36.337112426726549 -350.736526489292146
-60.836566925017969 -188.659202575652330 -354.452758789096833
-58.428226470916407 -38.215744018523424 -353.756744384799958
-60.334934234588282 -188.631721496550767 -353.027389526401521
-60.310604095428126 -151.116996765105455 -351.447296142612458
-57.428562164275782 -152.075477600066392 -350.112030029331208
-58.126026153533594 -131.698791503874986 -353.104553222690583
-58.959568023650782 -184.872386932341783 -353.316223144565583
-60.951717376678126 -18.211029052703111 -354.375640869174958
-58.687755584685938 -29.906738281218736 -355.987762451206208
-61.007534027068751 -157.199462890593736 -356.227493286167146
-60.877246856658594 -136.183151245085924 -357.154129028354646
-60.524417877166407 -21.665069580046861 -355.614822387729646
-59.520824432342188 -135.895713806121080 -357.634002685581208
-61.581615447967188 -102.833183288542955 -361.288330078159333
-59.941890716521876 -132.042396545378892 -357.595123291049958
-58.599002838103907 -102.460540771453111 -359.869171142612458
-59.609844207732813 -105.600151061980455 -361.486373901401521
-58.454334259002344 -179.436080932585924 -363.620422363315583
-61.631580352752344 -186.808223724333970 -361.191619873081208
-62.916667938201563 -88.896636962859361 -363.789245605503083
-56.748928070037501 -140.184921264617174 -365.386245727573396
-59.202144622771876 -143.413833618132799 -362.739639282260896
-60.448139190642969 -133.460769653289049 -362.363311767612458
-58.991558074920313 -185.501811981169908 -361.646896362339021
-59.341274261443751 -85.566925048796861 -366.550521850620271
-59.503437042205469 -141.022140502898424 -366.299926757846833
-59.597949981658594 -154.568489074675767 -364.862564086948396
-58.970249175994532 -162.054866790740220 -370.118103027378083
-59.275424957244532 -145.441810607878892 -369.758300781284333
-60.517566680877344 -181.865940093962877 -365.976928710971833
-60.365360259978907 -89.126068115203111 -368.521224975620271
-58.214153289764063 -81.746932983367174 -368.482101440464021
-59.293285369842188 -87.810104370085924 -369.684020996128083
-59.142475128142969 -186.711509704558580 -366.777343750034333
-60.550937652557032 -24.683227539031236 -369.947555542026521
-57.505329132049219 -162.121673583953111 -368.980392456089021
-58.770328521697657 -164.762382507292955 -368.442993164096833
-58.910823821990626 -160.949634551970689 -373.253402709995271
-61.111003875701563 -182.565906524626939 -369.098907470737458
-58.374217987029688 -184.877216339080064 -377.129013061557771
-60.276927947967188 -166.899826049773424 -375.029800415073396
-59.484088897674219 -180.055374145476549 -378.759704589878083
-58.088802337615626 -177.180904388396470 -381.221694946323396
-61.483150482146876 -184.526638030974595 -381.163864135776521
-61.166538238494532 -29.760574340789049 -379.035476684604646
-59.472530364959376 -172.033946990935533 -379.659637451206208
-58.951953887908594 -165.521678924529283 -378.969863891635896
-57.218013763396876 -35.310821533171861 -379.209259033237458
-58.107242584197657 -178.077865600554674 -380.371475219760896
-58.234966278045313 -22.399353027312486 -384.212188720737458
-60.411609649627344 -22.826858520476549 -386.255432128940583
-60.363216400115626 -188.157901763884752 -389.137390136753083
-56.803890228240626 -179.257255554167955 -382.395751953159333
-60.285518646209376 -165.778045654265611 -383.285186767612458
-61.530719757049219 -171.720016479460924 -387.153518676792146
-61.530284881560938 -175.018188476531236 -394.866714477573396
-58.217983245818751 -144.334968566863267 -391.450805664096833
-58.194515228240626 -147.032363891570299 -392.311599731479646
-58.321224212615626 -131.661994934050767 -392.251556396518708
-58.842784881560938 -21.001251220671861 -394.215820312534333
-63.257221221892969 -24.322143554656236 -394.293823242221833
-60.597034454314844 -21.319671630828111 -395.380966186557771
-58.160762786834376 -147.220314025847642 -394.934463501010896
-57.042446136443751 -180.250656127898424 -396.547393798862458
-59.008396148650782 -141.374343872039049 -394.468017578159333
-57.413501739471094 -189.064994811980455 -392.370956420932771
-60.067173004119532 -133.337615966765611 -397.965087890659333
-59.563854217498438 -116.195739746062486 -399.597885131870271
-60.898662567107813 -124.456848144499986 -398.585327148471833
-59.656047821014063 -179.258293151824205 -399.484893798862458
-58.788242340057032 -112.485939025847642 -400.837661743198396
-57.300907134978907 -119.611503601042955 -399.432678222690583
-61.345401763885157 -22.767852783171861 -400.912506103549958
-57.280475616424219 -107.618804931609361 -400.825714111362458
-60.043514251678126 -117.978820800749986 -399.992599487339021
-58.258144378631251 -192.622207641570299 -401.338607788120271
-56.071727752654688 -165.600082397429674 -401.498367309604646
-60.571094512908594 -166.723026275603502 -402.328842163120271
-58.747692108123438 -183.646202087371080 -403.506271362339021
-60.312107086150782 -160.561573028533189 -410.226348876987458
-62.107433319060938 -29.931838989226549 -410.660964965854646
-58.759128570525782 -33.336791992156236 -409.384780883823396
-65.008640289275775 -23.486877441374986 -411.596359252964021
-59.470439910857813 -35.759613037078111 -410.512435913120271
-59.321041107146876 -14.934570312468736 -413.182937622104646
-60.059284210174219 -190.227090835540025 -412.012100219760896
-58.232898712127344 -35.912277221648424 -412.340240478549958
-58.279392242400782 -25.694961547820299 -412.176208496128083
-60.142444610564844 -32.966964721648424 -414.028198242221833
-59.284481048553126 -190.639232635466783 -413.386520385776521
-60.384029388396876 -158.852748870818345 -413.331497192417146
-62.836505889861719 -187.602630615203111 -418.618041992221833
-61.081607818572657 -26.761779785124986 -424.479064941440583
-59.402759551971094 -189.582134246794908 -423.098571777378083
-59.566143035857813 -22.861587524382799 -425.383636474643708
-58.229793548553126 -185.120223998992174 -431.326049804721833
-59.539775848357813 -171.019058227507799 -431.019256591831208
-58.623455047576563 -181.887111663787095 -433.411773681674958
-60.472141265838282 -174.371295928923814 -433.428314209018708
-61.332820892303126 -22.046783447234361 -436.208587646518708
-60.993045806853907 -173.956111907927720 -435.759246826206208
-60.795299529998438 -16.694412231414049 -436.733154296909333
-59.745944976775782 -27.277694702117174 -438.138671875034333
-59.650997161834376 -28.805526733367174 -439.528930664096833
-59.876811981170313 -138.787078857390611 -441.756011962924958
-59.514850616424219 -33.759658813445299 -441.690979003940583
-58.327053070037501 -139.994438171355455 -442.606140136753083
-59.055377960174219 -151.738677978484361 -443.388122558628083
-60.955615997283594 -20.986907958953111 -444.631835937534333
-59.743404388396876 -31.895355224578111 -446.023712158237458
-59.467510223357813 -151.298744201628892 -442.318817138706208
-59.980541229217188 -28.575988769499986 -443.839019775424958
-58.940868377654688 -186.278831481902330 -446.670349121128083
-61.264377593963282 -15.142684936492174 -445.232818603549958
-60.586292266814844 -21.474197387664049 -448.217651367221833
-58.930065154998438 -22.861389160124986 -459.354827880893708
-58.929645538299219 -17.202438354460924 -464.534576416049958
-60.310817718475001 -24.389373779265611 -464.602630615268708
-56.587985992400782 -110.151756286589830 -209.377349853549987
-59.700824737517969 -118.508567810027330 -211.012828826938659
-59.496318817107813 -114.505744934050767 -213.755924224887877
-57.200489044158594 -120.924926757781236 -212.603767395053893
-57.210941314666407 -128.380569457976549 -211.492534637485534
-58.133197784392969 -103.174453735320299 -213.276149749790221
-58.066120147674219 -131.534515380828111 -215.189311981235534
-56.795711517303126 -97.885818481414049 -216.213645935092956
-56.584438323943751 -129.582695007292955 -214.165904998813659
-58.015377044646876 -90.495300292937486 -217.806118011508971
-58.506587982146876 -90.025588989226549 -224.436149597202331
-57.163425445525782 -144.339401245085924 -221.674118042026549
-59.881938934295313 -143.675903320281236 -220.382282257114440
-59.667423248260157 -143.035697936980455 -226.899280548130065
-59.321903228728907 -84.277481079070299 -229.787666320835143
-59.523189544646876 -145.895339965789049 -228.733001709018737
-60.850971221892969 -142.500724792449205 -231.865074157749206
-58.459751129119532 -258.225254058806627 -238.104675293003112
-57.458164215057032 -133.338806152312486 -235.272453308139831
-59.543712615935938 -256.012496948210924 -235.838317871128112
-58.554653167693751 -251.265623092620103 -240.384223938022643
-60.189510345428126 -258.570575714080064 -238.919952392612487
-56.480167388885157 -245.822473525969713 -240.158378601108581
-59.438869476287501 -82.556838989226549 -237.988014221225768
-59.118457794158594 -248.310089111296861 -239.828628540073424
-59.083988189666407 -255.463771820037095 -239.810752868686706
-57.412624359100001 -257.142936706511705 -242.607200622592956
-57.487277984588282 -252.629085540740220 -243.319618225132018
-57.177738189666407 -250.669431686370103 -243.294090271030456
-59.066066741912501 -256.939266204802720 -241.799209594760924
-57.670352935760157 -253.265426635710924 -244.870338439975768
-58.454273223846094 -260.376914977996080 -244.111953735385924
-55.517467498748438 -76.126037597624986 -245.914733886753112
-56.657726287810938 -103.021690368621080 -250.254158020053893
-55.821117401092188 -222.851849317519395 -249.459259033237487
-58.709789276092188 -219.838219344584672 -253.004928588901549
-58.489154815642969 -223.676055431334703 -254.460243225132018
-59.830341339080469 -217.218299388854234 -255.623382568393737
-59.274822235076563 -222.034391283957689 -256.463356018100740
-57.962429046600001 -219.187597274749010 -260.796432495151521
-58.014049529998438 -215.672223567931383 -258.443893432651521
-58.649662017791407 -215.961279392211168 -261.575309753452302
-61.485538482635157 -210.235381126372545 -263.221458435092927
-59.932880401580469 -83.758590698210924 -266.598243713413240
-58.437427520721094 -213.121563434569566 -265.175148010288240
-57.163738250701563 -216.156323432891099 -268.979187011753083
-59.625705718963282 -208.923489570586412 -268.142700195346833
-58.544231414764063 -217.241165399520128 -264.693565368686677
-60.884288787810938 -201.956161498992174 -273.016319274936677
-60.754497528045313 -215.280555248229234 -272.677040100131990
-58.761768341033594 -201.632823944060533 -283.335998535190583
-58.285404205291407 -210.101601600615709 -277.658340454135896
-56.495571136443751 -200.476306915251939 -287.122299194370271
-56.942501068084376 -195.853174209563463 -291.170104980503083
-57.705265045135157 -192.475942611663072 -297.353546142612458
-59.697048187225001 -201.634416580168931 -298.160690307651521
-58.049800872771876 -198.999677658049791 -297.788619995151521
-58.025424957244532 -118.028091430632799 -295.846405029331208
-58.366947174041407 -197.606210708586900 -300.609359741245271
-58.054172515838282 -123.702087402312486 -302.879409790073396
-58.563884735076563 -118.461906433074205 -305.848785400424958
-57.530681610076563 -102.966270446746080 -305.496871948276521
-58.167499542205469 -123.595054626433580 -305.360305786167146
-57.852275848357813 -129.807952880828111 -307.554306030307771
-59.902217864959376 -125.062713623015611 -312.072570800815583
-59.240482330291407 -202.353050231902330 -308.481689453159333
-58.096324920623438 -195.237545013396470 -308.907928466831208
-57.858249664275782 -201.046159744231431 -310.063446044956208
-57.867397308318751 -193.843025207488267 -317.640884399448396
-60.424404144256251 -104.323379516570299 -310.723785400424958
-57.918895721404688 -132.976173400847642 -315.068725585971833
-59.068622589080469 -102.208129882781236 -319.898010253940583
-58.788501739471094 -133.864242553679674 -314.457962036167146
-58.179477691619532 -171.866378784148424 -315.805313110385896
-58.336833953826563 -124.897712707488267 -309.249572753940583
-58.794567108123438 -177.167201995818345 -315.942092895542146
-57.266963958709376 -191.584140777556627 -312.968048095737458
-60.121654510467188 -111.534378051726549 -317.585830688510896
-59.943851470916407 -201.955545425383775 -315.725067138706208
-58.304103851287501 -107.722404479949205 -321.358764648471833
-58.002330779998438 -196.172134399382799 -322.911392211948396
-61.624454498260157 -189.340164184539049 -320.683883667026521
-61.379314422576563 -127.379463195769517 -317.805007934604646
-56.298854827850001 -161.799228668181627 -319.861038208042146
-58.290882110564844 -162.078529357878892 -323.420562744174958
-59.795169830291407 -167.664577484099595 -323.957199096714021
-57.289875030486719 -112.962356567351549 -321.608795166049958
-56.356777191131251 -281.124057769744127 -323.987075805698396
-57.527164459197657 -109.866516113249986 -321.976348876987458
-56.857875823943751 -170.683902740447252 -322.284454345737458
-58.233852386443751 -198.820377349822252 -326.625152587924958
-57.963764190642969 -110.337341308562486 -327.482879638706208
-59.948390960662501 -129.787750244109361 -319.811004638706208
-58.634876251189844 -136.324447631804674 -318.922683715854646
-58.928760528533594 -133.993858337371080 -325.688446044956208
-58.638645172088282 -195.224317550627916 -322.381927490268708
-58.350505828826563 -194.646118164031236 -325.937667846714021
-59.327342987029688 -153.272918701140611 -330.526824951206208
-60.517055511443751 -160.560745239226549 -329.511413574253083
-58.841846466033594 -113.787063598601549 -325.123947143589021
-60.111186981170313 -134.070762634246080 -332.073516845737458
-59.123195648162501 -109.207939147917955 -328.192810058628083
-58.990085601775782 -277.824485778777330 -334.888488769565583
-59.626491546600001 -189.063056945769517 -326.229415893589021
-60.579395294158594 -159.419425964324205 -328.654861450229646
-57.424106597869532 -120.141471862761705 -333.126739501987458
-58.792125701873438 -142.388137817351549 -329.391479492221833
-59.656429290740626 -117.843070983855455 -332.722732543979646
-57.942523956267969 -152.615501403777330 -330.029953002964021
-58.834362029998438 -280.819709777800767 -331.336822509799958
-59.575786590545313 -121.314575195281236 -334.822708129917146
-57.587421417205469 -193.132341384856431 -329.582351684604646
-60.598995208709376 -186.977741241423814 -337.471328735385896
-56.396160125701563 -196.103696823088853 -334.375717163120271
-58.052440643279688 -113.728431701628892 -333.263900756870271
-60.483829498260157 -148.152793884246080 -335.055786132846833
-59.631855010955469 -276.776649475066392 -337.241912841831208
-58.731655120818751 -115.579650878874986 -333.801696777378083
-57.387897491424219 -138.672599792449205 -334.989471435581208
-55.246112823455469 -140.700004577605455 -338.546966552768708
-57.928760528533594 -186.090270996062486 -338.631210327182771
-57.902431488006251 -140.101074218718736 -336.024475097690583
-59.942302703826563 -142.199668884246080 -343.428955078159333
-57.321407318084376 -21.760925292937486 -339.641403198276521
-60.706928253142969 -119.190444946257799 -341.320541381870271
-58.323665618865626 -118.649459838835924 -338.831329345737458
-56.836566925017969 -122.414527893035142 -338.394927978549958
-60.093975067107813 -148.077827453582017 -342.300704956089021
-59.109783172576563 -190.996181488005845 -341.367340087924958
-58.261425018279688 -20.697250366179674 -339.338439941440583
-58.108089446990626 -120.707778930632799 -341.400192260776521
-58.214588165252344 -188.289890289275377 -340.452758789096833
-59.669925689666407 -275.527606964080064 -340.599258422885896
-54.596904754607813 -21.698959350554674 -345.750823974643708
-58.277347564666407 -115.551315307585924 -341.482101440464021
-61.523799896209376 -129.603836059539049 -347.097015380893708
-59.573284149139063 -185.181705474822252 -348.095458984409333
-60.093204498260157 -192.137659072844713 -347.855941772495271
-61.460338592498438 -25.680999755828111 -349.935775756870271
-56.032878875701563 -122.351654052703111 -344.171539306674958
-61.177730560271876 -150.219047546355455 -343.866348266635896
-59.057407379119532 -273.071247100798814 -349.657058715854646
-59.704647064178126 -272.050991058318345 -348.321533203159333
-61.630756378142969 -124.880332946746080 -343.606292724643708
-57.681751251189844 -152.024032592742174 -344.538269043003083
-55.888454437225001 -125.150390624968736 -347.921875000034333
-61.631122589080469 -21.167282104460924 -351.108505249057771
-59.772220611541407 -124.374305725066392 -353.171447753940583
-59.529956817596094 -26.166778564421861 -354.595520019565583
-57.292217254607813 -147.499305725066392 -351.398468017612458
-58.548160552947657 -134.097427368132799 -353.428451538120271
-57.127666473357813 -187.575057983367174 -354.744781494174958
-60.816989898650782 -266.494003295867174 -354.156692504917146
-56.850170135467188 -33.502426147429674 -354.947219848667146
-57.115634918182032 -153.512573242156236 -353.356567382846833
-57.745822906463282 -130.946182250945299 -355.096801757846833
-57.066249847381251 -271.264446258513658 -350.371597290073396
-58.388904571502344 -182.999637603728502 -356.193756103549958
-57.141902923553126 -135.932937622039049 -359.931655883823396
-59.295612335174219 -148.730583190886705 -357.404312133823396
-58.932018279998438 -154.431526184050767 -357.271636962924958
-56.625720977752344 -186.196998596160142 -356.005996704135896
-58.299396514861719 -266.238700866667955 -357.082092285190583
-58.781749725310938 -179.674438476531236 -354.971725463901521
-58.005382537810938 -134.813087463347642 -355.921890258823396
-58.572200775115626 -267.905174255339830 -358.534393310581208
-59.409091949432032 -162.493255615203111 -362.200363159214021
-60.528644561736719 -157.044670104949205 -359.098754882846833
-60.616146087615626 -129.699264526335924 -355.904708862339021
-62.661251068084376 -162.142585754363267 -361.652496337924958
-57.384723663299219 -180.567283630339830 -360.668518066440583
-57.891117095916407 -181.117835998503892 -357.930114746128083
-57.905269622771876 -96.531066894499986 -363.490188598667146
-59.083141326873438 -101.348846435515611 -362.802719116245271
-58.233310699432032 -103.603454589812486 -363.712646484409333
-57.653339385955469 -185.800453186003892 -365.614364624057771
-54.726398467986719 -102.476516723601549 -363.034408569370271
-58.777614593475001 -93.512580871550767 -361.459915161167146
-58.192356109588282 -136.995407104460924 -363.272445678745271
-57.954723358123438 -27.330856323210924 -362.437759399448396
-58.336452484100001 -132.230392456023424 -361.449768066440583
-58.454082488982813 -23.789459228484361 -363.048049926792146
-59.672283172576563 -266.078895568816392 -360.984237670932771
-58.591266632049219 -184.608501434294908 -363.377807617221833
-59.514087676971094 -85.136215209929674 -366.323791503940583
-60.246181488006251 -99.648468017546861 -364.503738403354646
-59.240970611541407 -82.050430297820299 -367.909332275424958
-55.390110015838282 -138.430053710906236 -365.221954345737458
-56.549320220916407 -138.330421447722642 -361.263244628940583
-58.529949188201563 -158.317493438689439 -365.158203125034333
-60.413204193084376 -175.623100280730455 -363.483596801792146
-60.786479949920313 -149.235382080046861 -369.966812133823396
-58.683643341033594 -144.607261657683580 -365.826934814487458
-57.594058990447657 -78.045745849578111 -367.299377441440583
-62.091457366912501 -22.367614746062486 -370.819396972690583
-57.368572235076563 -86.844345092742174 -370.064971923862458
-56.392742156951563 -80.692749023406236 -369.683151245151521
-57.762660980193751 -84.884811401335924 -369.716644287143708
-57.682590484588282 -180.874908447234361 -370.334701538120271
-57.785923004119532 -20.005004882781236 -369.783599853549958
-60.733234405486719 -139.890129089324205 -370.720275878940583
-58.476543426482813 -158.181365966765611 -365.924545288120271
-59.099216461150782 -177.180595397917955 -371.552581787143708
-60.287029266326563 -26.384368896453111 -369.899734497104646
-59.376140594451563 -147.877525329558580 -374.606109619174958
-57.744907379119532 -180.189804077117174 -375.901748657260896
-61.660823821990626 -186.445510864226549 -372.648757934604646
-59.346378326385157 -161.838470458953111 -375.664642334018708
-59.285831451385157 -150.607337951628892 -372.580429077182771
-58.079006195037501 -166.972049713103502 -376.006195068393708
-57.597293853728907 -168.004421234099595 -374.059814453159333
-58.713573455779688 -185.744255065886705 -372.243835449253083
-58.895778655975001 -18.626495361296861 -377.515686035190583
-58.491123199432032 -28.239227294890611 -378.347045898471833
-57.774471282928126 -149.978347778289049 -376.899398803745271
-60.881229400603907 -32.242507934539049 -379.552261352573396
-59.686229705779688 -164.631725311248033 -377.180755615268708
-56.527843475310938 -157.391902923552720 -380.276626586948396
-59.219768524139063 -23.239303588835924 -381.567901611362458
-57.949214935271876 -190.198240280120103 -384.241119384799958
-58.709827423064844 -21.834060668914049 -382.558517456089021
-58.779010772674219 -170.294132232634752 -381.806747436557771
-61.410694122283594 -35.628326415984361 -385.830261230503083
-56.395946502654688 -180.026836395232408 -387.586639404331208
-59.683177947967188 -175.124778747527330 -386.140289306674958
-60.540493011443751 -189.724290847747056 -387.453338623081208
-59.582042694060938 -169.540164947478502 -384.802581787143708
-57.527362823455469 -171.243297576873033 -390.485687255893708
-60.288806915252344 -178.718265533416002 -388.086212158237458
-58.292499542205469 -18.031326293914049 -389.049392700229646
-57.475330352752344 -178.224311828582017 -387.952453613315583
-58.258548736541407 -151.314201354949205 -391.733795166049958
-58.432910919158594 -137.794876098601549 -394.245544433628083
-57.710071563689844 -177.202140808074205 -391.700897216831208
-56.464130401580469 -134.806877136199205 -392.333084106479646
-59.348773956267969 -170.103950500457017 -388.375640869174958
-58.545925140350001 -191.652132034270494 -392.522796630893708
-58.459735870330469 -151.182586669890611 -394.893905639682771
-58.205173492400782 -177.722976684539049 -392.051773071323396
-58.347591400115626 -116.517982482878892 -396.990005493198396
-57.452312469451563 -22.992523193328111 -393.923843383823396
-60.285411834685938 -130.617233276335924 -396.590866088901521
-56.230411529510157 -22.614624023406236 -398.881179809604646
-58.849544525115626 -182.238761901824205 -399.292678833042146
-62.018688201873438 -174.707721710173814 -400.328964233432771
-60.694126129119532 -16.510559081999986 -400.673355102573396
-61.421405792205469 -182.004501342742174 -398.859756469760896
-58.597118377654688 -188.766923904387681 -399.260391235385896
-60.779537200896876 -118.654411315886705 -401.964813232456208
-58.876377105682032 -104.593368530242174 -401.721008300815583
-56.311496734588282 -106.369285583464830 -399.825195312534333
-58.375942230193751 -111.703292846648424 -401.661422729526521
-57.146556854217188 -103.509246826140611 -403.570877075229646
-59.083812713592188 -110.220008850066392 -400.890716552768708
-57.239727020232813 -104.593124389617174 -402.945251464878083
-57.911884307830469 -162.030082702605455 -403.580276489292146
-60.903987884490626 -27.765304565398424 -406.551101684604646
-58.835437774627344 -187.455307006804674 -404.059402465854646
-60.103961944549219 -26.890304565398424 -406.811584472690583
-58.983554840057032 -18.442108154265611 -406.958709716831208
-62.110774993865626 -15.706146240203111 -407.925064086948396
-63.688159942596094 -21.103179931609361 -410.141006469760896
-58.497653961150782 -25.417480468718736 -412.887130737339021
-55.460498809783594 -29.569290161101549 -412.861785888706208
-57.564281463592188 -34.420303344695299 -409.649673461948396
-57.304767608611719 -33.459869384734361 -413.655014038120271
-60.405979156463282 -159.322261810271470 -410.102630615268708
-58.975910186736719 -26.837402343718736 -415.021240234409333
-60.938549041717188 -25.899749755828111 -418.180526733432771
-59.419078826873438 -159.465728759734361 -420.397186279331208
-60.064632415740626 -19.184768676726549 -424.328765869174958
-59.306980133025782 -23.693969726531236 -428.164062500034333
-60.381809234588282 -24.031982421843736 -434.195739746128083
-60.273052215545313 -19.352127075164049 -436.375030517612458
-58.176540374725001 -169.854701995818345 -436.595581054721833
-58.109973907439844 -180.314205169646470 -438.088195800815583
-54.230091094939844 -29.403366088835924 -440.884796142612458
-59.640834808318751 -138.948783874480455 -439.498260498081208
-59.781993865935938 -142.744209289519517 -438.985260009799958
-59.473728179900782 -121.759719848601549 -439.136810302768708
-59.086513519256251 -149.367507934539049 -439.446777343784333
-58.342823028533594 -136.531478881804674 -440.101989746128083
-59.185863494842188 -152.683090209929674 -441.143646240268708
-56.528713226287501 -15.541900634734361 -441.329223632846833
-58.625247955291407 -134.366027831999986 -443.838470459018708
-57.811534881560938 -164.013568878142564 -439.433685302768708
-58.967220306365626 -177.436901092498033 -442.093811035190583
-57.348064422576563 -38.955902099578111 -440.757171630893708
-58.292499542205469 -116.333984374968736 -440.033325195346833
-60.205722808807032 -45.122131347624986 -438.704895019565583
-60.250247955291407 -185.055885314910142 -445.603881835971833
-55.270877838103907 -44.837677001921861 -444.472930908237458
-57.699626922576563 -119.564582824675767 -444.645080566440583
-57.235614776580469 -180.105484008757799 -442.478729248081208
-57.114093780486719 -41.407867431609361 -442.047149658237458
-60.173885345428126 -132.302154540984361 -440.741760253940583
-57.230335235564844 -148.257263183562486 -444.436187744174958
-57.763416290252344 -157.345111846892564 -441.472381591831208
-59.865657806365626 -130.332672119109361 -443.171508789096833
-59.536693572967188 -139.223587036101549 -444.464874267612458
-59.242130279510157 -166.076587676970689 -442.949737548862458
-59.854824066131251 -174.859096527068345 -443.000030517612458
-58.222095489471094 -160.160945892302720 -443.647491455112458
-59.939334869353907 -27.411499023406236 -445.179382324253083
-57.966732025115626 -178.336944580046861 -444.744110107456208
-60.989101409881251 -20.842651367156236 -453.873565673862458
-59.655963897674219 -21.288665771453111 -454.411193847690583
-61.195941925017969 -18.530075073210924 -459.236328125034333
-55.787960052459376 -17.167190551726549 -467.390716552768708
-59.188899993865626 -24.363327026335924 -463.369934082065583
-56.491207122771876 -110.850502014128892 -207.126358032260924
-56.746364593475001 -123.272468566863267 -208.410331726108581
-56.311077117889063 -118.328483581511705 -211.170772552524596
-56.573757171600001 -105.134460449187486 -210.307792663608581
-58.537204742400782 -128.390785217253892 -210.706325531040221
-57.248096466033594 -135.485610961882799 -211.845214843784362
-57.371807098357813 -133.834785461394517 -215.815261840854674
-59.304965972869532 -144.729011535613267 -220.103622436557799
-55.683422088592188 -89.410858154265611 -221.763690948520690
-57.947734832732813 -146.514396667449205 -221.491153717075377
-57.244754791228907 -148.472030639617174 -225.290512084995299
-56.059749603240626 -141.599456787078111 -232.812507629428893
-57.909397125213282 -250.598468780486314 -229.499450683628112
-56.937511444060938 -249.629644393889635 -230.400703430210143
-54.933063507049219 -132.143249511687486 -234.996894836460143
-56.424121856658594 -83.036010742156236 -235.331375122104674
-59.397930145232813 -254.325531005828111 -235.372749328647643
-58.932712554900782 -260.259101867644517 -234.544067382846862
-54.865474700896876 -254.430221557585924 -233.892509460483581
-57.955120086639063 -128.119750976531236 -236.612182617221862
-60.980594634978907 -122.442260742156236 -237.311683654819518
-57.701274871795313 -262.918586730925767 -236.457359313999206
-56.203395843475001 -80.798934936492174 -238.634483337436706
-57.711132049529688 -262.845634460417955 -239.901161193882018
-58.061985015838282 -263.326889038054674 -244.052970886264831
-57.336780548064844 -246.102840423552720 -243.790641784702331
-57.916812896697657 -248.105228424041002 -245.418899536167174
-59.157390594451563 -110.943771362273424 -247.713294982944518
-54.575565338103907 -254.876613616912095 -247.348655700717956
-58.687023162810938 -253.072544097869127 -246.691497802768737
-58.138072967498438 -258.765361785857408 -246.763984680210143
-60.136455535857813 -105.462860107390611 -249.179725647007018
-56.942501068084376 -223.964713335005968 -248.622550964389831
-55.659061431853907 -99.900909423796861 -251.864097595249206
-56.624385833709376 -221.739499330489366 -256.883911132846833
-57.145427703826563 -219.138715386359422 -256.350540161167146
-59.694713592498438 -214.219043254821031 -256.983909606967927
-58.969875335662501 -208.402730941741197 -261.239624023471833
-58.289264678924219 -219.361319303481309 -261.031211853061677
-55.789409637420313 -79.492111206023424 -265.669044494663240
-58.022731780975001 -208.735473632781236 -265.540870666538240
-58.807575225799219 -87.523681640593736 -263.803344726596833
-58.492008209197657 -215.967889308898179 -266.394218444858552
-59.750041961639063 -205.970273017852037 -273.889099121128083
-58.219371795623438 -214.762735366790025 -272.558593750034333
-57.813655853240626 -204.106035232512681 -276.062904357944490
-57.205966949432032 -203.245782852141588 -277.490188598667146
-58.508281707732813 -209.852343559233873 -277.738975524936677
-57.454113006560938 -211.095479011504381 -285.236892700229646
-59.391551971404688 -196.302186965911119 -289.279067993198396
-56.771800994842188 -121.031127929656236 -287.356971740756990
-57.998264312713282 -123.823532104460924 -294.768554687534333
-59.309352874725001 -209.319063186614244 -288.412368774448396
-57.787921905486719 -206.834637641875474 -294.743423461948396
-56.554584503142969 -285.987564086882799 -293.193023681674958
-54.126338958709376 -119.524940490691392 -291.806228637729646
-56.871257781951563 -124.458473205535142 -295.706069946323396
-59.272296905486719 -207.584643363921373 -296.798202514682771
-56.848224639861719 -124.510070800749986 -298.465591430698396
-58.903850555389063 -280.427425384490220 -302.322296142612458
-55.476161956756251 -126.983520507781236 -300.098571777378083
-57.602664947478907 -281.152103424041002 -293.116638183628083
-58.497974395721094 -285.273498535124986 -301.728561401401521
-57.215045928924219 -195.707555770842760 -298.048324584995271
-58.084125518767969 -204.009384155242174 -302.285308837924958
-57.385189056365626 -127.562400817839830 -302.278274536167146
-58.500926971404688 -120.391571044890611 -304.463958740268708
-56.691684722869532 -284.260787963835924 -309.769104003940583
-57.469959259002344 -194.342008590666978 -303.953338623081208
-57.388866424529688 -129.913856506316392 -307.436920166049958
-58.181690216033594 -100.346969604460924 -310.049850463901521
-60.669506072967188 -284.830154418914049 -307.000061035190583
-60.069110870330469 -282.319149017302720 -316.073074340854646
-56.726543426482813 -122.754158019988267 -312.251220703159333
-59.022205352752344 -196.384199142424791 -308.420410156284333
-60.734004974334376 -106.226127624480455 -309.225524902378083
-57.301761627166407 -177.479976654021470 -313.532989501987458
-58.100658416717188 -132.223533630339830 -311.870269775424958
-54.903598785369532 -135.401046752898424 -311.566665649448396
-56.623416900603907 -171.201694488494127 -317.792449951206208
-58.654575347869532 -280.999382019011705 -311.368453979526521
-57.593318939178126 -284.155178070037095 -317.543899536167146
-58.836086273162501 -191.961742401091783 -313.581893920932771
-56.370738983123438 -105.920768737761705 -316.631820678745271
-57.476169586150782 -136.109939575164049 -316.946578979526521
-57.340030670135157 -173.539081573455064 -318.610153198276521
-56.792896270721094 -284.376708984343736 -320.590209960971833
-56.339504241912501 -200.583204269377916 -313.490341186557771
-55.846538543670313 -106.404693603484361 -318.086242675815583
-57.681484222381251 -281.336997985808580 -322.963684082065583
-56.372547149627344 -106.510406494109361 -318.341964721714021
-61.588504791228907 -278.469764709441392 -320.775344848667146
-58.764270782439844 -138.836517333953111 -318.158203125034333
-58.559650421111719 -105.129135131804674 -321.159133911167146
-59.105983734100001 -110.736625671355455 -318.008605957065583
-57.865459442107813 -192.981378555266588 -323.759613037143708
-58.528774261443751 -119.028633117644517 -326.652862548862458
-56.072628021209376 -132.237327575652330 -325.428649902378083
-57.583164215057032 -277.286216735808580 -326.453231811557771
-59.492565154998438 -113.087524414031236 -323.933227539096833
-56.446300506560938 -129.554618835417955 -323.286849975620271
-58.585315704314844 -154.643280029265611 -326.141555786167146
-59.882305145232813 -282.898445129363267 -325.252456665073396
-59.554645538299219 -141.341377258269517 -325.637420654331208
-57.827152252166407 -110.558631896941392 -324.609695434604646
-56.362987518279688 -159.852466583220689 -327.810852050815583
-59.378108978240626 -162.464462280242174 -328.547439575229646
-58.031833648650782 -196.266025543181627 -323.814346313510896
-57.774013519256251 -144.853034973113267 -328.535766601596833
-55.354351043670313 -155.300758361785142 -328.743255615268708
-58.457462310760157 -157.320446014373033 -329.425796508823396
-59.192607879607813 -279.195476531951158 -325.993820190464021
-58.013957977264063 -192.777082443206041 -329.505691528354646
-54.721111297576563 -111.763313293425767 -330.112442016635896
-58.209339141814844 -198.913497924773424 -327.233398437534333
-58.467533111541407 -146.202377319304674 -333.555419921909333
-57.686214446990626 -194.718420028655260 -332.414749145542146
-57.076023101775782 -116.610954284636705 -331.304901123081208
-56.840015411346094 -190.023801803557603 -334.223480224643708
-57.890048980682032 -275.141643524138658 -336.179931640659333
-55.765598297088282 -114.391525268523424 -330.142745971714021
-58.533771514861719 -276.778820037810533 -336.098526001010896
-57.063961029021876 -196.792762756316392 -335.065093994174958
-56.622364044158594 -120.483573913542955 -338.408905029331208
-58.425952911346094 -281.609016418425767 -335.743576049839021
-55.416751861541407 -187.050121307341783 -335.352371215854646
-56.775043487517969 -111.883201599089830 -332.846282959018708
-58.294017791717188 -119.105049133269517 -339.474594116245271
-56.753017425506251 -122.547187805144517 -337.472198486362458
-57.410861968963282 -276.778015136687486 -342.650955200229646
-59.053836822478907 -193.925432205168931 -335.366516113315583
-55.971790313689844 -27.815917968718736 -340.947631835971833
-60.239894866912501 -273.385677337615220 -342.480957031284333
-57.511951446502344 -141.071594238249986 -339.359390258823396
-58.044582366912501 -128.924240112273424 -346.239501953159333
-57.887920379607813 -191.343814849822252 -340.455734252964021
-58.537784576385157 -183.311412811248033 -344.064208984409333
-58.605175018279688 -153.296920776335924 -344.453247070346833
-56.774829864471094 -188.095527648894517 -342.449768066440583
-57.658123016326563 -150.899169921843736 -345.002273559604646
-57.299388885467188 -141.428573608367174 -346.487915039096833
-57.516529083221094 -121.231315612761705 -349.005111694370271
-56.813213348357813 -270.329208373992174 -344.127243042026521
-58.471866607635157 -185.343288421599595 -348.863189697299958
-58.248149871795313 -34.736236572234361 -353.040283203159333
-59.764148712127344 -25.766403198210924 -349.578979492221833
-58.138057708709376 -184.206813812224595 -351.399581909214021
-55.690341949432032 -127.120903015105455 -348.937271118198396
-58.300632476775782 -133.453697204558580 -351.110900878940583
-58.355319976775782 -269.858749389617174 -350.399337768589021
-58.330982208221094 -21.191848754851549 -352.578170776401521
-63.047878265350001 -23.297698974578111 -352.737426757846833
-58.060230255096094 -188.691267013518541 -351.790695190464021
-57.236003875701563 -129.092407226531236 -357.580276489292146
-57.944309234588282 -137.534706115691392 -356.047805786167146
-57.264995574920313 -149.787719726531236 -356.070343017612458
-55.030811309783594 -191.386911392180650 -353.571762084995271
-59.515041351287501 -20.662796020476549 -358.302001953159333
-58.361331939666407 -129.831604003874986 -354.855117797885896
-57.347675323455469 -131.452178955046861 -355.457229614292146
-56.929370880096094 -270.031677246062486 -352.263458251987458
-56.989429473846094 -150.745147705046861 -356.472534179721833
-58.455699920623438 -21.444213867156236 -355.999694824253083
-56.453571319549219 -134.871147155730455 -357.460769653354646
-57.496463775603907 -186.590324401824205 -359.210357666049958
-60.970485687225001 -25.529357910124986 -358.143112182651521
-58.268199920623438 -136.517639160124986 -360.176620483432771
-58.237941741912501 -261.595851898162095 -363.724105834995271
-58.399303436248438 -139.397804260222642 -361.477767944370271
-61.017063140838282 -93.267066955535142 -362.439514160190583
-57.598674774139063 -19.624114990203111 -362.577606201206208
-56.622074127166407 -98.006462097136705 -363.140045166049958
-59.824520111053126 -267.062583923308580 -360.531723022495271
-57.585353851287501 -139.940895080535142 -360.461822509799958
-57.844455718963282 -264.367027282683580 -365.403640747104646
-57.981815338103907 -101.918502807585924 -363.336807251010896
-56.907970428435938 -139.144081115691392 -364.384475708042146
-57.462261199920313 -157.381198883025377 -365.112579345737458
-58.507320404021876 -177.542984008757799 -363.816833496128083
-57.258052825896876 -259.793727874724595 -366.444320678745271
-58.750270843475001 -94.170547485320299 -368.418075561557771
-55.818363189666407 -259.299747467009752 -365.525695800815583
-58.964595794646876 -96.675308227507799 -367.932647705112458
-56.802127838103907 -142.684333801238267 -366.108291626010896
-57.265148162810938 -168.440460205046861 -369.705795288120271
-57.878711700408594 -260.542709350554674 -364.059478759799958
-57.454883575408594 -154.160575866667955 -366.274688720737458
-58.939136505096094 -94.561111450164049 -367.033432006870271
-55.963268279998438 -156.426261901824205 -372.016967773471833
-59.905368804900782 -179.416130065886705 -366.495101928745271
-58.987377166717188 -187.907463073699205 -371.170227050815583
-56.528438568084376 -22.158706665007799 -367.064102172885896
-56.103977203338282 -140.191146850554674 -370.987945556674958
-55.902812957732813 -160.496692657439439 -366.004241943393708
-57.884243011443751 -142.561653137175767 -370.252685546909333
-55.996532440154688 -179.367321014373033 -371.115753173862458
-59.070873260467188 -256.988346099822252 -368.414382934604646
-59.062404632537501 -166.702419280974595 -370.525253295932771
-56.119510650603907 -77.718093872039049 -370.118743896518708
-58.526073455779688 -147.013656616179674 -371.231811523471833
-57.102085113494532 -80.886245727507799 -371.622085571323396
-58.405635833709376 -147.263504028289049 -370.571258544956208
-57.227634429900782 -150.053726196257799 -371.439529418979646
-59.580158233611719 -261.234630584685533 -366.868728637729646
-57.440074920623438 -177.503612518279283 -375.870407104526521
-56.625347137420313 -185.794239044158189 -368.596252441440583
-57.263797759978907 -252.814163207976549 -374.611190795932771
-57.268543243377344 -170.636699676482408 -378.926971435581208
-58.381076812713282 -256.084800720183580 -375.358993530307771
-57.249759674041407 -151.156539916960924 -377.991821289096833
-58.517734527557032 -153.100822448699205 -375.160827636753083
-59.381603240935938 -187.400508880583970 -376.042037963901521
-56.379589080779688 -24.351867675749986 -376.566604614292146
-58.788898467986719 -15.707916259734361 -380.642791748081208
-58.175334930389063 -153.910247802703111 -379.579147338901521
-58.087650299041407 -173.745746612517564 -381.892593383823396
-57.658306121795313 -186.811035156218736 -381.675949096714021
-58.597858428924219 -16.540359497039049 -380.520217895542146
-54.856273651092188 -33.471160888640611 -383.414398193393708
-55.749797821014063 -19.710403442351549 -382.504898071323396
-57.092639923064844 -179.302410125701158 -380.404541015659333
-59.103771209685938 -164.646778106658189 -382.987121582065583
-56.943973541228907 -171.865093231169908 -385.155410766635896
-56.945682525603907 -158.367431640593736 -382.724578857456208
-56.633899688689844 -30.169677734343736 -384.077438354526521
-58.349903106658594 -37.375167846648424 -384.490219116245271
-59.299198150603907 -168.034778594939439 -381.717559814487458
-56.359806060760157 -176.065162658660142 -384.570175170932771
-55.563411712615626 -34.043823242156236 -381.931091308628083
-58.430255889861719 -30.053634643523424 -383.673187255893708
-59.274669647185938 -176.910022735564439 -385.715072631870271
-61.253513336150782 -26.237640380828111 -386.421966552768708
-56.083591461150782 -19.958236694304674 -388.423645019565583
-57.978527069060938 -26.710632324187486 -387.395126342807771
-58.713512420623438 -170.509170532195299 -389.276748657260896
-56.982975006072657 -188.727453231780260 -390.170989990268708
-57.711307525603907 -22.114898681609361 -387.936523437534333
-58.377048492400782 -171.876777648894517 -389.777053833042146
-56.349544525115626 -139.534202575652330 -391.027053833042146
-57.707088470428126 -24.202224731414049 -395.113937377964021
-57.089763641326563 -190.089349746672838 -389.081741333042146
-59.685764312713282 -172.655559539763658 -394.099502563510896
-58.540912628142969 -20.160202026335924 -393.512832641635896
-57.819049835174219 -22.023239135710924 -393.966918945346833
-59.410854339568751 -126.359558105437486 -392.570007324253083
-58.557712554900782 -176.216094970671861 -391.512466430698396
-55.447299957244532 -121.676200866667955 -394.887985229526521
-57.658679962127344 -139.877159118621080 -395.748123168979646
-61.128887176482813 -177.443859100310533 -397.403015136753083
-58.438915252654688 -179.158317565886705 -395.867736816440583
-57.372325897185938 -175.703254699675767 -398.677917480503083
-58.944438934295313 -128.664237976042955 -400.843444824253083
-58.756023406951563 -132.319862365691392 -397.318908691440583
-58.081569671600001 -175.202060699431627 -397.325622558628083
-56.651927947967188 -195.077106475798814 -396.217819213901521
-58.360530853240626 -192.049968719451158 -399.891891479526521
-58.236248016326563 -122.746253967253892 -400.317672729526521
-58.378627777068751 -165.964340209929674 -403.363708496128083
