-113.055770874023 -55.352149963379 -226.632339477539 9.416007995605
9.426956176758 -64.153266906738 -205.972381591797 4.979298591614
-150.608901977539 -72.117393493652 -218.054809570313 2.249968528748
-11.567642211914 -68.185829162598 -207.622604370117 2.938843727112
4.873474121094 -61.662063598633 -209.802459716797 8.608208656311
-114.059936523438 -53.407608032227 -219.354187011719 13.636554718018
-26.341987609863 -62.617729187012 -26.671295166016 21.142301559448
4.542694091797 -77.251358032227 -293.816467285156 2.576060295105
-77.763107299805 -57.338912963867 -7.061767578125 35.987716674805
4.764175415039 -75.417312622070 -299.940795898438 6.737400531769
-70.442306518555 -58.312408447266 -32.704284667969 10.592628479004
-3.740608215332 -73.354148864746 -225.000335693359 3.563271760941
-24.856224060059 -62.574111938477 -35.459411621094 12.745361328125
-20.966140747070 -65.803512573242 -87.685546875000 11.537513732910
-71.214797973633 -52.971969604492 -20.783447265625 22.322172164917
3.987014770508 -73.322975158691 -225.884323120117 1.770869851112
-20.473739624023 -68.064163208008 -34.565765380859 16.556623458862
-74.731506347656 -62.189437866211 -42.218200683594 2.841325044632
-78.491294860840 -70.790184020996 -36.625762939453 11.898743629456
-2.728385925293 -70.825500488281 -219.059921264648 1.434613347054
-110.093620300293 -53.807937622070 -211.967346191406 15.208981513977
-120.231025695801 -54.301101684570 -190.233352661133 10.185390472412
-113.228652954102 -52.314331054688 -204.845306396484 11.794862747192
-12.092330932617 -83.722290039063 -298.256683349609 9.137687683105
-22.519050598145 -82.653564453125 -323.815429687500 32.461654663086
-11.145782470703 -69.905685424805 -242.138549804688 0.591384172440
-38.069900512695 -60.080024719238 10.855255126953 55.000068664551
-7.657829284668 -74.861465454102 -274.896881103516 2.362288475037
-8.298080444336 -71.249916076660 -236.294738769531 1.068749189377
-11.385620117188 -75.143844604492 -273.304748535156 2.135466814041
-50.374977111816 -48.611236572266 -12.412170410156 32.118019104004
-51.059692382813 -52.041603088379 -15.226837158203 28.687986373901
-50.654136657715 -44.556892395020 0.539672851563 45.377723693848
-41.168174743652 -61.121726989746 10.796569824219 54.563259124756
-39.810699462891 -60.245269775391 10.901885986328 54.810523986816
-13.802642822266 -62.676902770996 -266.204895019531 4.610257625580
-59.085327148438 -63.055541992188 -37.628967285156 5.884180068970
-40.706275939941 -72.980171203613 -178.228668212891 2.065474271774
-58.086776733398 -64.365882873535 -90.816772460938 3.831457614899
-32.162094116211 -58.838951110840 -127.815460205078 19.552001953125
-119.699661254883 -54.397064208984 -217.733795166016 14.417404174805
-122.077690124512 -56.883522033691 -200.773956298828 5.682201385498
-110.081680297852 -75.502578735352 -194.546127319336 5.346331596375
-105.274696350098 -53.076431274414 -230.363647460938 13.077617645264
-72.912399291992 -50.816024780273 -38.698211669922 5.484114646912
-90.429672241211 -63.227813720703 -25.132324218750 22.296913146973
-8.058372497559 -83.944168090820 -293.808624267578 7.278881549835
88.982650756836 -75.871551513672 -214.157226562500 1.634147047997
88.033645629883 -70.257888793945 -193.543075561523 9.749379158020
-74.419326782227 -54.321205139160 -29.027679443359 13.929975509644
-149.665817260742 -70.319946289063 -225.531951904297 3.190083980560
-82.389739990234 -62.254676818848 -20.643035888672 24.582199096680
-67.221282958984 -58.415046691895 -36.993774414063 6.697264194489
-0.767562866211 -67.145515441895 -230.236511230469 1.273952007294
-107.917068481445 -56.348236083984 -205.146484375000 10.515054702759
-5.723823547363 -70.052253723145 -229.101104736328 1.126102805138
-37.096511840820 -59.485534667969 -18.919921875000 26.297899246216
-65.827377319336 -64.760429382324 -25.330474853516 18.683626174927
-70.602058410645 -68.683670043945 -23.286926269531 21.418996810913
2.181213378906 -65.073059082031 -214.856674194336 6.699466705322
74.881195068359 -75.618240356445 -107.821502685547 7.080204010010
-96.904258728027 -70.549575805664 -126.365722656250 6.101401805878
47.995773315430 -69.230430603027 -104.220870971680 1.788007974625
41.511199951172 -58.851570129395 -120.763275146484 1.683291912079
50.350234985352 -73.935279846191 -108.119445800781 2.414548158646
-103.486068725586 -58.544975280762 -234.494583129883 10.512777328491
88.652786254883 -75.884323120117 -195.764373779297 7.716252326965
-107.606193542480 -57.611663818359 -227.260208129883 7.850425243378
8.699310302734 -71.065605163574 -193.739151000977 2.666434288025
-70.558532714844 -48.772796630859 -26.657562255859 17.426095962524
-89.022659301758 -62.672210693359 -16.336517333984 29.947441101074
9.224472045898 -76.927955627441 -199.759735107422 1.887727141380
-98.115348815918 -54.557113647461 -232.798950195313 15.628744125366
-106.429817199707 -56.811477661133 -228.582489013672 8.892528533936
-109.958007812500 -53.131156921387 -197.739273071289 11.650031089783
46.950408935547 -53.377456665039 -128.581237792969 7.999291419983
45.770004272461 -57.161972045898 -121.341323852539 2.477446079254
-127.058769226074 -62.272209167480 -243.342636108398 9.289188385010
-16.301490783691 -81.372314453125 -294.434967041016 5.532299995422
-15.626510620117 -83.801551818848 -291.794006347656 5.848145008087
87.558639526367 -74.112922668457 -220.885467529297 2.878952264786
-117.474090576172 -74.334510803223 -265.494903564453 3.921559572220
56.078094482422 -68.390609741211 -95.826858520508 1.766656875610
51.477050781250 -65.608627319336 -101.529708862305 1.844783902168
48.663024902344 -57.082077026367 -132.459503173828 10.987405776978
-106.489959716797 -57.218704223633 -233.006500244141 10.038967132568
-111.347625732422 -53.223892211914 -202.808563232422 10.938271522522
70.866470336914 -71.842201232910 -276.056335449219 30.011882781982
62.457336425781 -75.449554443359 -140.027450561523 22.615236282349
53.929473876953 -76.467285156250 -98.461685180664 1.778836011887
-10.888343811035 -82.261795043945 -293.277587890625 5.202001571655
-11.180183410645 -66.326179504395 -241.669372558594 2.278730869293
-15.620330810547 -61.960006713867 -194.382232666016 6.096941947937
-13.033020019531 -71.061508178711 -240.481658935547 1.973199844360
-11.698135375977 -70.271385192871 -240.434326171875 1.901758790016
70.081542968750 -74.642257690430 -163.798049926758 36.481128692627
-15.807403564453 -78.595458984375 -266.853332519531 4.309460639954
-45.057090759277 -63.127159118652 -177.507080078125 10.196628570557
-17.957138061523 -57.555496215820 -171.012268066406 15.127751350403
-19.366508483887 -54.932571411133 -182.499511718750 14.491734504700
-129.614166259766 -60.987915039063 -241.089309692383 8.643504142761
-61.122993469238 -55.676010131836 -41.443267822266 3.061529159546
-127.790077209473 -70.530853271484 -189.510070800781 4.297924995422
-116.595748901367 -50.714485168457 -200.110992431641 12.292766571045
-58.865516662598 -60.429473876953 -40.254211425781 3.566139459610
-24.955665588379 -55.335571289063 -155.635421752930 19.392948150635
-9.881568908691 -80.735122680664 -333.582763671875 41.554328918457
-123.715431213379 -60.478294372559 -195.220260620117 2.484181642532
-27.305915832520 -56.688835144043 -149.143066406250 18.849645614624
-19.172340393066 -69.259643554688 -277.118591308594 6.442138671875
-15.873954772949 -76.267639160156 -267.581970214844 2.953083515167
-17.443222045898 -63.380500793457 -189.113677978516 6.217187404633
-30.563827514648 -53.839874267578 -144.815490722656 19.341669082642
68.267944335938 -72.777976989746 -164.373031616211 35.250904083252
-24.777275085449 -63.191864013672 -179.169799804688 7.231788635254
-18.553619384766 -61.177429199219 -184.447204589844 8.955318450928
-21.383773803711 -74.347839355469 -297.411712646484 5.850809097290
-15.969635009766 -78.043701171875 -290.534454345703 1.737803697586
-129.292449951172 -65.327003479004 -246.774963378906 8.060347557068
-19.606079101563 -60.280639648438 -141.716567993164 24.720541000366
40.066650390625 -55.397872924805 -132.197647094727 4.830105781555
82.177658081055 -69.766159057617 -228.185485839844 1.869033098221
64.299896240234 -75.076950073242 -284.058319091797 34.964481353760
50.140014648438 -67.699996948242 -90.666122436523 2.379328966141
-104.909500122070 -63.110321044922 -237.287445068359 8.952076911926
54.337448120117 -74.484817504883 -144.857086181641 15.944860458374
-15.619682312012 -86.052467346191 -285.733703613281 7.955356121063
-23.674057006836 -88.712486267090 -287.232727050781 10.278646469116
40.709823608398 -57.301406860352 -126.975097656250 2.566447973251
-119.926399230957 -52.097579956055 -202.469406127930 11.120730400085
-19.783615112305 -79.619491577148 -298.984497070313 8.278059005737
-10.254661560059 -84.709396362305 -297.620391845703 9.571379661560
53.349502563477 -55.049041748047 -125.535293579102 10.498504638672
67.530334472656 -79.184646606445 -133.947143554688 25.711526870728
-127.448440551758 -73.443359375000 -265.019317626953 2.715656280518
-1.611785888672 -71.011215209961 -303.480712890625 10.110141754150
-144.318344116211 -68.674186706543 -235.687088012695 0.624862313271
-32.085845947266 -61.624908447266 -28.025604248047 18.490329742432
-32.971916198730 -69.023078918457 -27.447906494141 19.912199020386
-65.665794372559 -66.824226379395 -29.104919433594 14.871647834778
-73.162986755371 -69.966949462891 -26.872711181641 18.630950927734
-56.283454895020 -45.526298522949 -14.194213867188 30.471582412720
-46.846847534180 -47.583732604980 -15.123474121094 30.835517883301
-144.372238159180 -76.634704589844 -205.207595825195 1.385629534721
78.947006225586 -71.361686706543 -186.051788330078 20.826105117798
-64.920539855957 -50.164253234863 -13.878723144531 29.114551544189
-71.584518432617 -63.093475341797 -11.636657714844 31.866447448730
-81.456619262695 -61.488952636719 -12.136993408203 32.106639862061
-106.413162231445 -65.952720642090 -208.344665527344 6.987346172333
-66.521774291992 -50.632575988770 -23.881774902344 19.357357025146
7.127075195313 -67.627861022949 -210.041931152344 2.974865913391
6.581741333008 -64.696495056152 -199.580154418945 4.496083259583
-146.699340820313 -67.768669128418 -211.944961547852 3.482212305069
9.269699096680 -63.652099609375 -196.799789428711 4.987512111664
84.884124755859 -75.705871582031 -184.707107543945 15.965578079224
-65.933799743652 -59.790878295898 -13.995635986328 28.804111480713
-107.636428833008 -59.634223937988 -215.912445068359 8.950136184692
-70.470504760742 -61.900535583496 1.379821777344 44.555530548096
-49.213714599609 -52.253112792969 -11.085723876953 33.048175811768
-59.574310302734 -45.133285522461 -12.406250000000 32.231986999512
-55.098091125488 -48.015327453613 -8.914459228516 34.948120117188
-112.211700439453 -68.568367004395 -193.576354980469 2.150993824005
-110.522674560547 -72.733497619629 -191.989883422852 1.956543326378
-15.725639343262 -80.399971008301 -224.949264526367 4.059093475342
-59.119163513184 -72.785087585449 -38.047943115234 9.352245330811
-0.574920654297 -89.598220825195 -335.080230712891 44.432106018066
-9.766967773438 -79.692108154297 -241.629699707031 6.786891460419
-14.937957763672 -81.747650146484 -234.896789550781 6.587448596954
3.954345703125 -75.507659912109 -323.335266113281 29.950187683105
-133.478515625000 -58.955757141113 -231.690032958984 4.769515991211
-44.914466857910 -60.159484863281 12.691772460938 56.228412628174
-48.559120178223 -56.343765258789 11.214233398438 54.555664062500
-9.250625610352 -74.235198974609 -315.494750976563 23.179105758667
-49.576072692871 -49.006164550781 -11.977478027344 32.635383605957
-34.531173706055 -53.450935363770 -138.211624145508 17.410577774048
-50.867126464844 -49.337966918945 -13.884613037109 30.455827713013
-48.851013183594 -48.090652465820 -7.484161376953 37.262344360352
-48.144126892090 -47.431655883789 1.159057617188 45.821430206299
-37.914772033691 -55.948623657227 -129.213653564453 14.713413238525
-43.208831787109 -64.043518066406 6.924591064453 50.662353515625
-14.528495788574 -73.881271362305 -240.178436279297 1.381794452667
-13.523490905762 -78.836761474609 -229.820007324219 3.472105741501
-107.735046386719 -75.428924560547 -192.411773681641 5.664802551270
-112.041542053223 -76.464431762695 -193.130432128906 5.787678241730
0.156997680664 -83.441307067871 -333.543243408203 41.202884674072
-110.720985412598 -70.236991882324 -187.271087646484 0.935984969139
-116.046058654785 -61.954933166504 -236.473693847656 4.583158016205
-122.339111328125 -60.124847412109 -230.959045410156 4.801628112793
-25.079742431641 -56.188102722168 -166.461608886719 14.657299995422
-55.020469665527 -71.439758300781 -181.987411499023 1.764179706573
-24.132423400879 -55.222724914551 -161.292175292969 17.714296340942
-9.317161560059 -76.488342285156 -160.399322509766 6.583336353302
-56.891647338867 -73.446769714355 -180.784912109375 1.380888104439
-6.412261962891 -74.499282836914 -164.722473144531 2.791873693466
-20.148269653320 -54.275253295898 -156.745941162109 22.085443496704
-59.890113830566 -67.587913513184 -84.398651123047 3.906344652176
-27.800559997559 -56.255332946777 -145.330429077148 20.133346557617
57.999343872070 -61.719268798828 -129.709411621094 17.300170898438
71.638549804688 -72.497116088867 -139.000259399414 30.778533935547
50.797775268555 -57.581535339355 -131.468139648438 11.972146034241
61.104110717773 -76.526458740234 -138.343276977539 20.797033309937
42.512191772461 -59.010520935059 -126.283721923828 2.133827686310
-22.239578247070 -61.712043762207 -143.669448852539 21.309383392334
-55.168205261230 -59.536201477051 -99.427871704102 8.177257537842
-108.571662902832 -57.124755859375 -246.000762939453 14.305704116821
62.921920776367 -68.304168701172 -279.265014648438 29.215799331665
39.283096313477 -57.362518310547 -135.540466308594 5.881366729736
-31.881309509277 -54.677810668945 -137.024780273438 18.566057205200
-126.684127807617 -63.308174133301 -96.134719848633 26.366321563721
-114.831405639648 -62.765274047852 -235.557830810547 3.430694103241
-125.556915283203 -62.688415527344 -90.968536376953 24.709123611450
-125.520553588867 -68.656471252441 -95.865783691406 26.599664688110
43.198730468750 -78.627189636230 -127.121536254883 2.175037145615
-8.995307922363 -75.826599121094 -277.676391601563 2.121075630188
-34.301239013672 -53.559104919434 -132.858032226563 18.794713973999
-107.762718200684 -73.749160766602 -200.467056274414 4.642908573151
-110.296676635742 -71.545196533203 -193.808288574219 2.002682685852
1.975463867188 -65.960762023926 -227.015289306641 3.402334928513
-76.602493286133 -48.475135803223 -39.750274658203 5.760181903839
-77.063171386719 -50.071258544922 -35.312469482422 8.912220001221
-95.406738281250 -59.262802124023 -28.301849365234 20.608606338501
90.796890258789 -71.152191162109 -192.931747436523 7.191404342651
-60.953514099121 -63.101623535156 -18.482421875000 25.009759902954
-144.344406127930 -64.860893249512 -218.962814331055 1.562711715698
-67.759750366211 -47.148597717285 -37.395385742188 7.264799118042
-43.240791320801 -65.310226440430 -19.264984130859 24.916021347046
-64.994949340820 -71.772521972656 -13.877868652344 30.343008041382
-64.094512939453 -57.838088989258 2.960906982422 45.481906890869
-46.865486145020 -51.205184936523 0.549194335938 44.896537780762
-40.246154785156 -67.384689331055 -63.353790283203 8.609066009521
88.999511718750 -72.988197326660 -222.164245605469 2.524900436401
-57.667495727539 -59.002746582031 -44.754333496094 3.303796529770
-126.705200195313 -65.947189331055 -247.784698486328 6.491105079651
-47.547271728516 -66.199623107910 -51.288452148438 4.819825649261
-49.311698913574 -68.478614807129 -50.770965576172 3.665604352951
-132.821350097656 -63.839317321777 -198.975479125977 1.490391850471
-65.931716918945 -49.211013793945 -37.684844970703 6.432433605194
65.669754028320 -61.883590698242 -121.161026000977 15.077022552490
-9.278121948242 -71.533668518066 -281.365997314453 0.476550340652
-16.660011291504 -79.523117065430 -313.823760986328 21.830457687378
46.615158081055 -56.329406738281 -119.390853881836 2.418732404709
-88.776412963867 -59.013183593750 -24.863708496094 21.613487243652
-13.349250793457 -77.151779174805 -216.093933105469 1.073225975037
15.532348632813 -84.557228088379 -296.980407714844 7.389129638672
-46.064712524414 -58.490356445313 -22.650695800781 20.966382980347
-64.749832153320 -50.728477478027 -35.475555419922 8.559211730957
89.062210083008 -79.434158325195 -196.457641601563 8.851684570313
-60.984489440918 -65.550956726074 -22.052032470703 21.717578887939
-44.583442687988 -66.757675170898 -15.997344970703 28.274314880371
-68.107330322266 -59.915672302246 -11.938079833984 31.032266616821
-72.070297241211 -47.658386230469 -28.626617431641 16.023368835449
-66.377868652344 -64.549507141113 -13.906555175781 29.907869338989
-86.676361083984 -63.338462829590 -18.801025390625 27.094419479370
-38.908065795898 -65.720520019531 -13.594543457031 31.269153594971
13.240341186523 -71.450263977051 -208.530227661133 3.018321752548
-10.665542602539 -66.659645080566 -216.629211425781 1.130745887756
-108.087600708008 -59.669799804688 -206.659484863281 8.450326919556
-16.255744934082 -73.169433593750 -216.230255126953 1.998613715172
7.529098510742 -75.076736450195 -216.904296875000 1.717242360115
19.246536254883 -79.467727661133 -298.789764404297 7.171293258667
-5.814544677734 -80.288223266602 -328.205352783203 36.409889221191
-16.485916137695 -67.697479248047 -266.599548339844 3.759862661362
-32.909416198730 -56.839302062988 -131.106262207031 18.725688934326
-11.248962402344 -76.690635681152 -279.780426025391 3.984409809113
52.978469848633 -57.020629882813 -120.561950683594 6.098217487335
-132.925567626953 -68.332519531250 -196.422363281250 1.360270142555
52.186309814453 -56.349800109863 -116.798171997070 2.542733192444
-125.502410888672 -58.078948974609 -232.947479248047 6.827866554260
58.321411132813 -57.753639221191 -111.780990600586 4.749377250671
-126.152618408203 -55.266548156738 -212.861328125000 11.089643478394
61.949829101563 -62.972320556641 -108.711364746094 6.522563934326
69.298171997070 -72.524604797363 -131.818572998047 25.003807067871
-39.330497741699 -56.769767761230 -126.314880371094 13.451812744141
-29.795997619629 -53.878479003906 -127.340164184570 23.147315979004
-14.395919799805 -70.603675842285 -290.471435546875 1.979456901550
-16.349815368652 -68.970687866211 -265.020782470703 2.377610445023
51.507583618164 -55.536026000977 -116.536819458008 2.132026195526
-112.415000915527 -68.178886413574 -199.982528686523 2.519631624222
-57.265106201172 -68.553756713867 -43.266723632813 3.259423494339
-131.466888427734 -59.978179931641 -211.975891113281 6.862800121307
-51.360687255859 -51.253211975098 -4.262176513672 39.421398162842
-61.581596374512 -53.093360900879 -9.677795410156 33.020198822021
-127.406089782715 -57.319816589355 -209.518371582031 7.764129638672
-50.423820495605 -53.438964843750 -7.447418212891 36.187263488770
-69.854339599609 -59.776527404785 -4.865783691406 38.182361602783
-42.480873107910 -62.792419433594 4.602478027344 48.328327178955
-117.261001586914 -55.457138061523 -222.740402221680 11.093194007874
-52.057342529297 -62.213584899902 -42.398803710938 3.144427776337
-51.991119384766 -68.615730285645 -40.792388916016 6.434580802917
-112.314544677734 -57.077842712402 -233.601470947266 7.899480819702
65.011337280273 -77.641906738281 -289.582061767578 40.478004455566
58.473129272461 -74.326499938965 -287.827209472656 34.815464019775
-96.809745788574 -55.798782348633 -238.790069580078 16.402158737183
73.432571411133 -68.808784484863 -107.180053710938 2.589537858963
69.820343017578 -74.211708068848 -111.309768676758 9.272510528564
-95.959213256836 -67.540054321289 -132.394851684570 3.956326961517
-34.209655761719 -56.838615417480 -125.734725952148 18.356361389160
-39.728912353516 -59.206344604492 -128.243698120117 12.160085678101
-9.384605407715 -72.917228698730 -274.764892578125 3.816343545914
-105.191360473633 -79.278564453125 -193.898132324219 10.425054550171
-17.039443969727 -65.394645690918 -268.359161376953 5.964341163635
71.210998535156 -76.104141235352 -261.934265136719 18.956323623657
-120.723182678223 -57.625999450684 -207.694946289063 6.317171573639
-121.430725097656 -54.606849670410 -213.514739990234 12.263187408447
-127.103149414063 -61.467964172363 -93.107086181641 26.104248046875
-127.513519287109 -66.858573913574 -94.776870727539 27.930875778198
-110.770210266113 -70.990951538086 -195.827957153320 2.838357925415
-123.940658569336 -68.235351562500 -93.335433959961 24.796630859375
49.525756835938 -77.236495971680 -116.315948486328 2.808318376541
-123.262634277344 -70.159767150879 -102.026473999023 25.766246795654
-120.661735534668 -56.271087646484 -230.244659423828 8.427086830139
-52.435440063477 -60.083145141602 -55.734985351563 11.270574569702
-128.033996582031 -68.042282104492 -251.584808349609 2.780892372131
81.785110473633 -71.183921813965 -229.760101318359 1.566667437553
-23.653366088867 -60.098999023438 -145.523681640625 20.388608932495
-44.759597778320 -56.149032592773 -150.357345581055 11.365097045898
-132.868362426758 -59.772926330566 -203.914047241211 2.974427461624
-9.652648925781 -74.496315002441 -291.145874023438 1.305712699890
-46.268066406250 -60.336776733398 -13.249084472656 30.268913269043
-54.441444396973 -62.157394409180 -50.056549072266 5.482647418976
-119.844314575195 -56.778732299805 -198.443252563477 5.556095600128
-60.152412414551 -55.926467895508 -1.302398681641 41.396095275879
-40.367248535156 -56.585433959961 -0.224700927734 43.879261016846
-54.002105712891 -65.175231933594 -12.298339843750 31.196714401245
-48.700508117676 -65.705123901367 -6.320495605469 37.631404876709
-59.280876159668 -61.316398620605 -9.055358886719 34.184169769287
-19.171043395996 -81.121383666992 -295.265258789063 6.294455528259
-18.664688110352 -83.979141235352 -287.657958984375 4.687215328217
-19.456199645996 -81.615097045898 -286.467376708984 3.491930723190
-52.763923645020 -65.109024047852 -14.459167480469 29.133260726929
-49.261795043945 -67.829986572266 -5.160278320313 39.132724761963
-15.713829040527 -85.064651489258 -300.689636230469 12.436234474182
-21.173126220703 -79.974411010742 -280.352172851563 6.975298404694
-13.057167053223 -88.153404235840 -334.097808837891 43.751720428467
-41.431472778320 -64.603279113770 -57.732208251953 9.228535652161
-121.562278747559 -56.549179077148 -197.354751586914 5.036265850067
-122.000297546387 -56.202735900879 -196.042938232422 5.419013500214
67.628601074219 -81.512802124023 -144.660446166992 29.836271286011
56.565048217773 -68.416267395020 -95.113906860352 1.836081862450
56.630126953125 -66.057350158691 -94.667297363281 2.368556976318
62.190368652344 -75.563812255859 -96.293243408203 4.570490837097
62.254470825195 -69.577262878418 -138.369308471680 22.230031967163
56.401397705078 -73.090690612793 -97.324768066406 1.236657857895
73.417678833008 -77.417098999023 -268.497985839844 25.619064331055
-20.743751525879 -60.507766723633 -170.856246948242 11.570014953613
-10.605506896973 -75.294555664063 -233.476440429688 0.796986043453
-11.324073791504 -80.198753356934 -243.574859619141 7.063970565796
-49.236877441406 -68.995483398438 -184.830886840820 4.838144302368
-21.530693054199 -57.498649597168 -172.181869506836 13.767257690430
-58.438911437988 -66.017303466797 -77.099273681641 6.077003002167
-21.452026367188 -59.012596130371 -169.707595825195 13.153275489807
-53.320060729980 -68.128097534180 -181.282699584961 4.710339069366
-63.003822326660 -69.138015747070 -72.488372802734 11.313239097595
-29.833602905273 -55.482795715332 -153.108139038086 17.067720413208
-33.534912109375 -58.417449951172 -143.897064208984 14.056047439575
-34.163375854492 -53.566444396973 -136.505538940430 18.049566268921
-107.517135620117 -60.630149841309 -250.629241943359 8.470408439636
-109.485404968262 -58.463203430176 -241.604003906250 12.379798889160
-94.697929382324 -51.784042358398 -54.068145751953 1.868579626083
-99.100090026855 -56.422706604004 -88.751495361328 2.700501441956
-96.005218505859 -51.297622680664 -67.996948242188 4.061243057251
-77.166427612305 -78.219009399414 -183.118667602539 17.230514526367
-67.170555114746 -72.574760437012 -185.669525146484 10.015698432922
16.871170043945 -70.913742065430 -123.115585327148 13.370061874390
-97.555969238281 -48.354927062988 -60.308074951172 2.467571020126
21.932678222656 -66.782989501953 -163.868713378906 2.997770309448
24.921920776367 -62.433914184570 -170.531997680664 3.429476261139
5.885864257813 -61.480125427246 -121.064208984375 21.151302337646
-94.117813110352 -50.079017639160 -59.670562744141 3.696025133133
-91.170944213867 -49.655158996582 -61.980224609375 7.203982830048
-84.562431335449 -45.988388061523 -60.092376708984 9.924158096313
0.628807067871 -66.596473693848 -145.868118286133 10.113216400146
-91.168510437012 -48.685852050781 -54.159820556641 1.649779200554
-103.963760375977 -64.849548339844 -43.476135253906 16.395423889160
9.256149291992 -70.560531616211 -191.771408081055 3.503930568695
3.514617919922 -70.308296203613 -231.831054687500 1.285040378571
-88.256660461426 -49.278427124023 -58.723480224609 5.988053321838
-84.724594116211 -49.500129699707 -51.670013427734 5.263371467590
-81.883636474609 -50.081001281738 -50.967895507813 5.102820396423
-89.872222900391 -49.972732543945 -53.145812988281 3.193722963333
-102.609626770020 -65.449241638184 -38.146026611328 18.283763885498
24.157730102539 -75.524772644043 -163.498886108398 1.532921195030
-2.177154541016 -58.543281555176 -141.835647583008 18.150760650635
-77.832504272461 -52.705627441406 -48.673187255859 4.906157493591
-47.655662536621 -65.011283874512 -112.119018554688 10.726626396179
-13.090911865234 -74.012954711914 -208.427215576172 3.327481508255
-7.494491577148 -65.405670166016 -107.372512817383 33.859157562256
-9.126190185547 -57.866073608398 -103.786483764648 32.663322448730
7.704010009766 -75.378631591797 -201.207092285156 2.198875427246
-83.963050842285 -60.259368896484 -18.278045654297 26.851264953613
20.252120971680 -75.390800476074 -310.143432617188 17.282505035400
-42.939010620117 -62.213592529297 -16.844818115234 26.942529678345
-61.661628723145 -66.284423828125 -15.833892822266 28.007696151733
-13.538032531738 -73.819458007813 -218.938781738281 0.670335471630
8.554138183594 -73.124641418457 -213.676849365234 2.125271558762
-4.260704040527 -74.962203979492 -299.312255859375 7.802052497864
-74.413513183594 -52.583862304688 -38.018524169922 6.194407463074
11.688079833984 -76.303771972656 -209.651489257813 0.920442283154
-14.984733581543 -73.171913146973 -215.126296997070 1.494090437889
-12.570098876953 -79.970451354980 -299.245635986328 8.057935714722
-69.840728759766 -49.257659912109 -31.968353271484 12.053119659424
-90.690460205078 -57.498664855957 -21.186431884766 25.402654647827
-74.438446044922 -45.285186767578 -31.611877441406 13.861225128174
62.329711914063 -83.192977905273 -110.725860595703 12.573077201843
-21.722404479980 -86.767776489258 -318.190704345703 27.974481582642
-112.256896972656 -61.848052978516 -241.805938720703 9.530755996704
52.671768188477 -59.708305358887 -136.230194091797 16.355737686157
-19.199684143066 -61.701721191406 -84.842071533203 13.411714553833
64.660659790039 -76.412414550781 -147.867736816406 26.812808990479
68.883880615234 -74.111656188965 -273.692291259766 27.402578353882
1.342262268066 -68.321571350098 -198.322982788086 7.013186454773
-83.139617919922 -59.752052307129 -22.074554443359 22.946115493774
-71.532386779785 -51.519226074219 -27.919860839844 15.703232765198
7.379516601563 -73.614189147949 -192.568786621094 3.768467664719
50.413024902344 -59.014030456543 -115.818481445313 2.564931631088
71.692886352539 -63.158111572266 -102.972961425781 2.252950668335
11.226074218750 -71.797538757324 -303.683959960938 10.113983154297
10.095596313477 -78.643585205078 -295.601013183594 4.593296527863
52.463195800781 -62.466529846191 -108.259384155273 3.079314947128
58.018676757813 -58.657722473145 -120.065490722656 9.412463188171
-10.098625183105 -70.314392089844 -269.618774414063 2.690600395203
-50.717056274414 -58.897682189941 -104.306549072266 10.497536659241
70.889739990234 -74.741683959961 -133.816864013672 27.359573364258
79.984237670898 -73.349586486816 -184.374572753906 20.394777297974
-20.700546264648 -71.178634643555 -269.899505615234 6.921681404114
-120.099723815918 -56.500427246094 -188.548873901367 10.170737266541
47.634384155273 -59.909507751465 -115.350601196289 2.026503801346
-14.351997375488 -73.085174560547 -265.955718994141 2.633909940720
40.553604125977 -84.360198974609 -129.891113281250 6.382049560547
-100.455574035645 -59.707534790039 -219.554672241211 8.384570121765
-78.151901245117 -55.762947082520 -23.003662109375 20.362083435059
-80.202957153320 -56.787841796875 -26.340728759766 17.768045425415
-61.400856018066 -48.345710754395 -17.912475585938 25.809690475464
-74.152999877930 -63.928260803223 -3.632843017578 39.845134735107
4.819976806641 -77.605468750000 -290.769500732422 0.840846478939
-74.109939575195 -67.145706176758 -31.473419189453 13.395478248596
-151.331604003906 -76.397674560547 -231.912307739258 2.314508199692
-71.651062011719 -70.211936950684 -32.009948730469 13.887706756592
1.397232055664 -74.950546264648 -227.503753662109 2.239396810532
-70.588325500488 -51.187194824219 -22.769470214844 20.815956115723
-67.343009948730 -53.438430786133 -19.637054443359 23.111148834229
-74.353332519531 -61.559745788574 -40.490356445313 4.099142551422
-1.428703308105 -70.233497619629 -214.018432617188 2.750156879425
-0.844375610352 -77.590690612793 -227.180816650391 1.068650364876
-78.169952392578 -64.106063842773 -12.623901367188 31.486673355103
-73.393218994141 -63.159439086914 -16.445831298828 27.158533096313
-56.346488952637 -62.709777832031 -45.714752197266 2.384621143341
-13.893943786621 -79.601623535156 -275.245300292969 4.268263339996
-53.227821350098 -60.027976989746 11.900085449219 54.827774047852
-17.770385742188 -71.260467529297 -252.030792236328 2.272470712662
-30.758522033691 -61.370407104492 -163.111801147461 9.992893218994
-123.710624694824 -57.619895935059 -190.060119628906 8.130542755127
-50.564857482910 -53.538833618164 -3.398315429688 40.132038116455
-32.575759887695 -58.049613952637 -171.134979248047 9.693056106567
-50.552947998047 -50.012985229492 -15.166198730469 29.173252105713
-36.353225708008 -58.609809875488 -120.010711669922 17.947015762329
-48.919097900391 -54.676834106445 -8.665283203125 35.041515350342
-35.286270141602 -55.514709472656 -132.484786987305 17.063962936401
-37.168716430664 -56.169334411621 -134.691284179688 15.023699760437
-35.263313293457 -61.216400146484 -151.543487548828 10.108012199402
-53.076049804688 -56.360321044922 0.862792968750 43.885429382324
-33.501426696777 -52.682708740234 -126.873870849609 20.204736709595
-46.227882385254 -65.727699279785 9.687011718750 53.459419250488
-118.765655517578 -70.596313476563 -193.091384887695 2.475142478943
-117.960456848145 -60.018371582031 -226.142089843750 6.467739582062
-116.853927612305 -64.120414733887 -252.054473876953 5.871238708496
-119.926864624023 -57.367950439453 -191.567031860352 7.342226505280
51.493316650391 -59.239227294922 -136.928314208984 16.019952774048
-106.948425292969 -56.817718505859 -236.782379150391 12.044595718384
-107.046127319336 -60.568916320801 -235.585388183594 8.412470817566
-61.996520996094 -52.476913452148 -38.831146240234 5.450600624084
-42.216827392578 -65.162353515625 -177.187683105469 7.742451190948
-19.379158020020 -61.411521911621 -178.072937011719 10.336841583252
-18.125404357910 -67.871376037598 -182.099151611328 4.877232551575
-0.699935913086 -73.402130126953 -326.658905029297 33.341510772705
-61.622299194336 -59.488914489746 -40.208984375000 3.328133583069
-11.526489257813 -65.701828002930 -235.288452148438 2.966406583786
-45.839729309082 -49.840644836426 2.160919189453 46.898899078369
-20.506126403809 -66.299858093262 -184.961746215820 4.392444610596
-42.491233825684 -58.732948303223 12.846160888672 56.523021697998
-10.458938598633 -68.500350952148 -241.200805664063 1.574902892113
-12.960807800293 -71.270042419434 -237.468170166016 1.938650250435
-2.045516967773 -72.713523864746 -317.146453857422 23.851839065552
-16.534141540527 -64.023315429688 -196.319625854492 4.032476425171
-21.893531799316 -79.182563781738 -314.328735351563 22.703573226929
3.718933105469 -73.452499389648 -325.261199951172 31.884805679321
-109.969490051270 -62.991806030273 -248.545043945313 8.871916770935
-101.395713806152 -57.784477233887 -244.071960449219 11.665439605713
-67.617568969727 -56.991607666016 -0.380645751953 42.221263885498
-64.182373046875 -61.797470092773 -41.069488525391 3.795427322388
-60.212699890137 -61.146911621094 -93.390411376953 4.666455268860
-104.801162719727 -59.081939697266 -242.683471679688 13.228383064270
-18.465293884277 -64.357406616211 -138.717071533203 25.149105072021
83.677505493164 -77.413970947266 -197.146987915039 11.976514816284
34.690979003906 -63.953125000000 -127.298767089844 1.282989859581
45.433517456055 -80.703056335449 -294.412628173828 29.171226501465
-109.428955078125 -75.295486450195 -212.155090332031 9.965697288513
-25.010719299316 -88.624725341797 -308.952880859375 20.354066848755
6.818130493164 -76.861938476563 -322.696838378906 29.012060165405
-97.570526123047 -59.231079101563 -238.821029663086 14.466567039490
5.335601806641 -61.373092651367 -112.477416992188 27.904209136963
-44.276191711426 -53.469276428223 -17.215698242188 27.306947708130
-43.634407043457 -60.369575500488 -116.347702026367 12.089495658875
-43.565147399902 -58.368606567383 -22.608428955078 21.201381683350
-127.432060241699 -55.738853454590 -221.952453613281 10.384197235107
-12.367301940918 -82.639831542969 -228.008697509766 5.140063762665
-124.339256286621 -56.416267395020 -216.062774658203 12.770454406738
-117.204849243164 -70.288551330566 -189.378128051758 3.942789316177
-12.450454711914 -85.049392700195 -284.608642578125 9.018256187439
47.247177124023 -72.266525268555 -84.902465820313 5.423788547516
-126.679885864258 -56.451141357422 -217.185073852539 12.827039718628
-112.025421142578 -72.195594787598 -204.776672363281 2.406426906586
-116.898323059082 -70.358116149902 -184.869583129883 4.781023979187
-18.102935791016 -80.324081420898 -278.914947509766 8.067176818848
-64.377388000488 -59.783531188965 -26.904541015625 16.099796295166
-43.514259338379 -62.231536865234 -26.241210937500 17.590244293213
-82.517486572266 -59.891098022461 -32.945587158203 12.192017555237
-85.024642944336 -57.685073852539 -31.832489013672 13.855252265930
-101.759208679199 -61.448799133301 -229.801666259766 7.678390979767
-76.473228454590 -57.643966674805 -31.179046630859 12.082887649536
-36.453369140625 -65.003486633301 -24.275665283203 21.738166809082
-40.180809020996 -69.466354370117 -19.881408691406 25.960851669312
-65.523254394531 -64.929916381836 -21.437683105469 22.546586990356
-72.129791259766 -70.380279541016 -21.000549316406 24.170650482178
-69.090545654297 -54.614486694336 -35.798553466797 8.153348922729
14.685028076172 -71.826896667480 -307.719757080078 13.864823341370
-106.348640441895 -59.828330993652 -205.679473876953 8.651364326477
-111.270332336426 -59.716697692871 -243.619705200195 12.445693969727
-113.277465820313 -58.425788879395 -194.963851928711 6.139245033264
-18.359397888184 -75.683334350586 -279.584960937500 6.906433105469
-18.890922546387 -77.796585083008 -288.407501220703 0.901674509048
-37.172447204590 -66.664764404297 -167.513046264648 3.114723682404
-55.165672302246 -58.573959350586 -3.880279541016 39.018589019775
-41.605148315430 -58.022720336914 1.612060546875 45.445716857910
-45.143722534180 -54.321655273438 0.466613769531 44.433864593506
-18.345115661621 -78.149467468262 -317.162689208984 24.910816192627
-17.520187377930 -80.543167114258 -306.103485107422 15.129941940308
-17.691101074219 -79.328971862793 -296.104034423828 5.464019775391
-20.561668395996 -75.301315307617 -264.063629150391 6.175636291504
-34.738113403320 -69.944404602051 -164.657791137695 1.813377141953
-48.903793334961 -67.968727111816 -45.395904541016 1.501679062843
-53.271995544434 -63.400932312012 -0.826049804688 42.314712524414
-13.218841552734 -78.436706542969 -325.397491455078 32.844676971436
-30.535369873047 -75.539260864258 -169.546859741211 1.901761174202
-44.518379211426 -67.776885986328 -56.998992919922 6.365890979767
-46.887329101563 -69.452896118164 -50.635559082031 3.144511938095
-19.976234436035 -79.737182617188 -280.260314941406 7.358541488647
-17.973548889160 -79.136215209961 -300.795196533203 9.729772567749
-12.555168151855 -83.045974731445 -332.564758300781 40.819149017334
-59.814216613770 -68.995933532715 -7.093170166016 36.752677917480
-51.501457214355 -68.177886962891 -4.385803222656 39.700767517090
-50.626998901367 -68.489425659180 -2.645568847656 41.541625976563
-15.444801330566 -60.128936767578 -178.256851196289 13.448810577393
-44.179870605469 -61.208122253418 -176.674499511719 10.541307449341
-16.777290344238 -59.207466125488 -176.728668212891 13.802519798279
31.097625732422 -64.874481201172 -166.388183593750 5.795934200287
-114.643196105957 -50.945663452148 -88.369003295898 13.914362907410
-51.255592346191 -63.902526855469 -181.691772460938 9.224151611328
-54.766784667969 -64.856918334961 -154.612487792969 5.306076526642
6.220809936523 -62.489501953125 -155.123107910156 6.609418392181
53.488433837891 -61.448799133301 -149.544113159180 19.824529647827
-22.366905212402 -59.129539489746 -157.841354370117 16.675447463989
26.333328247070 -74.774230957031 -141.178527832031 1.655421137810
-99.262992858887 -69.587203979492 -154.910064697266 1.797178387642
-26.052749633789 -65.637649536133 -145.076171875000 15.935701370239
-35.683189392090 -59.715637207031 -152.199462890625 10.612807273865
-32.064613342285 -58.842025756836 -148.804367065430 14.848459243774
-52.934509277344 -63.993858337402 -98.567199707031 10.784563064575
-114.536781311035 -64.921188354492 -257.064971923828 2.355090379715
48.555053710938 -66.888420104980 -139.686187744141 11.418039321899
-73.505355834961 -61.030532836914 -71.190704345703 8.880086898804
-109.681716918945 -60.882629394531 -79.095291137695 10.478833198547
-96.908981323242 -61.970169067383 -253.026458740234 4.328691005707
-117.592033386230 -55.987213134766 -84.459930419922 16.416160583496
-116.332519531250 -63.703239440918 -75.112365722656 17.152505874634
-79.801483154297 -68.326927185059 -72.040496826172 8.909711837769
-102.391662597656 -67.084327697754 -84.209732055664 4.897129535675
-107.734268188477 -74.529434204102 -82.366729736328 12.860390663147
-74.247634887695 -65.505943298340 -164.038955688477 9.769536972046
47.541244506836 -62.516471862793 -143.356933593750 13.674766540527
-79.591629028320 -68.809310913086 -167.676589965820 12.991700172424
10.210968017578 -72.619102478027 -152.187622070313 2.445130586624
-16.953948974609 -64.581413269043 -88.065887451172 14.250517845154
9.203887939453 -60.228149414063 -153.425781250000 7.156592845917
-112.730163574219 -76.912597656250 -181.135803222656 9.170003890991
29.959976196289 -65.004409790039 -76.000946044922 24.131952285767
-95.186676025391 -70.825599670410 -264.515777587891 5.723075866699
-113.161361694336 -64.219406127930 -96.305160522461 13.755785942078
-117.518646240234 -73.163681030273 -94.001464843750 20.911281585693
-4.137107849121 -62.290245056152 -157.824111938477 11.525676727295
-116.184989929199 -62.419754028320 -86.408325195313 15.858034133911
-110.378921508789 -50.945167541504 -76.542327880859 10.221548080444
-120.915435791016 -65.484870910645 -83.485534667969 21.463142395020
-119.487564086914 -67.328102111816 -70.186126708984 21.554445266724
-114.178871154785 -74.359985351563 -84.094940185547 18.632913589478
-66.363624572754 -63.541221618652 -77.078933715820 7.926167488098
-2.941040039063 -70.823051452637 -239.543991088867 1.994380593300
-38.286720275879 -61.161422729492 -145.598175048828 9.069169998169
-32.904075622559 -60.665267944336 -143.437469482422 13.351931571960
-103.461051940918 -47.886711120605 -78.450744628906 3.018808364868
-105.244857788086 -52.548278808594 -77.992645263672 4.690103054047
-102.730178833008 -51.578010559082 -73.509460449219 4.614965915680
-90.942039489746 -80.277999877930 -274.686614990234 13.401954650879
22.135787963867 -63.379577636719 -73.299194335938 32.298896789551
-26.628211975098 -66.766342163086 -80.478042602539 5.024644374847
-57.693626403809 -65.156188964844 -82.558074951172 2.064674615860
-104.078269958496 -49.619873046875 -82.646194458008 4.363042354584
-113.421478271484 -66.191955566406 -87.634613037109 14.337804794312
-92.802124023438 -78.647163391113 -249.990905761719 5.130455493927
-117.304145812988 -68.633674621582 -85.316101074219 18.821422576904
-100.580833435059 -82.794052124023 -251.328399658203 10.383053779602
-22.652549743652 -62.161155700684 -149.822982788086 17.411899566650
-42.797790527344 -64.130546569824 -148.298492431641 4.612145423889
-10.110977172852 -69.993041992188 -319.073516845703 26.679031372070
2.366882324219 -80.946083068848 -333.172424316406 40.268833160400
74.828460693359 -72.492889404297 -161.791763305664 32.417243957520
-125.680480957031 -60.403945922852 -226.806838989258 3.672071695328
62.392456054688 -61.546768188477 -114.269607543945 9.621987342834
65.629180908203 -65.381271362305 -114.697265625000 10.396454811096
-38.823982238770 -55.147727966309 -122.268981933594 15.861442565918
-132.190780639648 -63.943603515625 -205.851730346680 1.771329402924
-129.057373046875 -56.167633056641 -212.064605712891 9.483672142029
-57.710083007813 -65.586105346680 -88.775939941406 2.534865140915
-131.720336914063 -71.548011779785 -255.025863647461 1.862949132919
85.423721313477 -77.697174072266 -233.249359130859 6.472894191742
-83.331916809082 -72.304801940918 -96.763900756836 5.242899894714
-90.588333129883 -55.798263549805 -60.553588867188 4.703798294067
-97.841293334961 -56.777084350586 -66.433593750000 0.937022149563
11.809524536133 -65.120605468750 -189.559036254883 4.568934440613
-112.205551147461 -64.917144775391 -56.380981445313 16.316312789917
27.616424560547 -77.885276794434 -127.132308959961 1.978686809540
-98.525070190430 -81.548294067383 -191.384429931641 15.578170776367
-96.519065856934 -53.435554504395 -66.131439208984 3.488847970963
24.306991577148 -73.712242126465 -184.907058715820 2.946641445160
10.183364868164 -63.267364501953 -118.802139282227 20.043701171875
13.628555297852 -81.152801513672 -324.285858154297 30.432312011719
30.877044677734 -69.582260131836 -133.553741455078 0.732622861862
-96.310714721680 -55.310981750488 -65.848022460938 2.634640932083
-82.065338134766 -72.600723266602 -99.330841064453 2.598793506622
-103.025741577148 -60.894210815430 -45.588958740234 13.561365127563
-94.938346862793 -53.177223205566 -52.120452880859 1.894058108330
-13.254020690918 -62.781196594238 -37.508911132813 13.409754753113
-82.512603759766 -60.649909973145 -37.866363525391 7.396187305450
-84.576446533203 -52.236831665039 -60.305511474609 10.561435699463
-83.051467895508 -63.842300415039 -38.789611816406 7.800679683685
39.310867309570 -63.357200622559 -137.275573730469 6.970091819763
42.217590332031 -64.919250488281 -146.743072509766 8.966170310974
37.470336914063 -63.962448120117 -145.933456420898 6.901306629181
-110.534210205078 -77.775482177734 -264.980957031250 6.411658287048
-4.434844970703 -58.380058288574 -141.891860961914 19.918970108032
-59.413993835449 -59.145507812500 -158.958648681641 13.179256439209
40.808807373047 -58.118354797363 -147.270965576172 13.751502990723
0.431564331055 -69.191299438477 -157.927612304688 4.385941028595
-15.558952331543 -64.170722961426 -257.201782226563 4.725953102112
-19.272178649902 -70.540016174316 -262.678466796875 4.393795013428
43.798721313477 -59.128509521484 -141.789810180664 13.336940765381
42.384078979492 -59.294548034668 -149.867752075195 14.293187141418
-101.045310974121 -67.793861389160 -149.829696655273 3.090186834335
32.968582153320 -75.694137573242 -141.642486572266 2.696713685989
-101.561874389648 -54.601013183594 -73.042327880859 4.645677089691
-112.644020080566 -66.397079467773 -61.862091064453 16.101566314697
-7.656990051270 -67.377990722656 -266.485656738281 1.586629867554
-80.383316040039 -65.688148498535 -64.851501464844 8.954974174500
-11.689720153809 -64.776084899902 -252.378021240234 2.413317203522
-80.871765136719 -53.880081176758 -65.727752685547 14.577368736267
47.312973022461 -58.576881408691 -144.091766357422 16.514421463013
-103.065460205078 -70.209838867188 -157.309600830078 3.056375265121
31.569869995117 -75.915641784668 -145.368453979492 2.102665901184
21.020523071289 -62.579513549805 -148.950546264648 3.081501960754
-72.499008178711 -65.316650390625 -160.466140747070 7.951805114746
1.103294372559 -64.764518737793 -149.054428100586 9.885256767273
81.905685424805 -70.557281494141 -239.246673583984 5.368546485901
53.081481933594 -65.785446166992 -145.871047973633 16.653736114502
-6.311271667480 -73.134849548340 -243.457122802734 1.270879507065
-107.780624389648 -77.657745361328 -188.312713623047 8.091916084290
48.077682495117 -59.609054565430 -149.685272216797 17.242860794067
-103.037666320801 -74.367820739746 -176.107315063477 5.878816127777
66.454040527344 -69.683975219727 -106.063903808594 5.775434494019
40.346786499023 -60.472389221191 -124.286514282227 0.753364026546
-76.497726440430 -55.269111633301 -8.695831298828 34.229515075684
9.255172729492 -73.664100646973 -321.808868408203 27.718507766724
-71.869338989258 -59.843170166016 -34.656036376953 8.879233360291
7.450805664063 -74.561515808105 -299.751831054688 6.704411029816
11.580230712891 -77.411170959473 -296.463134765625 3.263470411301
-79.167572021484 -64.088745117188 -27.710693359375 17.636470794678
-3.805557250977 -66.872718811035 -223.428512573242 1.629507899284
-66.017852783203 -52.601501464844 -37.587829589844 5.951153278351
4.261108398438 -69.069869995117 -230.581024169922 1.980981945992
8.324371337891 -70.695419311523 -310.352355957031 16.744558334351
-16.520378112793 -61.755607604980 -96.107391357422 21.739538192749
0.766540527344 -66.713073730469 -215.360870361328 4.829499721527
-71.619110107422 -51.262023925781 -30.095855712891 13.750658035278
-80.294708251953 -60.581176757813 -18.745910644531 25.370899200439
-70.186447143555 -53.180511474609 -29.681701660156 13.796334266663
-26.951110839844 -59.688575744629 -30.271697998047 17.125598907471
-77.618537902832 -68.576751708984 -26.081451416016 19.533355712891
-86.564346313477 -56.799797058105 -36.178131103516 10.297497749329
89.150573730469 -70.146545410156 -206.441192626953 3.605683326721
-77.199676513672 -49.461959838867 -33.395019531250 10.875074386597
-102.928009033203 -61.559211730957 -233.743835449219 8.420830726624
38.529693603516 -56.035774230957 -119.305389404297 0.827253520489
-76.927978515625 -83.731674194336 -310.264129638672 21.556200027466
43.067901611328 -70.176628112793 -106.888916015625 1.141044974327
45.946868896484 -70.940338134766 -114.813018798828 1.649345517159
49.745758056641 -69.005790710449 -103.377059936523 1.948915004730
54.525115966797 -74.604400634766 -106.657562255859 2.673560380936
-14.199241638184 -64.065399169922 -93.978775024414 20.076110839844
44.513259887695 -58.199806213379 -116.918426513672 1.041650891304
40.155181884766 -62.132865905762 -116.480651855469 2.778126001358
-20.585845947266 -78.985275268555 -280.042297363281 7.088631629944
61.463455200195 -59.728263854980 -119.112579345703 12.138520240784
-109.588485717773 -78.216011047363 -203.618469238281 8.358517646790
-13.632331848145 -69.812583923340 -275.376861572266 2.237195253372
-124.573997497559 -61.067008972168 -194.305709838867 3.239264011383
71.219482421875 -69.788993835449 -257.546417236328 14.458167076111
-141.437759399414 -75.570190429688 -250.039855957031 4.398132324219
-41.297454833984 -59.368034362793 -125.305465698242 11.290040016174
