# This PCD file was generated using the MATLAB® pcwrite function
# from Computer Vision Toolbox®.
# .PCD v.7 - Point Cloud Data file format
VERSION .7
FIELDS x y z
SIZE 4 4 4
TYPE F F F
COUNT 1 1 1
WIDTH 1417
HEIGHT 1
VIEWPOINT 0 0 0 1 0 0 0
POINTS 1417
DATA ascii
-44.807617 -67.737823 141.364853
-47.654285 -65.503349 139.123199
-48.870659 -66.048828 136.753326
-45.173931 -65.538307 148.344635
-45.562935 -65.433701 145.383408
-50.907818 -67.918274 140.478867
-47.776741 -66.570251 142.631546
-52.206608 -66.356194 138.647629
-49.037457 -66.911423 151.786987
-50.369419 -65.299805 148.290298
-48.809200 -65.705322 150.756012
-148.737656 -64.501198 153.578064
-149.341919 -63.624653 161.309204
-149.132431 -65.100586 158.781998
-150.071716 -65.794456 161.826172
-149.372482 -64.127487 169.680679
-227.329819 -66.965538 156.841263
-232.158829 -64.005875 154.986465
-228.401306 -65.076187 154.928711
-228.113663 -63.645874 157.853546
-169.368393 -67.524765 301.173035
-169.185501 -65.798943 303.356781
-178.889374 -65.062149 297.892395
-179.478592 -63.340801 298.584106
-180.273071 -68.189148 297.812469
-179.766327 -65.908783 300.744293
-177.719238 -64.425224 302.282379
-181.349960 -64.989822 306.456604
-184.871155 -67.423820 306.609070
-181.687943 -66.745026 307.892426
-184.214432 -69.802010 307.623810
-43.183952 -67.697090 115.483627
-46.663101 -64.842751 109.791885
-46.310638 -64.832039 115.756660
-42.036835 -65.305542 126.344254
-38.069241 -62.320885 128.359863
-42.600758 -65.080315 135.518036
-39.310680 -63.679859 140.740112
-38.964733 -64.745468 141.156448
-43.257885 -66.473099 142.603653
-50.203049 -66.061775 134.925781
-49.110775 -65.051147 141.398041
-47.184650 -67.594841 152.657074
-147.290405 -64.785805 149.705063
-147.156128 -65.640434 151.439163
-147.061127 -64.312614 153.201111
-152.266342 -67.342247 152.621643
-149.526245 -66.535217 168.151245
-148.567978 -64.035408 172.605087
-149.745850 -66.011841 166.320526
-151.341324 -66.429810 173.878265
-150.949448 -65.753334 181.346283
-142.702408 -62.946873 284.747314
-144.554443 -64.632545 286.979736
-222.826859 -65.783051 153.580139
-223.182053 -64.758911 156.736725
-228.188187 -65.258781 152.700607
-152.880112 -64.430176 283.081909
-219.042084 -63.881046 159.081848
-155.562897 -65.912643 277.577637
-228.045685 -65.254349 156.945633
-223.153091 -64.590553 160.770096
-150.816803 -64.879097 289.748627
-228.138321 -65.617073 158.665268
-154.288559 -64.365448 285.877197
-156.930862 -64.216988 291.047485
-232.783676 -65.319420 154.998657
-226.094376 -64.495049 166.670517
-154.849243 -65.596848 287.576843
-156.942749 -65.909637 289.868103
-234.550980 -67.757744 155.001755
-161.341995 -64.589691 292.147522
-158.183670 -63.783798 292.152679
-232.546234 -64.069756 158.594345
-236.820419 -65.520988 157.146393
-231.662460 -64.011765 162.149063
-235.620544 -64.637062 162.834015
-236.695007 -63.315765 158.232193
-165.642960 -65.931915 295.878143
-164.012390 -65.300659 296.897339
-168.181702 -65.531876 296.823120
-173.007416 -68.561180 299.656464
-172.678558 -65.241928 301.597412
-174.688492 -66.528275 298.957825
-173.582870 -65.282356 304.677032
-174.843552 -66.625153 298.845642
-180.140381 -63.668663 292.160889
-184.676926 -64.431580 291.302887
-174.905945 -67.181381 307.551361
-177.846054 -64.399651 306.243408
-182.996735 -64.703827 305.107300
-188.160019 -64.369926 307.068176
-186.986938 -66.870850 308.493317
-38.476368 -64.249344 122.532982
-37.761246 -65.084015 125.302757
-36.398411 -64.588516 117.929375
-41.214386 -63.361801 117.276230
-45.438911 -61.908676 108.661461
-44.756157 -62.572842 111.263954
-35.605759 -64.966064 129.801544
-40.825596 -65.536217 123.792114
-39.983780 -64.483582 126.597130
-47.537571 -64.633430 109.534737
-37.345016 -62.942654 130.832535
-50.671421 -66.719475 116.268288
-51.483604 -65.210503 119.749771
-35.997395 -64.206154 142.816498
-51.731567 -64.224327 125.583595
-37.363453 -64.110626 146.730698
-51.530781 -65.209381 142.610794
-53.613976 -66.078400 137.221069
-47.251888 -67.396278 144.593307
-52.791969 -65.385773 145.302795
-47.558266 -64.302826 153.695724
-50.372639 -61.043930 151.456741
-146.432053 -63.282814 135.598663
-145.471680 -63.872200 137.557846
-145.190216 -64.481514 143.292862
-147.123337 -66.364761 162.012238
-146.047745 -63.626736 163.393036
-150.997437 -63.896179 158.550873
-151.790390 -65.517342 165.331894
-144.361877 -65.758362 170.279770
-151.550873 -64.088615 170.533401
-145.553253 -65.374092 178.056992
-151.047974 -65.050423 176.474762
-148.520599 -65.604431 178.699707
-146.082596 -62.667377 182.543060
-150.920822 -62.166645 177.899231
-149.751343 -65.334869 183.728958
-148.879669 -65.533966 185.947830
-146.572464 -63.783405 187.983307
-147.845306 -64.224083 192.099182
-113.782616 -61.976364 264.543274
-117.772011 -63.316624 267.287323
-120.369293 -64.844696 272.313324
-124.097633 -64.249794 267.875671
-120.690384 -64.745758 274.319855
-127.580345 -62.868599 263.555298
-127.626831 -65.220047 271.458496
-125.831970 -63.033531 272.536896
-133.001007 -66.011436 277.333252
-130.871201 -65.729362 273.454346
-135.648621 -63.610359 277.560760
-144.070389 -66.252014 282.043488
-220.378799 -62.626781 154.487442
-147.310257 -63.506550 284.283386
-224.452347 -65.387810 154.307419
-146.516159 -65.105339 286.889435
-226.167023 -63.766830 147.284409
-228.486267 -64.005562 152.532318
-145.539413 -66.703400 288.276367
-150.665329 -66.569733 285.423798
-151.978851 -64.043686 281.787872
-145.494827 -64.151039 293.257904
-152.826294 -67.207779 283.553497
-153.203262 -65.257690 287.207764
-155.792938 -65.237724 279.428589
-150.760849 -65.653610 290.080719
-232.627304 -63.966892 151.422821
-225.263962 -64.151459 164.441635
-230.007080 -63.315712 164.293503
-238.618774 -63.934841 155.842911
-233.990021 -63.497131 165.794113
-238.597183 -64.459724 162.622543
-239.981857 -65.841064 162.347565
-170.415146 -63.458492 300.056091
-172.885696 -65.214027 301.947296
-171.976471 -64.970665 308.148987
-181.943192 -62.450455 302.430115
-183.549362 -62.236813 311.237122
-184.433609 -64.299179 311.908295
-30.839750 -63.589050 124.770302
-34.195087 -62.168003 119.973564
-33.857834 -62.834808 123.635262
-41.443199 -62.477936 113.982643
-44.766113 -61.940567 106.103416
-46.910614 -65.347488 106.459053
-50.688389 -62.980747 104.996117
-31.648285 -63.091103 129.097824
-34.919727 -61.292130 134.403275
-46.256851 -64.641342 110.965828
-47.324917 -65.424675 115.072044
-34.671951 -62.992115 144.019714
-37.462986 -62.515064 142.912781
-36.527939 -61.292511 148.021042
-50.317337 -63.922512 132.553040
-52.190800 -63.133202 131.737320
-51.685307 -63.078308 145.279236
-50.426292 -63.087456 154.812454
-146.395340 -64.174034 130.929901
-146.056671 -62.576038 139.127258
-144.432236 -64.273643 147.266632
-150.767853 -63.546402 140.587219
-150.731476 -64.249466 144.834320
-150.900238 -64.041168 153.302216
-145.428162 -66.184547 151.526962
-152.834320 -63.968620 157.186859
-145.161652 -63.972000 171.143143
-104.007454 -63.056660 250.520172
-102.372551 -63.580658 256.129974
-99.983276 -63.833538 259.363434
-105.699005 -64.141808 257.636810
-152.052841 -63.611557 191.183624
-148.425522 -62.782566 191.433334
-107.407242 -63.650219 262.723907
-120.830963 -62.613308 271.706787
-126.314514 -62.747253 267.721008
-121.522568 -64.801361 269.117157
-123.650032 -61.733181 267.795654
-126.907433 -63.172550 270.675720
-125.159012 -62.537506 265.244263
-123.400063 -63.480030 275.778809
-126.821266 -64.438225 271.885284
-130.734329 -63.488480 262.824524
-129.066284 -62.934399 264.907898
-126.992805 -64.756767 268.283844
-124.667793 -63.106354 276.306061
-127.440407 -63.452244 275.422272
-212.398712 -62.443687 139.446182
-223.955856 -62.303410 138.463303
-139.441116 -64.105629 283.151062
-221.434509 -60.741058 140.102921
-220.472473 -62.080273 138.133911
-217.187622 -65.049507 159.360199
-221.706802 -62.268341 151.363464
-220.649979 -64.046417 154.746689
-217.444824 -63.493568 160.977203
-218.717667 -65.619858 159.772049
-150.320908 -61.410297 285.666534
-231.719437 -64.094009 148.529846
-156.551254 -63.265652 285.128723
-221.002304 -61.774796 164.750549
-233.211060 -63.965954 150.814636
-232.386337 -61.135036 167.919830
-235.870438 -64.090149 153.015564
-227.409958 -65.718140 165.110809
-160.854675 -63.303635 289.509430
-237.697510 -61.508934 163.274368
-239.125717 -64.339066 151.634872
-241.262421 -62.601891 159.936066
-166.791687 -65.448128 300.188751
-175.579468 -65.189629 297.520966
-176.344727 -64.219414 296.438263
-178.776199 -64.580948 303.890320
-179.868958 -64.180283 299.583252
-180.972946 -65.645279 303.450928
-185.228333 -65.072258 310.751160
-31.348734 -61.490326 126.509018
-34.177563 -61.816097 118.600761
-34.414818 -62.249527 120.901077
-37.038696 -63.023300 112.585236
-37.604595 -61.553570 113.742096
-42.247387 -60.167156 109.099281
-43.271362 -60.965755 103.312950
-45.671574 -62.171318 100.286537
-29.932346 -64.069664 129.331573
-51.143768 -62.824688 103.176994
-51.442474 -62.144577 100.850067
-29.417730 -60.848934 132.678391
-52.876419 -63.786930 104.189453
-52.706055 -63.190536 116.096291
-34.615551 -62.596405 138.370270
-53.913486 -63.610638 121.995903
-52.880566 -63.099819 137.097733
-48.421024 -62.711155 157.202560
-142.674820 -62.446182 129.171997
-144.201202 -63.482483 135.222031
-147.269501 -64.703636 136.248428
-148.105637 -61.396347 137.431534
-153.873444 -61.638199 144.110962
-136.063095 -61.322170 166.349838
-88.633072 -60.312271 251.677719
-91.842094 -60.403240 250.553757
-141.940643 -60.418568 165.044601
-150.932663 -61.347366 156.837677
-145.595169 -62.171482 156.103073
-88.926407 -64.954407 252.513992
-145.843170 -62.249790 164.001205
-95.465439 -64.403023 254.758316
-97.579735 -63.297878 256.149170
-101.346985 -61.690945 252.546844
-96.216461 -60.689445 257.186829
-103.061783 -65.877441 249.792526
-152.445847 -64.617088 166.427765
-105.353081 -60.941483 246.520142
-144.967941 -59.504047 167.085800
-101.911545 -64.838142 251.439651
-148.211136 -61.421986 174.068253
-97.353180 -62.754059 259.448639
-101.581711 -60.459156 253.269073
-102.821640 -62.511391 249.149933
-101.330429 -63.307449 256.640045
-101.407913 -63.926052 253.483810
-147.432770 -63.622665 176.223740
-145.636139 -61.626621 180.283157
-98.131226 -62.005737 259.029938
-103.696098 -63.188389 257.699005
-145.225281 -65.357086 182.024719
-103.081177 -61.402348 259.441254
-146.735474 -63.026775 187.342773
-151.533371 -61.739017 180.465118
-108.223000 -61.955688 262.953705
-146.273026 -61.417866 195.641403
-151.391953 -62.539719 187.180649
-148.289291 -60.380596 197.866562
-114.362206 -63.002914 268.137360
-117.341988 -61.834805 264.186127
-126.590729 -62.533009 262.942047
-128.430817 -65.129578 261.015137
-123.095886 -63.148113 275.607910
-209.776398 -62.544498 134.343369
-210.834290 -62.194237 134.242691
-207.674622 -63.300507 136.225876
-125.202934 -62.354645 277.643066
-210.531235 -60.495407 139.452560
-224.740601 -62.625992 136.895660
-222.985245 -62.884346 138.985458
-139.145889 -64.026100 285.625092
-221.908371 -61.582623 149.693008
-145.257782 -61.277176 289.089355
-225.972458 -62.492290 145.066025
-150.247589 -64.787643 281.306091
-147.200882 -62.668625 290.438660
-231.323990 -61.380894 145.702881
-146.757965 -64.442535 286.280914
-151.587509 -64.498924 286.574158
-156.989258 -63.909424 279.419586
-158.548004 -63.209225 279.379425
-153.994904 -63.825100 288.317871
-237.135635 -63.173717 148.817566
-160.532959 -63.678310 295.613708
-163.007629 -65.077065 296.527496
-241.963104 -62.448677 152.596649
-236.764267 -61.227921 168.642929
-163.987762 -61.431599 293.878387
-242.110947 -62.659302 164.740616
-169.530869 -59.941013 293.290649
-166.860855 -64.773346 294.203308
-180.282700 -65.704117 293.683075
-175.312637 -66.333267 301.053192
-181.322098 -64.448868 292.757782
-175.219406 -64.247910 303.852570
-173.830368 -64.493866 309.793365
-183.118683 -64.307922 295.682709
-179.862289 -62.745892 301.805023
-177.571259 -63.475346 309.454132
-182.422623 -63.652073 307.321259
-30.206017 -64.102058 116.035530
-34.242481 -59.954521 110.736923
-29.838015 -59.797874 118.090759
-36.125198 -61.607830 106.965164
-29.646801 -60.338757 125.387787
-24.871574 -61.768791 124.495651
-38.640766 -62.225025 106.782967
-47.184464 -61.974197 97.621201
-40.885841 -61.741978 101.636436
-28.966045 -63.627495 130.623962
-43.025291 -61.262920 102.793053
-49.121090 -58.142914 96.547668
-48.718407 -61.677505 99.360214
-31.443399 -61.712200 141.363281
-51.665318 -61.229893 107.132736
-53.409794 -60.781143 108.071289
-54.401848 -62.031631 124.916862
-42.447586 -63.904491 149.608429
-52.624031 -57.190590 143.290573
-50.782875 -62.729797 150.204178
-128.609924 -61.652657 57.504536
-126.656624 -59.056736 62.022797
-130.510361 -59.793564 68.332817
-143.721359 -60.005016 80.092003
-143.316208 -60.558002 119.557243
-145.085464 -62.535606 125.043861
-144.515106 -61.836185 130.964188
-145.577271 -61.715332 127.174271
-148.198761 -61.661381 129.479111
-144.241776 -61.915485 138.396835
-148.346680 -60.563217 134.465347
-145.165833 -61.253613 147.610184
-90.266136 -62.499451 251.248184
-145.490448 -60.387547 155.008469
-134.083099 -62.459820 168.909576
-150.488876 -61.906132 149.692307
-90.862854 -61.239819 248.066803
-95.589890 -61.026051 253.783112
-92.132164 -62.812115 257.617737
-149.540039 -61.343494 158.441589
-145.482574 -60.783699 168.263062
-96.383385 -61.817688 256.866333
-96.061073 -61.653915 260.704102
-152.904312 -60.437202 165.957275
-151.804138 -61.966949 163.919769
-96.667664 -61.287655 260.774109
-102.504173 -61.873161 261.482422
-144.367584 -58.354378 190.719147
-145.421539 -63.522057 193.801208
-149.398453 -60.659584 182.475845
-149.375900 -63.071346 191.839676
-108.529274 -61.900261 262.587158
-148.542450 -63.137245 195.580414
-145.735840 -61.054893 201.514755
-145.764648 -64.118950 197.673843
-143.660706 -60.359425 205.160233
-195.966370 -61.722588 128.005051
-120.621414 -60.455948 268.108368
-120.593178 -63.052246 273.618378
-126.216171 -61.624424 264.610107
-121.395767 -62.737823 275.048462
-201.882919 -62.331425 131.879807
-124.010963 -63.724594 273.817047
-129.124252 -63.288219 268.787933
-130.115509 -61.911247 273.137451
-215.513000 -62.968781 136.147522
-134.382736 -62.336910 281.607178
-216.288620 -61.464046 142.503510
-138.096512 -63.034752 282.981720
-220.301102 -61.816437 139.640182
-138.949631 -61.837490 284.834991
-220.660187 -61.295952 147.275269
-216.661133 -61.881565 151.337143
-224.681702 -60.655319 144.273666
-146.176697 -64.566566 282.764099
-154.061218 -61.002659 275.610382
-148.641846 -62.541103 288.553406
-156.683243 -66.115883 275.932770
-219.395325 -60.820366 162.855820
-229.644653 -61.230156 143.833359
-150.086029 -62.126198 293.198792
-230.908417 -64.822212 148.397034
-152.080170 -62.984058 292.208374
-239.253235 -60.966843 150.617783
-161.179153 -62.108334 294.704834
-243.587540 -60.628532 149.710846
-164.377502 -63.603508 297.526398
-239.871109 -61.183159 167.556381
-244.879669 -60.384033 156.347717
-241.421463 -62.272747 165.467361
-240.610626 -60.921959 165.844193
-245.485458 -63.011475 161.957397
-169.554184 -64.569366 301.744843
-176.675751 -62.612785 299.753235
-187.561508 -62.425011 310.262390
-38.087173 -59.898487 104.432213
-30.088570 -59.439663 114.391998
-30.465324 -60.146122 106.586555
-24.793890 -56.583565 124.384750
-30.800648 -61.577667 112.626350
-36.671776 -61.270142 106.027695
-38.474472 -59.933681 104.421425
-26.082239 -60.750061 124.840515
-40.626183 -59.995068 100.550598
-23.433102 -58.478577 125.839592
-38.197937 -58.256554 100.541771
-47.529320 -60.857697 95.193336
-24.841108 -60.931580 129.745483
-27.939825 -60.407990 135.142548
-50.798576 -59.985199 97.448967
-51.098789 -60.646580 97.067215
-30.932541 -59.661499 142.614655
-51.263138 -57.602283 111.272659
-52.967743 -59.887936 125.582054
-51.162357 -60.569527 130.103104
-51.390430 -60.683838 137.044373
-49.840805 -58.957657 144.166046
-47.940777 -60.740425 159.630127
-118.965492 -59.432961 44.130295
-123.159744 -61.401165 53.288116
-119.557281 -58.949768 53.734013
-122.906319 -59.882580 51.485577
-123.377953 -60.906479 55.627106
-133.233307 -60.056870 66.237122
-124.249870 -58.814934 61.074112
-135.348267 -61.900284 70.982170
-138.946686 -59.113400 75.773224
-147.874939 -61.452854 81.514984
-119.414413 -60.671909 146.335312
-118.016380 -61.475231 145.100708
-127.450562 -60.376907 144.430069
-116.073051 -60.385521 167.137619
-145.483185 -59.158180 120.138466
-158.210831 -59.876007 91.026787
-142.333694 -61.393688 126.416550
-116.274147 -60.718613 166.482498
-120.224380 -60.580448 164.985138
-131.329880 -62.250053 144.575363
-143.748886 -60.509922 119.912239
-144.269196 -61.601433 134.947510
-128.655701 -62.545502 167.158020
-123.754608 -61.008190 166.418839
-135.767380 -60.334183 144.814880
-146.765350 -61.025093 134.050461
-130.040100 -60.668034 164.764847
-146.437912 -58.441833 140.953033
-143.037994 -59.828720 144.003723
-144.392624 -59.706501 145.526718
-150.543671 -61.561779 143.039658
-132.813721 -60.907967 163.913757
-86.291252 -61.381283 251.666626
-137.621887 -62.563046 164.954224
-146.039917 -60.528446 160.900909
-151.585510 -61.394119 143.889008
-143.005341 -60.468849 149.358017
-149.829895 -60.292812 145.096039
-147.683365 -58.253490 154.521210
-147.328873 -61.172718 156.437042
-151.268433 -61.626991 157.079605
-148.702866 -58.602615 157.706909
-146.794479 -58.830559 160.551620
-152.959381 -62.091816 144.960327
-143.916641 -60.461182 166.242157
-97.726151 -60.285240 252.525772
-160.890396 -59.078022 144.730606
-150.118530 -59.223194 160.345200
-159.024277 -60.406300 146.740128
-150.707611 -62.615768 161.494705
-151.859711 -61.436131 166.015152
-150.575958 -59.235001 168.448257
-104.842613 -62.541897 246.300980
-107.384270 -60.816906 250.245468
-154.770966 -63.254379 171.765381
-145.572372 -60.611694 182.680283
-149.324158 -61.258011 172.553009
-151.645752 -60.720089 168.940796
-105.323761 -63.169125 252.307678
-145.288437 -60.712204 179.641861
-153.183090 -62.256733 174.752899
-153.510117 -59.639767 174.420288
-187.364243 -61.371418 120.181839
-104.439873 -61.840935 255.382599
-151.769913 -59.711285 178.157578
-158.168900 -61.472557 165.016815
-157.893967 -58.750187 164.263626
-105.350006 -61.789150 257.336456
-145.560883 -58.008175 191.672653
-142.863632 -57.200302 194.219955
-162.844727 -60.948818 164.077835
-176.323441 -60.377598 146.668304
-144.729874 -58.019165 199.879379
-150.242111 -60.465504 186.863495
-110.448143 -62.519390 260.134705
-165.013046 -57.997532 163.151367
-188.479340 -58.931263 122.221176
-110.211464 -62.462925 264.405457
-144.388809 -58.649780 203.604462
-149.028366 -61.697289 201.732651
-169.432678 -60.062294 162.677200
-195.226303 -62.000854 126.561989
-172.971741 -58.587116 159.477234
-182.401657 -60.189487 146.462173
-193.414398 -59.110699 126.958717
-182.386688 -59.652344 143.469086
-113.461143 -62.054371 270.087128
-199.508041 -62.002064 133.036255
-197.892349 -59.723042 128.207169
-197.303360 -60.951920 132.425217
-192.205307 -61.190567 142.633957
-203.727676 -60.435478 128.729187
-130.358124 -61.694450 260.155884
-124.622093 -62.863926 274.054779
-208.210556 -61.364826 131.968277
-125.611595 -61.177303 271.942963
-131.856094 -61.945797 263.169006
-127.497414 -59.465496 269.059143
-209.087601 -59.543144 136.436172
-209.775467 -59.517712 136.386322
-213.916031 -59.546921 132.408234
-211.025635 -60.572289 137.336685
-210.901657 -60.547707 134.173843
-213.365585 -59.523289 138.259430
-133.546906 -61.331093 279.075836
-135.059525 -62.187084 272.843140
-192.511200 -60.895683 179.107956
-213.631210 -61.588829 136.140640
-192.541229 -60.658077 181.725098
-191.021851 -58.970207 186.276245
-192.116837 -60.067406 180.760025
-188.514130 -58.592953 192.661301
-190.645935 -60.765102 187.022827
-220.785782 -59.930550 141.516785
-222.232971 -60.598679 138.115067
-191.270462 -58.854237 187.835846
-138.418747 -60.602562 281.723755
-140.473801 -61.662983 279.636841
-144.717529 -62.663212 281.308533
-228.703125 -60.201374 141.456940
-214.879990 -62.079403 158.561783
-151.221390 -61.562538 282.766418
-144.620621 -60.713516 286.221710
-231.455246 -59.575153 143.009827
-217.457748 -60.152893 164.857956
-218.039703 -60.374252 168.807373
-223.444824 -62.471626 168.248718
-158.699341 -62.540962 275.973663
-151.193222 -61.972485 285.342438
-148.576294 -59.108093 294.198456
-234.241592 -59.583031 143.704514
-154.158707 -61.292446 288.154724
-154.160965 -60.376945 292.881683
-156.622803 -65.090630 294.222229
-227.065277 -60.496964 172.134399
-244.121170 -58.269558 149.232224
-235.330688 -60.958027 168.526062
-244.059921 -61.294971 154.657394
-245.339523 -59.319702 163.168457
-246.755295 -60.316978 161.783646
-165.762558 -57.883297 299.889984
-246.920700 -59.017048 164.153763
-175.594788 -60.162830 295.670990
-177.971970 -59.210598 291.639160
-173.881546 -60.151436 301.822449
-184.847122 -56.968971 290.115540
-181.242722 -58.147694 294.682892
-180.601807 -60.888699 296.772766
-178.949860 -59.867214 299.316132
-180.779724 -60.607639 311.393677
-182.940720 -61.638168 301.559906
-183.525436 -60.696743 311.794556
-24.330183 -59.117691 119.508209
-26.350674 -57.826416 113.958878
-29.880199 -57.039471 106.253876
-26.029448 -57.995216 113.123932
-33.580421 -59.317692 100.555588
-29.552776 -60.435905 110.992661
-22.852448 -62.099884 120.397850
-35.099068 -58.583374 103.374695
-39.959782 -58.262863 95.345276
-21.341118 -60.446487 124.822922
-21.380884 -59.944832 128.308456
-37.071243 -59.210686 102.726273
-40.906593 -58.854988 93.317772
-22.897221 -58.829792 131.251724
-41.661926 -60.243458 96.733734
-24.006254 -60.333607 134.899643
-46.921814 -57.056526 92.566490
-50.819363 -57.144707 92.975479
-24.954315 -59.350662 140.645401
-53.944046 -60.059521 99.142632
-31.392450 -60.496853 144.201065
-51.859699 -58.517120 106.580688
-51.271805 -59.934048 108.347107
-52.712608 -59.519066 114.162254
-36.399273 -59.846905 149.671234
-54.338634 -60.128567 121.280151
-51.521374 -62.142452 152.365738
-112.078880 -59.337536 43.129322
-118.313507 -59.459888 41.021255
-52.321392 -58.843075 156.646698
-53.851273 -58.677631 160.219055
-121.141479 -59.151817 47.324795
-127.710297 -59.172268 59.020069
-123.967621 -58.158890 64.519516
-129.235092 -58.969959 56.770191
-123.949127 -57.783684 62.009754
-129.437210 -58.505474 69.479454
-134.361359 -60.889004 64.340103
-136.118073 -59.258579 67.835510
-137.335449 -59.787895 81.447975
-142.124176 -60.982956 74.530403
-135.630157 -59.955826 76.047989
-146.043900 -58.971748 77.957191
-103.634972 -59.758698 145.550720
-107.679756 -61.213573 144.845703
-145.996979 -62.498547 76.957016
-147.540344 -60.333946 84.117195
-112.113441 -59.238575 143.835449
-114.106827 -60.540413 140.195160
-148.179611 -60.067963 80.927719
-147.623001 -58.093098 87.289688
-119.609444 -60.955532 141.930344
-119.603630 -59.415573 150.495590
-141.963165 -61.687840 114.996857
-154.053436 -59.446320 91.121895
-112.220657 -61.221424 165.600357
-157.922501 -59.524441 90.269691
-112.941681 -59.918510 166.899384
-160.517181 -59.661121 98.340942
-142.736969 -58.036064 121.466270
-120.406868 -61.198978 164.282288
-144.889999 -59.457981 116.613594
-126.589996 -60.204792 149.486984
-143.244156 -60.018787 128.162277
-159.070847 -60.952686 96.354614
-142.668488 -61.747604 128.193207
-140.601028 -60.740715 142.591980
-123.293022 -59.469856 163.211502
-134.206940 -60.141708 148.307724
-123.754608 -57.043201 168.844681
-146.672684 -61.328979 125.819984
-138.970825 -60.975880 148.379562
-163.415512 -59.273788 99.419441
-148.336777 -59.288082 134.509567
-150.184601 -59.084877 140.726242
-130.189819 -61.084206 168.377502
-145.477661 -58.992275 148.827164
-169.517441 -59.255917 102.601463
-134.350189 -59.924313 162.664581
-134.915100 -60.894089 165.634705
-172.640610 -58.960865 106.844131
-86.684578 -58.361782 255.139938
-151.501633 -58.273983 145.582825
-150.198105 -59.941948 152.539017
-143.493912 -59.233177 166.745636
-136.589859 -57.815369 170.729614
-137.303329 -59.625820 171.725952
-149.133820 -60.483337 166.726425
-96.227432 -59.713097 255.219193
-171.395050 -57.160717 109.381737
-160.659027 -58.741623 144.037277
-95.174980 -61.111469 257.586212
-143.739975 -59.982025 169.258881
-150.103119 -59.226322 167.096527
-100.629242 -62.739799 250.626877
-146.743362 -60.561432 170.593491
-162.728012 -58.516243 142.917770
-95.431938 -57.343983 260.055756
-97.446144 -60.758865 257.738983
-156.109909 -60.266312 161.101517
-162.405136 -59.992924 145.802979
-167.509476 -58.918415 146.447479
-103.880013 -62.025845 253.008072
-144.802002 -59.431602 174.669159
-164.122238 -59.099834 150.479645
-148.996811 -59.826485 175.088608
-151.488785 -60.664967 167.623718
-146.753006 -57.946316 181.575211
-168.320313 -59.685352 145.862106
-145.695633 -59.731327 185.330017
-149.638962 -58.874653 185.264664
-104.872780 -62.422653 263.245422
-181.639038 -58.380665 121.900200
-149.754761 -60.975487 180.180481
-152.070251 -59.101311 183.030792
-165.263062 -58.067406 159.239319
-168.147171 -59.745258 145.686050
-146.696793 -57.944828 198.384735
-186.351990 -58.789673 117.106064
-151.572128 -57.912289 188.453018
-158.432343 -60.250397 162.143524
-141.651779 -59.697105 202.346115
-109.484848 -57.775143 263.910553
-109.918373 -60.245544 263.691010
-110.680016 -62.166210 262.662842
-169.042862 -59.350128 160.796722
-189.359726 -60.333805 126.828415
-151.842590 -59.798447 190.833755
-191.310822 -61.588047 122.734848
-149.135330 -59.296749 196.118729
-171.854675 -61.214668 160.971451
-148.788162 -59.177586 204.354294
-145.308044 -57.687965 206.406647
-174.804428 -57.444904 147.281296
-147.324539 -59.499912 205.061203
-187.646103 -59.092567 142.382401
-113.552368 -59.054516 264.063751
-177.566467 -60.990601 160.307297
-177.942612 -57.762081 157.600998
-199.319153 -57.776161 129.213608
-192.929642 -60.895432 131.413361
-196.807693 -59.645535 123.036522
-119.013374 -62.797691 271.862305
-191.416992 -59.619553 142.868088
-187.216446 -61.057896 147.535812
-120.845825 -58.301647 276.596924
-201.815216 -59.025276 137.279526
-201.755646 -58.918510 132.616699
-123.556938 -62.307434 270.850189
-120.053764 -58.159058 271.596222
-193.791763 -61.140869 146.415604
-205.740829 -59.735569 124.925285
-128.753326 -59.190784 258.913666
-130.793655 -62.344517 261.917999
-210.609650 -59.685513 130.623169
-207.279800 -59.588367 134.053131
-122.844666 -58.514885 277.976166
-204.874588 -59.583019 131.478790
-200.261932 -59.846039 144.156006
-130.627136 -60.459450 271.832977
-195.459564 -60.647217 143.311798
-210.356171 -58.111000 136.790359
-215.708008 -56.704311 134.055237
-193.299362 -58.365067 175.054581
-136.819473 -57.948551 277.371124
-187.992004 -62.030155 183.914032
-194.880646 -58.793159 168.879486
-186.017365 -57.906013 188.425079
-186.963684 -58.997482 188.378891
-193.493057 -58.022587 176.430359
-221.238083 -58.659397 130.540100
-188.776031 -61.174099 190.416153
-216.381287 -60.461113 140.744644
-185.628616 -60.962101 196.066772
-212.238022 -61.894047 144.586960
-217.836609 -62.674946 144.072479
-189.563385 -59.694351 192.937637
-192.604340 -59.380184 188.498428
-214.451111 -59.578957 135.196945
-185.825073 -58.667442 198.998566
-224.874802 -60.874592 135.344696
-217.687378 -60.331738 145.783768
-141.128525 -59.314148 278.365204
-214.853836 -58.830185 153.374695
-217.636826 -59.298481 149.491074
-224.436371 -57.195507 137.092896
-216.521286 -61.274555 155.881165
-222.208420 -61.742153 144.801361
-144.701965 -58.110832 287.893280
-159.089722 -59.888805 273.934937
-149.995529 -63.864803 289.490601
-154.677170 -61.233711 285.650299
-152.276703 -60.431591 294.139404
-156.874359 -58.279312 290.947510
-238.843552 -57.861797 146.392090
-225.480392 -59.571251 172.429047
-224.867111 -57.472980 171.408691
-158.104141 -60.517063 296.666351
-160.937622 -59.593632 295.651733
-230.593628 -58.404560 170.457596
-234.933380 -60.953342 173.763092
-163.801163 -57.482491 296.117676
-165.710114 -61.909054 294.765076
-166.502701 -59.532551 297.681854
-168.601135 -60.479443 301.239014
-169.391846 -59.624622 308.018250
-174.432266 -60.844105 302.141663
-181.857117 -60.637707 290.704254
-176.130081 -60.124287 302.214294
-175.022797 -60.589508 305.259644
-177.678085 -64.667702 301.858826
-181.023071 -59.443375 305.862610
-179.800278 -62.232601 306.314331
-182.128296 -57.364090 305.421417
-185.292542 -58.453590 311.120056
-187.388123 -57.199406 311.546967
-186.655609 -60.933655 306.955139
-187.744797 -60.132557 310.111481
-25.949955 -58.621418 104.028503
-22.446445 -57.718735 108.537842
-24.503515 -56.248425 112.408379
-29.524712 -59.945316 100.390472
-18.194483 -57.980640 116.243370
-31.381842 -58.860420 102.535904
-20.816797 -58.750114 121.586296
-28.388300 -58.675358 106.485878
-33.794968 -57.452385 97.773438
-34.756836 -59.315388 97.290291
-43.538933 -57.403152 91.483925
-18.605097 -58.279594 127.909042
-41.062065 -58.480820 93.455040
-22.335541 -58.442116 129.868195
-41.430901 -58.927792 94.336739
-46.117805 -60.537956 88.438965
-47.946331 -57.759048 88.909317
-54.871964 -61.812416 98.078804
-52.300846 -60.036720 117.096046
-38.495472 -59.586823 151.093292
-50.706585 -59.039455 130.383499
-43.859886 -62.465206 156.829727
-115.043510 -58.600773 40.386635
-51.960136 -61.167488 149.942398
-114.997345 -60.664162 48.379135
-116.159966 -58.958393 52.378620
-51.693539 -59.164345 163.998169
-120.935257 -57.868607 52.551861
-117.283501 -59.569710 57.614235
-120.614647 -59.613258 50.104454
-123.406425 -59.066147 54.412491
-123.759666 -59.422405 51.298920
-128.865631 -58.786255 55.300434
-125.475639 -61.270973 61.163223
-130.988373 -57.774418 61.487785
-130.522705 -57.431702 63.414173
-131.409943 -58.072472 66.811768
-134.270126 -57.324486 74.325333
-134.705490 -58.881439 72.802040
-133.675369 -60.894180 68.696434
-137.185944 -59.015808 68.799660
-137.144272 -58.037449 73.528969
-140.291031 -59.612316 74.073669
-141.017563 -55.497925 76.891678
-105.898216 -58.446159 145.287979
-109.008438 -60.821377 140.951767
-145.902206 -59.757980 87.392799
-142.440918 -60.095501 78.783638
-102.294548 -56.862789 149.090042
-107.616470 -59.989243 148.114487
-143.417099 -59.648922 81.147903
-146.687073 -60.759804 78.603134
-108.408401 -59.393658 147.502396
-152.080887 -59.773426 89.130142
-102.578232 -60.078480 166.522034
-116.678139 -58.688366 140.885162
-150.396439 -56.332432 85.554840
-107.886971 -57.007736 164.861069
-109.032242 -58.195694 162.944260
-116.753494 -56.803207 146.055786
-123.080322 -59.683525 143.684998
-149.980820 -60.201267 84.026962
-155.139343 -59.159969 81.103073
-141.389618 -59.093540 112.975182
-124.316978 -59.483067 142.264221
-141.941803 -58.848690 119.532051
-153.669708 -58.568687 88.614227
-141.322266 -63.714573 121.736755
-114.152725 -58.842964 164.845383
-124.626907 -57.170044 149.567551
-152.644302 -57.843174 89.238335
-127.687523 -56.089462 144.261414
-131.430496 -58.846718 141.568588
-135.054916 -56.254993 146.747269
-162.589203 -58.115780 91.380951
-116.596123 -57.778954 169.340317
-149.839706 -58.881996 121.601624
-132.185440 -57.379627 150.568039
-123.509323 -58.861610 164.782211
-123.273598 -59.138584 165.857483
-139.417084 -59.890530 139.809479
-162.823364 -58.583916 93.551025
-125.101913 -57.864998 172.014771
-147.138596 -59.213348 135.686920
-128.589523 -58.134514 167.192780
-138.767105 -57.009800 145.996964
-143.712540 -57.654659 141.768784
-145.177460 -58.442532 140.571838
-147.829498 -59.283237 137.559677
-166.167816 -60.759621 99.218094
-143.520706 -56.875938 141.852264
-134.343063 -58.968456 163.954712
-138.513855 -58.865742 151.178299
-142.449753 -59.491390 145.821487
-132.695618 -58.248001 166.988220
-168.927109 -58.875637 105.380905
-139.082550 -58.813541 160.711823
-148.151520 -59.093849 147.843765
-148.462387 -58.569439 143.010422
-137.847595 -57.404434 168.437149
-147.008820 -59.898476 162.640686
-148.343185 -58.472946 148.990173
-137.602264 -59.670204 163.986664
-144.378036 -57.333038 164.137604
-174.333282 -58.003735 108.936302
-99.280724 -59.892113 251.827576
-152.035309 -58.758347 144.688095
-158.960205 -59.795544 148.097900
-104.283562 -61.649666 244.291107
-158.214691 -59.723415 149.457809
-97.928581 -60.851280 255.781891
-96.150078 -61.984329 259.706970
-103.854240 -62.314091 245.358749
-181.015472 -60.261684 110.988258
-106.420410 -58.294632 243.047134
-184.938934 -56.874352 114.270287
-163.153275 -59.071022 146.738754
-159.771698 -58.648041 144.825760
-151.485611 -59.427238 162.803207
-177.704620 -59.143803 114.250381
-99.804085 -59.290043 262.859039
-103.486588 -59.212769 251.216049
-168.023163 -59.653198 139.685104
-159.739685 -58.809322 159.467667
-103.094864 -60.085285 263.463348
-161.501587 -58.224903 163.869720
-146.935699 -58.643379 189.233994
-158.578964 -57.466995 163.466324
-146.381836 -56.781654 192.284836
-149.431198 -57.229015 189.547852
-183.844498 -58.144707 123.099464
-190.420532 -58.085636 118.583153
-145.427460 -59.032375 206.537430
-167.146545 -57.129261 161.384872
-168.298340 -58.837566 159.155853
-163.756180 -58.473221 166.067307
-188.065277 -59.254269 122.891907
-143.805161 -58.403278 211.815552
-170.600281 -59.990467 165.173813
-175.527756 -58.198360 148.500717
-183.589493 -58.277088 145.493164
-172.934967 -58.039871 155.154892
-193.153610 -57.764698 128.428574
-147.414978 -57.760532 207.066391
-142.820160 -56.914036 214.152283
-145.581680 -58.666531 208.421402
-193.147339 -60.689610 126.681427
-113.994926 -61.300175 264.828949
-182.281937 -56.997070 144.578751
-183.224960 -58.570850 142.717834
-182.614441 -61.032726 147.436981
-195.118652 -59.018326 128.634872
-199.621582 -59.178616 129.416733
-191.897491 -58.894264 145.396912
-199.731171 -58.352501 132.951462
-200.869598 -57.567207 138.478104
-207.866226 -57.493855 131.963760
-126.315926 -61.014858 266.735657
-194.621201 -60.282822 140.406372
-192.995621 -59.724346 149.459625
-129.016251 -57.047089 261.637695
-199.403656 -59.364792 138.314758
-124.370773 -59.640366 273.597290
-126.931747 -59.285885 270.869354
-210.799438 -60.157421 129.331848
-202.003769 -57.948154 138.562973
-199.261078 -57.203064 148.882462
-205.709305 -59.585533 147.872009
-211.586136 -59.167843 143.913208
-192.640991 -58.306602 171.752213
-195.051193 -57.698429 169.396774
-188.237000 -56.652477 182.170624
-133.204926 -59.240429 279.547272
-137.046494 -62.313389 278.050415
-135.612885 -59.397690 279.234833
-196.880722 -59.073357 172.045731
-213.543869 -57.162556 140.891998
-194.999374 -59.094875 177.917343
-215.429825 -57.662563 133.340210
-193.804184 -58.039982 182.570328
-184.414566 -59.010933 196.824020
-190.982132 -59.045963 192.692276
-217.939697 -58.479618 145.023239
-183.907562 -57.269588 199.446060
-186.630219 -57.370087 196.010162
-139.404266 -60.130676 277.733215
-181.293976 -55.418530 202.750183
-186.768158 -62.252998 202.188965
-225.172150 -58.684429 135.389420
-210.262970 -56.169910 155.515457
-213.599518 -60.696957 158.548187
-222.153290 -58.240295 141.876785
-218.408386 -59.861908 168.610016
-153.103470 -61.229061 279.897125
-153.177338 -58.994225 277.360291
-150.072922 -63.861984 284.366882
-155.437546 -59.650692 275.863770
-147.273148 -58.991020 294.129303
-235.277679 -58.145809 142.285889
-156.976410 -59.952835 279.096863
-154.549866 -55.749134 285.361023
-158.938934 -58.332424 279.787109
-235.497742 -59.910198 144.966202
-220.883057 -58.751030 170.693390
-240.227997 -58.214741 144.087509
-162.052719 -62.075527 290.266937
-243.747406 -59.882008 151.096588
-161.624893 -60.320328 294.945740
-248.530472 -56.195709 154.511154
-240.878204 -60.101772 170.390808
-249.578506 -56.319206 159.350327
-245.174866 -60.456276 168.628204
-172.196609 -58.280552 297.238831
-249.218246 -57.982880 168.838882
-169.459229 -59.721928 304.633301
-175.752319 -59.902912 297.977386
-177.938354 -59.374676 296.984741
-235.036224 -58.201092 201.310577
-181.644608 -58.942261 292.173645
-234.190552 -59.619778 202.043198
-240.304672 -59.741940 190.520844
-176.765442 -60.543293 303.106049
-183.285858 -58.800167 293.256989
-241.908173 -58.259899 191.852692
-180.749130 -60.503895 299.311920
-260.188202 -59.990406 162.653198
-175.883545 -60.098434 309.763519
-181.760971 -60.349548 307.625702
-190.245911 -60.108490 311.222015
-193.254578 -57.638607 316.751465
-196.298981 -61.939724 314.580292
-18.845671 -56.649677 112.125763
-25.921062 -57.160892 103.805267
-23.507759 -59.516678 108.214821
-24.418276 -59.932049 104.552353
-28.536386 -58.884365 98.094490
-17.681517 -58.741398 119.191292
-34.482880 -56.113022 92.979462
-15.123297 -58.870243 123.491516
-31.041306 -57.911484 97.084618
-16.840082 -56.005875 130.570251
-21.333860 -58.479401 135.943817
-46.801136 -55.199272 85.690300
-47.152210 -57.751846 88.436958
-51.066444 -57.613625 89.928719
-24.115120 -56.416710 140.353577
-53.494301 -58.925930 89.874130
-52.713573 -62.107708 94.444023
-116.268112 -56.327427 -7.407233
-51.942272 -56.065395 100.955490
-114.007568 -58.746559 -2.932915
-114.351143 -57.002003 0.007948
-120.686127 -56.719555 -3.491254
-112.555077 -56.539715 9.311420
-30.453613 -58.087116 148.768295
-114.601280 -57.704567 6.334061
-118.158241 -57.256939 -0.553480
-119.766808 -56.830902 -1.309053
-117.736755 -56.972012 2.371075
-116.640366 -58.430096 6.933741
-121.395248 -58.532703 2.744160
-120.328568 -58.302753 6.185698
-125.450676 -55.160282 -3.247450
-34.562309 -53.586826 158.064728
-51.222355 -54.174500 135.171097
-109.252693 -57.502373 36.741844
-111.061859 -58.699005 38.594795
-114.171051 -57.620899 34.415886
-112.113594 -57.878834 38.963280
-116.509026 -58.184692 38.904350
-117.299507 -55.879414 39.143639
-113.693359 -56.805859 42.834190
-116.594444 -58.049053 45.268543
-117.615555 -58.651165 51.403870
-56.506607 -58.623356 163.224762
-117.091393 -59.151310 49.698597
-122.592072 -56.622555 48.012211
-120.176735 -57.658718 54.681950
-119.859917 -59.425888 48.149017
-123.977295 -56.648998 64.487434
-126.930153 -59.485111 52.058781
-125.817047 -59.470886 66.450233
-128.313538 -57.549572 59.339485
-128.184525 -57.188251 68.736412
-132.488297 -57.473610 79.831741
-139.851532 -54.438904 85.657776
-142.729782 -56.421944 74.000771
-136.863113 -58.513630 75.230446
-97.961411 -57.308067 147.577927
-141.426056 -58.227959 81.666481
-107.377686 -56.105099 144.916428
-107.228096 -56.228817 150.063522
-98.895088 -56.884953 165.662033
-107.885788 -57.328659 145.414810
-112.023804 -59.120605 143.294891
-115.954819 -59.487648 150.853531
-151.020035 -56.929268 78.446480
-147.294037 -56.750793 85.525795
-148.415466 -58.607380 79.901695
-152.695953 -56.314049 88.186729
-104.703949 -59.601711 167.824600
-120.314964 -57.783737 142.233444
-110.487320 -55.787613 168.068726
-121.319504 -56.423653 139.197800
-140.930389 -57.781006 109.587822
-112.942047 -57.666500 148.314468
-143.643097 -59.100723 106.209175
-146.810699 -56.950920 88.714714
-113.310349 -58.924309 162.760925
-157.214066 -58.318943 83.785881
-114.826538 -56.228046 166.680618
-158.935883 -57.764160 91.960457
-158.322495 -56.606400 96.653381
-122.798912 -59.296677 150.077805
-139.570435 -55.738037 120.280960
-142.659760 -58.092136 122.200386
-147.275848 -55.350067 112.674278
-115.893021 -58.093693 164.206696
-198.924362 -57.597572 16.011061
-115.989944 -56.979282 167.015869
-145.824295 -59.089577 118.160126
-162.400223 -58.381832 90.334869
-120.403877 -56.770630 167.217194
-127.006958 -58.575413 152.425827
-127.634720 -57.549721 143.621231
-131.156143 -57.935192 147.126282
-158.166534 -59.301949 94.347893
-160.178589 -57.744926 93.082077
-144.045486 -59.155563 132.730331
-149.211197 -57.535389 125.250504
-122.624962 -57.842255 167.795319
-135.829926 -58.186489 147.081970
-119.617195 -59.068035 169.054626
-210.244965 -58.709900 27.752104
-160.927628 -57.670029 101.384727
-149.811050 -59.152714 131.797760
-127.915489 -58.949596 162.341965
-139.851868 -58.017757 144.358215
-133.688812 -54.123085 164.508621
-146.328049 -57.436882 137.739960
-207.809982 -58.284496 21.457478
-130.278244 -60.559944 161.765717
-163.243118 -57.628357 98.470169
-169.917099 -57.612549 107.511246
-166.477982 -57.859055 96.603859
-127.410980 -56.920498 167.810883
-149.317505 -57.493279 141.288467
-212.373932 -56.680248 26.277029
-130.139359 -55.558586 165.272781
-140.735245 -56.968811 147.319672
-144.193390 -56.774033 149.614578
-167.952621 -57.507717 108.922951
-141.709259 -60.480728 150.675095
-150.094406 -57.435551 145.370392
-87.128723 -56.172272 250.438889
-140.783798 -55.351513 166.162064
-134.983932 -57.688034 167.706802
-135.384705 -58.342060 166.040070
-151.583252 -58.471657 140.455399
-173.444443 -55.728382 102.106812
-88.550827 -56.382008 253.773514
-140.252289 -56.576149 169.153625
-172.875198 -55.862099 108.486534
-217.562958 -57.954502 36.185181
-90.255798 -57.440857 256.748535
-139.272766 -54.177765 171.844284
-148.528076 -58.847202 160.430923
-176.509308 -59.829304 116.990845
-179.966644 -59.038338 108.942238
-97.730125 -59.214653 249.809433
-139.591293 -56.073586 165.124451
-156.822006 -59.361374 143.917786
-222.074356 -56.435974 37.609863
-219.968185 -57.289474 37.415916
-147.040833 -56.836430 165.845444
-158.027527 -56.620312 143.533554
-144.371704 -57.228767 167.057266
-97.009293 -59.671669 255.672775
-150.168991 -57.861122 167.548660
-99.261894 -61.023701 253.422653
-159.873367 -56.404442 147.976639
-152.076630 -60.964062 161.284149
-179.691040 -58.911987 114.362885
-225.528671 -56.938465 48.260231
-105.580956 -57.115837 249.234283
-165.859818 -56.181362 145.917465
-152.608017 -59.272915 164.442886
-219.614166 -57.019699 40.209515
-182.408676 -56.206558 118.660614
-159.525589 -59.205639 163.897446
-167.774704 -56.310841 149.887314
-168.548187 -58.659866 146.202332
-182.332291 -57.408215 118.322250
-225.072403 -57.613056 50.505596
-180.772141 -56.951809 123.396736
-157.260880 -57.939987 162.243988
-226.693787 -57.269718 47.917717
-175.675323 -61.039852 142.972183
-172.893738 -58.543373 144.419861
-160.111023 -57.423679 170.609695
-181.119766 -57.878071 142.461136
-185.455231 -56.532192 125.953102
-183.615509 -56.357780 123.381729
-144.117645 -56.955292 196.479797
-147.463226 -57.512535 193.564407
-148.457001 -57.396420 191.752380
-190.469620 -57.928085 122.594727
-145.373642 -56.111439 192.890610
-142.055908 -60.910114 205.468872
-165.436646 -56.740013 162.876328
-109.448807 -59.180172 260.737579
-163.748688 -55.696735 167.952652
-110.543732 -57.049892 263.592896
-228.861649 -58.390915 52.401806
-189.741440 -53.923477 117.094948
-142.538528 -58.407539 210.302826
-150.819931 -57.377327 198.359451
-142.619064 -57.008213 212.239563
-166.485458 -57.992306 167.274170
-165.028473 -55.424747 162.447891
-177.321640 -56.519981 143.789337
-189.766083 -55.712643 132.474701
-178.473740 -58.156925 155.569122
-173.156372 -58.102913 162.042068
-141.730667 -56.107189 219.518021
-114.638580 -59.224739 262.820068
-145.821793 -56.067177 208.966141
-141.553940 -57.048161 215.962448
-144.255844 -57.688671 212.103928
-191.058411 -58.280487 127.951012
-112.792625 -57.663387 269.493591
-174.739868 -57.191193 162.909805
-178.659683 -57.783512 147.845627
-193.968262 -57.985142 135.182281
-118.223511 -58.660004 265.156281
-178.384827 -60.489796 159.585251
-196.819305 -58.344269 133.534546
-204.055298 -56.439255 128.447235
-188.540573 -56.839386 145.753250
-181.551819 -58.304001 158.762466
-190.026871 -57.511837 142.476288
-188.535278 -58.010315 141.754272
-198.355133 -58.011902 128.014130
-118.410057 -58.962193 274.179810
-123.846992 -58.036514 265.266815
-183.340118 -56.488346 158.103729
-130.574860 -56.614017 262.201813
-193.881134 -56.912548 148.193619
-188.266602 -57.639397 154.597702
-125.248825 -57.621368 271.122925
-209.302582 -58.539162 129.500702
-122.398239 -60.329880 273.182678
-197.323669 -57.988106 143.176422
-134.863281 -59.980106 262.392487
-205.405838 -58.208508 139.084305
-205.541000 -58.406528 143.879517
-212.879990 -60.457069 132.122269
-199.101456 -58.408916 143.894302
-205.045212 -55.455025 144.010788
-205.865158 -60.038685 138.061798
-128.254196 -56.125725 276.851379
-206.997162 -57.797642 142.005859
-196.600845 -57.859596 165.433121
-189.322113 -59.246380 175.753006
-209.725189 -56.427521 141.970123
-187.766006 -58.018684 181.417328
-205.313599 -58.377872 150.444763
-219.695786 -57.333626 133.576614
-198.928116 -56.464680 163.770782
-208.586975 -59.992874 144.047943
-183.768005 -56.950562 196.305511
-135.216980 -57.807190 279.815369
-193.580215 -57.749718 187.373474
-136.764862 -58.159897 280.910400
-217.006195 -59.683590 141.929871
-216.779587 -61.382725 150.948608
-140.467285 -55.886726 284.412689
-221.151703 -59.061649 144.416000
-224.446838 -54.874664 135.705048
-189.758392 -58.523296 196.513748
-181.751099 -57.587196 208.848877
-180.354431 -56.817959 208.373169
-185.066666 -58.383984 204.614624
-180.814362 -57.759678 210.539612
-186.068207 -58.250416 208.222717
-183.125320 -55.790043 209.732101
-212.489777 -58.798901 164.800629
-147.301666 -62.342201 281.712219
-227.187439 -56.661877 140.582779
-149.124954 -59.020874 281.768066
-142.758118 -60.632610 289.906403
-146.351746 -59.942051 293.276886
-148.134506 -63.552406 288.332703
-151.610596 -59.653122 286.404205
-152.342331 -57.593719 282.230133
-155.078430 -57.570480 278.124115
-156.313614 -57.788338 278.737976
-218.048187 -59.015068 168.625565
-154.537567 -58.806160 284.593964
-157.483154 -59.099659 285.259888
-224.457382 -59.334518 171.429428
-160.954163 -56.765930 294.189209
-166.534866 -58.840981 297.117950
-172.266174 -59.437790 299.588318
-170.328720 -58.128830 300.062988
-243.606262 -59.608624 173.050491
-250.185226 -58.197151 162.567215
-175.450592 -57.002174 295.576813
-234.398163 -57.414421 201.236053
-237.180298 -56.241905 197.744064
-225.879456 -57.813595 217.503601
-238.428986 -59.202545 194.324783
-232.383408 -57.359554 203.469528
-241.846313 -57.516178 189.735443
-168.966583 -60.969173 310.707428
-231.221481 -59.377380 204.453918
-246.915756 -56.020111 180.456573
-254.140076 -58.088680 168.698685
-184.130920 -57.193153 289.170685
-222.906601 -57.603268 222.508469
-189.994507 -57.266121 285.907257
-260.525513 -58.020943 160.749695
-185.449341 -57.871216 282.348511
-224.305832 -58.571476 217.438477
-254.864990 -57.287338 166.574982
-187.778992 -54.938637 286.473907
-233.134460 -58.090748 209.522263
-238.748352 -58.285431 193.432236
-244.143066 -56.955887 186.827957
-233.689529 -56.817532 209.787582
-236.002243 -59.970928 203.162308
-250.114822 -57.286869 178.625687
-254.184540 -58.137447 170.866852
-246.851929 -57.621971 184.835480
-180.604813 -61.333786 301.235077
-255.272629 -57.543365 167.244034
-187.173080 -59.905357 310.958862
-186.835648 -58.125130 308.301697
-192.215988 -58.237297 315.074463
-192.226273 -56.708263 316.006561
-197.061798 -58.320038 312.871582
-18.786777 -54.883343 110.188065
-24.705647 -56.845375 100.650146
-21.417618 -58.315010 104.023285
-16.708185 -55.787888 114.693817
-30.249340 -57.018349 96.311638
-32.249081 -59.398434 92.725517
-36.247089 -55.097878 90.884819
-45.983677 -56.836651 84.295357
-15.899126 -58.346127 134.929367
-49.276707 -54.775360 84.313835
-50.246887 -58.558796 86.559914
-52.490654 -57.060993 94.245216
-108.712769 -55.107964 0.137623
-105.937836 -56.401348 0.021336
-49.028809 -55.610363 101.837227
-24.594854 -57.658489 144.938293
-112.667267 -59.269840 -0.719330
-115.460579 -57.840405 -6.960721
-111.272850 -54.777920 -1.743348
-52.417049 -56.597111 109.502090
-52.506004 -58.551151 116.893135
-121.164810 -54.978455 -6.404685
-28.471382 -56.944786 151.352219
-120.918922 -57.070107 -6.555233
-123.823845 -56.520798 -8.067227
-117.937286 -56.000568 12.093793
-118.755287 -55.979088 7.384408
-51.081722 -59.839195 129.248627
-121.367798 -56.258923 4.551112
-123.053413 -58.071495 7.253324
-124.192703 -58.076141 0.284743
-51.860947 -58.442009 134.484177
-109.955383 -55.762241 31.930546
-52.109467 -54.635166 143.004288
-113.565750 -58.434536 38.917297
-112.794220 -57.634071 40.321609
-113.354530 -59.032726 47.151634
-114.753746 -55.134823 49.881184
-117.746750 -57.493816 41.603485
-50.130783 -56.937325 164.745453
