# This PCD file was generated using the MATLAB® pcwrite function
# from Computer Vision Toolbox®.
# .PCD v.7 - Point Cloud Data file format
VERSION .7
FIELDS x y z
SIZE 4 4 4
TYPE F F F
COUNT 1 1 1
WIDTH 1418
HEIGHT 1
VIEWPOINT 0 0 0 1 0 0 0
POINTS 1418
DATA ascii
-155.368820 -57.669853 139.966568
-158.779053 -62.967918 147.775513
-101.515160 -64.153023 244.587097
-157.893555 -60.587959 146.688553
-97.934738 -56.533379 256.003540
-97.419754 -57.539425 259.589966
-100.861343 -60.390499 246.982422
-174.526367 -58.920387 118.351730
-99.505760 -55.992138 249.201248
-184.864380 -53.321743 115.453667
-158.850250 -61.286995 147.454224
-161.807739 -58.617344 144.461197
-152.389725 -60.896095 165.583710
-176.917664 -58.920452 113.555748
-98.824524 -55.828331 262.661591
-105.902428 -57.400421 255.646454
-165.270996 -59.152458 143.514328
-158.174118 -60.995762 160.861404
-102.410889 -60.058144 260.186523
-162.327393 -60.887569 160.550507
-143.462570 -62.924171 195.441925
-155.406693 -60.347099 162.678665
-143.708847 -59.078255 193.160370
-146.606400 -55.639977 189.416153
-185.106049 -61.845970 123.079422
-180.356216 -58.745827 123.945755
-142.207413 -64.004646 202.611237
-168.132034 -58.416630 161.839584
-168.767548 -56.132813 160.137314
-162.785767 -61.533035 162.238678
-185.721588 -60.693356 124.894653
-147.384537 -56.038418 205.628876
-176.373245 -60.107513 162.641800
-174.592728 -56.541798 146.469238
-184.511429 -58.456360 147.866806
-172.602707 -52.219570 154.946564
-193.179520 -56.320522 121.457649
-143.967270 -59.090534 206.033661
-145.073441 -56.104645 217.673737
-145.507614 -59.539700 206.016022
-193.884628 -59.846581 120.567223
-117.100647 -59.502022 265.667175
-182.184448 -58.164932 145.331512
-185.371750 -53.983170 140.390350
-188.053329 -59.017658 146.197693
-195.585449 -63.781906 129.237228
-198.777328 -59.994671 128.134857
-193.604156 -57.243050 143.932877
-200.972015 -59.724976 135.332321
-198.394699 -60.417252 139.136093
-208.194534 -58.691677 129.377808
-126.504456 -57.209805 262.843353
-191.927124 -59.495747 142.811646
-193.058136 -59.640572 145.523865
-132.201080 -56.370110 260.153992
-205.458664 -58.860653 139.420486
-127.290321 -58.495743 276.907928
-123.157051 -62.960117 268.932800
-208.494278 -57.143555 131.106262
-204.808762 -58.599094 135.529831
-201.552429 -57.331398 149.439529
-207.642487 -60.214447 143.773178
-209.389801 -56.564667 144.530746
-192.998840 -59.361691 174.481461
-199.875076 -58.724621 170.126648
-186.018417 -62.341286 180.594543
-130.690018 -56.627491 281.225250
-131.715179 -63.615894 276.903046
-134.668503 -60.676132 278.485687
-198.990143 -60.602581 172.568802
-217.787766 -59.573540 143.367889
-196.010574 -63.786430 178.983459
-212.251175 -61.412739 130.583038
-192.312241 -61.426479 179.754333
-181.090256 -60.082474 197.769852
-188.726257 -63.360806 193.171997
-215.951569 -58.792805 148.976563
-185.072189 -59.086452 200.506454
-189.858566 -60.385853 196.501816
-140.858109 -63.596386 281.048431
-179.661774 -55.372784 205.541245
-185.876495 -60.751606 204.947052
-228.455002 -56.348946 138.458755
-212.499344 -56.471138 160.809723
-215.422989 -56.669575 157.161880
-223.617386 -60.363029 141.161835
-218.053207 -59.329830 165.053192
-151.257980 -59.019989 289.612396
-152.642349 -64.145554 277.875122
-152.352768 -62.656658 288.826874
-159.101700 -54.615200 271.459930
-147.507294 -58.819687 291.824188
-236.154785 -57.791168 142.921387
-158.795364 -54.918354 278.303497
-156.084167 -55.928200 285.053925
-157.658615 -62.552845 278.658752
-238.306580 -57.423920 146.737610
-217.084793 -62.529560 166.253021
-239.826706 -55.010166 147.843033
-161.545639 -60.117199 291.519287
-247.832123 -59.487118 148.936935
-162.075226 -56.674168 292.927155
-250.030426 -60.256073 159.458893
-242.568085 -61.215488 170.411469
-249.427002 -56.297249 157.436569
-245.311035 -58.994453 166.910538
-169.363052 -60.313698 291.988525
-243.848618 -57.109119 163.846832
-173.552704 -62.889385 304.845642
-176.311066 -60.276306 294.534180
-175.803391 -58.970551 300.479218
-238.522461 -59.607204 201.749710
-183.842926 -56.749702 297.049530
-234.798309 -59.997204 202.054764
-237.811020 -56.307343 189.285019
-178.500473 -61.727028 304.359344
-184.920990 -51.656544 294.000366
-240.157837 -59.353455 189.893402
-180.745148 -57.726837 298.094452
-263.057953 -57.199482 163.523758
-173.753479 -56.771519 310.258423
-182.572266 -54.985313 304.642181
-191.694443 -60.802017 310.487488
-189.539413 -57.822357 318.588745
-193.011658 -53.951199 319.200500
-21.388105 -56.593029 110.063019
-24.567789 -60.887665 106.226288
-25.635992 -57.424446 112.574081
-22.905848 -52.928886 103.183090
-25.915857 -57.628830 95.193321
-13.783721 -62.049763 120.486694
-32.575356 -54.809460 95.303116
-14.680663 -57.203804 124.508530
-33.932465 -56.114822 96.508331
-20.939951 -61.550911 131.150253
-25.084156 -60.587086 133.072525
-47.174099 -58.708916 85.604568
-45.225864 -58.253067 86.703674
-49.987301 -62.089035 84.508850
-24.255581 -62.700542 140.409103
-52.190277 -60.044846 89.565704
-51.814610 -54.755787 97.070969
-111.607025 -57.071823 -5.005498
-55.536930 -58.472511 102.343414
-118.992622 -53.544846 -2.967588
-117.553879 -56.079414 3.023912
-116.786667 -52.344788 -4.022570
-110.059174 -57.826607 10.779015
-32.157627 -58.044243 145.674988
-111.964699 -57.227032 6.597957
-115.426056 -55.022228 0.390001
-119.505600 -58.429810 4.103076
-121.339485 -56.185814 6.577723
-117.518509 -57.717224 5.650189
-120.232384 -55.144070 3.443590
-119.974960 -59.762413 5.516616
-121.403404 -58.633762 -5.755805
-34.252682 -55.676186 157.538498
-51.803238 -57.793819 131.551666
-109.485313 -56.709881 35.185047
-111.310387 -58.824299 35.584812
-119.488541 -56.760170 35.654530
-111.331352 -55.019821 39.143578
-115.750969 -57.977543 38.691143
-117.069160 -59.090092 42.159363
-112.134415 -57.641052 45.378315
-118.327019 -57.719994 44.811169
-116.497154 -57.481281 52.235794
-52.882439 -58.871094 164.309021
-120.723358 -61.001842 48.264069
-127.536270 -55.826542 50.204102
-118.428764 -57.611687 48.356224
-119.806725 -57.989613 48.416912
-122.459351 -58.713020 61.485405
-125.704674 -59.345619 52.641327
-126.995239 -57.151352 69.339188
-127.620071 -59.481323 53.616100
-128.255920 -53.407925 67.257973
-137.976318 -57.341354 77.826836
-142.755646 -52.233425 85.551643
-140.982300 -57.806789 76.198715
-138.445480 -56.733257 75.104904
-98.391678 -61.124935 148.534668
-141.977463 -56.683132 81.958145
-105.717491 -62.243191 144.707001
-113.136063 -56.802052 151.315796
-99.736717 -57.186867 163.359207
-105.657051 -58.708286 144.827927
-111.691429 -58.970940 140.440094
-110.001923 -58.857662 148.751694
-147.086380 -59.113865 77.077850
-151.960052 -58.579205 84.035263
-151.072098 -59.904606 81.684456
-153.731995 -60.138802 94.221252
-103.549149 -55.156498 166.312973
-122.781830 -64.389618 142.356918
-115.275490 -57.581619 170.953110
-124.015625 -58.090199 142.065506
-139.337296 -57.330807 108.881081
-112.066292 -54.948605 149.408127
-145.023727 -56.013752 106.706093
-149.724289 -61.579636 86.977501
-109.111610 -58.513271 166.026505
-153.274582 -58.622475 79.397758
-110.966537 -57.760353 165.594498
-159.953781 -55.185520 93.970459
-159.058685 -56.670269 91.941086
-116.609787 -58.076298 151.963440
-142.345016 -58.707634 123.153137
-144.359512 -55.112907 121.981140
-146.879883 -56.555065 111.683426
-118.894150 -54.647118 161.182144
-202.530594 -55.943974 18.397060
-112.168282 -59.618782 167.848740
-149.993256 -54.396572 117.533646
-165.629929 -57.623356 90.876640
-121.884132 -58.480988 165.713242
-132.246216 -53.259281 151.612289
-128.583984 -60.762367 145.308624
-132.104462 -54.348106 145.266357
-160.855499 -57.036167 95.501770
-158.602127 -57.867279 94.708267
-143.167786 -59.776302 130.174500
-146.565613 -57.115219 125.683388
-120.536682 -59.898495 166.222412
-139.183792 -59.373989 151.904205
-116.768227 -56.496059 167.284775
-212.902588 -56.445141 27.593323
-159.416336 -58.540344 100.640984
-140.696335 -59.391148 130.309006
-126.743599 -60.725082 164.475677
-140.769119 -59.525368 144.428299
-132.824722 -55.827030 165.556870
-146.785843 -55.106606 135.184509
-204.903610 -57.707142 22.447966
-130.897064 -60.659267 166.487671
-158.204651 -55.372917 102.151726
-174.007034 -58.068352 107.372520
-169.813950 -57.851635 99.704811
-130.927155 -57.910706 171.357101
-152.177856 -59.511646 137.387802
-214.268265 -55.306805 30.377804
-131.359985 -58.201077 168.286896
-142.370026 -54.972202 149.071320
-143.418198 -56.027245 152.726517
-165.959030 -54.987976 110.399025
-143.069870 -57.923714 152.869934
-146.040817 -61.567749 146.656021
-86.004211 -58.150028 249.849808
-137.279282 -62.202648 165.915329
-133.617401 -55.122307 164.258301
-137.769165 -54.461330 163.101044
-149.404907 -60.943237 148.094604
-173.774124 -58.758545 104.633797
-85.913071 -56.494461 249.386017
-143.159012 -58.589432 167.111588
-170.625717 -52.470898 111.063751
-217.656799 -58.032890 31.557873
-90.215393 -54.769547 256.476227
-137.332184 -59.483192 169.627853
-143.478806 -57.133389 159.465530
-175.581619 -58.018375 115.929710
-175.626587 -55.671875 115.122902
-100.398575 -58.125969 255.482864
-143.309265 -53.722393 166.678909
-153.822006 -59.262150 140.408493
-222.741562 -55.512436 37.428028
-220.192871 -59.331306 39.137684
-144.503403 -59.260586 165.372650
-161.329178 -58.522392 140.848831
-149.636414 -54.986027 168.453705
-98.500816 -57.805702 256.708038
-148.836304 -60.280235 167.229660
-100.102837 -59.554031 254.949966
-158.218475 -58.587067 148.487640
-155.216675 -53.381626 166.103851
-184.586166 -58.938580 116.046188
-226.886307 -58.743168 44.466270
-103.590302 -52.306728 246.735718
-170.672363 -55.512230 151.083176
-154.738800 -51.587433 167.234421
-220.712891 -54.333698 39.984077
-183.264679 -55.829319 115.028267
-156.943985 -58.724930 162.936691
-169.157837 -61.368462 148.561066
-167.403961 -59.144287 145.145966
-185.298721 -59.527634 116.091118
-221.796387 -54.671936 49.581921
-183.176117 -61.490749 124.725525
-157.342178 -62.123394 162.121338
-225.246445 -59.625744 51.330673
-173.143280 -65.325798 139.276962
-171.385925 -58.309189 150.736633
-161.445709 -57.587490 164.437225
-178.934799 -59.571629 140.026123
-187.372650 -58.100071 125.735962
-182.535690 -56.378372 121.188080
-143.560745 -54.490734 191.494156
-146.017120 -55.111061 193.179199
-149.520660 -55.269764 189.589432
-191.200851 -58.297440 119.111259
-147.976730 -57.562325 194.223679
-141.740616 -59.622658 203.308212
-162.552887 -59.112000 164.576477
-109.062523 -60.291939 259.387665
-159.715042 -58.141361 167.732941
-112.244492 -58.433331 263.596191
-224.815262 -58.739231 53.902153
-186.811813 -63.213062 115.907509
-139.694901 -56.713337 210.750336
-147.904282 -58.484051 193.787308
-145.699966 -53.378136 211.115128
-168.417892 -52.555126 166.292252
-167.365219 -52.782532 155.300186
-175.630661 -60.203884 143.140335
-190.029785 -60.144844 130.003799
-173.521500 -57.613064 158.432663
-175.386932 -49.585354 161.148132
-140.500046 -55.278114 216.445877
-113.670151 -60.613445 263.797089
-146.159073 -56.239922 207.563507
-142.955841 -57.532433 218.054886
-142.155182 -55.134815 207.728317
-191.330399 -57.758175 124.911682
-111.908157 -58.098293 268.127045
-177.559372 -58.348442 161.013031
-179.003601 -55.528797 146.167267
-190.682953 -58.963745 137.474792
-118.266541 -58.128693 263.176575
-175.741638 -56.209061 161.400467
-198.278549 -58.311928 132.551971
-204.831131 -56.185295 121.055328
-190.366562 -56.167744 147.060135
-181.147522 -57.966511 158.271011
-190.938873 -57.871914 146.087662
-188.170044 -59.027454 143.378418
-200.516296 -59.200130 128.313431
-117.389671 -54.753910 276.450348
-123.276909 -55.706642 266.156158
-183.754120 -57.947117 157.676743
-123.191368 -52.792927 262.629517
-193.442017 -54.422417 143.962570
-190.879639 -57.590073 157.631897
-124.736618 -62.876724 269.031525
-211.338577 -59.406143 129.760025
-122.101273 -62.393948 272.281067
-194.607239 -59.029724 143.963318
-136.275375 -57.127151 262.666534
-205.754791 -58.998386 141.348801
-201.336319 -59.598560 143.061127
-211.697937 -57.572605 134.805527
-194.280884 -54.913628 148.370148
-207.405655 -56.621902 146.237885
-210.636215 -61.336262 141.862900
-127.761986 -53.054810 276.787109
-206.383118 -63.170647 140.815643
-200.926285 -57.637115 167.401794
-185.404083 -57.960094 177.531784
-208.955124 -59.058876 145.370834
-189.183044 -57.424747 177.461807
-205.921127 -53.384644 145.358261
-220.145859 -62.433052 132.852692
-197.841461 -59.092213 164.479431
-207.891144 -59.480175 147.464310
-178.322906 -55.719334 197.168549
-136.057175 -53.845184 283.824524
-192.676102 -54.729500 185.594238
-141.651733 -60.594101 281.434906
-213.084869 -58.949207 144.621902
-218.202225 -58.422626 151.932632
-139.799957 -60.772820 284.500214
-219.591049 -58.728767 150.593506
-226.138382 -59.190685 137.993103
-187.521759 -56.846130 197.054443
-180.989197 -60.382832 213.532104
-178.739151 -56.303165 206.575592
-187.734207 -59.595352 208.028214
-184.335693 -58.884537 211.449097
-180.739731 -55.494453 202.656631
-182.467987 -57.210629 209.127014
-213.033661 -58.260708 166.737595
-149.575134 -59.672997 280.844391
-227.389511 -55.978992 137.318985
-149.136475 -59.586971 283.848236
-143.292664 -57.497906 287.313751
-144.752533 -62.401264 293.456207
-149.535995 -66.810562 284.816559
-151.886917 -52.143276 287.795563
-152.344528 -57.203033 284.003174
-157.982529 -51.540379 274.312744
-158.408539 -58.238739 279.847046
-214.177887 -57.080505 167.747894
-156.204941 -63.892662 284.149323
-157.338821 -58.329155 288.188049
-230.399979 -56.007915 173.510422
-162.213318 -60.118225 293.162506
-168.483459 -59.653931 296.254517
-173.360748 -60.230991 298.427551
-167.855667 -61.554794 301.979523
-242.918549 -61.051498 174.101791
-252.416779 -58.196148 164.946472
-176.106323 -58.497257 292.710358
-231.543121 -53.343575 199.403214
-239.575897 -60.835423 199.456665
-230.794693 -53.991268 215.119095
-240.283325 -60.518280 191.424240
-233.602554 -60.790699 202.652267
-240.052246 -60.824249 189.016434
-168.381165 -60.882549 308.726776
-232.025131 -59.145866 205.621155
-247.896439 -57.150806 175.680054
-252.228989 -57.365871 163.900925
-181.782059 -59.813103 285.683472
-221.411484 -54.481586 218.923355
-190.727142 -58.310192 281.332397
-256.669525 -59.508808 165.789734
-185.797470 -54.908928 285.078613
-222.730759 -59.218067 219.477646
-257.694275 -58.337864 163.788956
-186.824860 -56.549500 282.296478
-234.111771 -55.724903 207.568451
-241.589355 -56.886833 196.468307
-246.740295 -57.516003 180.257507
-235.330688 -56.002171 209.846024
-236.710236 -57.903584 200.411362
-252.431564 -57.505569 176.454376
-254.399612 -59.229450 166.051407
-242.350418 -59.634289 185.597885
-182.623840 -61.373829 301.734436
-258.516785 -58.215958 169.730347
-183.037674 -52.387745 310.158203
-186.897324 -60.651337 311.530426
-193.029297 -59.158516 311.045959
-195.376236 -60.172016 315.943085
-195.128937 -56.851788 311.261169
-20.565228 -56.105503 108.052933
-22.783016 -57.422993 99.627335
-19.377768 -58.387012 106.051491
-20.499691 -54.727562 115.898026
-31.497046 -57.865677 95.644981
-35.926239 -58.567791 92.456123
-37.551159 -59.572636 95.604317
-45.618042 -53.771503 83.342644
-14.302267 -58.757717 134.959885
-49.108955 -54.566170 84.333878
-47.412380 -56.339306 86.129349
-50.838104 -57.249130 98.303528
-105.258781 -54.425457 -3.049281
-107.688675 -53.754688 -1.006946
-51.001343 -59.077335 100.978683
-26.899952 -53.978287 149.296890
-109.701149 -59.633175 0.507370
-114.729752 -57.516293 -6.313401
-115.357910 -54.701542 -0.400398
-51.893681 -51.978493 108.605713
-53.348160 -57.037609 111.553497
-119.077362 -56.048031 -7.990091
-27.278112 -52.167355 151.183838
-118.877052 -57.965897 -9.924040
-123.796463 -55.784294 -5.613220
-120.089470 -58.228199 9.704986
-112.945229 -57.634579 6.023037
-48.976952 -61.414223 128.794022
-122.676682 -57.775333 4.837228
-118.069359 -55.470684 9.594724
-120.452179 -55.025555 2.121615
-51.227856 -58.010639 135.601028
-109.962685 -53.003380 30.356598
-52.116722 -55.623695 139.746735
-113.446785 -57.832119 39.361317
-112.895294 -59.704094 45.148174
-107.851959 -54.691795 43.271854
-109.001045 -52.165356 48.069023
-113.582649 -54.597252 41.533134
-49.810688 -57.248356 163.901993
-119.212883 -53.571220 52.684719
-53.312820 -64.903229 159.461853
-122.766907 -59.615376 48.135593
-121.123306 -56.963081 58.256168
-128.423340 -57.612637 51.253910
-121.226952 -61.661987 57.732265
-124.091682 -58.100685 65.270721
-128.290710 -53.914661 56.034843
-137.119339 -59.446041 61.764065
-135.067001 -56.326412 79.604980
-93.260170 -54.972645 146.915634
-100.995064 -57.953625 141.023392
-131.867828 -55.939659 63.294758
-140.476730 -53.580326 65.732956
-173.972183 -55.869030 -0.304586
-93.857948 -59.903061 140.485565
-101.668472 -56.819710 143.073685
-139.297012 -60.734501 76.677589
-102.113724 -55.810772 143.416351
-182.991837 -57.854179 4.971176
-103.418884 -56.579983 146.763855
-176.333237 -59.346275 3.063364
-182.547241 -53.563004 2.617587
-141.531555 -59.026184 79.601379
-146.580872 -54.135662 75.785522
-107.303581 -55.762432 141.570129
-107.740982 -56.649021 148.404968
-187.786209 -56.578491 14.038495
-141.084900 -58.549297 84.237663
-114.858437 -54.756042 143.079681
-98.370247 -61.448204 169.488525
-189.747406 -60.841808 9.231710
-190.641846 -60.324390 9.906907
-116.192986 -55.010685 147.323593
-144.171005 -55.010586 89.291328
-104.260330 -56.609455 167.396454
-144.943039 -57.364353 107.089951
-119.673790 -57.774803 140.078018
-117.864464 -55.341942 136.331436
-138.888138 -59.729259 111.214447
-192.821365 -56.644993 8.516113
-198.998169 -58.056271 13.297197
-149.369049 -55.771282 88.246078
-112.829002 -50.688938 166.878891
-122.437546 -59.005962 142.649429
-143.058090 -58.090801 108.761780
-196.956909 -55.370903 13.073218
-153.905136 -54.767704 81.637070
-113.341568 -57.719616 167.041916
-201.468048 -61.634159 17.041420
-113.754898 -57.203163 167.514526
-199.087997 -61.445755 15.188061
-129.594162 -57.755081 140.530411
-117.536751 -58.668701 168.473145
-114.170906 -55.013103 163.461395
-157.311203 -58.366642 91.749077
-120.631744 -57.840794 159.628616
-129.522324 -55.766621 147.461700
-204.788330 -56.035450 24.503899
-120.954323 -56.541950 167.826187
-129.561737 -59.591850 149.256927
-145.111542 -62.019436 131.660721
-206.883728 -52.727970 20.045439
-137.656357 -61.249348 144.943863
-114.684761 -57.784142 167.863297
-148.758804 -56.424969 129.344894
-150.805176 -55.414539 125.615646
-162.985886 -57.185108 94.905090
-138.179764 -58.704792 140.105347
-146.101791 -58.170902 130.488373
-147.450928 -59.459602 129.367828
-203.760315 -59.253849 22.335999
-168.807327 -56.573597 106.843018
-126.239159 -54.626869 162.967102
-166.504074 -58.451008 89.347427
-142.544952 -56.528397 143.373627
-163.266068 -52.508362 99.120804
-123.260109 -63.806541 165.213013
-169.485291 -56.360588 107.140579
-211.607529 -56.095295 31.170616
-123.391472 -58.554832 169.847717
-212.227249 -53.870869 33.542625
-169.219421 -60.452751 96.530479
-134.861649 -54.352798 167.918488
-213.608047 -55.403915 24.976397
-169.521255 -58.564388 107.748024
-128.232162 -54.937340 172.245880
-135.968277 -56.816246 164.946625
-138.415161 -61.686188 162.186157
-215.159332 -60.345562 33.245815
-173.090958 -58.149353 102.423698
-90.685028 -61.295982 245.530441
-214.099609 -60.839058 37.047657
-148.662979 -56.727200 150.894073
-148.730240 -56.763897 159.567780
-175.364838 -57.528519 107.636139
-173.322021 -53.368515 118.925758
-158.774384 -56.592869 142.729309
-174.606949 -54.170315 106.672264
-151.291458 -57.758453 140.455246
-153.514191 -60.421185 150.543716
-147.086380 -57.353367 168.145828
-215.931839 -62.320602 41.142101
-174.450073 -63.117271 116.548286
-102.965363 -59.412968 250.671173
-95.639091 -59.035618 255.948273
-176.847610 -55.745586 120.844109
-152.441132 -55.726925 164.555801
-150.688934 -55.651516 158.246002
-221.258041 -59.315212 41.747868
-100.301842 -58.704865 258.355194
-98.850067 -61.568924 252.943512
-180.610138 -56.244076 111.782356
-152.574341 -59.306549 167.738632
-156.500702 -56.800880 158.279114
-164.127808 -55.507351 149.304260
-182.282120 -58.171185 111.133629
-99.660965 -58.036621 259.870178
-155.381165 -52.026558 163.526199
-152.919678 -57.386856 163.953156
-223.794144 -57.766380 41.370987
-168.489914 -56.684875 149.965958
-102.376915 -56.184032 264.615906
-161.056747 -57.517384 162.214920
-186.841507 -55.782635 117.270523
-107.323540 -56.032871 259.073883
-159.559631 -54.353752 158.291046
-230.316788 -54.006313 55.631523
-163.977448 -58.381969 155.907532
-143.570953 -60.769470 201.464035
-106.612305 -59.447750 266.026978
-142.737854 -56.322098 201.281784
-227.319809 -54.417412 49.646992
-165.697632 -55.246471 162.091873
-231.089294 -50.406071 49.561600
-143.957672 -56.815731 198.580841
-171.075470 -61.401165 159.186951
-173.511215 -60.362499 149.059494
-184.136902 -61.484276 125.822044
-230.581696 -59.509167 55.586678
-148.824738 -56.891499 203.425980
-225.073364 -59.979530 57.118664
-146.816650 -62.433323 198.357864
-172.232422 -56.576603 156.504242
-182.704773 -55.579697 139.752945
-228.850357 -56.186329 60.284718
-181.407730 -58.939377 150.235123
-146.843430 -57.950886 205.599396
-186.052170 -52.354923 149.346237
-187.500397 -55.071003 124.525040
-199.151520 -57.865166 123.377121
-112.649773 -55.177528 268.824402
-170.053528 -56.155037 162.583466
-178.560989 -56.855381 142.170761
-173.408890 -54.424854 163.003769
-188.662537 -55.718708 134.476196
-229.197250 -56.552784 65.829971
-187.928604 -58.583908 138.844772
-145.171494 -57.555927 221.259735
-176.805954 -57.209766 159.647919
-142.372482 -56.958889 219.267853
-174.191635 -60.839119 158.586212
-176.744812 -57.336967 152.451920
-229.340164 -50.940987 61.340153
-193.472198 -54.683857 133.973953
-194.631821 -57.002987 123.194885
-234.728180 -57.257420 71.124550
-194.155853 -60.856758 142.690399
-236.394333 -54.340889 63.436817
-186.901627 -55.528141 160.770493
-182.645126 -55.104450 151.849548
-202.909195 -51.922684 125.579193
-120.590485 -57.518688 265.126587
-115.534531 -59.337944 277.886932
-186.487244 -55.440628 158.283539
-200.506378 -63.434814 145.075058
-207.893372 -58.997322 129.561264
-121.819595 -61.467529 279.737457
-125.569725 -57.637024 261.028198
-122.506302 -53.738621 276.517426
-200.731842 -55.092690 137.221176
-195.282364 -56.180775 150.357773
-196.974213 -55.667068 142.030716
-192.414093 -50.952988 157.763565
-133.002914 -60.529701 266.798645
-135.043320 -58.454472 260.858612
-198.698425 -55.996353 146.469589
-204.526077 -56.991299 137.882874
-133.363647 -55.456589 259.823151
-129.290039 -63.570805 270.090149
-202.573303 -51.612476 137.881622
-133.475769 -52.292984 269.993652
-126.669540 -55.391850 279.875305
-130.014603 -60.311142 277.267914
-207.069443 -58.018391 146.792404
-212.060883 -54.851021 132.577148
-131.461578 -55.350330 275.245941
-202.662460 -56.621208 146.649933
-194.776138 -57.257362 178.770599
-134.838593 -56.232719 279.926971
-214.735840 -54.761326 133.509247
-208.279404 -59.316315 147.530334
-135.368439 -57.657421 278.648895
-132.766891 -58.582371 277.665436
-188.721313 -54.677532 186.760559
-213.565094 -57.447559 141.764786
-188.107864 -55.316013 193.251099
-195.019409 -57.036049 180.043228
-214.408188 -60.581467 150.209137
-211.879562 -57.796505 143.231888
-211.177170 -59.527809 146.870987
-193.365143 -54.252251 187.955643
-195.989319 -59.549450 189.926910
-212.917526 -63.035618 151.799698
-222.852615 -55.975758 132.724289
-230.289917 -60.416058 135.848679
-186.373444 -56.805470 193.330811
-213.612076 -60.811695 156.871902
-143.952576 -58.949718 287.259918
-190.112320 -57.210327 198.896362
-214.613220 -59.314735 160.936661
-144.576096 -59.680241 279.091888
-181.021057 -56.200050 214.689560
-185.258591 -55.679039 211.290344
-211.343475 -57.744331 163.952698
-155.263641 -61.866238 294.673676
-162.316132 -56.679779 273.326569
-152.500565 -53.048695 285.410034
-222.616714 -56.445309 170.381378
-236.495361 -56.821125 141.628296
-157.148605 -56.545433 290.964386
-155.057327 -57.596569 289.624054
-244.403168 -54.171276 149.927948
-233.267929 -56.159386 177.765930
-159.804977 -58.764233 292.175507
-240.409927 -56.708244 175.863098
-245.097733 -50.829823 174.407471
-229.009644 -58.487854 209.476074
-183.384262 -61.761192 287.447296
-180.608963 -56.766438 289.564697
-182.809616 -58.228554 278.418579
-221.865051 -56.670074 215.464813
-244.356308 -56.060352 185.117905
-216.646637 -59.372154 227.907394
-244.006393 -59.419006 182.930801
-186.678955 -60.998058 285.409485
-219.455704 -55.581409 230.330658
-175.405014 -59.066578 300.231049
-189.479004 -57.062939 272.775238
-210.344635 -53.935455 239.408722
-215.850494 -56.955906 228.846176
-256.007965 -59.751656 166.964737
-222.374725 -56.526993 226.052689
-255.393600 -60.766026 161.080521
-181.416718 -52.616238 296.720154
-193.968399 -56.152744 276.711609
-217.392822 -56.864254 228.002487
-179.917023 -58.486244 293.682465
-193.219727 -62.002491 275.288239
-228.840790 -56.968990 214.416443
-235.900360 -53.931538 204.955460
-241.136642 -57.950165 196.963074
-183.945557 -55.271538 293.010620
-191.751297 -57.919914 284.729370
-242.413925 -56.738552 191.202225
-255.256317 -56.076614 176.012512
-255.189316 -58.716103 173.557343
-259.031616 -54.822350 159.678543
-261.577301 -58.628956 160.883926
-179.337677 -58.853397 305.951508
-184.551010 -59.173504 303.425995
-185.779587 -58.895885 314.627716
-184.563782 -55.513718 309.395142
-185.804153 -61.983658 308.698212
-186.698471 -52.218487 305.532959
-189.890259 -60.022011 316.130310
-196.923233 -59.095425 309.010986
-23.362343 -62.898022 103.330353
-21.749754 -49.753967 106.149841
-14.888544 -58.523571 119.200836
-18.862642 -53.585506 111.360077
-31.135500 -53.638134 92.496002
-13.265223 -60.658821 131.066544
-43.057968 -55.117641 84.531006
-48.630791 -54.897274 81.230438
-11.854797 -55.024452 139.853134
-19.373026 -54.414181 144.816040
-104.783829 -57.544807 -2.662364
-110.922897 -58.195244 -10.507003
-100.900139 -57.655407 1.210204
-106.867004 -54.058212 -2.213669
-109.645210 -56.129333 -6.464334
-56.079712 -59.987560 86.688217
-112.912651 -55.718109 -3.342438
-52.080009 -57.272045 100.396446
-109.404060 -58.448822 -11.439823
-109.734161 -55.347126 6.068897
-116.215202 -58.078808 -14.902536
-29.711411 -58.027309 149.418335
-51.696484 -56.846672 110.069099
-121.807800 -54.866570 -6.026061
-47.837803 -54.238811 131.716812
-126.437729 -58.082424 -5.794744
-118.686546 -55.665119 12.217199
-51.397099 -55.190247 134.597061
-124.387291 -58.311954 -2.480644
-123.736992 -56.953445 10.312550
-130.167191 -54.517563 0.750009
-123.112000 -59.394146 12.915311
-127.363701 -59.447727 0.004019
-115.551765 -57.247841 31.646175
-46.006981 -61.960251 146.232697
-50.029343 -54.739491 151.157928
-108.744453 -57.202641 39.955086
-53.804131 -56.967384 146.935562
-113.949936 -57.226620 36.340893
-40.517368 -58.459370 158.969147
-115.999718 -57.072823 42.287842
-116.335846 -54.120796 50.088322
-53.130173 -55.729340 149.805023
-46.084080 -60.655170 164.477295
-116.157707 -61.235130 56.654522
-56.125732 -58.087818 163.397217
-121.333542 -55.235821 48.278526
-165.091400 -55.531963 -6.048651
-121.090965 -52.721081 58.759872
-121.118950 -58.477776 61.686073
-159.556442 -58.310410 -7.789291
-166.036407 -54.167377 -5.298783
-170.000275 -56.689472 -4.401485
-134.553635 -52.759056 56.523087
-130.480331 -56.328133 73.603790
-163.284409 -55.016766 0.219887
-125.993164 -61.645447 70.588554
-173.293152 -55.002579 -1.181327
-93.990036 -51.519943 147.305542
-133.387436 -54.271194 66.268532
-95.168800 -53.889599 141.271118
-141.816284 -58.002552 71.109169
-99.302734 -56.483334 143.236298
-179.331604 -54.858353 10.209485
-99.567894 -55.373466 142.961517
-144.561295 -61.389889 75.876343
-97.118523 -51.885593 150.448975
-101.538101 -58.747803 149.798126
-178.698288 -56.730759 0.408168
-102.983376 -52.095680 142.535172
-143.707062 -58.535664 75.545525
-93.437965 -54.506184 163.903259
-102.764809 -55.010201 150.752655
-145.747391 -59.909489 79.705299
-107.513748 -55.349411 139.004318
-99.626869 -55.334415 163.940384
-189.215271 -54.407959 4.989175
-112.069328 -57.682808 138.013870
-108.060730 -55.847202 148.266937
-110.772507 -59.159786 148.620010
-185.610245 -54.969223 8.642729
-114.701881 -56.207424 151.005386
-143.863983 -53.751904 91.551712
-193.216904 -52.511768 9.017608
-98.811028 -57.088367 162.638855
-102.579605 -60.125656 167.434891
-114.657478 -56.701344 150.318115
-138.580109 -55.977741 105.203094
-108.021103 -59.817886 164.965332
-162.014114 -55.524052 82.840500
-197.042847 -52.445084 14.116234
-108.897057 -58.865803 163.443527
-118.790192 -54.789982 150.920059
-141.500076 -51.867519 109.344749
-122.123505 -55.161316 151.116898
-124.888329 -58.222157 148.353973
-150.928314 -55.576092 90.948952
-124.204124 -57.725723 139.921341
-158.838959 -59.419407 87.859573
-107.583641 -55.956177 165.389389
-118.279099 -54.948841 161.994370
-156.977951 -55.424530 95.700066
-114.491295 -54.962383 168.254898
-128.359695 -56.010033 138.745071
-143.712082 -54.108406 121.845886
-137.198975 -61.997097 141.116562
-124.976830 -56.521500 149.000290
-118.991158 -55.728756 164.594284
-159.028198 -59.439945 100.568161
-134.100601 -55.176800 150.739410
-148.345779 -49.960587 125.123825
-122.712036 -59.777554 171.187943
-143.731384 -57.530872 117.080330
-206.365387 -56.244797 15.160894
-153.279053 -57.932697 98.876633
-155.524963 -54.297123 101.856720
-202.684799 -56.642086 22.703129
-126.153519 -54.552177 171.026917
-145.292297 -57.958775 139.463089
-172.650345 -54.780556 102.450920
-135.339523 -58.463715 149.891052
-210.549088 -53.363499 18.716948
-160.975449 -60.874737 97.732979
-147.824829 -51.355865 141.110519
-137.437363 -55.236324 164.655441
-138.527023 -61.906258 148.528595
-127.212723 -53.286289 171.140015
-86.178650 -63.154598 250.787857
-148.513855 -53.775143 141.983948
-90.508163 -52.807842 250.235336
-156.794617 -58.072041 140.718262
-87.469551 -57.299686 253.226929
-90.727913 -49.576111 252.927048
-141.294907 -57.101982 164.506607
-217.706329 -54.820259 32.864204
-212.715927 -55.919609 33.626907
-172.410278 -57.425274 109.275909
-94.847237 -64.265999 251.419632
-97.402458 -59.459618 250.213150
-100.396561 -54.122601 249.909454
-94.291077 -57.963642 260.394989
-179.367920 -60.023544 117.105637
-176.628067 -57.110207 109.149811
-102.362144 -52.849716 248.170227
-104.122665 -54.937592 248.062576
-157.426147 -58.377819 151.022278
-223.170990 -51.710659 39.613300
-175.673447 -55.162975 107.415245
-95.208565 -53.699684 251.155151
-218.490112 -53.782585 45.598499
-151.048920 -59.648773 165.030716
-178.011429 -58.620739 115.421791
-100.965729 -53.340813 249.553024
-105.377708 -57.027496 248.713608
-170.446426 -56.188770 141.353653
-162.037506 -51.512070 167.120132
-164.830902 -58.809101 149.565094
-178.219101 -57.309113 127.497688
-105.452400 -56.556934 261.461334
-225.009842 -54.444382 50.285870
-170.238770 -61.081375 144.942444
-225.295029 -55.791985 47.138550
-163.531860 -54.049782 161.387634
-176.661804 -56.318893 152.064133
-177.132034 -57.969158 140.473068
-139.642319 -50.028561 200.089661
-114.209740 -54.470009 262.438629
-146.581512 -52.621086 203.574234
-160.056259 -56.171577 165.906921
-170.960938 -57.227970 151.487595
-186.111694 -54.541676 128.386124
-139.575867 -60.222198 205.620804
-139.576492 -52.107834 203.978226
-186.153427 -55.480087 124.042374
-113.021935 -52.133518 265.223724
-167.606384 -55.387363 161.712555
-138.549881 -52.986820 209.998795
-169.713089 -52.744267 159.591339
-171.726334 -56.771076 156.514542
-144.917374 -55.386925 198.093994
-195.062088 -56.443802 125.419701
-195.621292 -59.373531 121.556549
-113.425781 -56.705547 262.864868
-144.333313 -60.600403 214.674362
-172.859131 -53.676975 158.703323
-176.269775 -59.167576 160.684738
-182.380341 -55.875198 145.065506
-152.111633 -56.389637 209.600586
-176.795914 -54.325157 157.270752
-149.850098 -55.395283 210.311996
-189.418213 -56.336189 129.467224
-143.447876 -52.909218 219.470657
-143.650162 -54.835041 222.540161
-171.523743 -57.174843 162.269012
-177.878174 -57.598576 158.165100
-191.954208 -56.104336 140.765747
-112.064018 -53.660076 267.989777
-184.349335 -61.083759 138.794617
-197.010239 -51.992332 123.616455
-178.476822 -56.201077 157.467896
-200.248749 -56.221123 146.307724
-238.259323 -57.372036 64.929802
-182.372330 -58.562351 159.827225
-126.257797 -54.553635 265.918365
-189.336609 -59.953087 149.553604
-238.667892 -57.012562 74.680092
-123.753860 -57.252087 267.863892
-189.187531 -56.873871 152.544449
-205.143387 -58.672688 124.790398
-124.250603 -59.704277 270.158051
-197.839615 -55.296333 142.120316
-194.775848 -56.549538 154.572739
-237.703094 -60.322018 79.558983
-128.308655 -60.742359 268.425262
-203.855042 -56.633339 142.066010
-201.077499 -56.529301 121.686485
-128.698883 -57.707603 267.079346
-194.564163 -53.290165 157.859146
-241.835388 -51.768665 73.373024
-201.303772 -54.422432 147.111618
-234.803864 -53.147923 83.087463
-123.434761 -59.460629 277.451080
-206.633514 -57.380924 142.710800
-205.421997 -56.390972 135.841599
-241.289368 -55.361805 82.680168
-214.310577 -53.672398 130.801544
-194.892700 -57.094456 170.351593
-131.966385 -59.552921 277.676941
-199.647812 -53.499859 162.992630
-180.028885 -57.042599 190.831940
-198.193665 -58.228546 165.657120
-209.867981 -55.795364 143.777512
-211.109604 -58.116192 140.227112
-188.582581 -55.438423 190.771851
-204.842896 -55.622185 170.103882
-219.976242 -53.935780 143.984406
-180.918579 -56.434078 195.816208
-199.252960 -59.146152 175.638855
-186.185165 -58.180538 206.328003
-197.399094 -53.833710 177.076904
-215.062759 -53.217842 148.796585
-216.163467 -55.076908 142.231812
-176.987640 -55.746967 207.114990
-190.514496 -56.026737 187.269608
-189.567581 -54.223648 188.300201
-139.447128 -55.715267 281.483032
-189.816254 -56.676517 196.402405
-176.951782 -56.219902 218.280426
-186.028458 -57.454544 197.918243
-184.635239 -52.406548 206.966293
-212.637985 -54.059399 167.144516
-183.208221 -55.563782 223.521957
-174.809158 -57.485210 220.259903
-178.707458 -56.200829 231.317719
-180.970779 -55.785767 221.123779
-178.143036 -58.413280 225.936630
-147.353073 -58.395382 295.874420
-152.958496 -58.449001 281.298798
-150.684616 -51.744995 291.483368
-219.841278 -56.369678 169.728638
-154.006058 -55.316490 285.241760
-158.312729 -51.535923 275.149475
-161.052094 -54.411438 271.221680
-151.912170 -51.806110 293.413269
-237.464096 -59.335476 140.023376
-224.683960 -58.986511 176.642441
-161.419067 -60.545082 301.042175
-165.250244 -57.969330 297.963257
-172.829636 -56.795208 299.440338
-252.953644 -54.333481 160.110336
-229.559326 -52.575600 200.294739
-167.843140 -55.941345 306.033508
-224.386246 -54.402763 214.170410
-228.147842 -56.265419 202.316223
-234.598221 -52.017048 198.738205
-240.265945 -56.060825 179.605438
-215.168610 -53.801926 233.690125
-246.004440 -51.770962 170.219711
-209.500031 -57.878563 239.524567
-246.507629 -57.549671 179.761856
-205.673950 -54.225945 249.147202
-248.587921 -60.229095 181.281967
-257.761200 -53.842873 166.683533
-175.060089 -56.324085 305.232666
-180.836823 -56.174347 290.861938
-185.962509 -56.585430 279.279724
-206.918518 -57.472855 245.874130
-211.029129 -56.584408 238.607346
-179.289566 -55.095478 302.409454
-170.310623 -54.396740 307.648407
-207.174774 -57.406544 243.316818
-259.727264 -51.018452 159.378128
-204.509308 -54.934929 259.555603
-213.330490 -52.776958 236.706726
-208.340424 -54.282009 252.826782
-185.243683 -55.257919 294.849396
-210.339020 -56.555027 242.255402
-224.632263 -50.636219 226.194809
-227.779129 -54.804680 212.070099
-179.992676 -55.821499 297.000122
-241.926636 -55.911327 197.534729
-244.348557 -55.169987 193.476151
-248.763306 -54.835949 185.538452
-252.424133 -52.405029 177.579269
-177.976028 -54.002663 306.892761
-180.619873 -53.383118 308.201630
-186.703537 -51.334850 308.022552
-184.036179 -60.751842 315.514526
-189.433121 -57.588299 310.664764
-192.208435 -54.966320 317.599274
-19.707264 -54.660179 102.709450
-23.374119 -53.559650 99.261086
-11.002995 -53.205585 110.580719
-12.233779 -53.832699 115.728348
-23.432325 -49.924679 93.185043
-25.217752 -53.371819 91.924911
-25.820671 -56.966938 93.198082
-11.000860 -58.264416 126.156548
-34.287071 -55.343388 87.105858
-41.548485 -50.329659 85.841431
-46.171772 -54.514194 80.151375
-48.612103 -59.573925 79.217819
-48.502010 -56.296169 77.255531
-99.974846 -47.976227 0.310221
-104.939407 -55.108650 -10.933409
-107.140671 -55.606987 -4.823735
-52.000317 -52.433159 93.896675
-110.229492 -52.027031 7.922496
-117.097725 -55.631882 -14.233953
-110.668991 -55.285927 5.310341
-112.799362 -61.420811 8.963467
-124.199692 -53.380302 -9.530799
-119.162544 -57.628887 10.614022
-109.262032 -50.726856 31.806084
-106.316574 -56.260002 29.384817
-110.271156 -56.732006 34.463928
-113.634171 -54.536678 36.225449
-51.275295 -55.726822 139.126526
-49.827808 -58.373745 136.048416
-50.924908 -47.333706 140.605362
-110.291718 -57.951378 42.181156
-117.259941 -53.041740 29.639408
-53.407501 -53.649803 151.357956
-118.461693 -56.207523 42.138123
-52.966331 -57.458355 168.366669
-143.290268 -54.353168 -14.317774
-56.290123 -59.546810 157.712906
-122.415573 -58.163960 44.138805
-119.050049 -58.328884 45.020393
-153.250702 -50.661839 -13.955138
-149.953476 -54.820721 -8.423342
-125.160065 -58.125080 45.736317
-119.061035 -53.383186 60.719498
-155.206085 -53.900467 -2.786893
-125.685669 -58.095913 51.199326
-132.752884 -59.037590 57.288631
-125.609718 -57.073158 65.702820
-164.011353 -55.520103 -3.927040
-164.823517 -52.647087 -2.232629
-129.342056 -55.084377 60.689644
-132.762527 -57.709919 60.061073
-85.949356 -53.295483 149.163971
-129.514175 -58.948456 69.206528
-171.053711 -56.571960 0.165697
-174.647644 -55.597294 -2.950456
-104.459435 -57.788799 148.182999
-137.808319 -55.603249 72.490211
-79.427803 -53.993740 164.854477
-87.292152 -52.026924 167.999481
-180.067978 -54.984509 -0.674967
-89.568993 -57.367844 164.806717
-102.032372 -52.556664 151.750412
-137.461075 -55.773876 79.841103
-104.008240 -52.176849 141.982956
-107.549232 -55.530685 134.863495
-91.258186 -59.672176 167.389404
-91.914291 -52.324581 162.680542
-110.757233 -59.314980 140.450882
-97.755623 -53.992859 164.080826
-148.479706 -60.242561 72.452599
-183.901001 -54.791271 9.573083
-146.364639 -52.965759 87.393028
-147.015427 -57.524567 88.694542
-100.590675 -56.740185 168.860886
-195.046310 -55.472168 6.659485
-142.427658 -59.785587 85.582092
-119.906105 -54.573746 143.320114
-188.157181 -55.383705 8.065521
-141.904953 -58.588348 105.797134
-149.223923 -57.564442 77.244118
-104.136559 -57.951565 160.638870
-103.746063 -56.238438 163.717896
-194.047501 -59.964817 8.702682
-103.616425 -54.727203 170.049225
-142.764999 -54.456596 99.222168
-150.785233 -54.950832 79.210442
-108.707893 -54.365139 168.753281
-107.770676 -54.068356 164.567307
-118.786232 -55.371956 150.592178
-111.378273 -54.260929 161.136246
-154.746506 -53.972584 88.632645
-111.142815 -53.596619 172.679810
-141.590546 -55.237988 113.196487
-147.672012 -56.300976 94.847672
-154.024384 -49.730598 93.307503
-192.780060 -53.489037 22.577963
-113.536438 -57.923813 169.919113
-116.474701 -57.429775 166.970093
-129.944519 -55.393597 140.197495
-195.252960 -57.748081 9.760881
-200.941345 -51.464428 24.840605
-144.347549 -53.407391 121.518089
-145.047256 -52.963013 116.618217
-201.673737 -55.796600 14.452015
-145.928329 -54.675552 119.703026
-129.510223 -56.721848 138.820221
-124.954399 -54.230934 172.520905
-137.629608 -55.437016 141.134201
-122.123962 -56.104977 162.060791
-125.461433 -56.791306 164.100082
-165.053314 -55.147842 93.286995
-207.091476 -51.867298 24.480221
-202.037476 -53.878757 19.460777
-209.905121 -55.375114 20.635517
-162.611557 -56.859081 110.728539
-163.315506 -54.925819 101.299713
-135.457748 -53.837219 144.754257
-132.787582 -52.030178 168.809982
-210.576996 -55.408634 36.094692
-153.617020 -60.333183 143.242783
-172.307831 -55.567764 94.686310
-216.201035 -54.979820 28.134197
-215.854477 -59.463383 30.739441
-88.762611 -52.689217 250.568161
-210.906891 -51.569275 27.573059
-137.928436 -58.085049 169.318726
-135.025970 -54.846870 162.225769
-172.429688 -57.098808 104.137062
-128.171234 -53.836182 166.639893
-146.735123 -53.855682 153.013046
-142.217010 -51.171047 168.831024
-153.680252 -55.861767 143.339554
-142.592667 -56.533997 167.526413
-216.515945 -53.151569 33.583771
-90.320168 -56.225868 257.410187
-147.437912 -55.419468 167.077362
-96.371147 -59.171112 251.305054
-143.042496 -52.203808 164.040405
-155.227661 -58.034801 140.737610
-220.853073 -55.785995 44.987926
-148.995972 -57.475891 167.228012
-160.585144 -52.329792 144.419586
-176.644974 -54.500397 102.544037
-97.051056 -59.512451 242.839325
-149.701675 -51.780277 167.061218
-164.251617 -54.696987 140.610870
-225.574127 -57.197819 33.553852
-220.451630 -51.119804 39.347523
-143.650925 -59.323906 170.108917
-155.364731 -54.574432 147.644638
-222.451401 -54.372402 43.074604
-98.060188 -57.987263 256.509644
-159.870377 -56.265636 148.988129
-219.222565 -53.156570 39.621258
-94.858658 -53.710835 258.959137
-184.198608 -54.503807 111.162407
-168.710556 -56.883762 139.615692
-183.392044 -53.543476 124.813377
-99.284302 -58.512959 264.866821
-159.997131 -52.683681 166.123718
-106.105850 -57.741703 251.666748
-158.307571 -55.330109 161.871506
-221.814209 -51.857822 42.893173
-159.738129 -53.825699 167.152954
-222.972015 -50.372532 43.408707
-159.436768 -52.780758 161.802887
-105.431763 -57.469891 258.154999
-186.742752 -56.278313 118.867104
-164.597000 -54.666573 167.332443
-175.358383 -57.398708 146.760941
-230.319870 -58.237240 51.698391
-225.870270 -49.240917 51.329792
-224.462463 -51.967121 55.808117
-181.032028 -53.831768 137.646027
-231.942703 -59.484367 45.954292
-168.409882 -53.019772 165.889923
-141.794266 -57.514030 207.005768
-192.256927 -58.202507 121.429817
-146.849915 -56.653320 198.103622
-191.099640 -52.032501 130.928848
-188.419617 -56.367260 141.603622
-140.505157 -56.248234 215.784790
-172.684128 -53.151894 156.478333
-107.790291 -54.841377 262.916809
-175.819427 -53.144543 156.466751
-232.891068 -56.729221 65.195358
-235.313141 -54.704308 57.355152
-178.130539 -49.583767 159.263794
-232.516953 -58.606411 61.548782
-191.018005 -59.338303 146.762360
-234.098663 -56.601135 70.980484
-230.567673 -51.119602 57.245663
-139.813812 -54.037094 225.467789
-181.969604 -56.092613 163.519775
-179.561584 -54.192986 151.453568
-188.112549 -51.020176 153.642227
-118.726891 -54.451164 273.479248
-121.525146 -54.956017 265.472504
-180.352325 -58.006279 155.542084
-232.887589 -48.718513 76.121864
-176.621429 -55.840000 164.669403
-190.697205 -54.290470 149.539337
-192.198746 -55.918842 140.579300
-123.987450 -56.537773 271.433044
-132.774811 -53.900421 254.642456
-182.325180 -55.230816 161.036621
-134.660461 -52.720459 251.482147
-135.113281 -53.655220 257.811737
-193.839020 -58.645947 157.555618
-199.074280 -52.975819 138.948547
-207.240707 -51.925102 128.566956
-133.741928 -53.599724 256.548279
-193.233658 -54.175209 149.936462
-208.778854 -56.835754 127.103424
-130.238403 -56.811169 264.581146
-207.843994 -55.098270 133.970932
-121.992821 -59.365822 280.521332
-137.523621 -50.632195 252.305756
-236.332947 -55.523186 78.471512
-198.011826 -55.617123 148.397186
-197.335281 -56.900776 148.390518
-199.263229 -53.082142 152.376572
-204.175491 -56.101505 151.755432
-204.020233 -51.722530 143.623962
-241.956985 -50.500813 89.321503
-236.634277 -57.242393 85.001785
-205.233063 -55.795483 148.614243
-216.203903 -55.527283 133.390213
-193.994202 -59.092361 182.287262
-195.182831 -54.619358 178.274719
-190.727188 -56.881790 180.983673
-211.826569 -53.739712 139.838165
-189.029922 -56.098797 191.020508
-194.703705 -56.063694 176.132782
-195.118408 -53.943615 181.678635
-198.676224 -56.200031 166.193954
-185.158493 -53.312981 196.604401
-209.744339 -53.591232 146.552536
-218.841614 -58.962154 146.310638
-183.090256 -50.197140 199.473099
-190.920624 -54.967190 184.781616
-210.720215 -53.778786 153.666443
-180.369324 -58.513866 206.128128
-187.542603 -54.396061 189.328873
-182.638947 -54.058426 210.021591
-219.869675 -52.865501 133.818466
-183.605392 -55.189732 213.376266
-225.497147 -54.906590 140.775955
-144.290268 -57.978020 286.023621
-136.274109 -56.235233 285.282501
-181.777542 -56.862225 218.847275
-223.370087 -59.412319 145.793625
-135.264771 -55.103214 296.100983
-177.105621 -49.792782 226.267212
-229.484314 -57.274464 137.035934
-178.619095 -48.979130 226.974274
-179.873627 -53.066479 219.740860
-174.006546 -48.400562 228.316681
-181.404831 -53.560413 224.950882
-228.902252 -59.090969 136.259460
-177.290161 -50.549587 237.362778
-156.308868 -58.499691 269.431000
-153.621811 -55.516384 281.663483
-150.302536 -57.264465 287.482147
-162.486191 -49.086655 262.067871
-231.712296 -55.577183 142.085159
-147.823593 -57.770084 285.162628
-150.291046 -59.828640 278.362244
-155.849365 -52.070518 273.422089
-164.097305 -52.582882 267.360687
-212.534607 -55.296856 164.573151
-144.834045 -54.700459 296.205841
-155.326065 -58.725834 274.054352
-149.879364 -57.618694 287.333710
-151.999161 -53.160511 284.750977
-163.096222 -55.849960 277.470856
-157.952118 -56.669544 280.498901
-166.853760 -53.942142 267.146179
-142.214157 -54.350838 302.727264
-166.815674 -53.294426 264.351990
-234.476181 -55.881927 134.341049
-166.928574 -57.571850 272.954315
-147.704849 -52.284363 307.291962
-148.139694 -52.556625 305.808472
-154.261108 -49.509029 292.683655
-152.614044 -55.089184 300.092010
-158.841324 -56.343399 293.212158
-153.301224 -54.605984 297.024719
-158.041489 -53.540237 289.769379
-151.484314 -52.665138 305.561798
-249.515503 -59.927433 151.121735
-154.410538 -54.000736 310.656464
-160.164063 -55.590702 297.658752
-230.224670 -57.028473 172.374832
-157.293930 -55.700905 305.046387
-163.344147 -56.343731 290.986603
-159.748825 -53.226871 297.425629
-239.813690 -56.743584 170.541443
-245.330475 -58.419640 158.569611
-170.536942 -55.175091 301.587067
-159.901138 -51.648933 311.574921
-172.745041 -54.188225 297.323090
-238.569611 -46.459053 178.541489
-173.194443 -54.343212 299.608398
-169.991791 -56.436344 301.564514
-167.884277 -53.678257 314.471283
-161.915527 -56.411106 317.078003
-168.133774 -55.081676 306.011993
-163.802155 -55.800549 319.159454
-182.170013 -53.174881 291.485077
-217.252136 -54.907074 226.767029
-235.907166 -58.934509 201.548767
-238.087189 -51.530960 195.300812
-241.747452 -58.355808 183.444504
-247.222412 -54.885826 173.465485
-244.538239 -53.432144 173.090607
-252.628189 -57.539371 164.234528
-201.481842 -54.931835 256.774445
-258.029114 -54.208832 169.381516
-185.809830 -55.861820 278.105469
-199.235825 -55.684422 271.951630
-171.876984 -55.568600 307.357727
-177.367889 -53.783352 303.412415
-261.844330 -52.156643 159.709290
-201.299393 -55.248539 260.988342
-174.643616 -57.516308 304.927582
-180.787308 -56.793453 299.666016
-193.180252 -54.527962 278.971283
-201.147934 -52.002785 264.665161
-209.907623 -57.460423 249.832153
-216.422058 -54.537220 229.821106
-170.367142 -57.670605 314.580963
-169.962097 -54.634487 319.016266
-192.250183 -54.884190 282.740295
-235.761520 -53.328430 208.365311
-265.802155 -52.608326 164.662994
-172.715958 -56.298222 310.663055
-238.706772 -53.279060 198.090912
-183.019043 -56.232288 290.672363
-247.734787 -55.694401 186.488800
-257.187103 -53.356541 173.948380
-192.738632 -56.518364 286.180969
-254.037888 -57.980404 167.255432
-257.736328 -54.150536 159.038101
-186.582306 -55.780617 290.507660
-186.377060 -55.898552 303.243835
-188.567841 -55.552025 307.319641
-190.369736 -59.375793 313.010223
-196.115448 -58.741234 316.358246
-6.402614 -51.934288 120.838409
-13.795892 -54.078976 110.245750
-24.401907 -55.567638 93.509933
-38.781929 -53.773884 81.641800
-33.699879 -53.667435 83.549805
-33.676945 -51.759487 79.440567
-38.770630 -54.775860 81.227722
