9.190030097961 -83.804420471191 -218.714309692383 2.947672128677
-144.330108642578 -76.559616088867 -219.458847045898 2.983989953995
-22.997867584229 -78.991210937500 -215.784072875977 1.387578845024
0.980147242546 -73.081855773926 -219.774353027344 2.530876159668
-8.164977073669 -78.338569641113 -219.507598876953 1.833825588226
-152.554840087891 -73.998016357422 -222.824844360352 1.448442578316
-139.973449707031 -68.220268249512 -225.838394165039 1.323561191559
-4.214415550232 -77.606307983398 -225.492080688477 1.239200472832
-148.310806274414 -83.358016967773 -226.305114746094 0.969963073730
0.995844602585 -72.663604736328 -229.291290283203 3.051306724548
17.608699798584 -76.429710388184 -235.388183593750 1.827191591263
-2.079427957535 -79.870956420898 -229.645538330078 1.870244026184
-1.872131705284 -71.736274719238 -232.464080810547 2.143883228302
8.520599365234 -75.861007690430 -231.616928100586 1.565884947777
-152.352996826172 -78.723075866699 -238.805358886719 3.541376352310
-19.766071319580 -74.985282897949 -233.513107299805 4.270972728729
-34.599868774414 -79.731742858887 -238.453933715820 1.752701401711
1.703750133514 -75.787467956543 -234.482513427734 1.925558447838
3.016032457352 -82.424537658691 -242.463668823242 4.917790889740
1.636615514755 -75.622459411621 -233.100723266602 2.568177938461
-58.347240447998 -76.888351440430 -241.957443237305 3.221595525742
-148.930435180664 -74.357833862305 -248.471832275391 2.952968120575
-153.258224487305 -78.041419982910 -246.888763427734 2.005524158478
11.705647468567 -79.117935180664 -246.940521240234 1.531275749207
25.173763275146 -79.347930908203 -246.152984619141 2.682832956314
-61.351341247559 -74.520301818848 -247.023254394531 2.022723913193
-142.450607299805 -82.486213684082 -251.660888671875 3.096301078796
-153.454223632813 -81.453903198242 -253.969299316406 1.950783252716
-153.995040893555 -82.274681091309 -256.388214111328 1.390138387680
-143.111984252930 -75.068138122559 -261.587158203125 1.376587867737
-141.681991577148 -78.792182922363 -255.968750000000 2.431397676468
-7.160372734070 -79.133903503418 -255.960174560547 2.057849884033
-145.564010620117 -79.417518615723 -261.615325927734 2.645684480667
-14.369228363037 -78.462867736816 -267.676055908203 2.748721122742
-147.705596923828 -76.695220947266 -271.327911376953 1.934422731400
-148.129913330078 -77.546195983887 -281.749664306641 1.437392711639
-148.446334838867 -76.245117187500 -283.508361816406 1.890790939331
-3.824641227722 -72.823036193848 -284.961517333984 2.032689809799
-148.412155151367 -73.764480590820 -282.598358154297 2.514979124069
-25.971191406250 -79.005332946777 -285.932250976563 3.556815385818
-26.489837646484 -74.678253173828 -284.964630126953 1.159155488014
-13.929018020630 -74.787467956543 -293.320617675781 1.797171235085
-14.278804779053 -74.405731201172 -292.561492919922 1.348317861557
11.883965492249 -79.887474060059 -290.981201171875 3.004738092422
-125.166534423828 -79.732765197754 -289.576843261719 2.775898456573
-61.678298950195 -78.003738403320 -286.784698486328 2.905763864517
-41.909400939941 -74.477600097656 -289.996246337891 2.260758161545
-33.350891113281 -78.180152893066 -287.395690917969 1.562027335167
-8.824856758118 -75.326110839844 -293.534606933594 1.935849189758
5.406696796417 -78.415870666504 -287.719451904297 2.340277433395
-141.947662353516 -78.702133178711 -297.190612792969 4.879986286163
10.616820335388 -77.829948425293 -295.516967773438 3.659763097763
-153.765182495117 -75.413543701172 -302.096252441406 1.106520414352
-154.103683471680 -82.354606628418 -300.700714111328 2.301671028137
-153.609130859375 -74.011062622070 -311.713317871094 1.715964317322
-143.209045410156 -77.069755554199 -309.035217285156 3.412593126297
-50.557819366455 -75.623596191406 -50.179058074951 3.675468206406
-53.652565002441 -79.708671569824 -55.869808197021 3.135095834732
-67.100883483887 -73.962959289551 -54.341434478760 0.958720624447
-40.119575500488 -73.780326843262 -61.969379425049 3.105608224869
-35.383682250977 -76.045982360840 -59.030872344971 1.737206697464
-18.970077514648 -74.958496093750 -69.956527709961 1.557508826256
-81.225196838379 -73.184974670410 -68.805679321289 3.514684438705
85.484535217285 -76.124542236328 -78.301742553711 1.747166275978
-90.461242675781 -74.283950805664 -73.659027099609 1.444605708122
80.822357177734 -73.532417297363 -77.301574707031 2.029043197632
88.394401550293 -71.065429687500 -84.241729736328 5.699455261230
97.993934631348 -72.633552551270 -89.651077270508 1.396060943604
-60.713855743408 -78.992965698242 -95.921081542969 2.422047853470
82.469100952148 -77.012840270996 -96.316253662109 2.273407936096
77.066917419434 -80.099937438965 -90.843414306641 3.308413743973
86.774002075195 -75.551712036133 -90.313079833984 2.774564743042
-58.899379730225 -76.444244384766 -97.067321777344 4.776565551758
49.183872222900 -73.681571960449 -97.892211914063 0.767969131470
46.048744201660 -75.098335266113 -106.381713867188 2.510533571243
39.991855621338 -76.606956481934 -103.443145751953 3.262749671936
36.408405303955 -76.185623168945 -101.767532348633 5.820159912109
-91.663948059082 -71.938461303711 -103.664108276367 2.324837684631
35.743515014648 -74.067268371582 -117.112625122070 2.203525304794
-84.565910339355 -76.487396240234 -106.839096069336 2.879687309265
40.687477111816 -77.181610107422 -126.965621948242 0.684351325035
33.028511047363 -76.821067810059 -120.579635620117 1.539923906326
34.396286010742 -68.261550903320 -121.280670166016 2.012296199799
44.760326385498 -73.694114685059 -117.305343627930 1.001996755600
41.678600311279 -78.616027832031 -127.988891601563 2.531149387360
-51.088443756104 -69.860900878906 -134.716720581055 1.360296964645
37.872020721436 -80.106674194336 -133.942871093750 2.939526319504
35.969680786133 -75.507804870605 -143.834075927734 2.306193828583
-55.402328491211 -73.908630371094 -143.272354125977 2.255064249039
-44.733058929443 -76.270210266113 -139.752868652344 2.393141984940
35.287563323975 -74.350494384766 -142.299041748047 2.086699724197
110.748939514160 -70.743171691895 -140.617309570313 2.062723636627
112.660049438477 -71.855346679688 -146.206451416016 1.715255618095
26.800720214844 -77.294563293457 -141.299011230469 1.870142817497
-39.960224151611 -78.772689819336 -149.189392089844 1.659706115723
116.964965820313 -82.253753662109 -152.484649658203 5.615867614746
-37.118625640869 -73.962379455566 -152.175064086914 2.132338523865
-67.566833496094 -75.247352600098 -161.710845947266 1.411986112595
110.907760620117 -79.908897399902 -155.844772338867 3.581714391708
22.940177917480 -76.901344299316 -165.851501464844 2.628891229630
1.199261307716 -76.764228820801 -162.409332275391 1.547211885452
111.518653869629 -75.618827819824 -152.663146972656 1.119161367416
-63.928627014160 -75.642875671387 -165.666656494141 1.730113148689
-38.387538909912 -77.161643981934 -164.891799926758 2.443937063217
111.779418945313 -76.388092041016 -164.764923095703 2.037122011185
27.951808929443 -70.713706970215 -158.267395019531 1.816738486290
-61.570728302002 -69.669822692871 -164.046752929688 1.596113443375
112.968467712402 -75.906684875488 -165.784210205078 2.370153188705
-65.154876708984 -77.677276611328 -168.374725341797 2.016322374344
-48.744415283203 -79.009254455566 -181.700210571289 1.569788455963
106.454414367676 -74.881278991699 -171.153793334961 0.920690417290
-59.332897186279 -74.454940795898 -171.698959350586 0.830605030060
112.774574279785 -74.550010681152 -177.650405883789 1.972831606865
-61.003696441650 -75.184364318848 -175.765487670898 1.908127307892
-15.542761802673 -73.404182434082 -177.078277587891 3.980479955673
-9.745740890503 -81.206741333008 -181.907852172852 4.878806591034
108.023582458496 -77.439170837402 -166.686935424805 1.882381796837
21.755596160889 -77.101409912109 -171.031341552734 1.264343976974
30.875976562500 -71.019241333008 -168.944763183594 2.615869045258
-57.661403656006 -75.086509704590 -176.970138549805 1.208503842354
17.765205383301 -73.930541992188 -181.468032836914 1.577219724655
-57.248775482178 -76.702758789063 -174.320755004883 1.416635870934
-52.101295471191 -74.534179687500 -193.170227050781 3.070784330368
11.280189514160 -73.531417846680 -184.423965454102 1.842884063721
-55.812084197998 -71.309097290039 -179.044601440430 3.398357152939
106.535049438477 -73.052780151367 -188.243041992188 2.656082868576
26.085315704346 -78.616012573242 -181.581878662109 1.516936540604
-34.733634948730 -73.557373046875 -187.838088989258 2.702989578247
-42.762039184570 -78.452651977539 -189.457885742188 2.577874183655
11.520348548889 -78.039772033691 -191.319534301758 2.752602338791
-19.443290710449 -77.189765930176 -187.731597900391 1.169552683830
-47.377983093262 -77.541900634766 -194.973159790039 1.283289551735
102.238487243652 -79.604469299316 -182.556671142578 2.768407583237
10.185569763184 -79.368003845215 -189.934753417969 4.556405067444
-132.334442138672 -82.401382446289 -199.360076904297 1.781142711639
-48.139690399170 -78.351684570313 -194.971862792969 1.590068578720
94.914245605469 -74.802604675293 -198.594177246094 1.852229952812
-149.305374145508 -82.519844055176 -201.818939208984 1.044777035713
18.571151733398 -76.389617919922 -199.712692260742 0.937143802643
-43.124752044678 -73.020843505859 -205.539520263672 3.868289709091
-30.010036468506 -79.178611755371 -206.559509277344 0.936950981617
-36.989849090576 -77.218452453613 -201.157135009766 2.001323699951
-45.333122253418 -82.301681518555 -197.467529296875 2.252286434174
100.887008666992 -75.535392761230 -204.342895507813 1.308000206947
-20.848392486572 -80.027816772461 -199.870315551758 1.281505465508
-150.029769897461 -76.632156372070 -200.559082031250 2.300542354584
16.075187683105 -78.480850219727 -201.405776977539 1.819705605507
-76.933959960938 -80.760284423828 -205.236495971680 2.586232900620
-143.937606811523 -74.444244384766 -213.110198974609 2.038647890091
94.195526123047 -78.064819335938 -213.324874877930 2.889076948166
-32.782852172852 -74.701698303223 -206.616760253906 1.851975321770
-28.664890289307 -76.803794860840 -210.725891113281 1.941841244698
10.028073310852 -76.691497802734 -209.647018432617 1.791728138924
-71.505470275879 -80.526008605957 -207.361679077148 2.071959018707
-26.989738464355 -83.911788940430 -205.536727905273 6.099244117737
-7.886449813843 -77.656730651855 -216.498748779297 2.112190723419
-70.179626464844 -77.557365417480 -213.543167114258 1.056355953217
-13.848782539368 -76.720848083496 -217.118927001953 1.537321209908
7.904392242432 -68.065513610840 -211.147659301758 1.645801305771
13.024407386780 -79.046058654785 -220.825256347656 1.273947954178
-151.200729370117 -78.608871459961 -217.133132934570 1.262256860733
-8.799919128418 -76.130180358887 -213.840759277344 1.825267314911
-101.254119873047 -72.849021911621 -219.584045410156 1.565970301628
-21.761173248291 -75.849006652832 -219.065170288086 1.245766758919
89.016372680664 -81.417930603027 -211.868560791016 4.632286071777
9.267150878906 -74.337593078613 -224.348083496094 2.242089986801
21.299549102783 -75.765380859375 -216.031219482422 3.675458192825
80.284942626953 -77.388908386230 -214.035934448242 4.124224185944
1.529837012291 -80.437805175781 -229.403305053711 1.665223956108
85.566558837891 -76.364250183105 -216.541442871094 1.268438577652
-20.736438751221 -72.209129333496 -224.033035278320 1.664949059486
16.611186981201 -73.011825561523 -218.098907470703 1.785101771355
-148.247360229492 -78.329933166504 -218.399505615234 2.248568773270
-25.503047943115 -77.861335754395 -225.736434936523 3.841899871826
2.132012367249 -73.788497924805 -230.379287719727 2.097969532013
-156.122421264648 -82.262138366699 -224.875595092773 4.063192844391
-137.236846923828 -79.788108825684 -227.342681884766 2.174488306046
3.527553796768 -75.925056457520 -223.122344970703 2.433310270309
-3.555420875549 -72.843452453613 -225.015121459961 3.169476270676
-136.967071533203 -73.309349060059 -228.717681884766 2.527718305588
-146.991729736328 -77.378189086914 -241.222137451172 1.993801116943
-148.615478515625 -77.560081481934 -235.161941528320 1.037777423859
-31.512504577637 -77.745414733887 -236.402633666992 2.581384181976
-142.131973266602 -80.171211242676 -242.671157836914 2.972103357315
15.816298484802 -77.757926940918 -241.029388427734 1.787491798401
5.893092632294 -76.010406494141 -244.311889648438 1.098878026009
-150.579391479492 -71.550598144531 -237.584060668945 2.351583480835
-149.422668457031 -76.584526062012 -244.235168457031 1.922661423683
-45.410751342773 -78.582275390625 -245.228073120117 2.119788169861
-31.360069274902 -77.307342529297 -246.468811035156 3.606172561646
4.370288848877 -76.411735534668 -242.338836669922 1.926785826683
-36.042778015137 -78.539245605469 -244.942474365234 2.309532880783
22.200702667236 -76.615554809570 -246.117462158203 1.664755702019
-5.703092098236 -78.914237976074 -252.220550537109 2.446935176849
-144.357650756836 -78.120918273926 -252.432403564453 2.107889175415
-9.608426094055 -81.682289123535 -252.518951416016 3.279686689377
-148.178649902344 -74.859870910645 -246.572143554688 2.441192626953
-65.155387878418 -78.774253845215 -249.715301513672 0.964212775230
-146.729751586914 -84.447998046875 -258.506561279297 1.068832755089
-127.232803344727 -77.035331726074 -257.681396484375 1.900995135307
-152.607482910156 -76.745300292969 -256.727539062500 3.579654932022
-10.380294799805 -74.057479858398 -266.899688720703 4.296384811401
-145.460494995117 -83.358192443848 -271.618225097656 1.861178159714
-149.021499633789 -77.656364440918 -268.714904785156 2.013862609863
-11.524921417236 -77.159385681152 -270.406616210938 1.479480266571
-144.140243530273 -77.527221679688 -269.559844970703 2.546016693115
-6.090994834900 -75.385955810547 -276.247039794922 2.101385116577
-45.415233612061 -76.146713256836 -283.558349609375 3.792159557343
-134.626708984375 -74.701225280762 -287.901733398438 1.978188037872
-135.291519165039 -76.627960205078 -285.318267822266 1.864142894745
-123.010932922363 -73.810897827148 -281.378295898438 3.646037817001
-51.592678070068 -76.017700195313 -285.842193603516 2.266002655029
-111.783325195313 -75.605545043945 -283.389251708984 4.532017707825
16.725849151611 -75.960662841797 -292.046081542969 0.892013728619
-56.707725524902 -74.866027832031 -288.107421875000 2.206727743149
-140.550659179688 -76.962890625000 -292.706542968750 1.892816662788
-62.964977264404 -75.584381103516 -290.023284912109 2.311099767685
-144.359832763672 -82.496330261230 -292.989196777344 1.014404416084
-116.195739746094 -74.555809020996 -290.469696044922 2.496065855026
-45.589218139648 -79.371902465820 -289.865478515625 3.902189016342
-33.168842315674 -76.774047851563 -291.114501953125 1.953822135925
-137.482177734375 -72.878952026367 -295.600463867188 3.181207418442
-13.737314224243 -71.294944763184 -282.186920166016 4.285587787628
5.072870254517 -76.115341186523 -286.993530273438 2.020796298981
7.067512035370 -74.887107849121 -290.033874511719 1.535428285599
15.677270889282 -77.524658203125 -295.085632324219 1.986972928047
-149.367248535156 -81.615394592285 -297.534515380859 2.248442173004
-144.633605957031 -74.897216796875 -292.777709960938 1.146996378899
-66.016624450684 -73.489448547363 -61.717678070068 4.084286689758
89.406768798828 -76.249679565430 -72.150375366211 1.425791263580
79.302993774414 -75.868972778320 -76.985076904297 1.294288635254
-27.375354766846 -77.630462646484 -76.011779785156 1.800518274307
84.166198730469 -73.046447753906 -74.264724731445 1.616616368294
-37.450214385986 -77.727172851563 -79.373245239258 2.856780290604
83.286064147949 -70.962409973145 -81.574707031250 5.126832962036
96.603057861328 -70.834625244141 -79.559997558594 2.650796890259
-64.111351013184 -69.111030578613 -95.447769165039 2.667730331421
73.275817871094 -75.366828918457 -93.850738525391 1.302877426147
80.451370239258 -72.669876098633 -97.268218994141 2.580961942673
97.089653015137 -77.521392822266 -94.761276245117 3.526211500168
55.801467895508 -76.698020935059 -96.597991943359 2.007633447647
-66.715171813965 -72.981086730957 -100.894180297852 3.441153287888
-73.554504394531 -71.460533142090 -100.650833129883 0.379523634911
51.086025238037 -77.003646850586 -103.129119873047 1.718831181526
-87.309295654297 -76.814605712891 -101.830795288086 4.225781917572
47.656166076660 -71.998275756836 -117.606674194336 1.377550363541
111.143829345703 -73.987930297852 -119.430740356445 1.389300465584
113.449333190918 -76.874122619629 -129.954421997070 1.217798590660
21.278514862061 -73.070831298828 -136.620635986328 4.459093570709
110.781791687012 -76.512565612793 -126.364837646484 0.139363959432
29.142154693604 -72.524452209473 -132.957565307617 1.917639493942
113.344528198242 -69.063842773438 -131.810485839844 2.119199752808
37.604068756104 -72.753067016602 -134.191452026367 2.028224945068
-55.753322601318 -74.937576293945 -140.124633789063 1.249524593353
36.694061279297 -78.763282775879 -144.769088745117 2.320303201675
109.304702758789 -72.763778686523 -134.406890869141 2.126990318298
-45.657020568848 -73.590942382813 -143.398345947266 1.744336009026
32.517280578613 -73.766738891602 -149.724960327148 1.015630602837
-56.252979278564 -69.848754882813 -140.764846801758 1.383747220039
-58.549434661865 -75.128402709961 -144.202667236328 3.238728284836
-52.065223693848 -78.440635681152 -149.565048217773 2.218677997589
-63.916381835938 -78.247619628906 -155.292968750000 1.803585767746
112.493461608887 -78.915161132813 -146.755691528320 1.538327097893
-49.347412109375 -81.686767578125 -154.805023193359 3.207003831863
23.544715881348 -79.986259460449 -155.912933349609 2.346580505371
108.302139282227 -75.684028625488 -161.656661987305 2.253090381622
-64.940994262695 -75.328765869141 -154.284088134766 1.623385071754
-43.139820098877 -76.545394897461 -156.773605346680 2.764896392822
9.475312232971 -72.773353576660 -153.981842041016 1.045344591141
-67.828285217285 -75.836219787598 -154.619201660156 1.817451477051
-63.473224639893 -78.057495117188 -158.145462036133 1.984690070152
0.789681077003 -75.385017395020 -161.884231567383 0.576942265034
-43.416294097900 -71.793663024902 -167.388473510742 1.703645825386
29.484470367432 -72.944297790527 -166.890457153320 2.437543630600
-62.735157012939 -71.590087890625 -167.732589721680 1.366454601288
-55.540977478027 -77.474418640137 -166.150802612305 2.910300254822
15.500453948975 -78.331840515137 -159.467575073242 5.570316791534
-29.798118591309 -74.302444458008 -168.019119262695 1.793452620506
-28.192054748535 -77.992752075195 -166.082260131836 2.147895097733
15.586688995361 -76.674224853516 -174.178482055664 3.042721033096
-42.975635528564 -78.348014831543 -172.456802368164 2.237295627594
-10.085031509399 -76.759704589844 -171.864425659180 2.171300649643
-65.015190124512 -72.288269042969 -171.096374511719 1.041985630989
-6.920622348785 -72.839843750000 -173.498687744141 1.454213380814
-21.265865325928 -75.615249633789 -179.316635131836 1.892783641815
22.864463806152 -72.457450866699 -183.461593627930 2.513295173645
-38.377758026123 -77.106430053711 -171.835357666016 0.991941332817
21.345989227295 -71.331207275391 -175.356018066406 2.447964668274
-22.358734130859 -71.717239379883 -185.076324462891 0.998547732830
-31.620445251465 -77.978317260742 -177.506637573242 2.125605106354
-147.752532958984 -73.240509033203 -191.541763305664 1.259402275085
-17.574958801270 -79.780845642090 -183.451492309570 2.429428577423
-140.349136352539 -74.407478332520 -189.014663696289 2.999400615692
-153.199172973633 -76.257682800293 -186.754760742188 4.646318912506
-49.119815826416 -73.795593261719 -188.095703125000 1.471823215485
98.841827392578 -74.453277587891 -194.385452270508 1.449891209602
-144.450881958008 -77.213226318359 -190.154998779297 1.770363569260
-146.026718139648 -74.138587951660 -195.332931518555 2.084660768509
23.008827209473 -73.613182067871 -195.920562744141 1.465458273888
-137.924270629883 -76.298431396484 -195.693984985352 2.118719339371
14.271018028259 -71.632812500000 -198.628646850586 2.378719329834
-137.811172485352 -78.692924499512 -199.003479003906 1.933880925179
13.629737854004 -71.586357116699 -197.164031982422 1.735665321350
-132.665039062500 -72.595367431641 -195.650695800781 0.272258311510
5.728094100952 -72.102828979492 -202.105895996094 2.995838880539
-151.309112548828 -76.018783569336 -202.170547485352 2.059809684753
95.687744140625 -75.092193603516 -205.872558593750 2.563490867615
-16.270481109619 -78.057525634766 -207.505355834961 1.966081619263
-30.013969421387 -74.477684020996 -208.214675903320 1.511950254440
-11.531654357910 -70.733734130859 -204.835433959961 1.059494853020
-145.145980834961 -80.402488708496 -210.204330444336 2.009747028351
-35.017063140869 -75.549163818359 -202.893142700195 2.383018493652
-83.463569641113 -77.857933044434 -203.358062744141 7.795466423035
-26.360958099365 -77.021514892578 -207.935974121094 2.559336662292
15.281573295593 -75.932228088379 -212.949768066406 2.079722642899
-146.029052734375 -73.940483093262 -214.519805908203 3.035300254822
-88.742782592773 -78.025527954102 -218.204177856445 1.574109554291
-28.823246002197 -74.364425659180 -218.653869628906 2.346950531006
-26.758815765381 -75.424491882324 -220.021896362305 2.184989929199
-8.222126007080 -77.153610229492 -208.982788085938 2.110065460205
-26.874687194824 -74.714317321777 -207.725158691406 3.207493782043
-83.454727172852 -76.119102478027 -220.880920410156 3.812689542770
-89.165214538574 -81.051910400391 -219.015609741211 4.388059139252
-22.466979980469 -74.901535034180 -221.051040649414 1.559200048447
-1.431309223175 -83.468208312988 -224.232315063477 4.041747570038
-155.340026855469 -78.184158325195 -216.709045410156 5.252072334290
-1.932060241699 -77.146873474121 -220.845596313477 0.693139731884
88.061317443848 -79.463821411133 -226.800231933594 5.095135211945
-139.047134399414 -78.672904968262 -222.650161743164 3.465103864670
-3.770855665207 -76.201919555664 -220.862609863281 0.999603211880
-138.948486328125 -77.735702514648 -225.224578857422 1.867692947388
-146.611129760742 -84.344772338867 -224.632705688477 1.210723519325
-5.327228546143 -74.463172912598 -227.844223022461 2.795152425766
21.844718933105 -76.410118103027 -214.257095336914 3.957236766815
-138.555404663086 -74.293838500977 -228.811782836914 2.256725549698
-17.246139526367 -77.266128540039 -227.329116821289 2.111860275269
72.886291503906 -76.292541503906 -224.975738525391 4.838580131531
75.465339660645 -75.626937866211 -233.290191650391 2.280538082123
10.935342788696 -77.571792602539 -229.517700195313 2.242102861404
-33.127094268799 -77.061012268066 -235.418746948242 2.899530887604
-22.985466003418 -83.319282531738 -241.645950317383 4.367495059967
3.370570182800 -73.970260620117 -242.694091796875 1.195832133293
-46.296810150146 -71.460060119629 -242.986709594727 3.253863811493
-20.510253906250 -73.749153137207 -242.400146484375 0.658183932304
10.677477836609 -72.572273254395 -238.570404052734 1.860117077827
-62.652420043945 -76.424118041992 -244.990676879883 1.479573369026
-35.407814025879 -80.519599914551 -243.324829101563 2.043703556061
-38.185642242432 -74.455101013184 -244.897033691406 2.214219093323
-147.488433837891 -74.054870605469 -245.359207153320 2.787457704544
-44.415710449219 -78.869934082031 -247.814910888672 2.515734434128
-52.110515594482 -68.708129882813 -246.826629638672 4.547011852264
-65.224632263184 -75.754936218262 -248.394775390625 2.354175806046
-9.959863662720 -79.952919006348 -245.574737548828 5.996140003204
-78.472557067871 -77.410202026367 -254.481201171875 1.594858288765
-155.934722900391 -82.461631774902 -252.954864501953 2.885860919952
-140.001602172852 -75.107910156250 -253.125549316406 3.381705522537
-121.022323608398 -77.880821228027 -258.069946289063 4.785098075867
-157.781326293945 -72.899543762207 -257.994934082031 2.966751337051
19.735942840576 -82.188911437988 -265.800598144531 2.436372756958
-13.906410217285 -78.215454101563 -268.262908935547 1.961566567421
-154.139785766602 -79.287361145020 -273.482055664063 2.488598346710
-152.044219970703 -83.044387817383 -277.895294189453 2.310271739960
-145.193756103516 -79.070335388184 -284.990447998047 1.947458744049
-58.042182922363 -71.475341796875 -279.550170898438 6.312369823456
-38.143718719482 -70.972686767578 -284.991241455078 2.595003604889
-18.219467163086 -73.527801513672 -288.771453857422 2.540900707245
-8.781667709351 -72.031372070313 -278.677551269531 1.819565057755
-65.497917175293 -79.211845397949 -284.598358154297 4.185477733612
-80.286254882813 -80.317863464355 -285.463226318359 4.986715793610
-1.471855282784 -76.877998352051 -282.164154052734 1.907490968704
3.922241687775 -77.365463256836 -291.432098388672 1.468899607658
-139.020980834961 -74.997291564941 -285.647399902344 2.667738676071
-79.861167907715 -72.938484191895 -285.572753906250 3.334662199020
-146.427185058594 -75.355514526367 -286.931427001953 0.671033680439
-93.887298583984 -84.619102478027 -284.905700683594 9.795351028442
-78.077423095703 -75.555816650391 -285.229949951172 2.980304241180
-85.257568359375 -73.456924438477 -294.934783935547 3.450998783112
-62.277645111084 -75.653251647949 -291.167266845703 2.317293405533
-29.789642333984 -69.692878723145 -294.558593750000 4.589451313019
-7.610904216766 -75.397056579590 -290.009216308594 2.453303813934
-150.507919311523 -69.768554687500 -298.464752197266 2.815111160278
-148.232543945313 -74.240318298340 -300.165832519531 2.099218606949
-143.303466796875 -75.231101989746 -304.404693603516 0.600945055485
-157.042495727539 -76.092468261719 -304.305267333984 3.129099607468
-56.024555206299 -70.619987487793 -55.559635162354 4.300719261169
-47.717895507813 -73.322067260742 -52.353408813477 1.950490713120
-39.063385009766 -75.465217590332 -53.189441680908 1.959410548210
-76.768379211426 -76.828132629395 -61.715610504150 1.325305700302
-28.796619415283 -72.573196411133 -64.138427734375 3.768102169037
-34.007347106934 -73.394317626953 -79.198837280273 2.596756219864
74.958908081055 -77.679679870605 -82.279541015625 2.402945041656
75.654571533203 -74.101516723633 -78.972671508789 1.486275196075
73.098564147949 -71.399642944336 -82.901809692383 3.587001085281
100.538459777832 -70.270034790039 -89.723403930664 0.275344520807
69.078254699707 -76.180587768555 -88.525909423828 3.577780723572
48.758327484131 -76.753746032715 -88.422195434570 5.635560989380
52.257480621338 -79.552688598633 -100.680114746094 2.460950374603
-65.996818542480 -72.771736145020 -101.508544921875 3.887183666229
-73.561027526855 -69.389770507813 -101.914154052734 2.438791751862
45.416057586670 -75.323776245117 -102.518020629883 0.894393265247
-81.553703308105 -79.912811279297 -109.472869873047 3.424685716629
-92.401268005371 -72.564918518066 -110.017486572266 2.062535524368
51.734188079834 -73.909851074219 -107.804824829102 2.233996629715
107.917678833008 -72.727882385254 -114.921524047852 1.651767492294
33.636650085449 -76.180465698242 -124.760498046875 0.430220544338
43.322406768799 -75.643272399902 -118.037109375000 1.892373919487
40.683456420898 -72.774497985840 -122.522033691406 1.895032882690
30.585113525391 -75.805427551270 -121.698867797852 1.816713094711
109.778053283691 -73.913757324219 -120.419296264648 1.642650723457
39.782035827637 -77.034683227539 -130.804290771484 1.010906100273
35.002265930176 -70.113121032715 -131.805496215820 0.875074684620
-43.997730255127 -73.265441894531 -141.587265014648 2.035092115402
-69.698425292969 -77.709281921387 -142.787277221680 3.615746021271
-52.507827758789 -73.438926696777 -148.236404418945 1.776263356209
-73.972007751465 -79.059112548828 -145.371795654297 3.568842411041
-38.087963104248 -74.098281860352 -147.247909545898 3.381069660187
106.752845764160 -74.584259033203 -155.659423828125 3.499367475510
-71.188133239746 -76.935218811035 -155.794372558594 2.175320386887
24.024951934814 -79.275970458984 -145.884414672852 2.219268560410
29.254489898682 -76.990875244141 -149.187637329102 1.380749344826
111.879890441895 -77.395126342773 -161.877807617188 2.482493638992
10.235110282898 -77.668197631836 -158.699554443359 2.260822772980
33.665126800537 -71.862571716309 -154.880874633789 1.057710289955
-62.514015197754 -77.109748840332 -158.827285766602 3.309395313263
-39.943138122559 -76.876777648926 -172.917083740234 1.027998685837
21.939605712891 -74.337501525879 -162.661376953125 1.174555540085
-64.692314147949 -73.674156188965 -156.424209594727 1.123059272766
-69.552719116211 -74.862205505371 -165.096664428711 3.026622295380
114.374931335449 -76.297225952148 -165.504028320313 2.341232061386
-7.721655368805 -76.078788757324 -164.676025390625 2.124288558960
-64.939743041992 -73.326339721680 -171.542724609375 0.724390447140
-34.058200836182 -76.679611206055 -166.515930175781 0.972990870476
-53.876274108887 -73.557289123535 -171.262054443359 3.309387683868
30.934356689453 -73.764511108398 -174.296035766602 3.492936849594
111.838020324707 -71.583374023438 -172.163360595703 1.495400428772
102.741653442383 -72.811523437500 -182.788619995117 1.359385013580
105.379714965820 -73.914016723633 -188.648620605469 1.693695902824
107.110305786133 -71.656860351563 -175.570358276367 2.073655128479
-50.880657196045 -73.551559448242 -191.391433715820 3.003754138947
-47.423362731934 -71.404953002930 -182.651641845703 4.663087368011
27.812229156494 -74.441741943359 -183.058654785156 1.417958140373
-47.550807952881 -73.472534179688 -185.230987548828 3.062569141388
-20.276744842529 -75.067024230957 -183.262741088867 1.737563967705
-50.566852569580 -77.887382507324 -190.846130371094 1.459418654442
-151.462844848633 -74.320762634277 -192.079345703125 1.909615993500
101.553459167480 -76.573684692383 -191.810699462891 0.841811180115
-43.945358276367 -71.953727722168 -194.154022216797 3.734057903290
-12.197470664978 -76.476554870605 -198.497222900391 2.701285123825
-139.134963989258 -74.808471679688 -192.447525024414 4.185215473175
-41.254112243652 -72.326652526855 -198.106872558594 2.250447750092
101.671524047852 -73.008209228516 -195.888870239258 1.195237278938
108.082313537598 -72.155853271484 -184.341445922852 1.357753396034
-42.779964447021 -74.601089477539 -195.037872314453 3.152343273163
-22.014190673828 -82.169258117676 -198.478286743164 3.686631441116
-146.799255371094 -78.712028503418 -199.608093261719 2.433765649796
-24.646305084229 -74.606521606445 -195.021560668945 0.957239329815
-159.045989990234 -75.954589843750 -196.421463012695 4.910858631134
-152.253555297852 -82.789779663086 -204.477798461914 2.775637626648
-144.098800659180 -77.634330749512 -201.263244628906 2.457186460495
-38.099300384521 -75.722633361816 -200.152725219727 1.705593943596
102.152717590332 -75.543907165527 -202.338378906250 2.758204698563
-41.579200744629 -72.799964904785 -199.259307861328 2.426467180252
-142.061798095703 -79.263877868652 -204.274963378906 1.734745740891
-37.028480529785 -70.812370300293 -204.827362060547 3.209275960922
-21.525901794434 -80.436424255371 -209.244216918945 5.046853542328
98.142967224121 -77.245025634766 -204.975097656250 1.653834700584
90.834388732910 -76.152038574219 -213.868698120117 1.111308336258
-36.326057434082 -73.036933898926 -216.576446533203 4.969667434692
-87.747314453125 -76.730865478516 -209.571945190430 2.718477010727
-75.315612792969 -76.330062866211 -211.071807861328 0.830786287785
-18.811904907227 -75.013954162598 -209.826049804688 1.951892375946
-149.561203002930 -77.676979064941 -201.864822387695 2.082987070084
91.831977844238 -73.890068054199 -213.218505859375 1.778656721115
88.953430175781 -71.148811340332 -217.299224853516 1.233569025993
90.302627563477 -75.013954162598 -219.988388061523 1.577445864677
-102.301849365234 -76.333251953125 -218.178115844727 4.152333259583
-154.021331787109 -78.188636779785 -220.511444091797 4.824489593506
-19.884891510010 -73.035888671875 -223.098678588867 2.023985147476
80.995529174805 -70.979484558105 -226.559646606445 0.790424585342
-149.789611816406 -79.820526123047 -221.465667724609 3.608111381531
-28.638652801514 -76.566635131836 -216.805191040039 1.268607735634
-133.789993286133 -73.735359191895 -232.148971557617 1.516460657120
-10.903177261353 -77.872940063477 -230.762664794922 2.027122735977
17.587379455566 -73.668952941895 -227.978851318359 2.058830261230
20.484893798828 -75.826675415039 -232.671264648438 2.308548450470
-155.039596557617 -78.872398376465 -234.680679321289 3.485373258591
-126.126266479492 -71.531806945801 -232.136032104492 2.700633525848
-7.925979137421 -74.567657470703 -234.948989868164 1.278659224510
0.500267863274 -74.009628295898 -237.057617187500 0.827224791050
69.475334167480 -74.324737548828 -230.729202270508 1.823691606522
69.768379211426 -71.056816101074 -238.408767700195 0.758360028267
0.052662283182 -72.584175109863 -239.650146484375 0.739146769047
16.373409271240 -70.461654663086 -239.438201904297 1.105321168900
-30.945789337158 -66.917503356934 -240.799957275391 8.176127433777
-32.214183807373 -84.041770935059 -241.542388916016 4.050129413605
-48.237976074219 -75.066726684570 -235.721893310547 4.362866401672
-40.066810607910 -72.819160461426 -239.421752929688 4.066049575806
-16.200763702393 -76.397506713867 -242.362167358398 0.767113566399
-51.655479431152 -73.164169311523 -243.678665161133 3.174271345139
2.062203168869 -75.578514099121 -244.676437377930 0.710054039955
-68.069213867188 -77.527359008789 -242.346878051758 4.708980560303
21.750862121582 -76.230033874512 -246.609680175781 1.501748681068
-142.230682373047 -78.381706237793 -243.478576660156 4.467092990875
-72.688148498535 -78.221954345703 -252.805786132813 1.739103436470
16.647079467773 -76.002792358398 -249.326324462891 1.142665863037
-160.855484008789 -74.631088256836 -248.733642578125 0.918327689171
13.641277313232 -79.305709838867 -253.056121826172 2.951350927353
-80.106636047363 -69.309745788574 -250.311401367188 1.601508259773
-75.444465637207 -75.873001098633 -249.880523681641 1.854027271271
18.926189422607 -76.968833923340 -253.683197021484 2.080636978149
-89.199928283691 -74.765876770020 -250.464782714844 2.690103054047
-125.552001953125 -71.904075622559 -253.988861083984 1.978127002716
-132.196777343750 -79.736213684082 -259.773193359375 2.309900999069
-135.801010131836 -78.985702514648 -252.116821289063 3.751764059067
-146.602340698242 -77.846534729004 -260.920135498047 1.702444672585
-145.693038940430 -72.327247619629 -252.020446777344 1.280450820923
-133.995162963867 -74.009483337402 -261.133605957031 0.707179307938
-161.506973266602 -72.195060729980 -259.797058105469 2.694634437561
-127.721557617188 -75.670066833496 -266.576629638672 4.241592884064
-136.096755981445 -70.216499328613 -262.351013183594 1.504866003990
-162.287597656250 -72.606338500977 -269.273895263672 3.051372051239
-155.455047607422 -73.010116577148 -263.935821533203 2.402682304382
-147.934051513672 -73.893714904785 -265.117736816406 2.257115125656
-148.486846923828 -76.644912719727 -265.063354492188 1.823190093040
17.486904144287 -77.598388671875 -278.390502929688 2.190974473953
-166.172286987305 -76.011192321777 -265.250061035156 1.782871961594
-151.237182617188 -77.604888916016 -272.809600830078 1.575841903687
-4.803135871887 -83.405311584473 -272.031951904297 2.071997165680
-154.980102539063 -73.255187988281 -274.318725585938 1.915609002113
12.271773338318 -78.770149230957 -282.684387207031 0.628103137016
-152.453353881836 -75.393089294434 -280.859741210938 2.103503227234
-165.636184692383 -77.421852111816 -287.922851562500 3.716554403305
-155.122207641602 -78.915908813477 -277.491485595703 3.647707939148
-164.345504760742 -73.546531677246 -288.400177001953 2.055950164795
0.868818640709 -78.915908813477 -286.521209716797 3.584178924561
7.582111835480 -80.571426391602 -281.041687011719 3.503226518631
-104.747108459473 -73.561943054199 -291.966796875000 1.176082372665
-155.711196899414 -82.518684387207 -287.077087402344 1.929036736488
-147.819229125977 -73.341468811035 -284.522949218750 2.838094949722
-105.818237304688 -74.485511779785 -291.240234375000 1.944291353226
-152.907867431641 -79.329040527344 -292.306427001953 2.644843578339
-148.052673339844 -80.395118713379 -288.057159423828 1.307800650597
-74.548004150391 -79.238830566406 -292.739685058594 4.630391597748
-167.515975952148 -78.504241943359 -288.268188476563 5.570215225220
-122.359214782715 -71.938659667969 -290.910247802734 1.704150319099
-42.599308013916 -80.155456542969 -285.319519042969 2.780207395554
-151.251037597656 -75.574821472168 -287.091430664063 1.287968039513
-131.327392578125 -70.606468200684 -293.108520507813 2.430744171143
-19.709686279297 -72.777526855469 -294.198760986328 3.527961254120
-128.794174194336 -71.689193725586 -292.488555908203 2.732894897461
6.501470565796 -76.445243835449 -294.474456787109 1.337421655655
15.435845375061 -72.402641296387 -291.921478271484 1.758570551872
-133.100585937500 -71.441963195801 -290.332580566406 3.136446952820
-145.221633911133 -77.960899353027 -297.875854492188 2.880441665649
-156.014953613281 -79.689376831055 -314.586364746094 4.397156238556
-71.260787963867 -68.492591857910 -52.289863586426 2.752362966537
-21.301902770996 -66.957649230957 -65.395233154297 3.937852859497
-18.996990203857 -76.313491821289 -64.588973999023 2.412752389908
71.787147521973 -70.453681945801 -78.115814208984 2.915710449219
90.888496398926 -72.078292846680 -75.467391967773 2.889535665512
-35.799423217773 -73.347023010254 -79.439132690430 2.337942600250
76.552238464355 -71.887001037598 -80.354263305664 3.529082536697
90.648880004883 -76.774093627930 -82.464157104492 2.183086633682
66.897903442383 -73.263824462891 -83.828201293945 2.337516069412
73.729164123535 -71.562103271484 -90.182678222656 2.870563745499
-49.566421508789 -74.186019897461 -84.709060668945 1.991013288498
-91.288360595703 -76.506576538086 -89.003997802734 2.490173101425
59.819747924805 -76.136886596680 -93.565948486328 2.084158182144
50.874485015869 -75.579574584961 -99.675689697266 2.114999771118
93.379112243652 -68.994705200195 -100.946456909180 2.807489395142
-90.446426391602 -68.208427429199 -101.280029296875 6.468726158142
80.722709655762 -67.802833557129 -99.978332519531 2.851382732391
72.337181091309 -73.798385620117 -100.929183959961 2.515645265579
91.812202453613 -75.653022766113 -97.753799438477 2.108766078949
84.179115295410 -73.174087524414 -96.268325805664 1.829075098038
81.313911437988 -76.063926696777 -98.673233032227 1.822856307030
-87.707511901855 -75.623809814453 -102.209121704102 5.156472682953
44.448234558105 -70.354362487793 -104.705566406250 1.093030929565
105.402587890625 -74.385406494141 -110.509429931641 2.078141212463
107.417304992676 -73.820808410645 -110.422698974609 0.611682653427
50.178993225098 -76.797348022461 -119.933639526367 4.480198383331
113.493469238281 -76.594253540039 -119.393890380859 2.672569990158
117.802352905273 -76.936843872070 -134.833206176758 1.716968536377
-50.286853790283 -70.796035766602 -129.118911743164 2.916236639023
28.145915985107 -72.991737365723 -134.553817749023 1.946721673012
41.496589660645 -77.223045349121 -133.420410156250 2.469560623169
24.985633850098 -70.661666870117 -141.761459350586 2.006252050400
113.229972839355 -77.311569213867 -136.822937011719 2.360821485519
111.901435852051 -74.775924682617 -130.057861328125 1.630760669708
-73.201232910156 -73.591667175293 -147.958969116211 1.768117785454
-43.217311859131 -72.554107666016 -140.320327758789 2.516834020615
-70.984741210938 -71.697410583496 -152.218078613281 1.596466541290
19.027904510498 -71.367912292480 -147.885925292969 1.764585971832
112.452972412109 -70.166732788086 -147.957748413086 2.445210933685
-53.718601226807 -75.626861572266 -151.749633789063 2.363155603409
-71.923126220703 -72.631050109863 -151.899475097656 1.985456585884
-38.863170623779 -77.060333251953 -151.118576049805 2.562896728516
32.065147399902 -67.670036315918 -153.634429931641 2.915426731110
109.176155090332 -69.162773132324 -150.258987426758 3.567384004593
117.109954833984 -72.089462280273 -161.628082275391 1.730888605118
-67.941619873047 -70.353279113770 -155.729904174805 0.612605988979
-74.447601318359 -76.416496276855 -159.928405761719 3.856234312057
22.288303375244 -78.334030151367 -163.169403076172 0.808151960373
-59.985248565674 -71.180557250977 -166.806930541992 1.946001768112
-32.152034759521 -71.290084838867 -163.154052734375 0.940840959549
8.894617080688 -75.425201416016 -163.747268676758 2.964465856552
107.751632690430 -70.269088745117 -161.333587646484 2.989002227783
10.245598793030 -77.684013366699 -167.981811523438 6.307361602783
-32.103889465332 -73.998222351074 -165.592941284180 2.247634649277
-3.048877000809 -67.830718994141 -164.556869506836 5.102167129517
107.031944274902 -69.108184814453 -166.721008300781 2.763742923737
-41.423522949219 -71.093261718750 -163.463928222656 2.551272153854
30.612163543701 -70.753082275391 -173.162078857422 1.947065114975
114.779487609863 -77.973899841309 -172.152618408203 3.156360387802
-56.831333160400 -70.237281799316 -175.425613403320 3.648300170898
-27.522800445557 -77.230911254883 -175.291625976563 1.473437786102
102.070266723633 -74.006027221680 -174.225784301758 3.889750719070
29.678005218506 -70.885597229004 -167.686965942383 2.413261651993
105.062026977539 -75.125686645508 -175.626388549805 1.006731748581
-36.555709838867 -69.245391845703 -178.968811035156 2.840352773666
110.030433654785 -77.321189880371 -180.584548950195 1.696694493294
-62.915802001953 -70.252113342285 -177.313552856445 5.003343105316
-25.407520294189 -78.342491149902 -177.512939453125 2.312040567398
-147.120025634766 -67.482841491699 -184.179534912109 2.607244729996
-53.691677093506 -72.672729492188 -178.801345825195 1.995110154152
-147.064865112305 -74.572418212891 -185.564544677734 1.148989319801
-34.634616851807 -71.206512451172 -183.267944335938 2.407573938370
29.379219055176 -79.037162780762 -178.596801757813 3.652417898178
106.165077209473 -74.490974426270 -183.335937500000 1.427653431892
-35.974052429199 -72.994277954102 -181.766586303711 0.896838486195
10.846048355103 -74.171348571777 -190.657958984375 1.383906841278
16.537242889404 -73.194023132324 -205.146545410156 2.943094968796
-148.898162841797 -74.667358398438 -187.743072509766 1.426236152649
106.857192993164 -76.758491516113 -195.690719604492 3.040542364120
-22.956172943115 -71.424400329590 -192.600708007813 2.600903511047
100.985717773438 -74.917907714844 -186.943420410156 2.969043970108
12.302678108215 -70.488639831543 -190.158660888672 1.689893960953
-139.549972534180 -73.941322326660 -205.280685424805 3.954816579819
-137.403686523438 -73.136497497559 -199.063461303711 2.574064970016
102.575805664063 -77.469886779785 -201.327560424805 1.401064872742
-11.428087234497 -78.325592041016 -199.610458374023 3.442991018295
-16.904861450195 -74.330566406250 -203.963470458984 2.831078529358
11.730123519897 -76.270599365234 -207.176620483398 1.636749505997
-149.595932006836 -73.171173095703 -205.818801879883 1.597467064857
-146.130767822266 -75.429397583008 -209.060043334961 3.083237409592
101.389442443848 -67.326530456543 -205.425949096680 4.185670852661
-84.181747436523 -73.593269348145 -207.159606933594 4.579242229462
-34.911540985107 -75.090705871582 -200.235275268555 1.521941781044
20.452671051025 -77.457710266113 -214.739288330078 2.841187477112
-24.226989746094 -74.462486267090 -210.521102905273 1.496273875237
-74.682945251465 -71.801216125488 -205.487213134766 4.659148693085
91.390457153320 -73.659500122070 -208.787536621094 1.747469782829
-78.881454467773 -70.906440734863 -211.826278686523 2.053353786469
-147.607559204102 -73.968925476074 -218.788253784180 1.782268285751
-79.942192077637 -71.979370117188 -212.193817138672 1.535096287727
-11.398293495178 -67.493148803711 -207.392684936523 3.208408117294
-20.114334106445 -70.735931396484 -219.738601684570 2.321248531342
18.764232635498 -74.285911560059 -214.260238647461 2.116868495941
-4.787166118622 -75.499931335449 -221.560958862305 2.009565830231
-88.017059326172 -79.757011413574 -218.780868530273 3.074236631393
93.402824401855 -72.487258911133 -213.547302246094 1.058951258659
-99.630180358887 -72.271774291992 -215.032806396484 2.353559732437
-153.401885986328 -72.178939819336 -224.845504760742 1.251615405083
-28.392620086670 -72.959388732910 -224.175277709961 4.344596862793
19.282291412354 -74.915802001953 -215.403411865234 2.006776332855
-101.808578491211 -74.739906311035 -219.621246337891 2.103345870972
7.705740928650 -68.825584411621 -217.272949218750 2.875144958496
-26.708988189697 -73.650886535645 -214.336425781250 1.485461592674
82.816207885742 -71.189582824707 -224.547668457031 1.459713101387
-144.179870605469 -72.358009338379 -217.052383422852 1.152599453926
14.333512306213 -72.833152770996 -225.526855468750 2.060742616653
-9.058004379272 -77.594505310059 -227.399520874023 1.547708392143
18.086654663086 -65.744949340820 -223.195373535156 4.154726028442
84.323371887207 -74.937232971191 -222.428253173828 1.336753726006
-13.995849609375 -77.536178588867 -228.817977905273 2.625260353088
-130.058197021484 -76.174476623535 -226.566787719727 2.796818256378
-14.518837928772 -73.502799987793 -223.856216430664 1.383292675018
17.103782653809 -73.447860717773 -229.056030273438 1.484528541565
-127.291687011719 -77.121795654297 -226.655899047852 2.903987884521
-152.935485839844 -70.464576721191 -230.612594604492 2.508168220520
-142.685470581055 -72.856201171875 -228.740768432617 2.204511642456
-128.248474121094 -71.620246887207 -226.101455688477 2.299785375595
-11.178866386414 -70.556190490723 -223.912445068359 2.047699928284
72.312156677246 -73.220611572266 -226.912261962891 2.448563337326
-144.015838623047 -69.375381469727 -238.843811035156 2.092074394226
69.161766052246 -74.526802062988 -227.935104370117 3.587978363037
-20.732555389404 -77.944320678711 -230.750946044922 2.027202606201
-142.141571044922 -77.097557067871 -227.806854248047 2.655042886734
77.023788452148 -81.325454711914 -228.875137329102 5.255018711090
10.580894470215 -78.926834106445 -231.737762451172 0.679009318352
-139.793594360352 -77.980316162109 -235.681030273438 4.253515243530
-149.233413696289 -73.124893188477 -232.797943115234 2.033360481262
18.023593902588 -69.248298645020 -230.397293090820 2.367266178131
-2.061955690384 -77.570930480957 -238.678756713867 1.180792808533
-29.094120025635 -72.773376464844 -236.472885131836 2.905254602432
-1.141281485558 -68.789916992188 -236.042297363281 1.505297064781
-160.168350219727 -77.500343322754 -237.471710205078 4.398149490356
6.352606773376 -71.388244628906 -242.421585083008 1.600579500198
-164.428482055664 -75.473045349121 -240.332778930664 2.400209426880
-11.577466964722 -74.950904846191 -237.108642578125 2.475780725479
59.396633148193 -74.594352722168 -238.827224731445 2.764909029007
-13.128374099731 -72.160034179688 -236.312789916992 2.506972551346
-24.616683959961 -73.423347473145 -246.716979980469 4.755037784576
-24.030635833740 -73.278755187988 -241.375701904297 0.700267851353
-10.568766593933 -77.760650634766 -239.651870727539 4.593451976776
-146.001052856445 -74.880218505859 -228.060089111328 1.616947770119
8.254401206970 -72.429313659668 -241.157867431641 1.652478575706
64.519378662109 -73.205154418945 -244.356063842773 2.455675363541
15.971371650696 -70.585075378418 -244.865249633789 2.233680248260
-168.323135375977 -72.089607238770 -242.355712890625 3.175567150116
-51.125167846680 -72.636291503906 -238.584106445313 4.316241741180
5.418720245361 -81.010681152344 -248.464141845703 2.303271770477
17.681003570557 -74.072540283203 -242.952423095703 2.425512790680
-53.441459655762 -73.445449829102 -247.062835693359 2.202747821808
-1.654142260551 -68.242012023926 -249.669158935547 5.899596214294
21.081951141357 -80.910919189453 -248.329681396484 0.486640810966
-171.313583374023 -71.492507934570 -248.748352050781 5.258432865143
-65.106903076172 -78.247962951660 -248.653930664063 1.745818495750
-51.950416564941 -71.810340881348 -247.355102539063 2.999310016632
