-50.013660430908 -81.346755981445 -185.708007812500 0.565109848976
-145.710937500000 -84.026245117188 -190.857879638672 1.039759755135
-43.724723815918 -81.480308532715 -193.156753540039 0.803584754467
-147.220092773438 -82.981948852539 -195.093505859375 1.234866380692
-136.711059570313 -84.828292846680 -198.539321899414 2.210771560669
-37.410457611084 -82.652214050293 -197.072845458984 0.853058874607
-144.274612426758 -82.429328918457 -200.218002319336 0.784281432629
-142.742736816406 -81.677375793457 -201.300308227539 0.771947979927
-53.244453430176 -82.471549987793 -199.978027343750 1.543518662453
-151.178543090820 -82.055725097656 -198.834594726563 1.687054753304
-58.123809814453 -84.154670715332 -203.640472412109 1.405411720276
-147.023239135742 -82.622245788574 -204.469192504883 1.162794589996
-62.256027221680 -82.021217346191 -211.016632080078 2.189425945282
16.842250823975 -83.467941284180 -236.333419799805 3.230210304260
13.133187294006 -84.545501708984 -234.942550659180 2.476906776428
-147.752731323242 -83.923370361328 -235.537002563477 1.883797526360
20.014678955078 -82.657035827637 -245.951950073242 0.799680709839
16.569906234741 -86.616050720215 -246.562728881836 3.383092641830
12.469872474670 -85.202690124512 -253.442993164063 2.685384750366
13.708114624023 -83.528259277344 -253.856338500977 1.598022341728
-151.682022094727 -85.759040832520 -257.216552734375 1.669603705406
-135.215606689453 -85.908889770508 -261.696441650391 2.415269136429
15.187840461731 -84.016403198242 -264.285858154297 1.936099529266
-147.801712036133 -87.500892639160 -274.712005615234 2.893842220306
-143.198364257813 -87.703712463379 -277.551177978516 4.472726345062
8.309007644653 -82.979049682617 -274.968444824219 1.462168455124
-144.136978149414 -86.384376525879 -276.935699462891 2.908436059952
-137.010650634766 -88.248161315918 -285.661621093750 3.475767612457
-146.703521728516 -86.809616088867 -289.872467041016 1.202862024307
-149.174072265625 -86.673957824707 -289.298248291016 1.727517724037
-153.226745605469 -83.462646484375 -291.489868164063 1.168791413307
-136.188049316406 -85.742576599121 -291.851043701172 1.584271311760
-152.008590698242 -88.161979675293 -292.279388427734 2.546508789063
-59.647087097168 -77.433357238770 -70.284339904785 3.781614303589
-56.094791412354 -76.446464538574 -72.277214050293 5.717324733734
-41.610576629639 -77.341064453125 -73.875839233398 4.191687107086
-79.556526184082 -77.942832946777 -83.120941162109 3.837401390076
-39.012928009033 -77.944046020508 -81.937744140625 2.731930017471
-42.478206634521 -79.380203247070 -83.379318237305 2.491523504257
-83.275352478027 -82.470230102539 -101.059013366699 2.983311653137
-72.597183227539 -75.324890136719 -102.066154479980 2.741926193237
33.839744567871 -79.639755249023 -123.911071777344 1.862331748009
30.685281753540 -78.948333740234 -143.042800903320 1.302168607712
-11.733004570007 -81.653251647949 -177.388427734375 1.585328459740
-17.422616958618 -80.882919311523 -181.522842407227 1.155941486359
-27.251596450806 -79.169357299805 -183.676483154297 1.334489583969
-36.598415374756 -81.807929992676 -188.845336914063 0.894789874554
-52.593509674072 -81.047042846680 -185.989669799805 0.909544467926
-29.252094268799 -79.892715454102 -192.176330566406 2.054124832153
-142.839157104492 -81.518844604492 -187.500000000000 1.418171763420
-148.648208618164 -81.649856567383 -195.663497924805 1.199499964714
-151.636840820313 -81.877655029297 -199.905380249023 0.815573990345
-148.882919311523 -80.800285339355 -203.892715454102 0.795355677605
-68.124473571777 -84.227256774902 -208.803375244141 1.489222764969
-60.092094421387 -80.475692749023 -209.493682861328 1.061574935913
-146.247665405273 -83.440704345703 -212.180999755859 1.249274849892
-71.983924865723 -82.621345520020 -210.872817993164 1.503181099892
-68.787460327148 -84.368934631348 -212.691604614258 2.347455024719
-77.136962890625 -82.763221740723 -214.292617797852 2.664507389069
-141.777832031250 -84.339599609375 -227.073974609375 1.232752442360
-140.720657348633 -83.942611694336 -231.082519531250 1.433436155319
-148.693740844727 -84.548690795898 -247.314956665039 1.473773598671
15.613885879517 -81.786712646484 -247.117065429688 0.604431569576
9.179446220398 -83.855751037598 -247.467376708984 3.198615074158
-134.469482421875 -87.098045349121 -256.654815673828 3.499092102051
16.182334899902 -83.533325195313 -256.760040283203 1.956737160683
13.665372848511 -85.719192504883 -260.323822021484 2.730353832245
-148.821304321289 -86.250282287598 -263.112579345703 1.669820547104
-150.517272949219 -86.651145935059 -276.952362060547 1.476129174232
0.837550997734 -85.155128479004 -272.529144287109 2.621024370193
11.048747062683 -81.337089538574 -276.237030029297 0.860683500767
-152.400985717773 -88.224060058594 -285.115936279297 2.331394433975
-142.833160400391 -86.032600402832 -284.175262451172 2.897292137146
-147.913055419922 -90.609870910645 -302.300689697266 5.153390884399
-47.734390258789 -78.778266906738 -73.112991333008 2.868326663971
-69.819465637207 -77.475692749023 -67.302452087402 3.069761753082
-43.598278045654 -75.977668762207 -67.058013916016 3.755232334137
-34.377079010010 -77.156562805176 -75.425590515137 3.914129972458
-75.907905578613 -73.504661560059 -69.185585021973 5.561018943787
-30.136705398560 -78.661514282227 -77.282386779785 1.434769749641
-47.338397979736 -76.670135498047 -83.450927734375 2.468875885010
-56.869747161865 -76.246162414551 -93.149406433105 2.517895936966
-60.674484252930 -81.814804077148 -94.773712158203 1.771346807480
-64.084388732910 -78.984069824219 -99.933349609375 2.091716051102
-87.611831665039 -77.805946350098 -106.621139526367 3.436869382858
42.698135375977 -77.773002624512 -116.835273742676 1.588907837868
37.913799285889 -78.300270080566 -126.137634277344 1.720131397247
-42.040782928467 -78.777191162109 -162.155151367188 1.386969566345
-38.279819488525 -81.039916992188 -160.722991943359 1.545997619629
-7.177453994751 -79.321197509766 -169.794815063477 1.305988907814
-60.385452270508 -79.573875427246 -171.343215942383 1.745080828667
-56.726997375488 -80.633460998535 -177.510925292969 1.721943378448
-58.341754913330 -80.140045166016 -174.234359741211 0.989422440529
-31.910863876343 -78.915420532227 -170.827041625977 1.310895562172
-52.248275756836 -79.538146972656 -182.398910522461 1.416956424713
-25.404790878296 -79.391586303711 -181.678161621094 1.193705916405
-146.492279052734 -83.552650451660 -186.473739624023 1.743723154068
-49.378814697266 -79.622772216797 -180.881851196289 0.768865883350
-44.385482788086 -81.257698059082 -192.513092041016 1.194728970528
-31.633392333984 -78.321311950684 -185.043258666992 2.314275741577
-32.090187072754 -78.687408447266 -188.589508056641 0.926255941391
-31.454944610596 -79.107383728027 -191.270462036133 1.334352254868
-23.445676803589 -80.441787719727 -188.568222045898 1.704173088074
-44.657733917236 -81.981010437012 -195.196228027344 1.118235826492
-143.487899780273 -81.728553771973 -195.548690795898 1.603879928589
-38.285995483398 -81.020019531250 -195.719894409180 1.251842498779
-40.628406524658 -82.110069274902 -200.237777709961 1.234688282013
-42.188304901123 -79.822830200195 -199.537567138672 1.738611698151
-42.932502746582 -80.091682434082 -198.557861328125 1.468281388283
-132.543487548828 -81.009292602539 -201.907928466797 2.166014432907
-135.229125976563 -79.789596557617 -202.077346801758 1.946829676628
-46.972415924072 -82.751960754395 -201.585510253906 0.944012761116
-58.575576782227 -81.403144836426 -203.605026245117 1.143909454346
-36.662338256836 -80.426010131836 -203.789840698242 1.438539505005
-143.273468017578 -81.826171875000 -205.860336303711 1.587812900543
-68.188652038574 -79.636817932129 -207.490768432617 1.417315244675
-33.092239379883 -81.476463317871 -207.483947753906 0.867663800716
16.919681549072 -80.023994445801 -202.666702270508 2.930097818375
-75.078765869141 -79.726913452148 -211.216629028320 2.057066440582
-27.286594390869 -78.284568786621 -212.017440795898 1.587445259094
13.477821350098 -81.136230468750 -217.692306518555 1.774128437042
-148.215499877930 -83.078048706055 -218.964538574219 1.995356559753
10.877429962158 -82.174461364746 -225.672119140625 1.884149312973
14.484612464905 -81.971588134766 -220.727218627930 1.479636907578
16.482358932495 -81.944442749023 -228.092926025391 1.717255234718
-133.458328247070 -85.364112854004 -227.906112670898 2.817584037781
-146.464767456055 -82.921554565430 -230.506774902344 1.113401174545
11.500050544739 -82.582130432129 -234.410964965820 1.886080741882
16.397027969360 -81.106506347656 -236.019943237305 1.743376135826
13.670587539673 -80.034492492676 -235.285614013672 1.041244506836
-148.409164428711 -85.590293884277 -240.202804565430 2.052501678467
-143.674072265625 -85.476425170898 -240.665313720703 2.600896835327
17.206146240234 -81.027420043945 -237.053176879883 2.718654632568
-32.942749023438 -80.622772216797 -244.253463745117 1.219706416130
19.026613235474 -82.163017272949 -245.825515747070 0.604385554790
-38.904354095459 -82.444328308105 -244.628509521484 2.770427465439
-145.274978637695 -87.058685302734 -254.297973632813 2.640168190002
15.020695686340 -82.343551635742 -252.597335815430 2.360648632050
-141.169815063477 -84.413017272949 -259.277191162109 1.121618628502
-149.407089233398 -84.572929382324 -254.537322998047 0.873835265636
19.673587799072 -82.386886596680 -257.481994628906 3.420641422272
-6.446214199066 -79.577613830566 -251.305557250977 1.251896381378
-5.831612110138 -83.108421325684 -262.003692626953 2.180664539337
-144.743652343750 -84.622756958008 -257.742309570313 1.151849865913
-152.324295043945 -80.796684265137 -260.983978271484 2.285085678101
-143.537322998047 -85.426467895508 -263.767242431641 2.390946865082
-149.663955688477 -80.929916381836 -264.274505615234 2.290177583694
-150.140686035156 -84.811004638672 -269.914001464844 0.940824389458
-8.361059188843 -82.513511657715 -267.006744384766 1.547928214073
-0.037911001593 -81.942955017090 -270.657928466797 2.310487508774
13.009917259216 -85.760871887207 -266.852935791016 2.193534374237
10.321784019470 -82.135040283203 -280.219268798828 2.894914627075
5.399829864502 -83.475463867188 -279.649749755859 2.611096858978
-134.442306518555 -82.079841613770 -292.279083251953 3.690540552139
-141.040298461914 -85.930023193359 -290.907623291016 1.080654501915
-61.509071350098 -74.901336669922 -65.253280639648 5.000716209412
-42.379520416260 -74.620498657227 -63.718612670898 3.870592117310
-54.573398590088 -76.058074951172 -65.787879943848 3.968547344208
-46.755237579346 -74.991004943848 -66.232711791992 4.421340942383
-71.586380004883 -76.088447570801 -64.582572937012 3.180427789688
-82.181694030762 -76.429306030273 -73.374809265137 3.750276088715
-31.620401382446 -74.560005187988 -80.501625061035 2.114538908005
-41.558464050293 -76.361968994141 -85.701690673828 1.850320696831
-48.449268341064 -76.533340454102 -85.647758483887 1.726865291595
-86.327590942383 -75.764274597168 -86.954826354980 3.496457576752
-77.265647888184 -76.918258666992 -103.578399658203 2.827925443649
42.208045959473 -77.478706359863 -107.752166748047 1.825792312622
-84.932365417480 -78.463592529297 -110.678436279297 0.663596034050
40.376522064209 -77.948387145996 -117.303802490234 1.199548721313
41.384765625000 -78.740791320801 -125.834220886230 1.517042160034
35.351974487305 -76.186508178711 -119.873252868652 0.808097898960
32.994800567627 -78.293472290039 -124.820343017578 1.203052639961
35.544570922852 -77.029037475586 -136.842330932617 1.291871428490
25.568172454834 -75.474967956543 -144.473831176758 0.525448620319
-45.219753265381 -79.697052001953 -150.016387939453 1.872242212296
30.300760269165 -77.194923400879 -146.212158203125 2.366134881973
24.554367065430 -77.868301391602 -155.913345336914 1.402848005295
-46.233840942383 -78.580314636230 -155.752655029297 1.688183903694
28.389528274536 -78.994026184082 -152.826522827148 1.540086984634
-43.416259765625 -77.413085937500 -162.992477416992 1.337925195694
27.123031616211 -77.941329956055 -165.611175537109 1.836964607239
-59.478347778320 -79.768135070801 -169.251296997070 1.547701239586
-8.387855529785 -81.403770446777 -175.081161499023 1.648839712143
-35.019363403320 -76.118293762207 -173.132080078125 2.473467826843
-15.823003768921 -79.315147399902 -174.187438964844 2.576112985611
-53.909645080566 -78.105247497559 -175.170776367188 1.887909531593
23.028734207153 -77.662849426270 -170.928619384766 1.452284693718
-15.035756111145 -79.493431091309 -180.786697387695 1.556099653244
-21.939605712891 -81.101600646973 -185.752304077148 0.264411419630
-56.256855010986 -79.200653076172 -185.179733276367 3.072288751602
-27.152660369873 -78.912033081055 -183.369934082031 1.053775072098
19.683006286621 -77.682334899902 -186.265914916992 1.619557261467
-149.957290649414 -79.084259033203 -186.699035644531 1.604933261871
-26.816688537598 -78.416572570801 -188.168594360352 1.262542128563
-48.044052124023 -78.298324584961 -190.696655273438 1.099368333817
-149.433120727539 -82.927162170410 -195.539123535156 0.863491415977
-142.034774780273 -82.465988159180 -199.353713989258 1.434635639191
-19.238876342773 -79.315254211426 -195.022094726563 1.586704850197
-16.916728973389 -80.389274597168 -197.942382812500 1.902077317238
-48.085342407227 -80.135971069336 -196.329849243164 1.726995944977
-21.497388839722 -77.399688720703 -198.400512695313 1.032208323479
-49.495285034180 -79.901596069336 -203.231842041016 0.639825344086
-43.690654754639 -80.917007446289 -201.370025634766 1.715311050415
-55.375663757324 -81.560707092285 -201.553359985352 1.762284874916
-17.275533676147 -78.345375061035 -205.810256958008 1.832641839981
-148.810836791992 -83.083869934082 -210.121902465820 0.741482198238
-57.215404510498 -78.983398437500 -204.241958618164 0.697334229946
-55.130435943604 -79.910041809082 -206.661224365234 1.675059080124
-30.514905929565 -78.968437194824 -202.834289550781 2.175498723984
-14.463781356812 -80.773902893066 -202.035995483398 1.265844702721
-37.109062194824 -80.115615844727 -206.006469726563 0.986282527447
-76.818489074707 -82.796051025391 -212.434829711914 2.369098186493
-143.327667236328 -83.304321289063 -212.547256469727 2.591984748840
-32.041542053223 -80.936454772949 -204.831970214844 2.419464349747
9.064104080200 -79.345581054688 -209.281921386719 1.366098999977
-59.904785156250 -80.536804199219 -210.983306884766 1.885695099831
-69.287895202637 -79.952720642090 -213.594940185547 1.168265700340
-24.966588973999 -78.326690673828 -216.270278930664 1.725383996964
-9.918874740601 -79.739349365234 -211.829406738281 2.199287414551
-23.298551559448 -80.097229003906 -220.182220458984 1.305460929871
15.659465789795 -79.586097717285 -215.219390869141 1.858958601952
-149.646591186523 -81.512214660645 -225.004089355469 1.499423027039
-8.319898605347 -79.298950195313 -216.733642578125 1.218573570251
-150.391540527344 -83.080497741699 -229.839340209961 1.806931853294
9.320266723633 -82.905754089355 -230.087066650391 2.296975374222
14.810196876526 -81.483909606934 -224.912277221680 2.777501821518
-3.228148937225 -81.200897216797 -223.732666015625 1.817280888557
18.294345855713 -78.977279663086 -225.574676513672 1.439063668251
-135.090347290039 -83.253440856934 -231.094314575195 1.318913102150
10.829828262329 -80.883590698242 -223.418075561523 0.519742965698
-151.895980834961 -81.243034362793 -232.841049194336 2.106427669525
-145.593917846680 -84.406219482422 -234.298248291016 1.625569343567
-1.609972000122 -79.762138366699 -221.944381713867 1.204078316689
19.357879638672 -79.386573791504 -234.596466064453 2.762016057968
-30.886919021606 -82.504760742188 -240.704345703125 3.536780357361
-143.533340454102 -79.913230895996 -240.346572875977 1.822548627853
-39.153667449951 -80.547454833984 -240.020141601563 1.544283270836
-44.409698486328 -81.600952148438 -242.654144287109 1.985486865044
-26.849020004272 -81.814979553223 -242.653137207031 2.593007326126
19.407915115356 -81.070098876953 -242.179565429688 1.519449234009
-46.736434936523 -81.911331176758 -243.898284912109 1.841039061546
16.062681198120 -82.275474548340 -244.049194335938 2.862171888351
10.588807106018 -79.167129516602 -237.984848022461 2.489513158798
11.692500114441 -83.027824401855 -244.759124755859 2.061519384384
-42.665107727051 -80.120750427246 -246.555206298828 1.832873940468
21.958982467651 -82.017631530762 -245.968399047852 2.182190179825
-142.236968994141 -82.341522216797 -249.553176879883 3.419943809509
22.620038986206 -80.578102111816 -246.765472412109 1.137938380241
3.634179115295 -83.787788391113 -247.505432128906 3.237343311310
11.890735626221 -80.756553649902 -249.367080688477 0.581439435482
-149.575439453125 -80.887451171875 -255.867843627930 2.840508937836
-147.181289672852 -83.961174011230 -261.268951416016 1.408131122589
-141.634017944336 -84.170822143555 -262.892364501953 2.442628145218
-152.621490478516 -81.174537658691 -263.017211914063 1.554388880730
18.795761108398 -81.309501647949 -267.114410400391 2.878503799438
-150.634826660156 -80.659996032715 -273.267395019531 2.072700738907
-3.723493099213 -82.086647033691 -276.031555175781 2.372660636902
-149.530883789063 -79.157913208008 -275.519775390625 0.471676707268
-143.860992431641 -82.366722106934 -276.227691650391 3.118516683578
-149.992248535156 -82.147766113281 -277.910583496094 2.422760963440
-152.864227294922 -82.008712768555 -286.704864501953 2.445881128311
-133.499969482422 -81.307510375977 -288.653808593750 2.672340154648
-148.531341552734 -84.965156555176 -289.770080566406 0.900704741478
-147.394439697266 -89.093772888184 -290.665954589844 3.409446477890
-145.897933959961 -84.211715698242 -296.906036376953 1.690600514412
-150.822616577148 -82.558013916016 -295.399902343750 2.396991014481
-145.792297363281 -79.956687927246 -295.784973144531 1.371528863907
-149.446578979492 -83.171775817871 -301.414276123047 1.114745736122
-145.353393554688 -83.353263854980 -301.689575195313 2.997672319412
-146.894287109375 -82.317047119141 -302.350860595703 1.968281745911
-56.066253662109 -74.447906494141 -57.799446105957 3.293474912643
-61.351802825928 -75.433982849121 -60.097373962402 3.336711168289
-48.635818481445 -74.576080322266 -62.024692535400 4.438729286194
-29.644132614136 -76.943016052246 -72.342575073242 2.027511835098
-54.146564483643 -76.595741271973 -90.312850952148 1.244259238243
-86.943603515625 -80.244316101074 -101.525871276855 1.712566614151
49.009403228760 -77.799835205078 -105.108116149902 1.527800321579
-80.382270812988 -79.568977355957 -105.100463867188 1.722899794579
39.076103210449 -76.753242492676 -111.057441711426 1.340162515640
38.453098297119 -76.621810913086 -119.100425720215 2.902765512466
37.072864532471 -75.998031616211 -123.113449096680 2.753683805466
37.929309844971 -75.482933044434 -134.222122192383 2.766204833984
31.465270996094 -76.337539672852 -135.764083862305 2.556157112122
34.216175079346 -77.078002929688 -133.884124755859 2.031356811523
29.350629806519 -76.915107727051 -148.242462158203 2.057641267776
-43.385639190674 -78.003776550293 -147.357360839844 1.791344046593
27.978418350220 -76.712005615234 -140.862838745117 1.715724110603
-64.722946166992 -76.835662841797 -153.771286010742 2.420385599136
-39.542655944824 -79.744750976563 -153.882827758789 2.189850091934
-60.808616638184 -79.189971923828 -165.426803588867 1.519606828690
-41.975921630859 -78.043037414551 -159.269027709961 1.755313873291
30.239385604858 -77.914978027344 -154.235656738281 1.098723649979
-35.079776763916 -80.247558593750 -163.950607299805 1.431536316872
-3.389452934265 -77.660339355469 -166.876632690430 1.780602931976
31.033349990845 -77.626327514648 -158.341934204102 1.269556641579
-10.205596923828 -79.234397888184 -167.137588500977 2.325143337250
-61.796329498291 -76.957153320313 -164.525146484375 1.764220118523
-35.788280487061 -78.361305236816 -167.857391357422 1.306550025940
-28.013250350952 -76.391006469727 -173.428207397461 1.352235198021
27.477355957031 -78.572669982910 -172.917190551758 1.166038870811
-54.948287963867 -78.663917541504 -178.292465209961 1.976607561111
-30.402294158936 -76.554290771484 -176.244094848633 3.121261358261
23.863389968872 -79.144294738770 -179.173751831055 0.839775145054
-50.273628234863 -78.198005676270 -184.753417968750 1.256259560585
-25.162878036499 -77.068527221680 -186.849090576172 1.793883085251
-53.311603546143 -77.849952697754 -181.843521118164 0.967194914818
-38.430789947510 -80.313575744629 -195.382110595703 0.858444571495
-29.323663711548 -80.302925109863 -188.197418212891 1.735143423080
-41.479339599609 -79.391624450684 -194.939086914063 0.932208776474
-23.790107727051 -77.742645263672 -191.295761108398 1.318464756012
-133.897567749023 -80.261581420898 -198.985168457031 1.078698396683
17.900764465332 -78.802719116211 -199.159896850586 1.198011636734
-134.957733154297 -75.855903625488 -199.128738403320 1.566131949425
-22.877119064331 -77.398811340332 -197.250564575195 0.986252963543
-17.718288421631 -76.264350891113 -196.864028930664 0.748135685921
-40.143875122070 -77.127952575684 -195.471893310547 1.657692193985
16.395072937012 -79.135902404785 -190.258666992188 2.169529914856
-15.364983558655 -78.725738525391 -198.408569335938 1.540585398674
-60.513530731201 -78.807357788086 -206.356765747070 0.544477283955
-35.573886871338 -77.283340454102 -203.710342407227 1.090672254562
-65.220497131348 -77.676956176758 -207.390838623047 1.324960112572
-69.175872802734 -77.384803771973 -209.175415039063 0.910528719425
19.817356109619 -78.865234375000 -209.696640014648 2.383815288544
-84.485237121582 -80.691551208496 -213.530303955078 1.794753313065
-28.861391067505 -79.577293395996 -216.719055175781 1.741447567940
-80.119491577148 -80.903991699219 -214.477386474609 1.774999022484
-144.831985473633 -82.904884338379 -218.887496948242 1.666000366211
-7.685505867004 -78.567298889160 -214.295211791992 1.971685528755
-10.679729461670 -78.213340759277 -218.607299804688 1.170811533928
14.310997962952 -78.538146972656 -212.207672119141 1.167213916779
14.580598831177 -80.417694091797 -220.121353149414 1.824666619301
-2.277087926865 -79.354011535645 -230.647491455078 0.819071531296
-132.583038330078 -79.436416625977 -227.547241210938 2.527108669281
-146.473556518555 -83.267333984375 -230.463439941406 1.077492356300
-146.290145874023 -77.785713195801 -232.483123779297 2.518128156662
11.081934928894 -79.653762817383 -231.933822631836 0.921877384186
2.388118028641 -79.725509643555 -234.529495239258 1.800322055817
-23.428541183472 -78.861488342285 -236.445190429688 2.904414415359
-148.550994873047 -80.254920959473 -239.121520996094 2.857679605484
11.649562835693 -78.416580200195 -244.345596313477 1.329302310944
-23.472803115845 -79.963531494141 -243.030029296875 1.679194808006
19.799465179443 -77.499794006348 -236.753738403320 2.010536193848
-54.266624450684 -80.296096801758 -244.975112915039 1.572614312172
-49.932846069336 -78.320892333984 -247.263244628906 0.970380067825
-144.143768310547 -83.426383972168 -246.402313232422 1.807743191719
-61.697284698486 -79.603889465332 -246.868377685547 2.353738307953
-3.251446008682 -76.016128540039 -248.603912353516 2.098942279816
-8.515152931213 -81.194831848145 -256.075622558594 2.365932703018
-146.898727416992 -84.037170410156 -257.822479248047 1.547009348869
-133.252456665039 -80.530944824219 -258.940887451172 1.969612360001
-134.696701049805 -79.556327819824 -262.290405273438 2.191297054291
20.252761840820 -78.503608703613 -260.928985595703 1.249249219894
-144.093048095703 -83.620407104492 -271.983520507813 2.655346632004
19.498760223389 -83.248741149902 -268.716217041016 4.069057941437
-148.065216064453 -79.760787963867 -271.083435058594 1.601280927658
5.177371978760 -85.681884765625 -276.381774902344 2.870237112045
-145.162536621094 -81.899513244629 -283.679290771484 0.923320114613
5.153971195221 -79.508361816406 -283.194946289063 1.272519707680
-151.685317993164 -83.771797180176 -283.581115722656 0.653416335583
-140.116500854492 -81.332237243652 -289.298126220703 2.740069866180
-135.776901245117 -81.503181457520 -285.688537597656 2.318048715591
-147.124496459961 -86.989677429199 -291.968658447266 2.008245468140
-16.659908294678 -81.101524353027 -289.203002929688 3.589035034180
-152.669876098633 -82.497680664063 -292.990753173828 0.704056978226
-148.419372558594 -82.174606323242 -295.244934082031 2.140634298325
-147.169342041016 -80.749473571777 -312.018615722656 2.969216585159
-57.754062652588 -72.943840026855 -58.422595977783 4.233449459076
-39.673690795898 -74.622817993164 -61.658718109131 3.152442693710
-74.393440246582 -74.844367980957 -62.383956909180 2.378160953522
-28.935953140259 -73.556289672852 -69.203819274902 4.206284523010
-27.404479980469 -76.353256225586 -73.181297302246 2.465530872345
-85.976242065430 -75.431617736816 -83.877128601074 3.934284448624
87.101417541504 -72.490730285645 -82.460540771484 4.485915184021
-38.214347839355 -73.785133361816 -81.800216674805 2.377458810806
81.044891357422 -75.583137512207 -82.206558227539 1.889775037766
75.479476928711 -73.229690551758 -86.069061279297 3.417368650436
85.451461791992 -71.859123229980 -89.881721496582 5.511029720306
80.826972961426 -73.118064880371 -90.164642333984 4.631900787354
92.293121337891 -73.369323730469 -89.627670288086 3.156086206436
-90.548049926758 -72.342475891113 -95.750846862793 3.703981876373
52.269260406494 -73.527206420898 -104.119628906250 1.320353984833
-91.583221435547 -73.768623352051 -116.613998413086 0.969579994678
38.910854339600 -75.383453369141 -110.855018615723 2.007847070694
49.448745727539 -74.518203735352 -111.930038452148 1.295797586441
41.348533630371 -75.804023742676 -115.304260253906 2.931244850159
30.768829345703 -75.982566833496 -130.668136596680 1.554500699043
26.437812805176 -77.297027587891 -139.538787841797 1.171538591385
25.771217346191 -73.876731872559 -143.776168823242 1.221336960793
32.707748413086 -75.544235229492 -146.166183471680 1.139540553093
-49.358627319336 -77.786300659180 -152.743728637695 0.965464591980
-45.156711578369 -77.460372924805 -151.281997680664 0.837099254131
-41.241657257080 -77.996887207031 -154.366043090820 0.540132045746
27.303855895996 -77.977012634277 -148.208953857422 0.516591727734
23.796428680420 -76.106544494629 -167.391937255859 2.647698879242
-35.306667327881 -77.036163330078 -163.479980468750 1.158712029457
-34.206108093262 -76.267776489258 -158.141479492188 1.999795794487
-46.261123657227 -75.458412170410 -155.547561645508 2.905992269516
2.491601943970 -76.899658203125 -164.882232666016 1.062820911407
24.989900588989 -76.521972656250 -155.717178344727 1.070243716240
31.018091201782 -73.486999511719 -159.494247436523 1.465484142303
27.350482940674 -76.447639465332 -167.174057006836 3.114837408066
-9.248299598694 -76.500099182129 -169.043838500977 0.806019783020
-0.235615000129 -76.346000671387 -169.034988403320 1.453551054001
-55.306522369385 -76.556503295898 -171.794586181641 2.270972967148
-60.435264587402 -77.111900329590 -168.066757202148 1.263437747955
-38.051757812500 -78.273025512695 -172.651184082031 0.786793470383
-38.261245727539 -76.199066162109 -166.557235717773 2.093164205551
23.681781768799 -76.795738220215 -172.493774414063 1.658893108368
-20.207517623901 -79.743286132813 -177.388519287109 0.517388820648
-34.677181243896 -80.259162902832 -179.988693237305 1.793782472610
-59.487724304199 -79.084632873535 -178.792327880859 0.710418522358
105.576972961426 -77.132164001465 -178.330383300781 2.812832593918
20.542530059814 -76.962501525879 -169.620513916016 1.005840301514
-25.345714569092 -76.601394653320 -178.980407714844 1.719801425934
-49.076938629150 -75.754203796387 -181.040985107422 1.429799437523
-16.191175460815 -75.625511169434 -178.371643066406 2.725875139236
108.966156005859 -76.855049133301 -176.409790039063 0.959744453430
-47.826278686523 -78.205566406250 -182.337860107422 1.988102793694
17.249229431152 -77.698898315430 -183.562026977539 1.217091083527
26.332187652588 -76.617462158203 -179.828903198242 1.438175320625
-54.289936065674 -77.358451843262 -180.557388305664 1.575584650040
-22.191616058350 -76.038551330566 -181.339447021484 1.586490154266
-55.709644317627 -78.513320922852 -175.154205322266 1.213166713715
-32.518459320068 -72.970344543457 -181.174499511719 1.297350406647
-26.954240798950 -77.443786621094 -185.036102294922 1.468745470047
22.991281509399 -78.653587341309 -185.701065063477 1.365706086159
-49.797832489014 -78.244338989258 -186.986343383789 0.912618219852
105.032943725586 -77.082771301270 -187.846130371094 1.714111566544
-50.851577758789 -75.167030334473 -190.296447753906 1.238623738289
13.327712059021 -78.889099121094 -199.685852050781 1.966883778572
18.470235824585 -77.390327453613 -199.926040649414 1.238224744797
-45.559635162354 -77.348129272461 -189.516326904297 1.718158602715
-19.388538360596 -76.719009399414 -189.495223999023 1.015393376350
104.151733398438 -77.354881286621 -194.487945556641 1.671794652939
103.912940979004 -78.084541320801 -194.676559448242 1.645625233650
-45.511150360107 -75.057220458984 -189.918426513672 2.346326112747
-147.555694580078 -80.848602294922 -196.013442993164 1.350143551826
-47.326824188232 -76.597282409668 -199.064727783203 2.095113039017
-144.870727539063 -78.820144653320 -200.106674194336 1.402633428574
-135.347717285156 -77.028930664063 -202.609558105469 1.718438386917
-41.833148956299 -75.889755249023 -197.946853637695 2.183057785034
12.894403457642 -78.021553039551 -207.653381347656 1.738664150238
-16.692226409912 -77.134376525879 -201.802612304688 1.463543534279
16.443208694458 -78.944168090820 -202.775161743164 1.769768357277
91.696357727051 -78.446899414063 -207.728195190430 1.950795173645
-37.721855163574 -76.691276550293 -199.395156860352 1.681632161140
-9.917830467224 -79.097709655762 -206.052993774414 2.313274145126
-9.867580413818 -78.430633544922 -209.613922119141 0.813448131084
-36.937881469727 -78.317634582520 -208.647354125977 0.736907184124
10.857284545898 -79.499725341797 -205.453094482422 2.276265859604
-74.312927246094 -76.229995727539 -210.374984741211 1.430002450943
15.282252311707 -78.895606994629 -212.207122802734 1.252547264099
-35.290901184082 -77.348358154297 -208.596603393555 1.560025572777
-142.736618041992 -78.021598815918 -209.223556518555 1.926213741302
-144.662246704102 -77.370841979980 -213.166961669922 1.868519306183
-84.955162048340 -78.219612121582 -213.309280395508 1.068495273590
-33.815834045410 -77.262680053711 -210.374206542969 1.443603157997
-23.571159362793 -78.466232299805 -213.352752685547 1.014062523842
-27.706653594971 -78.488365173340 -212.222137451172 1.792494416237
-90.395256042480 -78.503242492676 -218.335998535156 2.089570283890
-86.417755126953 -78.067512512207 -215.456115722656 1.415984869003
10.887539863586 -77.679985046387 -219.097320556641 2.592682838440
-147.926956176758 -77.685707092285 -217.712066650391 2.214537382126
-11.264122009277 -77.385589599609 -212.158248901367 1.220566630363
9.103115081787 -80.614418029785 -217.020431518555 1.128091931343
-142.394775390625 -78.981590270996 -218.088806152344 2.993894338608
-19.413579940796 -79.630638122559 -220.387130737305 1.323686242104
-2.579997062683 -78.226150512695 -221.992797851563 0.484921276569
-1.368960022926 -78.987182617188 -217.608169555664 2.001075983047
-151.355697631836 -78.549491882324 -224.740112304688 1.242611050606
-134.935668945313 -77.099578857422 -226.959609985352 1.050590038300
-4.923919200897 -77.914756774902 -223.822479248047 1.513361811638
-147.968109130859 -83.144805908203 -228.851867675781 1.699169754982
1.985684037209 -77.596343994141 -229.870040893555 1.619859933853
18.186561584473 -76.639251708984 -231.368591308594 1.112290501595
-0.629055976868 -76.685501098633 -234.357879638672 1.911521911621
2.622322082520 -78.070442199707 -234.103363037109 1.727617263794
9.080324172974 -81.623321533203 -232.133865356445 2.624498367310
-149.192306518555 -79.328300476074 -235.245468139648 1.891128301620
-17.490724563599 -78.199302673340 -237.527145385742 2.287998437881
-31.949808120728 -81.567314147949 -239.588012695313 2.363974809647
8.053386688232 -75.722343444824 -230.287322998047 1.256374835968
0.711915016174 -77.423034667969 -236.701446533203 1.128030419350
5.841750144958 -79.187408447266 -234.384033203125 1.917882442474
-52.212303161621 -78.220001220703 -241.326568603516 1.880455017090
-149.336959838867 -78.440521240234 -246.836029052734 1.363898873329
-150.315368652344 -79.950874328613 -249.415710449219 2.335554122925
11.582006454468 -79.978744506836 -246.250350952148 1.268271565437
22.389007568359 -79.288581848145 -246.845291137695 1.481758236885
-58.050712585449 -78.687278747559 -248.440032958984 1.075958490372
-145.110534667969 -78.972236633301 -254.267242431641 1.470206975937
-151.768218994141 -82.400314331055 -255.583999633789 1.394316554070
-147.796112060547 -83.276351928711 -257.997985839844 1.231815218925
-141.930297851563 -80.854629516602 -260.140625000000 1.382963538170
-135.325134277344 -79.806205749512 -257.621826171875 0.875373303890
-11.057949066162 -78.714958190918 -256.647521972656 1.443112611771
-143.323837280273 -80.031761169434 -265.801239013672 2.354838132858
-10.155862808228 -81.182983398438 -261.148895263672 2.671153783798
-147.688262939453 -80.488998413086 -277.033172607422 1.509392142296
-147.677597045898 -81.732940673828 -283.566253662109 2.154411077499
-150.275222778320 -82.268562316895 -282.762390136719 2.460705757141
-2.787619113922 -76.799964904785 -286.074401855469 2.164855003357
-142.060867309570 -77.966972351074 -286.917755126953 0.746047735214
-31.807966232300 -79.318328857422 -284.309356689453 3.384720802307
-30.459651947021 -77.994354248047 -288.576568603516 1.308155655861
-17.511171340942 -79.563240051270 -286.676483154297 2.640512466431
-7.898683071136 -79.737960815430 -288.580200195313 3.438320159912
17.227836608887 -80.197967529297 -291.185760498047 2.759704351425
-123.902267456055 -79.599334716797 -289.293121337891 2.577532768250
-54.625804901123 -80.702873229980 -287.763336181641 3.497868776321
-37.215152740479 -79.328948974609 -290.571655273438 2.446020364761
-31.482868194580 -80.532409667969 -289.602386474609 2.286195039749
-8.043643951416 -79.969604492188 -288.856628417969 3.566719293594
7.322290897369 -78.876647949219 -287.519409179688 2.358786344528
-140.359008789063 -82.816993713379 -293.196655273438 3.089356899261
9.770921707153 -80.789199829102 -291.172485351563 3.275188922882
-151.248352050781 -82.042449951172 -303.323944091797 2.710598707199
-147.284332275391 -80.858253479004 -301.848937988281 1.439243435860
-150.206451416016 -80.515022277832 -311.927856445313 2.087254524231
-144.931716918945 -80.866539001465 -312.138153076172 3.441884517670
-51.499744415283 -71.706115722656 -54.207427978516 2.898199319839
-55.313625335693 -72.563369750977 -56.512229919434 3.597594022751
-66.370651245117 -72.347656250000 -55.873104095459 3.316342353821
-44.265533447266 -73.081832885742 -58.125595092773 3.841089248657
-39.310798645020 -70.729370117188 -59.002628326416 5.294658660889
-23.516553878784 -70.852073669434 -64.329627990723 3.849902868271
-82.918334960938 -73.464935302734 -67.625114440918 3.370742797852
81.577842712402 -72.613708496094 -77.782752990723 3.460659027100
-90.225379943848 -74.052528381348 -82.768028259277 2.117837667465
84.055755615234 -74.772445678711 -80.113716125488 2.341671228409
85.679252624512 -73.566070556641 -81.650367736816 3.405547380447
93.246032714844 -72.497207641602 -83.230751037598 3.868207693100
-59.237796783447 -78.518493652344 -93.963279724121 1.299603462219
84.547767639160 -73.973663330078 -92.326377868652 2.771570682526
79.871902465820 -72.642738342285 -91.506011962891 4.319344043732
89.615036010742 -74.973640441895 -89.331901550293 3.437101125717
-62.375091552734 -77.369430541992 -97.281021118164 2.492438316345
54.388366699219 -73.030487060547 -95.877944946289 2.024144172668
46.052829742432 -74.594902038574 -104.761070251465 2.184252262115
40.611930847168 -74.596305847168 -105.074569702148 0.684526264668
38.300422668457 -73.933441162109 -108.078933715820 2.194594621658
-91.516624450684 -74.227722167969 -113.398200988770 2.068670988083
36.153335571289 -75.475746154785 -116.697608947754 2.397249698639
-83.980873107910 -75.273483276367 -111.854156494141 1.333656311035
42.925750732422 -75.802627563477 -123.100135803223 2.823020219803
34.031837463379 -75.041786193848 -121.239562988281 1.507056713104
33.420639038086 -75.104393005371 -121.708236694336 1.609029054642
42.677658081055 -74.109054565430 -119.876060485840 2.962150812149
40.009967803955 -76.595825195313 -125.706077575684 1.252794623375
-54.164253234863 -71.349975585938 -137.760833740234 2.414192199707
36.711883544922 -76.032600402832 -133.883911132813 2.424865722656
36.972652435303 -75.015357971191 -140.401809692383 1.189205169678
-49.797451019287 -71.779266357422 -139.396743774414 1.787073850632
-47.891891479492 -76.507759094238 -140.762863159180 1.991832494736
35.098793029785 -76.118423461914 -142.708190917969 1.776379108429
110.898376464844 -73.820480346680 -140.383117675781 1.293773889542
113.012115478516 -74.121749877930 -140.780944824219 0.770708143711
27.520484924316 -76.486640930176 -143.702316284180 1.604575991631
-41.823036193848 -75.400085449219 -147.694290161133 1.565966367722
112.756355285645 -76.501968383789 -154.882293701172 0.955735981464
-41.283092498779 -75.090171813965 -154.566909790039 1.940848827362
-65.558189392090 -77.357429504395 -159.259414672852 1.877224802971
111.527198791504 -75.759483337402 -160.705505371094 1.731629371643
24.602966308594 -76.347084045410 -163.681381225586 1.611239075661
0.492161005735 -76.774147033691 -163.473052978516 1.920890212059
113.429328918457 -76.090736389160 -153.876846313477 1.329858660698
-62.797286987305 -76.593032836914 -162.685607910156 1.062696456909
-35.568935394287 -77.006797790527 -160.313964843750 1.368135690689
112.967605590820 -74.440460205078 -162.853240966797 1.340369105339
28.858394622803 -73.783500671387 -157.723953247070 2.217327117920
-64.148849487305 -75.280593872070 -167.933639526367 1.426189422607
110.364173889160 -74.851493835449 -167.409286499023 1.103881239891
-63.858245849609 -78.009910583496 -168.693954467773 1.632628798485
-51.538471221924 -77.969978332520 -177.769577026367 1.316312074661
106.876464843750 -74.707015991211 -172.795318603516 1.233852148056
-60.619541168213 -75.372154235840 -169.045410156250 1.042827367783
112.532012939453 -75.335388183594 -172.133346557617 0.898351907730
-58.417949676514 -77.678749084473 -172.955871582031 1.015768170357
-12.815704345703 -75.838394165039 -176.313430786133 1.957255125046
-11.142802238464 -77.171241760254 -178.328811645508 1.427824020386
107.951019287109 -76.052963256836 -170.264770507813 2.306078672409
21.854255676270 -75.579292297363 -169.862686157227 1.273581862450
29.338191986084 -76.695137023926 -169.130798339844 2.874339818954
-54.572280883789 -77.316871643066 -176.968704223633 1.203055858612
19.787385940552 -76.014053344727 -182.784149169922 1.048699975014
-56.661945343018 -76.505027770996 -178.207092285156 0.258369624615
-50.372989654541 -75.070686340332 -188.185699462891 1.269062399864
15.098638534546 -76.195854187012 -181.066009521484 1.165365934372
-58.940830230713 -75.758972167969 -182.756774902344 2.106837034225
109.815948486328 -74.654426574707 -183.340576171875 1.292245268822
23.018747329712 -76.386558532715 -179.514617919922 1.971002340317
-30.757350921631 -76.650856018066 -187.984588623047 0.860001444817
-42.276050567627 -75.128173828125 -193.413192749023 1.707675337791
11.885294914246 -75.558097839355 -194.719558715820 1.013632893562
-20.037191390991 -77.342742919922 -189.567077636719 0.775391221046
-50.629013061523 -77.279548645020 -194.227142333984 2.714657306671
103.449661254883 -77.322364807129 -184.589660644531 1.894871354103
16.444435119629 -75.385276794434 -190.219604492188 1.705892443657
-134.399719238281 -77.309799194336 -196.889190673828 0.564957380295
-40.742885589600 -76.740028381348 -191.941833496094 1.240759611130
100.523941040039 -77.382408142090 -196.527374267578 1.118498682976
-146.835693359375 -80.172760009766 -201.946136474609 1.763440370560
19.133127212524 -76.264038085938 -192.685256958008 2.012149810791
-41.995807647705 -79.645164489746 -204.210189819336 2.536164283752
-31.723833084106 -77.808471679688 -203.593521118164 0.359424233437
-37.212535858154 -75.394256591797 -205.166427612305 1.787570357323
-41.964202880859 -76.736694335938 -194.698257446289 1.866609096527
101.485832214355 -77.826828002930 -199.502716064453 1.214687943459
-17.889936447144 -76.311470031738 -202.211029052734 1.607550859451
-149.749206542969 -75.994842529297 -204.305313110352 1.176877140999
15.845675468445 -76.004760742188 -206.504562377930 1.110424399376
-73.308158874512 -79.633766174316 -206.684814453125 1.504435062408
-147.220367431641 -77.058113098145 -210.712966918945 1.517254710197
98.023880004883 -75.291534423828 -207.864791870117 2.590367317200
-32.335887908936 -76.849609375000 -206.710556030273 0.688655674458
-26.423887252808 -76.618743896484 -215.123977661133 0.890286386013
8.099194526672 -78.194198608398 -210.524291992188 0.638408839703
-70.214820861816 -77.255935668945 -212.617263793945 0.534781277180
-27.493972778320 -76.888122558594 -209.376052856445 2.306449174881
-4.622087955475 -78.345855712891 -214.950790405273 1.238468050957
-75.749298095703 -79.990089416504 -215.459396362305 1.772161364555
-12.989621162415 -78.573669433594 -217.450057983398 1.797371745110
9.951792716980 -76.155899047852 -213.929000854492 1.572642803192
18.658201217651 -80.348114013672 -219.228698730469 3.128576993942
-145.843109130859 -77.688461303711 -217.172042846680 0.922569274902
-4.845836162567 -75.936653137207 -214.861785888672 1.610141277313
-92.124557495117 -74.544853210449 -221.505310058594 2.175476789474
-20.849882125854 -75.219070434570 -219.227722167969 0.606250524521
94.110244750977 -77.451988220215 -210.439132690430 2.150039196014
7.420057773590 -78.415954589844 -227.327438354492 0.809432983398
16.755914688110 -77.960098266602 -215.451416015625 2.342740297318
82.144622802734 -74.071044921875 -220.516540527344 1.592226386070
2.958266019821 -76.465766906738 -225.776626586914 1.224828839302
87.364151000977 -76.123756408691 -217.735595703125 1.150137543678
-15.121569633484 -77.115608215332 -221.856033325195 1.045588850975
15.383132934570 -78.559860229492 -220.690460205078 0.847599029541
-145.546524047852 -79.337760925293 -224.743515014648 1.853405952454
-17.321950912476 -81.030906677246 -224.689666748047 3.490417718887
2.791697025299 -80.179176330566 -226.105468750000 2.836538791656
-152.137252807617 -80.118072509766 -228.862655639648 2.016096115112
-133.948425292969 -77.417320251465 -228.278137207031 0.874458074570
10.493580818176 -76.865600585938 -226.088638305664 2.131526470184
-3.489296913147 -77.743278503418 -235.135330200195 2.013331890106
-135.331115722656 -77.945426940918 -232.082458496094 1.553836345673
-145.257415771484 -80.387161254883 -235.454895019531 2.029219865799
-144.563598632813 -76.970199584961 -237.753158569336 2.446130990982
-28.931102752686 -78.078430175781 -236.782333374023 2.948089599609
-144.380722045898 -77.387985229492 -243.577148437500 2.941173076630
21.554819107056 -77.089630126953 -240.321990966797 0.847822785378
6.969973087311 -78.341072082520 -242.658111572266 1.870764493942
-149.630554199219 -76.786834716797 -236.581069946289 1.401920437813
-148.692474365234 -78.688545227051 -243.156463623047 1.683151125908
-45.464981079102 -78.257873535156 -240.563491821289 2.658748149872
-30.566761016846 -80.135948181152 -243.828445434570 2.049031972885
7.310006141663 -80.238166809082 -246.981887817383 0.932530641556
-36.246284484863 -77.432167053223 -245.758071899414 1.190456151962
24.951551437378 -79.251464843750 -248.134552001953 2.322415828705
-2.447690010071 -79.834938049316 -246.649444580078 3.472988128662
-150.400497436523 -77.862594604492 -253.129089355469 1.291312456131
-5.042531013489 -76.683830261230 -249.133224487305 1.727054595947
-143.152404785156 -79.507461547852 -252.793182373047 1.566708922386
-65.903770446777 -78.776458740234 -249.688873291016 2.173412799835
-149.916671752930 -85.165893554688 -259.703277587891 1.224093079567
-124.391738891602 -79.455093383789 -260.781158447266 3.439921617508
-147.888641357422 -75.414459228516 -261.227203369141 0.994444429874
-11.218173027039 -77.004806518555 -265.591583251953 1.754072785378
-144.427536010742 -80.701568603516 -265.309295654297 1.952646374702
-148.386764526367 -79.366455078125 -265.302734375000 2.242616176605
-8.594750404358 -80.789169311523 -268.503723144531 1.531350851059
-146.138748168945 -80.009201049805 -270.383056640625 0.320000767708
-2.406383037567 -80.779487609863 -280.402984619141 3.178253889084
-43.850288391113 -80.075820922852 -284.306274414063 4.186372756958
-133.848953247070 -80.453437805176 -287.620727539063 2.154223918915
-131.291275024414 -77.595260620117 -284.620758056641 2.433368921280
-124.464447021484 -78.961875915527 -285.945098876953 3.178515911102
-52.394256591797 -78.416358947754 -283.790557861328 3.544223546982
-113.221298217773 -77.809143066406 -289.515350341797 3.640305042267
17.212480545044 -81.609825134277 -288.652252197266 4.490820407867
-59.435287475586 -78.969551086426 -287.797088623047 2.477464914322
-140.033081054688 -77.945045471191 -289.535644531250 2.030948162079
-60.539867401123 -77.535850524902 -288.658752441406 1.209515571594
-141.265670776367 -82.811264038086 -291.135131835938 2.539774417877
-116.636054992676 -78.743415832520 -288.337860107422 2.425896883011
-45.641998291016 -78.749763488770 -290.717285156250 2.829351902008
-35.493019104004 -79.729759216309 -290.351715087891 2.849720239639
-132.218475341797 -79.634338378906 -291.015777587891 2.909613847733
-9.449291229248 -77.670280456543 -291.155364990234 1.223162293434
1.601515054703 -80.791725158691 -290.943023681641 3.580610752106
8.742185592651 -79.354835510254 -290.895751953125 1.583526849747
16.013034820557 -79.387367248535 -292.723327636719 2.114492893219
-147.330413818359 -81.535331726074 -296.146148681641 0.901837468147
-145.419692993164 -78.945350646973 -299.781799316406 1.975705504417
-70.191429138184 -71.885444641113 -61.037944793701 5.266687393188
87.353553771973 -71.898742675781 -74.885520935059 3.386608362198
79.169570922852 -72.633491516113 -74.792678833008 2.532613039017
-26.472877502441 -74.736755371094 -75.551734924316 2.165176153183
85.177749633789 -71.177375793457 -74.363449096680 3.239126205444
-36.563518524170 -71.957199096680 -80.348747253418 3.495462417603
89.078926086426 -74.482925415039 -76.819587707520 2.361585617065
91.691474914551 -74.088798522949 -79.925903320313 1.551636219025
-66.995513916016 -68.711967468262 -93.266036987305 3.054999113083
77.171577453613 -72.553756713867 -90.979743957520 4.249250888824
80.855972290039 -71.813667297363 -95.960296630859 3.397828340530
92.215393066406 -72.322410583496 -91.031837463379 4.436446189880
54.927337646484 -72.923988342285 -94.836555480957 2.102197647095
-77.029914855957 -77.398925781250 -101.329566955566 1.005219101906
-78.021972656250 -69.291755676270 -101.035385131836 1.449392914772
49.686378479004 -73.430801391602 -106.163520812988 2.674391984940
-91.308517456055 -76.029060363770 -107.059898376465 2.607895135880
44.805931091309 -73.842330932617 -115.294700622559 1.431335687637
111.250167846680 -72.526794433594 -115.490676879883 2.385107040405
111.074440002441 -72.762344360352 -130.296585083008 2.164570331573
26.946916580200 -72.407127380371 -137.634994506836 1.508158326149
111.880409240723 -75.259735107422 -126.343132019043 1.149307608604
27.702135086060 -73.626350402832 -133.574554443359 2.407693624496
113.020301818848 -73.830200195313 -128.530578613281 1.939055800438
37.023597717285 -76.080001831055 -134.852874755859 1.784696817398
-50.922847747803 -76.963012695313 -146.323181152344 1.990640521049
35.475475311279 -73.371170043945 -140.320373535156 1.900974512100
