85.619537353516 -76.030609130859 -210.850784301758 2.891905546188
87.210929870605 -75.384162902832 -213.822906494141 1.721957087517
-33.332618713379 -73.735855102539 -211.793151855469 0.503794252872
-81.756172180176 -72.293006896973 -217.920684814453 2.806673765182
-1.602656006813 -75.932929992676 -214.034011840820 2.212051391602
89.003204345703 -75.237243652344 -211.582519531250 1.273910164833
-148.339141845703 -75.974273681641 -222.512527465820 0.986014604568
-165.426620483398 -75.736312866211 -214.174194335938 3.637216567993
-157.822814941406 -74.546348571777 -222.544097900391 2.389856338501
-19.054767608643 -75.533248901367 -224.829681396484 1.758944034576
-151.041015625000 -76.025009155273 -223.925003051758 1.985382080078
-6.180830955505 -78.608192443848 -223.638610839844 2.346985101700
8.396508216858 -74.116813659668 -214.932723999023 1.640221714973
-161.717285156250 -76.879585266113 -224.013137817383 3.910748481750
-160.995773315430 -75.099174499512 -226.475250244141 1.513239622116
80.772453308105 -75.263259887695 -225.516815185547 2.366038084030
5.118504047394 -74.190986633301 -225.474380493164 1.429223060608
-151.536285400391 -75.434196472168 -224.981292724609 3.047889232635
-140.965301513672 -75.117752075195 -224.756317138672 2.543154954910
-18.987863540649 -76.459754943848 -222.308319091797 1.483031630516
4.067880153656 -77.519012451172 -221.620452880859 2.319556951523
82.928161621094 -74.820091247559 -218.438873291016 2.212654829025
-159.145584106445 -75.594505310059 -229.145370483398 3.637998819351
-145.439743041992 -74.228889465332 -228.232498168945 1.819839715958
-123.045227050781 -73.709129333496 -229.621887207031 1.197069883347
82.168235778809 -75.599334716797 -224.068725585938 2.178744316101
-113.782508850098 -73.108192443848 -229.464187622070 1.198999643326
-147.178527832031 -76.064895629883 -229.424057006836 0.997436285019
-149.244628906250 -76.317832946777 -230.430633544922 1.574108839035
-145.885314941406 -75.155715942383 -229.470169067383 1.596448302269
-153.040252685547 -73.424034118652 -229.813308715820 2.437206506729
-164.234039306641 -73.498207092285 -232.970596313477 0.543343126774
-134.229537963867 -73.875274658203 -233.826522827148 1.648077130318
-132.630493164063 -75.118644714355 -232.756546020508 1.271825790405
-153.687316894531 -74.612884521484 -231.155349731445 2.173085212708
-143.647644042969 -73.352607727051 -234.141387939453 1.711451649666
-150.783737182617 -73.330970764160 -234.602539062500 0.682126641273
74.514266967773 -74.339363098145 -222.483139038086 3.415854692459
69.527816772461 -72.692939758301 -233.832748413086 1.460522174835
-158.485305786133 -74.133186340332 -237.284835815430 1.551137208939
71.348335266113 -74.125480651855 -229.161605834961 1.727409005165
-17.615537643433 -74.792427062988 -234.175659179688 2.993743658066
11.164205551147 -74.619010925293 -233.462707519531 2.419796228409
10.935920715332 -76.713821411133 -232.685653686523 2.441198110580
-147.100158691406 -74.423667907715 -244.601608276367 2.600995540619
15.634937286377 -74.358680725098 -238.410552978516 1.688239336014
66.267593383789 -75.267822265625 -232.683563232422 4.405812263489
14.261346817017 -73.904273986816 -233.534072875977 1.815966606140
7.816278934479 -76.497306823730 -239.784240722656 0.284561932087
-4.995282173157 -73.251289367676 -238.213043212891 1.609198927879
-17.553766250610 -75.928016662598 -241.724899291992 0.560520946980
1.896455049515 -75.732292175293 -240.402404785156 1.824982285500
4.389927864075 -74.542831420898 -239.482925415039 1.358252763748
58.977855682373 -75.187934875488 -237.823196411133 4.296447753906
-55.516635894775 -74.835594177246 -243.364929199219 1.457668542862
20.392156600952 -74.407012939453 -244.131729125977 1.618417859077
-58.515064239502 -74.874641418457 -243.144638061523 2.354563474655
-6.229360103607 -74.142044067383 -245.494903564453 1.783231377602
-62.492092132568 -72.685707092285 -249.492752075195 1.084248781204
-83.747779846191 -77.495613098145 -250.461227416992 2.989932775497
-80.389953613281 -75.794357299805 -249.292526245117 1.654044032097
-12.005862236023 -73.790451049805 -249.363418579102 1.705647349358
-122.291839599609 -75.579185485840 -257.124755859375 2.380498647690
-12.547540664673 -73.403739929199 -252.897857666016 1.276282072067
-116.946022033691 -74.487197875977 -256.379669189453 0.812103390694
-113.632461547852 -72.891792297363 -257.889373779297 0.427958041430
-101.266975402832 -75.837806701660 -258.001220703125 2.401229858398
-141.794219970703 -73.913238525391 -262.924102783203 1.013173460960
-143.599105834961 -72.977661132813 -266.200195312500 1.636321067810
-165.344177246094 -73.077026367188 -265.250091552734 2.545876502991
18.126136779785 -75.465461730957 -277.159332275391 2.379525423050
-53.953884124756 -74.666641235352 -283.364929199219 3.053233861923
-62.888626098633 -73.825271606445 -283.683715820313 3.341476917267
-40.301727294922 -75.190269470215 -283.577484130859 2.953274965286
-26.114709854126 -75.322669982910 -281.863006591797 4.614869594574
-92.716438293457 -73.666435241699 -288.648864746094 1.709056615829
-27.076690673828 -72.353431701660 -285.456939697266 1.786180973053
-0.982989013195 -72.263061523438 -283.601867675781 4.129394054413
-163.783233642578 -74.150268554688 -289.775482177734 1.430265188217
-10.247031211853 -74.912574768066 -285.424133300781 1.283635139465
10.498753547668 -72.485145568848 -285.667297363281 2.707787513733
17.354587554932 -72.306037902832 -286.461700439453 3.633475065231
-53.511592864990 -73.982612609863 -289.677124023438 1.636124968529
-26.707256317139 -74.374908447266 -286.831359863281 0.776927590370
17.414760589600 -71.883445739746 -287.823883056641 3.357316493988
-66.237609863281 -74.284957885742 -290.826873779297 1.539305567741
-34.496726989746 -73.077262878418 -288.587982177734 2.905270099640
-14.338792800903 -72.432388305664 -288.633270263672 0.953408062458
16.734760284424 -74.003425598145 -287.458343505859 2.511678934097
-9.039005279541 -74.648040771484 -288.225372314453 2.036292076111
7.096569061279 -71.970977783203 -289.220825195313 1.132463335991
16.080436706543 -73.398468017578 -289.881103515625 0.601942956448
-131.696151733398 -74.140769958496 -293.007476806641 2.686387300491
-140.179565429688 -75.091728210449 -301.641052246094 4.203746318817
-144.881240844727 -76.068115234375 -312.300933837891 1.537300944328
36.775421142578 -75.339538574219 -8.920957565308 5.157318592072
27.584592819214 -78.350624084473 -7.424186229706 9.407345771790
35.858222961426 -78.452934265137 -12.027610778809 6.695614814758
17.915098190308 -78.239395141602 -17.160572052002 8.163762092590
40.525009155273 -78.302703857422 -19.016944885254 6.811628341675
20.475986480713 -77.793670654297 -18.005447387695 6.560116291046
21.404682159424 -80.164657592773 -26.219676971436 8.131358146667
19.596950531006 -79.566390991211 -31.669967651367 7.466593265533
40.162624359131 -76.698745727539 -28.039268493652 7.348917484283
24.394754409790 -78.149505615234 -32.534870147705 5.930894851685
38.533847808838 -78.206390380859 -29.939050674438 8.843770027161
29.809770584106 -77.096458435059 -33.494663238525 5.023981094360
31.719293594360 -78.347595214844 -34.651679992676 6.401181221008
29.393417358398 -77.585273742676 -36.945026397705 5.485056400299
39.808521270752 -77.830818176270 -37.598255157471 6.133641242981
32.716163635254 -76.330429077148 -39.022087097168 3.880479812622
-40.759605407715 -74.462150573730 -49.931385040283 3.658820867538
-32.774021148682 -74.247985839844 -46.721916198730 6.628610610962
-90.429977416992 -74.586975097656 -55.399883270264 7.443520545959
-89.091857910156 -79.303520202637 -63.402641296387 6.694211006165
78.018333435059 -78.112480163574 -64.147254943848 7.698212146759
81.631660461426 -78.492668151855 -66.865188598633 6.322345256805
-18.501544952393 -77.586257934570 -70.347663879395 2.817557811737
-89.052970886230 -80.112922668457 -70.261962890625 5.473353862762
-26.568309783936 -77.680961608887 -75.503456115723 0.804635763168
-51.234081268311 -79.285148620605 -85.354499816895 3.779818534851
63.248130798340 -74.798271179199 -81.248207092285 6.458177566528
52.988735198975 -75.681793212891 -87.609580993652 4.276158332825
97.024948120117 -76.908172607422 -84.721923828125 3.388385534286
70.641098022461 -77.614158630371 -91.172882080078 3.892170906067
-66.119987487793 -80.541702270508 -91.864929199219 4.488620758057
-66.818420410156 -77.262374877930 -94.762954711914 2.904440641403
43.637836456299 -78.244232177734 -93.052268981934 6.617750644684
74.192749023438 -78.946243286133 -97.288276672363 4.975628852844
51.188343048096 -80.120864868164 -99.187515258789 3.033882379532
99.714813232422 -77.938652038574 -92.729064941406 5.077294826508
-94.546234130859 -76.886993408203 -106.048080444336 3.634128093719
37.230365753174 -80.076248168945 -107.767013549805 3.731003522873
105.682464599609 -75.616264343262 -102.160331726074 1.613761067390
45.846565246582 -75.042976379395 -106.533561706543 2.482983112335
102.218734741211 -75.393531799316 -102.039657592773 3.117648839951
-86.448509216309 -77.243530273438 -112.187507629395 2.111364364624
35.179035186768 -77.062484741211 -108.825439453125 3.246561527252
106.603378295898 -77.559753417969 -112.175582885742 3.479256153107
102.641952514648 -75.547798156738 -110.222450256348 3.465934276581
106.786750793457 -77.735603332520 -109.463088989258 3.345366477966
108.764549255371 -78.410194396973 -110.063804626465 4.146102428436
35.192489624023 -76.479095458984 -110.011726379395 2.576668500900
31.342111587524 -79.231765747070 -115.587112426758 4.255054473877
42.876838684082 -76.347541809082 -111.177528381348 2.237203598022
108.818283081055 -76.327957153320 -117.872764587402 1.528133988380
38.687828063965 -75.519088745117 -121.268150329590 3.835731983185
108.498031616211 -77.032478332520 -126.157279968262 2.332966804504
112.707130432129 -75.075294494629 -124.325431823730 1.324439048767
32.355560302734 -75.884597778320 -118.784545898438 2.369407176971
-77.867485046387 -76.927604675293 -126.377601623535 6.876937866211
115.958999633789 -77.832984924316 -129.719955444336 3.268863201141
-58.264205932617 -78.789558410645 -136.656402587891 4.567070007324
35.046859741211 -77.297660827637 -132.088104248047 2.475236177444
-73.707809448242 -76.723075866699 -137.280471801758 3.575891017914
28.653776168823 -75.513565063477 -130.884201049805 1.976267099380
-76.206924438477 -77.150840759277 -140.132644653320 3.748993396759
-44.753936767578 -78.657440185547 -142.319671630859 2.429889202118
-72.664512634277 -76.849174499512 -135.315719604492 4.557143688202
110.658065795898 -73.556808471680 -132.677276611328 1.877596735954
114.099327087402 -76.130683898926 -135.801254272461 1.001555681229
118.894775390625 -76.870094299316 -139.322875976563 4.964385986328
-72.618316650391 -75.717864990234 -143.126800537109 1.598482131958
9.258946418762 -74.323875427246 -147.420776367188 5.088629245758
-55.816776275635 -75.814468383789 -150.797103881836 2.577222585678
-48.330352783203 -77.427978515625 -153.084503173828 1.038647055626
108.481674194336 -74.503265380859 -153.676437377930 3.547202110291
-41.615600585938 -77.380378723145 -149.003326416016 0.386491447687
12.081807136536 -75.009918212891 -154.975677490234 1.263450026512
22.176483154297 -75.386993408203 -155.233657836914 1.961199641228
114.433898925781 -76.682121276855 -158.235534667969 1.868435502052
30.176408767700 -74.408462524414 -158.377883911133 2.036237955093
-1.683019995689 -77.899719238281 -158.671493530273 3.904723644257
31.504653930664 -75.929145812988 -158.582229614258 1.715476751328
-68.490844726563 -72.557800292969 -157.857406616211 1.711787462234
-63.711708068848 -74.686813354492 -157.406738281250 1.762875676155
-67.162422180176 -75.689262390137 -162.293411254883 2.177229881287
113.983276367188 -74.325958251953 -155.486495971680 2.122138500214
-44.977615356445 -74.523483276367 -161.168014526367 1.374664306641
19.129703521729 -77.839103698730 -164.724304199219 3.176421880722
-63.414939880371 -77.135215759277 -169.529708862305 2.484358310699
-60.086711883545 -76.906776428223 -170.567138671875 1.385197997093
-40.261035919189 -76.396301269531 -158.425338745117 2.974871635437
-33.540863037109 -72.867088317871 -166.644683837891 1.636943221092
113.804985046387 -73.847999572754 -166.639785766602 1.911195516586
-35.596374511719 -75.755691528320 -173.473922729492 2.667297601700
16.267646789551 -75.806106567383 -169.514404296875 2.960759878159
109.861389160156 -77.789093017578 -179.283416748047 2.646102190018
-149.559204101563 -77.447845458984 -176.661407470703 4.126598358154
-144.053817749023 -76.727691650391 -175.579772949219 3.604645967484
-151.196121215820 -75.005874633789 -177.694366455078 2.809352636337
-142.959075927734 -73.729911804199 -180.651916503906 2.102003335953
-28.632595062256 -74.508132934570 -182.164962768555 3.862480163574
-23.062185287476 -74.579124450684 -183.078918457031 0.661842107773
23.405321121216 -73.665206909180 -186.142776489258 0.833395361900
-141.630065917969 -75.119087219238 -187.102233886719 3.039218425751
-144.927581787109 -74.793151855469 -186.602935791016 0.716706633568
-20.444030761719 -70.668510437012 -185.084594726563 1.794959545135
14.343724250793 -77.785400390625 -179.101577758789 3.400822162628
-144.541763305664 -75.917182922363 -192.551727294922 0.783544600010
-32.546829223633 -78.158164978027 -182.021270751953 1.434506058693
101.630622863770 -76.005538940430 -183.535552978516 1.587147116661
108.252746582031 -74.742393493652 -186.046417236328 1.706193327904
22.765422821045 -74.180427551270 -188.474273681641 2.192114830017
-18.564769744873 -77.700325012207 -186.562500000000 1.183724999428
-25.058282852173 -77.400970458984 -193.349212646484 1.701351165771
-150.683761596680 -73.419685363770 -196.457565307617 3.112154722214
-132.183029174805 -75.027915954590 -197.495758056641 1.892400145531
-123.054069519043 -74.330490112305 -194.901397705078 2.580782175064
-122.134239196777 -75.262710571289 -197.470474243164 2.555360078812
-20.634710311890 -73.274230957031 -194.287292480469 2.983136415482
11.541624069214 -76.257141113281 -189.791473388672 2.266918182373
95.147933959961 -72.748138427734 -195.454284667969 2.768316030502
-146.589828491211 -74.820335388184 -196.844390869141 1.600182890892
-145.440490722656 -73.607856750488 -200.125122070313 1.811634063721
-147.532104492188 -72.044273376465 -198.735534667969 1.549657464027
-154.401702880859 -72.781951904297 -200.166091918945 1.365265965462
-26.294296264648 -75.149436950684 -197.611480712891 2.294159889221
-13.381476402283 -78.789794921875 -192.734298706055 3.756800174713
-146.199249267578 -72.227363586426 -199.195388793945 0.751718819141
-16.180719375610 -75.945526123047 -195.350677490234 1.713031768799
-161.963928222656 -75.091415405273 -199.523742675781 3.391664266586
-132.037277221680 -75.213371276855 -199.435043334961 1.847755789757
15.973653793335 -72.902793884277 -204.795562744141 2.953500509262
-162.380065917969 -74.147171020508 -203.897262573242 2.436419725418
-143.949981689453 -75.574958801270 -204.993560791016 1.605929732323
11.579787254333 -75.440521240234 -197.408569335938 1.383328676224
-153.467041015625 -75.624839782715 -204.751312255859 2.749882459641
-22.353761672974 -75.873657226563 -198.238479614258 0.930320799351
103.517227172852 -74.517272949219 -194.665130615234 0.905124425888
-153.913848876953 -74.473396301270 -215.429336547852 2.824775218964
-162.945922851563 -75.115295410156 -211.703414916992 3.331800222397
-77.868827819824 -73.474800109863 -210.768341064453 0.983886361122
90.663810729980 -74.154914855957 -205.374557495117 1.911585092545
-2.617832899094 -73.692268371582 -212.035217285156 2.912795066833
-150.971176147461 -74.433547973633 -212.493103027344 2.026711702347
-87.527023315430 -71.867630004883 -214.075454711914 1.413624525070
-6.412352085114 -74.937004089355 -208.175308227539 2.389557600021
16.314888000488 -73.664192199707 -219.220550537109 2.089195251465
-144.052413940430 -75.513206481934 -218.746383666992 2.090791940689
-1.601945042610 -75.432716369629 -217.607131958008 1.777748823166
-18.569581985474 -71.569259643555 -218.040374755859 2.769023656845
-15.174166679382 -71.728805541992 -216.185058593750 1.276597976685
88.957679748535 -74.736465454102 -210.672515869141 1.899728775024
-20.879291534424 -72.471626281738 -214.368606567383 2.837925672531
-27.559625625610 -74.526298522949 -214.348419189453 0.929096162319
-104.463203430176 -74.138534545898 -221.881118774414 2.046505451202
-13.952909469604 -73.701461791992 -220.788742065430 1.501514077187
91.024681091309 -73.009010314941 -214.111328125000 1.869064807892
82.548500061035 -73.713455200195 -213.864746093750 3.087109327316
7.201669216156 -76.461174011230 -218.965255737305 1.453476428986
-9.970825195313 -74.474975585938 -222.923538208008 1.977568030357
79.618560791016 -77.824943542480 -217.954589843750 5.019865036011
-124.123878479004 -74.231506347656 -223.868606567383 2.454453229904
-22.253812789917 -74.681060791016 -219.732421875000 1.055254936218
-99.331054687500 -72.978790283203 -223.779357910156 1.571756362915
-104.562789916992 -75.233940124512 -226.599472045898 2.640040159225
-133.183715820313 -74.315383911133 -227.677291870117 1.041783571243
81.836219787598 -73.969612121582 -219.476516723633 1.867130041122
-123.568550109863 -74.900054931641 -227.228042602539 1.370793461800
5.469119071960 -74.205825805664 -225.781768798828 1.629264354706
79.162261962891 -73.777908325195 -219.270629882813 2.775043249130
-13.258955001831 -74.852416992188 -224.665222167969 1.513831973076
-9.545371055603 -74.941909790039 -227.905151367188 1.225693225861
-3.677129030228 -74.107322692871 -228.006362915039 2.103550195694
9.363139152527 -74.544868469238 -224.935379028320 3.075454235077
86.153732299805 -74.472015380859 -220.198959350586 2.213532209396
14.117968559265 -74.033233642578 -228.933975219727 1.747423648834
4.518933773041 -75.432754516602 -227.040298461914 1.217621326447
-6.264379024506 -75.241012573242 -225.737045288086 0.640142083168
-4.958186149597 -73.009056091309 -230.830413818359 1.191985845566
17.788812637329 -72.970977783203 -228.579772949219 2.473792314529
-9.702382087708 -72.981040954590 -231.692428588867 0.966136217117
73.860252380371 -73.923500061035 -232.892456054688 2.033815145493
-6.647851943970 -72.223892211914 -233.631423950195 0.429180771112
21.270526885986 -74.907341003418 -230.052200317383 2.716194391251
-162.966796875000 -73.053810119629 -242.795944213867 3.040324687958
-3.324771881104 -73.630874633789 -237.536560058594 1.747223973274
-8.028783798218 -72.763648986816 -238.893020629883 0.983990550041
-165.688949584961 -72.652069091797 -254.592071533203 1.202371954918
-8.399870872498 -74.423599243164 -242.029693603516 2.468266487122
19.345695495605 -74.350494384766 -242.078048706055 1.223378062248
-145.009292602539 -75.976806640625 -252.080535888672 2.155766725540
-66.445899963379 -72.670974731445 -246.606109619141 1.623645663261
-57.882850646973 -72.668395996094 -245.736709594727 0.940351426601
55.908390045166 -73.367889404297 -242.993438720703 0.818184137344
-75.400115966797 -73.999313354492 -246.103195190430 1.720514416695
18.811546325684 -74.456626892090 -244.454910278320 1.681684017181
-72.910194396973 -73.157638549805 -250.422439575195 2.502790451050
-14.167105674744 -74.252822875977 -247.167144775391 3.165485143661
-145.190872192383 -74.679367065430 -253.946685791016 1.689982056618
50.382705688477 -72.798019409180 -244.632507324219 1.623245239258
-78.321868896484 -71.640502929688 -250.778717041016 1.946084618568
-97.846878051758 -73.423522949219 -254.216873168945 1.341670036316
-95.046707153320 -76.793708801270 -253.390472412109 3.469139814377
-117.601577758789 -74.599311828613 -256.502166748047 0.615321159363
-104.559318542480 -73.307754516602 -256.336120605469 1.244223475456
-105.148391723633 -73.280761718750 -258.932128906250 0.573675930500
22.741390228271 -74.399703979492 -256.410125732422 0.901157796383
-125.865547180176 -71.738464355469 -265.223907470703 1.057452917099
-7.915166854858 -74.778991699219 -274.018646240234 2.610787391663
-143.533630371094 -74.316108703613 -282.247497558594 2.087708950043
-166.309707641602 -72.885772705078 -283.868255615234 2.026712894440
-123.351287841797 -73.516098022461 -286.502441406250 1.456080555916
-112.360237121582 -72.960685729980 -284.093261718750 3.306147098541
-74.280799865723 -69.877471923828 -286.078857421875 1.532344818115
-54.069786071777 -70.113449096680 -286.034240722656 2.790526628494
-41.077976226807 -72.322944641113 -284.568298339844 2.706573724747
-11.799246788025 -72.090888977051 -285.726196289063 2.075634479523
-10.311204910278 -71.500816345215 -285.891326904297 2.555251836777
-34.194942474365 -72.479995727539 -287.048248291016 2.133376359940
-31.784914016724 -71.935386657715 -286.147705078125 1.494156956673
-16.514108657837 -70.930473327637 -287.805969238281 2.156825542450
-68.099784851074 -73.154258728027 -290.060485839844 1.902277231216
-51.528129577637 -71.282135009766 -290.250701904297 0.807107806206
-12.103720664978 -70.261161804199 -288.318847656250 2.034225940704
-11.408716201782 -72.623672485352 -288.420379638672 1.941519021988
-1.679787039757 -71.598983764648 -288.166320800781 2.953505516052
5.315590858459 -70.562675476074 -289.629333496094 2.278613090515
-86.313255310059 -72.528038024902 -288.476928710938 1.992213606834
-141.310180664063 -71.351730346680 -291.196411132813 1.740621685982
-115.009330749512 -73.457427978516 -293.317565917969 1.628057360649
-151.031524658203 -75.161094665527 -299.325653076172 1.232009410858
-152.000747680664 -72.973297119141 -299.732635498047 2.301078557968
-142.196701049805 -73.300155639648 -301.146484375000 2.552980661392
43.171920776367 -78.916191101074 -17.178625106812 7.479616641998
16.046142578125 -77.851005554199 -20.450521469116 8.038888931274
46.348892211914 -78.633232116699 -22.445426940918 7.352016448975
44.975120544434 -79.206756591797 -29.675392150879 7.408281803131
84.382698059082 -75.233665466309 -62.576656341553 6.406769752502
93.870544433594 -76.271430969238 -68.711181640625 5.080381870270
97.590698242188 -75.090293884277 -75.353561401367 3.175459623337
95.633331298828 -76.829658508301 -79.228057861328 3.308974027634
53.759761810303 -76.926193237305 -83.741065979004 7.088984966278
47.650440216064 -77.571197509766 -89.112197875977 6.574006557465
60.652309417725 -74.898033142090 -86.918601989746 3.274841308594
-66.340911865234 -73.013603210449 -90.422874450684 3.331616640091
68.535049438477 -77.720985412598 -84.793174743652 4.707937240601
100.937911987305 -75.023429870605 -90.526489257813 3.597731828690
72.907730102539 -78.582229614258 -95.118843078613 3.983242988586
93.733100891113 -74.692642211914 -94.309486389160 2.072335243225
-82.359550476074 -77.450180053711 -99.822799682617 3.608249664307
43.276939392090 -76.579666137695 -98.660530090332 2.613172531128
-86.710060119629 -77.807281494141 -106.019302368164 3.835433244705
49.125736236572 -77.580131530762 -107.584884643555 0.985237956047
39.278179168701 -74.677543640137 -101.266082763672 3.402660131454
103.634048461914 -76.772651672363 -98.930343627930 3.753376960754
37.658451080322 -74.333129882813 -104.608612060547 2.348715543747
38.696426391602 -76.148269653320 -111.011169433594 1.606158018112
41.383247375488 -73.820587158203 -110.277877807617 2.096465587616
105.122276306152 -73.453056335449 -109.924461364746 0.536742985249
-83.034866333008 -75.233306884766 -119.226829528809 4.556074619293
110.988059997559 -75.888908386230 -119.264923095703 1.218260049820
36.943798065186 -73.320060729980 -117.815238952637 2.512456178665
41.286560058594 -75.057304382324 -115.420806884766 3.666090965271
33.959209442139 -75.742332458496 -118.004150390625 1.108667373657
-57.150566101074 -75.741065979004 -128.713058471680 3.843719720840
29.486778259277 -75.020065307617 -119.639976501465 2.619889736176
-77.663970947266 -77.220176696777 -135.467727661133 4.878008842468
-58.210121154785 -75.322082519531 -131.723114013672 2.705655574799
-79.112976074219 -74.378280639648 -132.268936157227 3.562368392944
32.842357635498 -74.806098937988 -124.298576354980 1.529996991158
-58.749496459961 -74.234687805176 -131.636672973633 1.984690070152
35.632194519043 -74.934600830078 -129.723648071289 3.581851243973
-74.987472534180 -75.088874816895 -137.930343627930 1.617627024651
-59.170726776123 -77.438102722168 -137.374969482422 3.965194702148
28.288963317871 -74.565544128418 -135.590393066406 2.032093286514
109.508407592773 -77.322090148926 -139.127822875977 2.541981697083
116.236961364746 -74.546066284180 -131.424163818359 1.380037426949
31.439188003540 -74.311988830566 -136.060668945313 3.192470788956
-46.857658386230 -73.621734619141 -140.273086547852 1.489639401436
109.126846313477 -74.273208618164 -148.476730346680 2.109777450562
-74.287910461426 -74.944503784180 -144.469329833984 0.810929715633
-56.253978729248 -76.116043090820 -139.534088134766 1.319910049438
32.135372161865 -76.811584472656 -146.908630371094 1.242001533508
-74.498649597168 -75.766242980957 -144.179061889648 1.429088950157
-71.239440917969 -76.406997680664 -147.854751586914 0.790272653103
116.258659362793 -73.486694335938 -143.530776977539 1.043122410774
-64.758644104004 -75.255180358887 -150.636199951172 1.760502338409
-39.972618103027 -74.468353271484 -150.248092651367 0.759081125259
28.457380294800 -72.314430236816 -146.330459594727 2.364605426788
-75.734016418457 -74.725128173828 -147.825439453125 1.819233179092
10.535351753235 -76.321388244629 -151.143142700195 3.820386409760
32.229331970215 -73.052795410156 -151.410202026367 1.304463624954
28.269380569458 -74.860939025879 -145.221588134766 2.541629552841
9.530705451965 -77.769309997559 -152.016296386719 4.490128040314
-48.658004760742 -73.607429504395 -151.750900268555 3.126704692841
26.189321517944 -73.777664184570 -149.106491088867 1.864491820335
-46.268371582031 -75.434715270996 -147.057464599609 2.145230770111
6.325644016266 -75.828041076660 -149.430786132813 5.822593688965
21.267526626587 -75.146812438965 -145.926269531250 1.994142293930
-72.393905639648 -76.665161132813 -153.411270141602 2.147552251816
-45.662071228027 -74.066299438477 -152.481842041016 4.023001670837
-69.039657592773 -72.979530334473 -157.059783935547 1.404226183891
13.079776763916 -71.861137390137 -157.280593872070 0.603838145733
22.553974151611 -74.879394531250 -145.125656127930 1.763550639153
1.875727057457 -73.735061645508 -158.752731323242 1.750377416611
20.595872879028 -74.325897216797 -152.278060913086 0.907399475574
29.906850814819 -75.424263000488 -160.036849975586 1.968763351440
-47.306488037109 -76.656295776367 -160.168685913086 1.359990715981
-33.722274780273 -74.909049987793 -158.702392578125 1.991549491882
-38.837299346924 -73.846023559570 -158.463989257813 2.080276966095
28.634037017822 -74.751823425293 -158.059432983398 2.653554677963
-44.646629333496 -74.973419189453 -164.972244262695 0.956794381142
-41.790866851807 -74.462852478027 -160.334991455078 3.645066022873
20.352729797363 -75.490081787109 -161.648391723633 1.069043993950
-41.001640319824 -74.420890808105 -170.896133422852 1.481404423714
30.162313461304 -73.213218688965 -167.731369018555 2.352616786957
114.953216552734 -73.091918945313 -160.473922729492 1.477966070175
-32.311965942383 -73.797218322754 -170.027755737305 2.415255308151
106.455963134766 -72.588356018066 -166.479598999023 2.185825824738
-34.109138488770 -72.730667114258 -174.734359741211 2.664875507355
-37.144489288330 -75.053634643555 -177.816482543945 0.916183829308
18.106401443481 -75.918113708496 -171.472595214844 0.688194692135
104.044013977051 -72.392410278320 -175.481414794922 1.846342206001
-28.644290924072 -73.578895568848 -181.607009887695 3.486258506775
-32.729465484619 -71.470367431641 -171.647796630859 0.935710430145
-23.117757797241 -74.712875366211 -183.549728393555 0.961097180843
-147.505737304688 -76.785133361816 -188.019500732422 1.972464323044
14.992046356201 -75.246597290039 -179.625000000000 1.103680253029
106.863739013672 -72.610107421875 -185.437103271484 2.446783304214
-156.424423217773 -73.874267578125 -194.633239746094 2.754894733429
-25.883094787598 -74.174118041992 -188.875076293945 3.227615118027
-114.946250915527 -73.179611206055 -195.196701049805 2.103176116943
-132.328323364258 -74.397659301758 -197.210540771484 1.377649903297
-108.549125671387 -72.575050354004 -199.576751708984 2.428342342377
-110.586853027344 -72.445869445801 -199.378112792969 1.939117550850
-14.495024681091 -72.308853149414 -194.793487548828 2.103642702103
20.413232803345 -75.129249572754 -193.521194458008 1.669745087624
-17.335966110229 -69.805595397949 -198.489379882813 1.895724892616
-123.958366394043 -73.040275573730 -203.450225830078 0.762306690216
-22.663427352905 -72.195129394531 -203.982727050781 0.859330236912
-130.276794433594 -76.138778686523 -202.863891601563 3.454213619232
-12.000457763672 -72.645881652832 -199.481567382813 2.703431606293
-143.624038696289 -73.613273620605 -204.546463012695 2.489596366882
92.029129028320 -72.686477661133 -203.117523193359 1.626917958260
-164.518554687500 -74.011154174805 -203.267425537109 2.401151418686
-1.864253997803 -75.595466613770 -210.634750366211 3.760942459106
12.093422889709 -70.798538208008 -206.906768798828 1.837885141373
10.778889656067 -71.040809631348 -213.204879760742 0.644866108894
84.121810913086 -72.632057189941 -213.231521606445 3.267926692963
6.399861812592 -71.924652099609 -210.829116821289 2.265081167221
15.813467979431 -73.302093505859 -210.618072509766 2.614874362946
-14.434326171875 -76.876335144043 -212.397308349609 0.466649264097
-88.977302551270 -72.939605712891 -215.123794555664 2.299281835556
-97.868133544922 -74.311012268066 -215.977752685547 1.432673335075
-2.629985094070 -72.105812072754 -217.959472656250 1.898242712021
-166.163253784180 -73.682868957520 -226.747726440430 1.766851305962
13.673171043396 -72.045730590820 -217.803970336914 1.718075394630
-142.717117309570 -73.781654357910 -223.232452392578 2.136951684952
12.981718063354 -71.714195251465 -222.023147583008 1.391559839249
-132.783752441406 -73.728981018066 -223.324707031250 2.544442176819
-115.268203735352 -73.364578247070 -225.903488159180 1.596594929695
18.317926406860 -70.386474609375 -219.624679565430 1.952684402466
76.753700256348 -72.404708862305 -221.772567749023 2.114977121353
7.174442768097 -71.204620361328 -220.885650634766 1.861325144768
-111.884323120117 -74.429641723633 -226.037414550781 3.114920616150
76.923301696777 -72.357284545898 -223.086776733398 1.271827936172
81.632614135742 -73.432571411133 -225.530136108398 1.312616348267
-121.633674621582 -73.573318481445 -231.063308715820 1.816229939461
-115.034347534180 -74.473785400391 -231.253265380859 2.211366176605
-10.055652618408 -72.581626892090 -228.252288818359 1.684527039528
72.071784973145 -74.357734680176 -224.019363403320 5.074351310730
66.957679748535 -72.288581848145 -230.784072875977 3.503759384155
75.373207092285 -72.026062011719 -227.522018432617 2.175488710403
-132.053054809570 -73.670333862305 -235.772842407227 2.840999603271
72.050666809082 -74.801574707031 -230.288696289063 1.258443713188
67.335746765137 -73.820968627930 -231.285018920898 3.676667690277
-165.724899291992 -74.807991027832 -228.920639038086 2.669636487961
1.302675962448 -75.163047790527 -236.965698242188 1.141932249069
17.791269302368 -72.422508239746 -238.774673461914 1.969030976295
-3.537631034851 -73.287902832031 -237.648178100586 2.026922464371
15.349961280823 -73.492980957031 -237.706130981445 0.606406152248
67.607986450195 -73.626518249512 -235.057098388672 2.927509546280
12.276091575623 -74.344802856445 -237.419204711914 3.098435878754
-7.531968116760 -69.370498657227 -239.895614624023 2.274581670761
0.695962011814 -72.385421752930 -239.848846435547 1.700251936913
66.997611999512 -72.806587219238 -239.494949340820 1.097223281860
7.414165973663 -74.729553222656 -240.982345581055 1.359000325203
-7.765199184418 -73.128852844238 -239.107772827148 1.234314560890
15.592415809631 -73.632492065430 -242.221771240234 2.094189882278
-165.230255126953 -70.829231262207 -241.653060913086 2.316708087921
61.357711791992 -70.869491577148 -244.087280273438 1.559996008873
53.817024230957 -71.461509704590 -244.912872314453 1.929168343544
57.456233978271 -74.526824951172 -237.868438720703 4.543205738068
-11.327343940735 -72.488029479980 -246.978256225586 1.942995071411
57.630748748779 -74.466926574707 -242.247222900391 2.301170349121
-71.697288513184 -73.250236511230 -246.915267944336 1.348429322243
53.248256683350 -73.343498229980 -246.208389282227 1.950794339180
-88.415382385254 -74.316841125488 -252.003845214844 1.360569238663
-124.882492065430 -74.679046630859 -253.813705444336 1.792330741882
-132.240203857422 -70.593856811523 -253.114654541016 1.445338487625
48.418113708496 -72.026039123535 -250.385192871094 1.219073295593
-134.901016235352 -72.266365051270 -256.091888427734 0.889804840088
-107.092269897461 -76.004165649414 -254.571365356445 3.881168842316
-111.174934387207 -71.448089599609 -256.608184814453 0.947717726231
-81.765205383301 -73.479530334473 -252.398941040039 2.073475360870
-110.273880004883 -74.223976135254 -261.228088378906 2.342754840851
-122.447090148926 -72.237205505371 -263.147003173828 1.993420124054
-143.008743286133 -71.600746154785 -265.988342285156 2.255292415619
-12.462903976440 -73.094795227051 -258.709136962891 3.518571138382
-167.754882812500 -72.060005187988 -265.694000244141 3.078415870667
-10.260622024536 -74.056457519531 -268.920501708984 3.124014377594
-157.189239501953 -69.770675659180 -267.059753417969 2.117104768753
-151.366058349609 -70.252731323242 -274.274810791016 2.098806381226
-166.513031005859 -70.128814697266 -276.389984130859 1.441133618355
-10.490038871765 -70.332138061523 -272.737854003906 2.453362703323
-131.409179687500 -72.856361389160 -283.445495605469 1.445470571518
-156.517303466797 -70.575942993164 -287.232635498047 1.064603924751
-142.332061767578 -71.743133544922 -281.868133544922 3.099785566330
-133.229156494141 -74.671813964844 -284.553802490234 1.672624230385
-6.354919910431 -71.012268066406 -280.743957519531 3.166089773178
-122.635643005371 -75.671821594238 -283.455291748047 3.313698291779
-139.399002075195 -72.841331481934 -285.405670166016 2.055258512497
-113.285713195801 -71.288108825684 -285.202117919922 1.893158793449
-74.273178100586 -71.150444030762 -286.406646728516 1.560996890068
-59.938297271729 -71.500343322754 -284.026367187500 2.604044198990
-3.077781915665 -72.136810302734 -285.298553466797 2.832902669907
-49.313892364502 -72.144866943359 -287.706726074219 1.493219256401
-57.252655029297 -72.060089111328 -286.362518310547 1.392558455467
-66.788513183594 -70.393150329590 -289.127593994141 1.684582352638
-84.301856994629 -72.613342285156 -292.008544921875 2.422176361084
-98.385406494141 -68.189483642578 -289.025726318359 0.765504658222
-158.729705810547 -70.874992370605 -291.376586914063 2.129964828491
-157.595092773438 -72.113479614258 -291.159515380859 2.584985017776
-123.583106994629 -73.436012268066 -295.281066894531 2.048660755157
-142.693283081055 -72.447677612305 -294.975860595703 1.152530074120
-153.793762207031 -71.906944274902 -300.453216552734 1.084795713425
-144.381759643555 -71.591789245605 -314.769927978516 2.614258527756
43.593627929688 -76.273742675781 -14.793640136719 5.587063312531
16.645000457764 -80.928230285645 -23.201637268066 10.111895561218
39.851047515869 -77.448097229004 -31.333415985107 7.162374973297
-20.083362579346 -78.644142150879 -63.956821441650 4.739782333374
79.270469665527 -75.456527709961 -61.178386688232 7.608019828796
83.330459594727 -72.838897705078 -63.365234375000 3.705644369125
74.211227416992 -75.143203735352 -64.231704711914 5.975673675537
73.041809082031 -75.842247009277 -63.601127624512 7.329305171967
91.495460510254 -78.293357849121 -68.587051391602 5.541339397430
-96.818595886230 -76.661354064941 -70.503547668457 7.004020690918
67.928749084473 -77.607711791992 -72.475440979004 7.302051067352
-38.420227050781 -73.991310119629 -74.512504577637 2.935451269150
97.838050842285 -76.470626831055 -81.843612670898 3.022020339966
59.923732757568 -78.042808532715 -85.566146850586 6.554923057556
106.024757385254 -76.141098022461 -88.896049499512 7.410533428192
103.753318786621 -76.621711730957 -92.750816345215 6.022805690765
69.347465515137 -75.934028625488 -93.960456848145 4.365449905396
-79.337936401367 -77.737136840820 -97.920989990234 3.738147735596
53.380165100098 -76.959831237793 -100.259918212891 1.040022015572
104.823623657227 -75.645950317383 -100.036857604980 2.984351634979
47.604919433594 -78.803779602051 -107.596382141113 0.956061422825
80.728218078613 -75.334770202637 -98.531951904297 1.774854779243
41.215393066406 -77.234962463379 -104.163108825684 1.335547924042
105.185333251953 -73.929748535156 -96.891120910645 1.174024224281
46.669837951660 -74.166114807129 -103.637145996094 2.644193649292
108.999694824219 -76.421363830566 -106.523468017578 2.652595520020
107.305442810059 -74.593978881836 -109.347900390625 0.769406437874
-79.701225280762 -72.199348449707 -112.461631774902 1.976154923439
-81.272575378418 -75.085609436035 -115.106597900391 4.247106075287
42.554904937744 -76.004035949707 -115.889343261719 2.722926855087
113.752212524414 -73.486602783203 -112.704078674316 1.634912848473
113.891609191895 -72.814857482910 -117.665946960449 2.126548290253
-83.828880310059 -74.833671569824 -125.644760131836 4.106883049011
106.805366516113 -74.177940368652 -117.611694335938 2.597737789154
-62.239376068115 -75.795387268066 -131.175216674805 5.110818386078
-88.018836975098 -73.802177429199 -125.316780090332 3.963167905807
-75.988197326660 -73.620849609375 -126.787185668945 3.966291666031
-58.421649932861 -70.985824584961 -124.015815734863 2.738476037979
31.928897857666 -73.770500183105 -125.791496276855 1.119522571564
39.886871337891 -75.149726867676 -129.471710205078 1.867896556854
-76.218215942383 -74.981201171875 -134.929962158203 2.581490516663
27.723627090454 -73.711807250977 -128.120361328125 1.299838423729
107.453277587891 -75.066032409668 -132.881469726563 2.910005331039
-42.106685638428 -74.237777709961 -145.021377563477 1.536445260048
25.075372695923 -72.550117492676 -143.328979492188 1.973261237144
112.941940307617 -71.043624877930 -140.424255371094 1.605430006981
34.429779052734 -74.851570129395 -139.924346923828 1.834617376328
110.695564270020 -74.007606506348 -137.802993774414 1.873160123825
-54.503601074219 -75.329429626465 -146.444808959961 0.977949380875
-67.798583984375 -75.118812561035 -148.211029052734 0.689476430416
-52.401088714600 -75.579544067383 -152.918060302734 1.180789113045
-42.773830413818 -73.620071411133 -164.131896972656 1.351686120033
4.357276916504 -72.457214355469 -151.925216674805 3.562164783478
110.603546142578 -71.194740295410 -149.023880004883 2.453844308853
108.857414245605 -72.819282531738 -153.703643798828 3.112415313721
8.590014457703 -70.896324157715 -155.769866943359 2.322247266769
3.591989994049 -74.314552307129 -158.582366943359 0.536396145821
15.332241058350 -73.491165161133 -154.636535644531 2.273784637451
23.008012771606 -73.035751342773 -149.613128662109 1.841029167175
112.619895935059 -74.330131530762 -160.500640869141 1.525169134140
107.100234985352 -74.747962951660 -164.626342773438 1.202273488045
24.857656478882 -72.122863769531 -168.678695678711 2.740116357803
26.429433822632 -72.861686706543 -159.087905883789 3.406835556030
113.940551757813 -72.953330993652 -156.523056030273 0.582046866417
-29.068466186523 -72.620346069336 -171.620544433594 1.633781194687
110.667388916016 -72.211959838867 -163.980499267578 1.823871254921
18.379495620728 -71.988235473633 -170.845062255859 1.767192244530
19.720468521118 -74.320724487305 -161.861022949219 1.665787100792
109.193489074707 -72.214393615723 -169.797790527344 1.728167295456
24.771848678589 -73.242599487305 -167.077850341797 3.472444295883
110.211303710938 -72.158477783203 -176.041961669922 1.913670539856
-38.612140655518 -72.080635070801 -173.261627197266 0.736598312855
27.084762573242 -71.423423767090 -169.457382202148 1.192385792732
107.628631591797 -72.307525634766 -178.406982421875 0.665555477142
24.221130371094 -72.541763305664 -175.934616088867 2.770298004150
-152.679183959961 -71.789939880371 -184.803451538086 2.561595201492
-29.734733581543 -72.248695373535 -185.744003295898 1.072116374969
25.509950637817 -73.565414428711 -181.311325073242 0.877545177937
-111.203056335449 -72.994354248047 -191.731155395508 2.800932168961
-110.226593017578 -73.493515014648 -188.455230712891 3.661852836609
22.124698638916 -71.487281799316 -187.296981811523 1.839412689209
13.093144416809 -73.823173522949 -182.693450927734 1.528396487236
-26.151092529297 -74.092353820801 -188.040771484375 3.296939134598
-29.484241485596 -73.822235107422 -185.737152099609 1.747986316681
-25.755020141602 -73.721725463867 -182.993591308594 2.574951171875
19.194498062134 -74.160751342773 -175.898193359375 1.149367332458
-151.336120605469 -73.037651062012 -193.492279052734 2.378007411957
-144.205078125000 -74.176383972168 -196.088562011719 2.579727649689
-140.697799682617 -73.199447631836 -195.030822753906 1.012554526329
-20.058248519897 -71.194122314453 -188.725814819336 1.858239531517
14.173170089722 -72.433181762695 -195.767501831055 1.797077655792
99.775268554688 -73.302673339844 -190.160705566406 2.000729799271
-114.104331970215 -72.832160949707 -199.366470336914 1.941010117531
20.322256088257 -71.985816955566 -196.858703613281 0.548451185226
-16.800527572632 -72.101242065430 -193.466735839844 1.355921506882
-18.038625717163 -71.433898925781 -195.038253784180 0.456529140472
99.288642883301 -72.113662719727 -194.517227172852 2.335270881653
9.410237312317 -73.410888671875 -196.934707641602 1.236082911491
-23.071924209595 -71.768959045410 -192.876525878906 2.828552007675
-121.587425231934 -74.414611816406 -201.121261596680 2.424627542496
-133.357788085938 -71.944648742676 -201.650146484375 0.893537759781
-111.511718750000 -71.359840393066 -204.015869140625 2.741626501083
-142.887634277344 -73.301208496094 -203.782272338867 2.454487800598
20.074291229248 -72.982414245605 -194.002395629883 2.609719991684
96.383499145508 -73.027168273926 -201.044601440430 1.344244360924
-166.052932739258 -71.589256286621 -204.862823486328 2.014777421951
100.973060607910 -72.810066223145 -198.233428955078 2.585809707642
-17.087917327881 -72.540100097656 -205.841156005859 2.926449775696
94.067840576172 -75.044837951660 -208.384414672852 0.848287522793
89.842056274414 -70.706024169922 -211.221740722656 1.894400835037
14.014813423157 -71.603866577148 -207.449218750000 2.425571680069
17.757217407227 -72.924575805664 -207.119888305664 1.632203936577
11.907099723816 -72.170707702637 -205.805374145508 2.632854938507
-9.297891616821 -72.106529235840 -216.952041625977 3.130490303040
-95.725250244141 -71.781631469727 -216.451187133789 1.701641678810
-6.539686203003 -73.315826416016 -213.353378295898 0.979441940784
91.972137451172 -71.192543029785 -209.443008422852 1.613148450851
-91.213508605957 -73.418212890625 -219.181411743164 1.133902430534
-101.773498535156 -73.685707092285 -219.426483154297 0.824502408504
-92.021049499512 -73.368728637695 -218.917526245117 1.973127961159
88.527565002441 -73.019187927246 -216.651718139648 1.061458706856
-133.408065795898 -73.194114685059 -225.543228149414 1.251015663147
-132.795120239258 -68.719490051270 -227.141891479492 1.957826614380
-117.001586914063 -71.557868957520 -225.373367309570 0.993426740170
-111.726394653320 -70.403465270996 -225.033050537109 1.387879610062
-132.575149536133 -71.659072875977 -223.862808227539 1.445452690125
-107.249488830566 -76.252342224121 -225.971038818359 3.746667623520
-112.838958740234 -71.563293457031 -227.163681030273 1.129680395126
-7.535933971405 -71.263511657715 -222.390853881836 1.852981686592
-17.406568527222 -73.097343444824 -221.794158935547 1.386177539825
-0.007980000228 -72.110183715820 -229.098937988281 3.579814195633
-8.753505706787 -70.830726623535 -225.233551025391 1.231656074524
16.326299667358 -72.636039733887 -229.105712890625 0.973209440708
-16.205102920532 -72.384841918945 -225.498382568359 1.586480736732
-163.712356567383 -72.007247924805 -224.763214111328 0.958703637123
-1.015545964241 -70.606727600098 -229.021072387695 2.286237478256
82.191551208496 -71.939575195313 -224.696197509766 1.167582035065
9.941341400146 -71.541511535645 -232.101593017578 1.450097918510
-6.879366874695 -71.183586120605 -228.919494628906 1.623941659927
-154.708007812500 -69.615814208984 -235.928573608398 2.277719020844
-138.598922729492 -72.665817260742 -233.409103393555 2.848377704620
67.982154846191 -69.326889038086 -231.029220581055 2.780899524689
-5.274388790131 -72.072280883789 -232.053039550781 1.436269044876
5.879568099976 -71.852149963379 -230.919738769531 1.593076467514
71.930786132813 -71.457923889160 -232.089355468750 1.489103674889
78.397636413574 -73.035903930664 -230.299346923828 1.264658570290
69.998512268066 -73.266731262207 -234.093093872070 1.598282337189
-0.504472017288 -70.964836120605 -233.767837524414 0.883562445641
57.487453460693 -71.705070495605 -235.322143554688 4.709005355835
-16.236816406250 -71.866989135742 -236.233474731445 1.252068996429
-15.012378692627 -71.105209350586 -238.249298095703 2.620851516724
10.282200813293 -71.922332763672 -237.012298583984 1.378973007202
67.465583801270 -71.843208312988 -237.803115844727 0.970289528370
62.464382171631 -71.672317504883 -235.162200927734 2.409204483032
53.362976074219 -69.748497009277 -242.885711669922 2.170573711395
62.962173461914 -73.225555419922 -239.393890380859 1.727371931076
-14.868382453918 -70.636489868164 -246.562911987305 2.057617187500
-82.005493164063 -70.474929809570 -247.904129028320 2.827627420425
-75.474403381348 -69.387634277344 -250.913024902344 1.273305416107
45.047664642334 -71.733665466309 -245.899780273438 2.878776311874
-142.648162841797 -70.004791259766 -250.784515380859 2.492939472198
39.980972290039 -71.927452087402 -252.613906860352 2.337518453598
-87.691795349121 -71.721794128418 -250.795562744141 2.175493478775
-152.758056640625 -71.353691101074 -256.113037109375 2.518527746201
-140.508438110352 -70.914245605469 -255.402313232422 0.758226633072
49.725975036621 -72.404678344727 -248.446716308594 0.699799656868
-123.679069519043 -69.338195800781 -254.597595214844 1.337132334709
-114.731079101563 -70.468200683594 -255.844543457031 1.560663342476
-92.772201538086 -70.229011535645 -255.270980834961 2.533777475357
-14.136817932129 -73.571434020996 -251.826599121094 1.143165826797
33.370906829834 -71.512763977051 -255.567581176758 2.466406106949
25.261247634888 -72.069480895996 -257.390228271484 1.898699045181
-154.942642211914 -71.004821777344 -258.105102539063 1.459274530411
-112.660675048828 -72.418212890625 -262.486480712891 1.540182352066
-12.106193542480 -71.310340881348 -257.956878662109 2.927066564560
-132.583068847656 -71.100242614746 -264.824615478516 1.684236407280
-11.148700714111 -69.797271728516 -268.522918701172 2.240610361099
-163.298416137695 -70.441123962402 -276.612030029297 2.949102401733
-7.463390827179 -69.719810485840 -276.622924804688 2.666314601898
-160.453918457031 -69.443374633789 -289.333984375000 1.517028093338
-158.659179687500 -70.129341125488 -277.670593261719 1.253037691116
-143.686920166016 -69.840934753418 -285.448242187500 0.561329662800
-166.240142822266 -70.778358459473 -284.865356445313 1.616212129593
17.720254898071 -68.734588623047 -283.919738769531 0.734909236431
-101.738143920898 -72.443664550781 -285.893615722656 1.181564688683
-85.045692443848 -69.918495178223 -285.260406494141 2.320775985718
-165.660644531250 -69.949928283691 -285.420074462891 1.936825156212
-88.082160949707 -70.495681762695 -287.324157714844 1.565033912659
-150.489166259766 -72.198486328125 -288.336273193359 2.308320760727
-71.666641235352 -70.738838195801 -288.407653808594 2.990190505981
