42.160552978516 -78.288803100586 -125.197227478027 1.056868314743
28.368360519409 -77.185363769531 -126.296211242676 2.144107341766
108.168502807617 -77.001266479492 -118.351997375488 2.202945470810
36.031044006348 -77.923927307129 -127.408943176270 3.500470876694
29.480224609375 -75.691680908203 -130.566680908203 1.436821103096
-46.078525543213 -74.554435729980 -144.131698608398 1.271584749222
-72.305130004883 -75.814125061035 -147.304595947266 1.242179393768
-54.816745758057 -74.257095336914 -146.528503417969 0.759131729603
-71.683509826660 -74.972686767578 -144.855255126953 0.462785273790
-42.566665649414 -75.116989135742 -148.098464965820 1.204440951347
108.332359313965 -75.130714416504 -150.787460327148 1.590712428093
-72.680870056152 -75.464004516602 -154.460708618164 2.625462055206
22.448600769043 -78.563285827637 -150.998794555664 2.253698587418
32.195392608643 -75.271385192871 -152.695831298828 1.264777660370
113.849243164063 -76.529815673828 -157.104598999023 2.216951370239
7.467496871948 -74.521270751953 -158.475402832031 1.524900555611
31.234216690063 -75.431594848633 -156.255279541016 1.080128312111
-63.626953125000 -75.043235778809 -159.622619628906 0.880100488663
-46.123683929443 -77.106681823730 -169.606948852539 3.374561309814
17.896802902222 -75.167732238770 -164.139373779297 2.005627632141
-66.015106201172 -73.905601501465 -165.734008789063 2.079937219620
-67.560928344727 -74.004692077637 -163.362915039063 1.187639832497
107.937553405762 -78.537879943848 -165.935348510742 2.225089550018
-9.716846466064 -73.633071899414 -168.750823974609 2.648248910904
-60.449928283691 -76.999099731445 -177.063949584961 2.630968093872
-29.939506530762 -74.936790466309 -172.203643798828 0.971218168736
-56.279670715332 -74.600746154785 -173.682983398438 1.130908489227
27.883073806763 -78.687324523926 -169.299316406250 2.382465600967
109.177421569824 -74.636009216309 -171.156845092773 1.188097596169
104.286865234375 -78.882598876953 -182.915435791016 1.849508404732
109.251983642578 -78.598579406738 -190.422256469727 3.284765958786
106.719558715820 -77.396125793457 -176.710723876953 2.906813144684
-56.550708770752 -75.808509826660 -189.229278564453 4.437380313873
-52.949253082275 -74.072937011719 -182.214157104492 1.419001102448
23.789386749268 -77.107238769531 -183.661300659180 1.567089319229
-51.751750946045 -71.925697326660 -188.107391357422 2.922558784485
-21.968410491943 -75.227386474609 -185.938949584961 1.031558871269
-51.481578826904 -74.443824768066 -191.970275878906 1.575335860252
-148.698120117188 -75.236480712891 -195.078063964844 2.319561958313
100.145011901855 -75.782600402832 -193.182006835938 1.905846118927
-46.375766754150 -74.536186218262 -192.167007446289 1.460022449493
-17.031553268433 -77.167938232422 -196.755767822266 0.702314615250
-140.535507202148 -75.473800659180 -199.441360473633 1.418280482292
-46.105628967285 -75.470649719238 -196.010223388672 1.025077939034
103.612335205078 -80.156036376953 -196.522766113281 3.004899263382
105.846305847168 -77.330436706543 -187.887466430664 0.984630584717
-47.746994018555 -76.406150817871 -198.004882812500 2.098761796951
-24.730909347534 -76.091575622559 -195.992736816406 1.319624423981
-150.369476318359 -79.728721618652 -200.271011352539 2.199422836304
-26.738018035889 -75.814949035645 -200.084594726563 2.175555944443
-154.296539306641 -76.354995727539 -199.295425415039 0.997660040855
-153.681274414063 -76.046821594238 -202.849746704102 2.024116754532
-142.110000610352 -75.423706054688 -201.957992553711 1.869452953339
-38.856826782227 -75.249687194824 -197.970291137695 1.723814010620
100.433494567871 -77.675765991211 -200.094665527344 0.911228358746
-39.811542510986 -74.249961853027 -200.465408325195 2.526310205460
-145.293853759766 -77.111976623535 -204.132141113281 1.408836126328
-39.106258392334 -74.810501098633 -207.712051391602 2.250366210938
-19.546924591064 -77.220138549805 -210.372146606445 1.950947523117
94.244506835938 -77.106758117676 -204.395950317383 1.502121686935
92.710960388184 -76.847686767578 -209.697891235352 0.939682364464
-30.043689727783 -75.981613159180 -217.083465576172 0.954708099365
-87.755264282227 -76.267456054688 -212.614044189453 0.779292523861
-74.567108154297 -75.336723327637 -212.199783325195 0.798701226711
-18.791130065918 -76.168914794922 -219.087585449219 1.987427830696
-150.718170166016 -72.123718261719 -212.918426513672 0.392959833145
86.379531860352 -78.351081848145 -214.519409179688 3.135613918304
87.902915954590 -76.182968139648 -220.070312500000 2.344343900681
88.860877990723 -77.347671508789 -219.067077636719 1.570846915245
-102.051551818848 -71.140197753906 -223.362213134766 2.039550065994
-150.041381835938 -76.190917968750 -224.380889892578 2.058469533920
-19.949182510376 -78.008804321289 -220.505889892578 0.667191624641
78.750968933105 -75.974517822266 -224.238540649414 0.792451441288
-148.255493164063 -78.328346252441 -227.058273315430 0.954447150230
-29.744167327881 -75.493812561035 -221.911117553711 3.659168720245
-133.376937866211 -71.479324340820 -230.972503662109 2.149914979935
-13.264606475830 -77.152313232422 -227.735214233398 1.112138986588
17.748289108276 -75.873161315918 -221.267135620117 0.695445060730
16.773910522461 -76.034019470215 -233.348526000977 1.054818511009
-155.727554321289 -77.471244812012 -233.910827636719 3.115633010864
-124.966079711914 -72.223976135254 -232.777236938477 1.451342344284
-9.075725555420 -75.013923645020 -234.161758422852 1.594478368759
-0.369547009468 -74.706893920898 -238.138916015625 1.446138143539
67.490562438965 -77.265174865723 -235.681549072266 3.619206666946
70.186637878418 -75.586135864258 -236.542282104492 1.808362722397
-0.651748001575 -76.472366333008 -240.891494750977 1.710753321648
17.305004119873 -75.363517761230 -238.755691528320 1.183065414429
-27.636354446411 -74.111564636230 -240.707046508789 0.852237880230
-37.966091156006 -76.553146362305 -242.958099365234 2.237022399902
-46.261577606201 -75.538909912109 -240.497665405273 1.390646457672
-39.750255584717 -75.596565246582 -243.020385742188 1.565182209015
-19.925365447998 -77.266571044922 -243.563995361328 1.384986996651
-54.683109283447 -73.413375854492 -242.670745849609 1.404561996460
2.533771991730 -75.348243713379 -245.094329833984 0.678946912289
-70.127540588379 -71.591209411621 -246.706253051758 1.214677214622
16.891176223755 -74.621025085449 -246.506683349609 1.156017661095
-147.422714233398 -75.766311645508 -247.982910156250 1.994169950485
-71.790885925293 -77.415321350098 -250.361618041992 2.354419946671
11.955164909363 -77.943336486816 -248.339523315430 2.305731058121
-163.800094604492 -73.331214904785 -250.595077514648 2.010503530502
16.994384765625 -75.743690490723 -250.920043945313 1.530545711517
-81.818954467773 -75.638496398926 -252.109497070313 0.568980932236
-75.094413757324 -73.894348144531 -251.742111206055 1.406060695648
21.299787521362 -75.856422424316 -256.900390625000 0.569718897343
-89.327850341797 -73.403167724609 -255.767318725586 1.437523007393
-128.295059204102 -74.440628051758 -256.304321289063 2.555253267288
-136.735473632813 -74.182487487793 -258.431823730469 1.697640419006
-134.536743164063 -74.670127868652 -258.782135009766 1.105336070061
-146.518508911133 -72.049171447754 -260.210693359375 1.991553783417
-141.641555786133 -75.014694213867 -258.572235107422 1.019116520882
-136.755676269531 -72.564041137695 -262.830108642578 1.261761307716
-161.130966186523 -73.890922546387 -260.611450195313 1.213783144951
-127.365631103516 -71.334854125977 -264.758056640625 0.565943419933
-134.927368164063 -73.106773376465 -261.199249267578 1.378738522530
-165.173995971680 -74.410835266113 -265.217437744141 2.056941270828
-157.829467773438 -72.974746704102 -264.213226318359 1.395556926727
-151.421981811523 -73.006942749023 -266.305877685547 1.544177651405
-147.289123535156 -75.498657226563 -265.925079345703 0.984012901783
14.309972763062 -80.378303527832 -279.570068359375 1.925603628159
-165.779800415039 -74.429611206055 -269.356079101563 1.234241366386
-154.290069580078 -71.647857666016 -275.264404296875 1.546635866165
-7.164096832275 -77.942886352539 -275.050384521484 1.039187073708
-161.330276489258 -73.265190124512 -268.753448486328 3.633726835251
12.726724624634 -79.282379150391 -280.280700683594 1.577360510826
-152.906387329102 -73.020530700684 -283.219726562500 1.667429685593
-162.473114013672 -72.135520935059 -289.172760009766 2.470948219299
-154.139450073242 -71.995742797852 -283.475921630859 1.174827456474
-167.790603637695 -70.614997863770 -284.692687988281 0.247560903430
1.873478055000 -74.978271484375 -288.422149658203 1.210939764977
8.045199394226 -78.521362304688 -284.466461181641 1.747867941856
-97.842468261719 -71.284843444824 -287.818847656250 1.357685446739
-151.788391113281 -73.912445068359 -288.553894042969 1.831112623215
-149.172378540039 -73.597206115723 -286.558990478516 1.250942945480
-110.620841979980 -72.282852172852 -290.291351318359 2.490932226181
-151.132156372070 -72.711761474609 -291.092956542969 2.331907510757
-149.780776977539 -72.824485778809 -292.484466552734 3.046136140823
-68.637718200684 -74.071258544922 -291.151702880859 1.249120473862
-162.969573974609 -74.564865112305 -291.977691650391 1.193925619125
-123.609428405762 -74.245376586914 -290.694641113281 0.685017585754
-44.195098876953 -76.950408935547 -291.700866699219 1.865495324135
-155.808166503906 -72.291915893555 -291.532958984375 2.570233345032
-138.818527221680 -72.315620422363 -293.021118164063 3.026921987534
-17.824083328247 -75.761932373047 -292.541717529297 1.413722276688
-127.048400878906 -73.150634765625 -296.161865234375 1.645448327065
3.351350069046 -75.627059936523 -292.537384033203 0.735953509808
13.395057678223 -76.176216125488 -291.685150146484 1.959329485893
-134.332611083984 -73.615432739258 -294.681823730469 1.325558900833
-146.332885742188 -72.685737609863 -295.503356933594 1.213914752007
-156.657608032227 -71.526397705078 -311.083679199219 1.643644809723
-73.312133789063 -73.114013671875 -51.289279937744 1.651868939400
-24.937604904175 -73.969604492188 -61.219638824463 1.396859288216
-23.026269912720 -75.715286254883 -65.619880676270 1.458853244781
73.632110595703 -75.616996765137 -74.127143859863 2.721560239792
90.296752929688 -76.782310485840 -75.650161743164 2.795788526535
-38.892978668213 -72.621253967285 -78.349739074707 1.169290781021
75.287635803223 -77.504936218262 -76.603675842285 2.913082361221
86.856193542480 -79.433677673340 -80.713134765625 3.225799560547
70.106063842773 -76.036926269531 -81.485000610352 2.349050760269
69.641952514648 -75.737777709961 -87.046714782715 2.767111539841
-49.059375762939 -77.813156127930 -87.334098815918 1.153276205063
-93.924201965332 -74.287963867188 -88.733879089355 2.647672414780
56.845451354980 -76.867332458496 -93.013442993164 2.795071840286
47.927307128906 -76.756477355957 -97.208839416504 2.948937654495
94.625785827637 -75.295005798340 -96.517593383789 0.828659951687
-95.415267944336 -72.579048156738 -103.146903991699 1.548657059669
83.563858032227 -76.715980529785 -96.907867431641 2.022358417511
77.026473999023 -76.225868225098 -98.750289916992 1.925208568573
90.573501586914 -77.006721496582 -97.295898437500 1.572155237198
81.292716979980 -74.048728942871 -101.591621398926 2.316365718842
88.255844116211 -77.188293457031 -98.791938781738 2.381964683533
-82.889427185059 -77.546936035156 -102.618423461914 2.749928951263
39.430812835693 -78.409988403320 -110.166137695313 1.361603379250
104.212272644043 -76.986778259277 -111.522651672363 4.121876239777
109.978828430176 -75.111358642578 -110.374122619629 0.925192713737
44.787857055664 -75.817871093750 -116.820747375488 1.205135345459
107.687477111816 -75.073730468750 -123.942047119141 2.274083375931
114.166687011719 -77.709564208984 -134.848556518555 1.499632000923
-53.406700134277 -74.024246215820 -133.297943115234 1.230422258377
27.199306488037 -75.984626770020 -133.696609497070 2.269517660141
36.547065734863 -77.657432556152 -131.399169921875 1.489160537720
23.350364685059 -73.465164184570 -143.669647216797 0.735540866852
112.697746276855 -76.264495849609 -139.651000976563 1.765541911125
110.625205993652 -76.597831726074 -134.129272460938 1.993237853050
-74.928474426270 -75.363189697266 -149.100265502930 2.772041320801
-47.018638610840 -75.808876037598 -147.862319946289 2.309485435486
-72.883514404297 -72.903297424316 -149.699218750000 2.018786668777
20.074411392212 -76.709724426270 -152.457870483398 2.875806570053
111.616012573242 -75.923568725586 -152.582580566406 1.977758765221
-54.701961517334 -74.859809875488 -150.818725585938 1.211759686470
-70.913917541504 -73.337615966797 -149.796188354492 1.788120508194
-40.306846618652 -78.068550109863 -155.464157104492 1.770813941956
33.840686798096 -74.290161132813 -151.593719482422 1.396476864815
110.089492797852 -76.858627319336 -154.105270385742 2.062601804733
113.965087890625 -76.906471252441 -157.895614624023 1.598085045815
-69.491584777832 -73.222976684570 -153.279006958008 0.790096163750
-71.466751098633 -74.767784118652 -163.736373901367 2.947663307190
19.870584487915 -77.420303344727 -163.217086791992 2.845183134079
-59.726692199707 -75.336853027344 -165.403793334961 1.178621888161
-33.225765228271 -78.515945434570 -162.448669433594 2.675516128540
6.004016876221 -74.581336975098 -163.447235107422 0.732954740524
110.360374450684 -77.570129394531 -163.759719848633 1.457504272461
4.167152881622 -75.284561157227 -165.347122192383 1.087296009064
-35.866043090820 -75.480484008789 -166.465362548828 3.024076223373
-1.008720040321 -74.019050598145 -166.576980590820 1.795060276985
106.392578125000 -75.645462036133 -172.091659545898 0.423109412193
-42.106796264648 -71.125144958496 -171.526184082031 2.384430885315
27.473478317261 -73.011978149414 -170.104904174805 0.748081505299
110.487754821777 -75.374298095703 -171.947479248047 1.446518898010
-55.967571258545 -73.411636352539 -178.595108032227 2.119649887085
-29.484674453735 -76.013153076172 -172.367187500000 1.137482285500
102.017013549805 -77.026596069336 -173.970825195313 4.555419921875
29.542276382446 -76.548355102539 -172.815536499023 1.074299931526
112.854637145996 -76.064712524414 -175.062911987305 1.155906915665
-38.446048736572 -75.612251281738 -174.930511474609 1.238125085831
105.580902099609 -75.350631713867 -180.803985595703 1.657904386520
-59.727416992188 -74.218574523926 -178.486526489258 2.377536773682
-25.611347198486 -75.844123840332 -179.232559204102 1.231348395348
-144.884445190430 -72.793922424316 -182.782730102539 1.192091584206
-55.347480773926 -74.205284118652 -184.639144897461 1.558963418007
-147.529205322266 -72.676300048828 -186.414688110352 1.782264351845
-33.343223571777 -73.964569091797 -187.724319458008 1.962342381477
21.695320129395 -75.033187866211 -187.078353881836 2.144819974899
108.190704345703 -74.344299316406 -182.555328369141 0.701632261276
-31.067518234253 -75.679969787598 -189.031341552734 0.912539482117
11.663455009460 -76.343269348145 -191.743530273438 2.005644083023
17.509115219116 -75.193130493164 -200.281158447266 1.412258744240
-148.260665893555 -72.302047729492 -193.657623291016 1.238524079323
101.766113281250 -77.444717407227 -196.323501586914 0.832842528820
-19.094257354736 -72.296333312988 -194.441497802734 1.763680100441
102.951400756836 -74.175659179688 -190.869979858398 1.663752436638
14.218222618103 -74.321273803711 -188.925750732422 0.810938417912
-132.138442993164 -72.565605163574 -202.070495605469 1.260810613632
-142.799774169922 -72.997428894043 -200.211471557617 2.672289848328
95.340690612793 -73.302520751953 -200.527084350586 0.777673363686
-12.653120994568 -75.514648437500 -201.363174438477 1.058023691177
-15.980662345886 -76.653671264648 -199.714294433594 2.131249666214
9.750930786133 -75.716949462891 -206.214218139648 1.831895828247
-149.531463623047 -71.191284179688 -206.692169189453 1.541219711304
-147.184783935547 -74.387680053711 -207.043258666992 2.434490203857
98.582504272461 -78.030883789063 -204.203002929688 1.698673248291
-77.607940673828 -74.377487182617 -210.360076904297 0.457467436790
-37.739910125732 -73.206703186035 -203.278869628906 0.766070365906
17.620491027832 -74.932525634766 -210.918273925781 1.934622049332
-25.880258560181 -76.001243591309 -211.433807373047 1.725670456886
-79.522506713867 -72.698776245117 -212.857772827148 1.809677481651
91.137428283691 -75.466995239258 -209.594818115234 1.925125360489
-82.889450073242 -71.782470703125 -214.310638427734 1.488848090172
-147.454360961914 -74.144378662109 -219.132247924805 2.522309064865
-79.768615722656 -74.848350524902 -215.938110351563 0.683098495007
-16.413873672485 -74.128021240234 -213.539245605469 1.016883730888
-22.045707702637 -74.653831481934 -217.783767700195 1.196119070053
19.757528305054 -73.547859191895 -211.587585449219 0.924027144909
-6.511009216309 -74.633064270020 -214.573287963867 1.497687816620
-85.987602233887 -72.793479919434 -219.502059936523 2.011501073837
90.928291320801 -75.809028625488 -214.091842651367 1.414505124092
-95.868614196777 -74.657875061035 -216.130905151367 1.178417801857
-148.829772949219 -76.653923034668 -224.355224609375 2.224721431732
-17.180334091187 -74.747932434082 -221.054168701172 1.543075561523
15.464447021484 -74.592025756836 -216.626724243164 1.342725753784
-103.253326416016 -72.329765319824 -220.393447875977 2.125533103943
7.581791877747 -76.023513793945 -220.816513061523 1.455263495445
-25.363456726074 -76.112556457520 -217.096649169922 1.664654731750
82.589233398438 -76.559547424316 -224.036529541016 2.027293682098
-147.018829345703 -73.264884948730 -222.072128295898 1.198596596718
5.109418869019 -72.593879699707 -226.268051147461 1.170143365860
-8.814992904663 -75.880744934082 -222.410522460938 2.134982824326
16.407041549683 -72.416198730469 -221.261199951172 1.900115370750
83.345222473145 -74.616294860840 -223.861846923828 1.063565254211
-13.306552886963 -74.770935058594 -227.460083007813 0.829467773438
-130.791671752930 -74.391075134277 -227.610519409180 1.437299966812
-10.890295982361 -77.003906250000 -225.521026611328 1.517232060432
16.261648178101 -75.500259399414 -234.572204589844 1.596788883209
-126.113670349121 -73.005683898926 -226.450592041016 1.453194618225
-149.981124877930 -72.409591674805 -229.129104614258 0.563640415668
-141.275222778320 -72.905639648438 -229.571807861328 1.336979866028
-134.038391113281 -72.468688964844 -230.709503173828 1.266388893127
-14.374714851379 -74.518737792969 -227.490570068359 1.653026580811
71.063964843750 -75.198356628418 -230.091079711914 1.508550882339
-142.027679443359 -72.841018676758 -234.147918701172 1.523953199387
72.794822692871 -75.591934204102 -228.891647338867 1.557446599007
-18.453704833984 -76.355911254883 -227.178054809570 2.025940418243
-142.661621093750 -77.356994628906 -232.342697143555 1.863606095314
77.294052124023 -76.860168457031 -230.476119995117 1.815481781960
10.364738464355 -77.219360351563 -236.519638061523 2.148194074631
-143.905334472656 -74.475227355957 -235.889892578125 1.965311646461
-150.814666748047 -72.597824096680 -236.713470458984 1.748521089554
13.802152633667 -72.370246887207 -233.979843139648 0.408628255129
-3.400032043457 -74.891235351563 -237.251327514648 2.036361455917
-24.911190032959 -73.578666687012 -240.726760864258 1.250277757645
-3.671317100525 -73.203125000000 -240.399551391602 0.868902146816
-162.138168334961 -73.104804992676 -238.059448242188 1.655322909355
10.093721389771 -75.412788391113 -245.572036743164 1.386658430099
-164.777297973633 -71.618972778320 -236.082534790039 2.208053112030
-15.950928688049 -74.726379394531 -236.293609619141 1.851306438446
66.078048706055 -76.228126525879 -239.550354003906 2.805627822876
-11.323792457581 -74.152969360352 -241.291030883789 1.045623302460
-25.766418457031 -73.626106262207 -240.108078002930 1.554797530174
-26.749694824219 -72.945663452148 -242.225982666016 1.381628155708
-16.206130981445 -72.729278564453 -244.075698852539 1.864290118217
-145.747177124023 -71.918426513672 -236.238388061523 1.510617017746
8.200142860413 -76.048248291016 -244.223159790039 0.356535106897
64.065994262695 -76.350120544434 -241.759750366211 2.619071245193
11.980842590332 -74.978820800781 -245.005340576172 0.863830387592
-162.428024291992 -71.637313842773 -240.499038696289 1.976282000542
-48.943489074707 -74.704582214355 -244.694351196289 1.720775961876
3.085340023041 -79.511383056641 -247.833938598633 1.167578101158
16.365642547607 -72.537254333496 -247.954086303711 1.247658252716
-56.795265197754 -73.029823303223 -248.883865356445 1.574930071831
-4.486546993256 -73.649856567383 -244.824661254883 1.458256959915
20.516267776489 -76.230339050293 -248.897674560547 2.303272008896
-165.871261596680 -72.184387207031 -248.173507690430 1.316689610481
-71.996772766113 -75.462127685547 -249.981018066406 2.092829227448
-51.928344726563 -73.136993408203 -247.798538208008 2.065417766571
-79.719932556152 -73.284523010254 -249.222412109375 1.427012085915
-161.086837768555 -71.678184509277 -246.737533569336 1.996456265450
-151.977996826172 -72.791206359863 -252.627456665039 0.864885151386
-59.956207275391 -72.818397521973 -251.615402221680 2.496627807617
-69.522804260254 -75.979652404785 -251.944671630859 1.345643758774
-154.497192382813 -71.587158203125 -254.050521850586 2.102657794952
-152.765686035156 -71.298820495605 -252.151077270508 2.136462688446
-78.322959899902 -73.486671447754 -253.097656250000 1.226892471313
-93.542732238770 -71.405822753906 -253.297210693359 1.026052236557
-165.579528808594 -72.654647827148 -251.506347656250 1.709648609161
-156.055053710938 -71.984062194824 -256.218750000000 1.888775348663
-134.852600097656 -71.309616088867 -256.799865722656 1.656921505928
-83.009048461914 -75.023231506348 -254.010925292969 0.400889009237
-163.784164428711 -70.766220092773 -253.632156372070 2.827595949173
-144.681777954102 -74.391738891602 -257.248962402344 2.729619503021
-89.155693054199 -73.025611877441 -255.635894775391 1.407522439957
-97.911781311035 -69.412567138672 -259.436981201172 1.133698344231
-148.979095458984 -71.897018432617 -258.613189697266 2.147860050201
-96.407730102539 -72.643501281738 -259.535705566406 1.703405737877
-150.966613769531 -71.858352661133 -256.685089111328 2.388232946396
-100.708030700684 -73.514167785645 -257.195800781250 0.355113118887
-166.384323120117 -73.873939514160 -258.957092285156 1.753750085831
-161.799026489258 -74.198608398438 -259.447723388672 1.699388980865
-124.176902770996 -71.898971557617 -257.698089599609 1.926623463631
-150.359207153320 -73.701850891113 -259.725799560547 0.492657691240
-113.199653625488 -72.153648376465 -260.980102539063 1.116242051125
-15.402400970459 -76.527931213379 -261.832336425781 1.973722696304
-143.449249267578 -71.841102600098 -262.389343261719 1.211027979851
-125.480667114258 -72.409873962402 -261.492095947266 1.691835761070
-156.343185424805 -71.926460266113 -263.713409423828 2.229612827301
21.002727508545 -75.339630126953 -268.779052734375 1.219713687897
-149.586059570313 -72.138526916504 -280.273284912109 3.605114221573
-168.238510131836 -71.375869750977 -278.777618408203 0.809270024300
-7.011735916138 -77.742675781250 -280.850433349609 2.084405660629
-148.410934448242 -73.970520019531 -282.148651123047 2.108427047729
-7.862762928009 -73.581802368164 -281.311248779297 1.725733041763
13.142221450806 -74.056365966797 -285.981414794922 0.903375685215
-135.475265502930 -72.195091247559 -287.442504882813 2.372200489044
-71.491943359375 -74.757652282715 -285.232696533203 1.381180286407
-36.291385650635 -73.672698974609 -285.302917480469 3.248577117920
-114.878524780273 -71.431571960449 -288.364044189453 1.673870444298
-92.360290527344 -73.377258300781 -292.484619140625 1.547267079353
-91.490715026855 -72.523880004883 -293.341339111328 1.731655955315
-48.759613037109 -75.681793212891 -290.549957275391 1.606650471687
-116.079635620117 -71.370788574219 -292.256866455078 1.270501613617
-110.305938720703 -73.207199096680 -291.762573242188 1.825484871864
-32.568935394287 -74.754005432129 -291.912322998047 1.343401670456
-114.746223449707 -72.574394226074 -291.524353027344 1.312256455421
-125.817314147949 -72.851692199707 -292.038482666016 1.341586351395
-144.512420654297 -73.434562683105 -293.872070312500 1.440710186958
7.656878948212 -72.829788208008 -291.514923095703 1.332983136177
13.964748382568 -75.877555847168 -294.291595458984 0.813472986221
-157.328765869141 -72.506385803223 -294.961303710938 0.260404109955
-155.310119628906 -73.200233459473 -302.585601806641 1.982367634773
-145.582458496094 -73.699905395508 -311.971313476563 1.435708165169
-150.808349609375 -69.955604553223 -311.361938476563 2.073139429092
-152.709533691406 -75.521575927734 -313.471649169922 2.254240274429
27.610292434692 -74.518661499023 -16.393976211548 2.952714204788
24.244213104248 -73.809089660645 -18.710353851318 2.908297777176
21.774562835693 -74.472740173340 -22.098899841309 2.015913724899
27.385482788086 -74.690704345703 -40.052192687988 2.812853574753
-56.115158081055 -70.222915649414 -51.623783111572 2.635635137558
-66.104675292969 -71.955734252930 -51.149162292480 2.555630922318
-39.582874298096 -73.117370605469 -53.056724548340 0.748433887959
-82.007484436035 -74.142379760742 -59.703479766846 2.171847343445
81.458961486816 -78.323738098145 -75.011070251465 3.414190053940
-19.829795837402 -74.250015258789 -72.516685485840 1.714746832848
88.645416259766 -77.397789001465 -70.361785888672 3.757911443710
96.217193603516 -74.948707580566 -79.523742675781 1.876668095589
-93.781585693359 -72.485626220703 -80.492019653320 1.447261452675
71.262817382813 -73.689147949219 -79.045516967773 1.586242318153
-42.817264556885 -77.062408447266 -84.789947509766 0.976897418499
99.864082336426 -74.172241210938 -84.266067504883 2.671037673950
-54.507167816162 -75.353797912598 -90.180580139160 1.156867265701
51.490390777588 -74.619194030762 -89.877220153809 2.563143491745
71.754394531250 -76.283447265625 -90.418304443359 2.322823286057
56.916954040527 -76.749839782715 -96.595619201660 2.384676218033
50.586929321289 -75.542442321777 -100.355438232422 2.721044301987
70.501365661621 -77.062507629395 -95.112335205078 3.784748554230
45.654647827148 -73.091651916504 -99.769554138184 1.380766153336
102.600723266602 -76.034729003906 -100.504386901855 3.996497392654
108.261306762695 -76.855796813965 -105.625480651855 2.551355600357
80.603797912598 -72.204406738281 -102.200080871582 1.631472826004
88.362945556641 -75.958038330078 -102.502517700195 2.551289081573
101.218643188477 -74.818229675293 -99.087242126465 2.756470918655
107.227722167969 -72.074081420898 -102.231185913086 1.098044514656
38.839542388916 -78.140426635742 -106.412757873535 2.499818086624
109.411453247070 -74.753089904785 -119.814262390137 1.172518372536
112.781410217285 -76.868164062500 -119.320724487305 2.623765230179
32.606273651123 -74.587181091309 -121.062049865723 1.062044262886
42.665805816650 -75.653327941895 -119.916969299316 2.217473030090
112.022880554199 -74.629280090332 -128.002166748047 1.834763288498
38.657356262207 -76.433128356934 -126.737426757813 2.146221160889
112.923095703125 -74.245971679688 -129.570022583008 2.020431518555
109.667098999023 -75.056152343750 -124.013610839844 1.268462061882
24.774162292480 -72.838233947754 -138.160690307617 1.899003982544
-49.519203186035 -75.042274475098 -134.847915649414 1.186589002609
-54.235786437988 -73.500663757324 -138.058517456055 0.506395220757
111.869087219238 -74.332206726074 -133.885360717773 1.499407529831
-73.145629882813 -74.913131713867 -143.098266601563 1.559520363808
-75.512191772461 -73.482696533203 -140.348144531250 1.814352631569
-58.229190826416 -75.070175170898 -143.225097656250 2.323542356491
33.329643249512 -74.159667968750 -140.881484985352 2.019978761673
109.090652465820 -74.614997863770 -145.490829467773 2.324453353882
-67.193794250488 -73.409179687500 -146.298645019531 0.946548104286
-45.925090789795 -71.378562927246 -145.091262817383 1.059960484505
35.847484588623 -77.139251708984 -149.528381347656 1.789006948471
-66.917808532715 -74.851211547852 -149.855941772461 1.383631110191
113.070434570313 -73.130905151367 -144.053771972656 0.826170921326
111.261749267578 -75.683364868164 -156.938995361328 1.429868459702
113.952560424805 -76.675941467285 -150.029937744141 2.542469978333
-38.586761474609 -74.076881408691 -155.240539550781 2.171450376511
-66.283485412598 -73.939262390137 -161.114929199219 1.520063519478
-71.890319824219 -70.842819213867 -155.760543823242 1.829789161682
30.634012222290 -73.832603454590 -150.956909179688 2.029081583023
-1.813897967339 -75.937034606934 -163.324813842773 1.342299342155
107.416778564453 -75.911468505859 -158.795867919922 2.227234601974
109.975051879883 -73.536102294922 -154.733673095703 2.234231948853
111.950714111328 -74.620628356934 -157.176254272461 0.589779019356
-65.350257873535 -73.666610717773 -162.600677490234 1.157059192657
-46.762390136719 -75.017127990723 -162.072174072266 0.735935151577
1.101426959038 -74.466163635254 -166.998275756836 0.541339516640
-26.256725311279 -72.423545837402 -174.677154541016 1.995291709900
105.943992614746 -75.566741943359 -164.891876220703 2.117105722427
-37.154010772705 -72.989982604980 -161.097686767578 1.585549473763
110.030151367188 -75.923088073730 -169.335632324219 1.542695283890
-41.978565216064 -73.366859436035 -172.716842651367 0.977921545506
109.687385559082 -75.961456298828 -167.098480224609 1.825212121010
-149.703170776367 -71.260459899902 -182.557159423828 1.987046837807
-30.050107955933 -72.299697875977 -175.777511596680 2.098573207855
-21.616992950439 -72.071548461914 -181.750320434570 1.487680315971
26.643091201782 -76.661933898926 -177.006927490234 2.532759428024
15.517208099365 -74.630645751953 -181.227157592773 0.975124597549
24.566287994385 -74.895927429199 -183.128051757813 1.684026598930
106.184951782227 -76.398468017578 -184.090072631836 1.603047132492
-151.944610595703 -70.618804931641 -187.928726196289 1.183479905128
-21.334735870361 -74.944824218750 -188.824432373047 2.421354532242
103.773826599121 -74.400947570801 -178.546432495117 2.384141206741
103.015487670898 -74.548789978027 -190.941864013672 1.448930263519
105.544143676758 -75.248382568359 -180.173416137695 1.693344593048
96.322441101074 -77.545616149902 -195.098419189453 2.696558952332
-153.853866577148 -77.568489074707 -196.011978149414 0.824611663818
99.317031860352 -77.652740478516 -203.741043090820 2.427456617355
-30.180854797363 -72.499893188477 -195.440551757813 2.975846767426
98.376724243164 -73.963836669922 -197.182266235352 2.198892831802
-126.253379821777 -72.692947387695 -196.608108520508 2.065232515335
-30.391725540161 -76.323104858398 -192.700729370117 2.971461534500
-141.668533325195 -71.942947387695 -200.514495849609 1.655443668365
92.626747131348 -74.953994750977 -199.790023803711 2.722431421280
8.628598213196 -74.776222229004 -199.463745117188 1.755158424377
22.620473861694 -75.506019592285 -195.090179443359 1.940708637238
-148.339126586914 -71.475997924805 -200.905502319336 0.632619798183
-140.363113403320 -70.752357482910 -203.910095214844 1.130289793015
-12.990933418274 -74.151687622070 -204.938598632813 2.307660102844
-125.399635314941 -75.060668945313 -202.680267333984 2.347319841385
-145.021026611328 -75.366600036621 -203.774368286133 2.220905542374
7.133374214172 -73.170692443848 -200.729080200195 1.625541806221
-23.474849700928 -74.492492675781 -203.623245239258 1.708570003510
18.948806762695 -74.265960693359 -205.369003295898 1.652566075325
7.149381160736 -74.190231323242 -210.172607421875 1.296109795570
87.973075866699 -75.663215637207 -209.579437255859 2.475003242493
-21.799341201782 -70.337127685547 -212.047866821289 3.610138654709
92.531745910645 -74.368141174316 -209.570541381836 1.212023854256
96.874343872070 -74.907600402832 -207.084197998047 2.363831520081
-148.457229614258 -70.224952697754 -217.712234497070 3.536225795746
95.110435485840 -73.552597045898 -211.265579223633 1.453673243523
5.791728973389 -73.211380004883 -209.578842163086 2.126572608948
4.391918182373 -74.580802917480 -213.171432495117 2.354354858398
-34.947433471680 -72.701988220215 -209.636825561523 2.376869916916
-90.804244995117 -70.905342102051 -214.286895751953 1.421630382538
-30.628198623657 -73.157310485840 -213.316192626953 2.115464687347
83.932968139648 -75.749595642090 -215.689346313477 1.376597285271
85.476020812988 -75.180442810059 -218.702484130859 1.555039525032
-34.971191406250 -71.755294799805 -214.423995971680 3.567168712616
-83.478179931641 -69.725357055664 -219.660202026367 4.541901111603
-3.324151039124 -74.450683593750 -217.223587036133 1.261604905128
87.312812805176 -75.018623352051 -216.499481201172 1.929780721664
-150.182174682617 -72.527999877930 -222.923049926758 0.309066146612
-167.101562500000 -71.891517639160 -214.268844604492 3.483763933182
-159.643646240234 -70.964118957520 -222.801651000977 1.757755398750
-20.972690582275 -73.995811462402 -227.692779541016 2.777585268021
-152.911087036133 -72.565444946289 -224.283004760742 1.370598196983
-8.122887611389 -77.234092712402 -226.688766479492 2.291232109070
6.680530071259 -72.795791625977 -218.344665527344 1.772696375847
-163.598052978516 -73.267265319824 -224.153381347656 0.691109955311
-162.898864746094 -71.542602539063 -226.661178588867 2.318779706955
78.816841125488 -75.179641723633 -230.272766113281 0.336619883776
3.200268983841 -73.014656066895 -228.819274902344 1.688682198524
-153.418136596680 -71.986885070801 -225.340454101563 0.941047251225
-142.841384887695 -71.819046020508 -225.321350097656 0.716017067432
-20.870510101318 -74.877105712891 -225.156448364258 1.626304984093
2.176959991455 -76.256408691406 -224.885299682617 0.887469232082
81.113906860352 -74.638778686523 -223.246261596680 1.885716080666
-161.107376098633 -72.113143920898 -229.356201171875 1.481673121452
-147.368682861328 -70.929145812988 -228.728134155273 2.208640098572
-124.999847412109 -70.758148193359 -230.550201416016 2.582830667496
80.235260009766 -75.509399414063 -228.845367431641 2.152178287506
-115.728271484375 -70.288238525391 -230.578857421875 2.146195888519
-149.155700683594 -72.761260986328 -229.852432250977 0.859461367130
-151.244079589844 -73.002639770508 -230.814910888672 2.405231952667
-147.850921630859 -71.871833801270 -229.939804077148 1.276637792587
-154.986022949219 -70.043579101563 -230.179519653320 1.003946661949
-166.238220214844 -70.013633728027 -233.122604370117 2.598685741425
-136.263961791992 -70.839378356934 -234.538757324219 2.374261617661
-134.662353515625 -72.085998535156 -233.476409912109 0.952392280102
-155.675369262695 -71.247207641602 -231.486862182617 1.958669185638
-145.678070068359 -70.186614990234 -234.685043334961 1.951821923256
-152.820663452148 -70.070358276367 -235.011474609375 0.914812088013
72.631614685059 -74.110382080078 -227.138854980469 1.898664355278
67.452140808105 -72.599166870117 -238.420623779297 0.632121264935
-160.582778930664 -70.810028076172 -237.532333374023 3.233352899551
69.341529846191 -73.972511291504 -233.759063720703 1.931869387627
-19.702646255493 -73.446228027344 -237.076400756836 1.487630009651
9.085046768188 -73.675369262695 -236.911239624023 2.311746358871
8.842215538025 -75.752166748047 -236.091415405273 2.225777626038
-149.345260620117 -71.398094177246 -245.056503295898 3.129971504211
13.463300704956 -73.569786071777 -241.946716308594 1.446649551392
64.178604125977 -75.105354309082 -237.162567138672 1.748162627220
12.190010070801 -73.006843566895 -237.054367065430 2.621117115021
5.590391159058 -75.619979858398 -243.132522583008 0.617509245872
-7.141677856445 -72.161254882813 -241.379562377930 1.057807207108
-19.801649093628 -74.719924926758 -244.603179931641 2.021361112595
-0.328830003738 -74.780967712402 -243.652648925781 1.939563989639
2.198323965073 -73.611068725586 -242.802642822266 0.560964405537
56.793506622314 -75.013870239258 -242.164016723633 2.808717489243
-57.769809722900 -73.109596252441 -245.544815063477 1.365946769714
18.108783721924 -73.791007995605 -247.754989624023 1.816273689270
-60.763713836670 -73.101325988770 -245.267166137695 0.696269452572
-8.527586936951 -73.166595458984 -248.619064331055 0.416934758425
-64.830505371094 -70.971206665039 -251.578323364258 1.901373386383
-86.166488647461 -75.490577697754 -252.055496215820 1.398534893990
-82.763244628906 -73.816970825195 -250.982162475586 2.043076753616
-14.371678352356 -72.802177429199 -252.383483886719 0.839966595173
-124.800399780273 -73.139595031738 -258.023101806641 1.293509364128
-14.975529670715 -72.472129821777 -255.913589477539 1.947198510170
-119.426429748535 -72.111503601074 -257.399597167969 2.743546724319
-116.120277404785 -70.591865539551 -259.000946044922 2.822158098221
-103.801940917969 -73.717643737793 -259.292175292969 1.965688467026
-144.384979248047 -71.298179626465 -263.482391357422 2.234808206558
-146.238998413086 -70.396476745605 -266.740478515625 1.330834031105
-167.961074829102 -70.164573669434 -265.377593994141 1.920448184013
15.195178031921 -75.418106079102 -280.708587646484 2.282808780670
-56.972137451172 -73.691909790039 -285.563476562500 2.603298902512
-65.898605346680 -72.727584838867 -285.728729248047 0.871292889118
-43.335304260254 -74.416374206543 -286.024505615234 0.527532219887
-29.121301651001 -74.722328186035 -284.576538085938 0.671755731106
-95.810928344727 -72.228607177734 -290.130950927734 2.034407615662
-30.110094070435 -71.805473327637 -288.205871582031 1.332955479622
-3.986952066422 -72.058052062988 -286.846679687500 1.990639448166
-166.885986328125 -71.706832885742 -289.904113769531 1.610693693161
-13.320632934570 -74.606292724609 -288.444091796875 2.839579343796
7.448801040649 -72.483467102051 -289.124420166016 1.339403390884
14.289979934692 -72.417854309082 -290.051544189453 0.595374763012
-56.641372680664 -73.129440307617 -291.894500732422 1.127676844597
-29.795598983765 -73.856773376465 -289.549438476563 2.466731786728
14.329966545105 -72.021057128906 -291.422180175781 0.694902479649
-69.390083312988 -73.268920898438 -292.797546386719 2.418963670731
-37.598262786865 -72.479011535645 -291.182128906250 1.302980780602
-17.437831878662 -72.126167297363 -291.620574951172 0.904549121857
13.627305030823 -74.123992919922 -291.004730224609 1.917280673981
-12.162939071655 -74.410301208496 -291.272094726563 0.876981139183
3.986682891846 -71.985054016113 -292.621856689453 0.692364752293
12.935231208801 -73.553886413574 -293.425445556641 1.725078105927
-134.869842529297 -72.219451904297 -293.742034912109 0.959661364555
-143.529800415039 -73.204948425293 -302.194519042969 2.138984918594
-148.448303222656 -74.307388305664 -312.743713378906 1.944445729256
38.984523773193 -70.675056457520 -12.919125556946 1.392689228058
29.782587051392 -73.525375366211 -11.193375587463 3.179566860199
37.964157104492 -73.830963134766 -15.949782371521 3.105728149414
19.930704116821 -73.451934814453 -20.745527267456 2.357434511185
42.497714996338 -73.875465393066 -23.027715682983 3.640977859497
22.480943679810 -73.058692932129 -21.646781921387 1.045165181160
23.218463897705 -75.592086791992 -29.831869125366 3.618709802628
21.315162658691 -75.067169189453 -35.257122039795 3.807806491852
41.985019683838 -72.431068420410 -32.069683074951 2.074646472931
26.114980697632 -73.735687255859 -36.238658905029 2.280839681625
40.299037933350 -73.949401855469 -33.910118103027 2.816608667374
31.524890899658 -72.778587341309 -37.320007324219 1.064048171043
33.394058227539 -74.078033447266 -38.489601135254 2.290751695633
31.035606384277 -73.324111938477 -40.752250671387 1.767847418785
41.431770324707 -73.731857299805 -41.597694396973 2.567331790924
34.335262298584 -72.155410766602 -42.914627075195 2.817710161209
-39.302536010742 -69.425590515137 -52.464958190918 2.550606250763
-31.254657745361 -69.268302917480 -49.411605834961 1.649933218956
-89.065437316895 -68.932891845703 -56.989791870117 2.128600597382
-87.947593688965 -73.813262939453 -64.927856445313 1.560359597206
79.117683410645 -75.048721313477 -68.854888916016 2.598060607910
82.672515869141 -75.530487060547 -71.633178710938 1.560244083405
-17.486291885376 -73.242103576660 -73.237312316895 1.719500541687
-88.051658630371 -74.747962951660 -71.770553588867 1.857440352440
-25.650966644287 -73.314247131348 -78.236976623535 1.643893718719
-50.521236419678 -74.741348266602 -87.588401794434 2.523479700089
64.070449829102 -71.833686828613 -85.731765747070 2.210050582886
53.679531097412 -72.684738159180 -91.880546569824 0.623838067055
97.741348266602 -74.493942260742 -89.804100036621 0.477500051260
71.231338500977 -74.936340332031 -95.740737915039 2.331053733826
-65.545463562012 -75.901245117188 -93.791778564453 1.374151587486
-66.253067016602 -72.665512084961 -96.736206054688 0.781165480614
44.190822601318 -75.210632324219 -97.097091674805 2.215301036835
74.645950317383 -76.430747985840 -101.896545410156 3.859423160553
51.595104217529 -77.307525634766 -103.338302612305 1.377740025520
100.262390136719 -75.708839416504 -97.840270996094 3.676901340485
-94.184127807617 -72.095504760742 -107.499893188477 2.860934734344
37.477199554443 -77.217697143555 -111.651634216309 1.951387286186
106.080223083496 -73.645050048828 -107.424041748047 1.212350606918
46.185512542725 -72.287712097168 -110.674629211426 3.166171550751
102.622932434082 -73.370162963867 -107.242012023926 1.860615730286
-86.211448669434 -72.680686950684 -113.783729553223 1.459535360336
35.448612213135 -74.194412231445 -112.726608276367 1.963652133942
106.781448364258 -75.783744812012 -117.417274475098 3.052880048752
102.886940002441 -73.679565429688 -115.427093505859 3.325827836990
107.014305114746 -75.912780761719 -114.705947875977 2.448488235474
108.970520019531 -76.626693725586 -115.331382751465 3.095629930496
35.447532653809 -73.632987976074 -113.923522949219 0.775347948074
31.452560424805 -76.430885314941 -119.373237609863 2.328999519348
43.109203338623 -73.633644104004 -115.236686706543 2.218569755554
108.903831481934 -74.688041687012 -123.177124023438 2.232488155365
38.739559173584 -72.928756713867 -125.259864807129 2.420320272446
108.414886474609 -75.538665771484 -131.439666748047 2.506451129913
112.685493469238 -73.609413146973 -129.724243164063 2.069238662720
32.451560974121 -73.157501220703 -122.650604248047 1.863158464432
-77.900512695313 -72.747230529785 -128.137008666992 2.640207529068
115.794143676758 -76.511573791504 -135.127410888672 1.573165178299
-58.526123046875 -75.078948974609 -138.748550415039 1.354207634926
34.867092132568 -74.851387023926 -135.974288940430 2.602015495300
-73.948196411133 -72.801429748535 -139.118515014648 1.601927518845
28.524038314819 -72.953544616699 -134.682876586914 1.631369352341
-76.507324218750 -73.244956970215 -141.914520263672 1.944702863693
-45.126419067383 -75.245079040527 -144.667816162109 0.907275676727
-72.869300842285 -72.906761169434 -137.171844482422 0.429919332266
110.498245239258 -72.213890075684 -138.062484741211 1.432358741760
113.842369079590 -74.893669128418 -141.202880859375 1.318591117859
118.558509826660 -75.766265869141 -144.800292968750 3.023939132690
-72.956954956055 -71.918716430664 -145.001998901367 1.410533070564
8.834375381470 -71.785408020020 -150.868835449219 1.782626748085
-56.308628082275 -72.397590637207 -152.985595703125 3.222454786301
-48.890918731689 -74.160415649414 -155.383956909180 1.283564925194
107.906471252441 -73.511215209961 -158.995651245117 0.907126367092
-42.099147796631 -74.135429382324 -151.432098388672 1.302420496941
11.501901626587 -72.649642944336 -158.461807250977 0.541727423668
21.583456039429 -73.177062988281 -158.903640747070 1.137383460999
113.738891601563 -75.858467102051 -163.625442504883 0.999546289444
29.534605026245 -72.371566772461 -162.216156005859 1.424045681953
-2.370599985123 -75.407257080078 -161.842559814453 1.867306590080
30.837131500244 -73.914741516113 -162.417449951172 1.713632225990
-69.068611145020 -69.087440490723 -159.863922119141 2.422181129456
-64.312179565430 -71.276664733887 -159.464447021484 0.711071789265
-67.869743347168 -72.318038940430 -164.265609741211 0.908149063587
113.374305725098 -73.446350097656 -160.912399291992 2.108087539673
-45.653224945068 -71.452369689941 -163.581771850586 1.017360568047
18.321008682251 -75.757408142090 -168.288009643555 1.154836773872
-64.282447814941 -73.949531555176 -171.543533325195 1.788906931877
-60.971839904785 -73.788101196289 -172.647766113281 1.728203773499
-40.911769866943 -73.342803955078 -160.894622802734 3.082094907761
-34.301399230957 -70.061302185059 -169.303451538086 2.620106935501
112.988929748535 -73.169128417969 -172.067260742188 1.294067382813
-36.527969360352 -73.043853759766 -176.038009643555 2.092799186707
15.396552085876 -73.770896911621 -173.059890747070 1.860855340958
108.748489379883 -77.282539367676 -184.559005737305 1.808128714561
-150.543441772461 -73.148307800293 -177.037658691406 1.009765028954
-145.008728027344 -72.488121032715 -176.073837280273 1.135407447815
-152.165283203125 -70.702178955078 -178.084442138672 1.833209276199
-143.969314575195 -69.599357604980 -181.220336914063 2.932120084763
-29.715246200562 -72.055488586426 -184.880783081055 1.593878746033
-24.164943695068 -72.223526000977 -185.898468017578 1.669149041176
22.243505477905 -72.036537170410 -189.857025146484 1.281306505203
-142.783950805664 -71.124847412109 -187.667861938477 1.045953273773
-146.066360473633 -70.742301940918 -187.112380981445 2.096725702286
-21.530899047852 -68.388313293457 -188.025268554688 0.821707844734
13.261452674866 -75.896522521973 -182.570724487305 2.128853797913
-145.810562133789 -71.979957580566 -193.045608520508 0.942314505577
-33.677036285400 -75.645408630371 -184.595642089844 0.709596216679
100.463638305664 -75.458099365234 -188.686965942383 0.915068268776
107.053527832031 -74.336639404297 -191.345550537109 0.842687427998
21.551822662354 -72.584854125977 -192.166061401367 1.175410270691
-19.779573440552 -75.472282409668 -189.408187866211 0.957521021366
-26.397163391113 -75.202880859375 -196.075241088867 1.685191035271
-151.990524291992 -69.465621948242 -196.880081176758 2.855189800262
-133.537612915039 -71.359428405762 -198.238098144531 1.035313367844
-124.351661682129 -70.746726989746 -195.830200195313 1.151353478432
-123.494483947754 -71.738777160645 -198.398529052734 1.225844860077
-21.934698104858 -71.158210754395 -197.172958374023 1.323017239571
10.276695251465 -74.522964477539 -193.232131958008 1.508729100227
93.800132751465 -72.325103759766 -200.539138793945 1.811432361603
-147.924911499023 -70.932044982910 -197.318313598633 1.223205327988
-146.821716308594 -69.796249389648 -200.642059326172 1.649960398674
-148.864059448242 -68.177581787109 -199.242294311523 2.001421213150
-155.769546508789 -68.841934204102 -200.528793334961 2.179995536804
-27.682840347290 -73.011764526367 -200.354263305664 2.485821008682
-14.731445312500 -76.748718261719 -195.655731201172 1.091682076454
-147.542984008789 -68.388236999512 -199.723815917969 2.231089115143
-17.539995193481 -73.912460327148 -198.270828247070 2.324471712112
-163.349838256836 -71.029899597168 -199.700942993164 1.882456064224
-133.431686401367 -71.582260131836 -200.176025390625 1.052288293839
14.467011451721 -71.506828308105 -208.376815795898 2.043861627579
-163.836410522461 -70.159576416016 -204.082504272461 1.876216173172
-145.452697753906 -71.873023986816 -205.500610351563 0.706559777260
10.180290222168 -73.845870971680 -200.862380981445 1.638987421989
-154.963104248047 -71.781074523926 -205.077514648438 2.082807302475
-23.765647888184 -73.804100036621 -201.042190551758 1.220823526382
102.157264709473 -74.200218200684 -199.875839233398 2.602231025696
-155.598327636719 -70.818016052246 -215.764648437500 1.582960367203
-164.565444946289 -71.261466979980 -211.857330322266 1.194602370262
-79.471435546875 -70.832656860352 -212.562026977539 1.909328222275
89.107246398926 -73.847480773926 -210.345123291016 1.843517661095
