20.649690628052 -76.816162109375 -153.259857177734 2.993668556213
112.177902221680 -75.082054138184 -152.978408813477 1.262680292130
-54.148086547852 -75.761337280273 -151.919662475586 2.322605133057
-70.379127502441 -74.420532226563 -150.947189331055 1.654081821442
-39.701072692871 -78.759178161621 -156.544845581055 1.140859723091
34.386337280273 -74.266082763672 -152.304275512695 1.838371634483
110.667572021484 -76.012557983398 -154.519912719727 1.693177342415
114.559288024902 -75.970046997070 -158.293777465820 1.745684266090
-68.943496704102 -74.245010375977 -154.422012329102 0.849385142326
-70.858703613281 -75.671295166016 -164.907318115234 3.140808343887
20.498298645020 -77.386032104492 -164.028289794922 2.881499767303
-59.106491088867 -76.096794128418 -166.531356811523 1.623745679855
-32.586547851563 -79.040649414063 -163.503982543945 2.296856880188
6.604053020477 -74.687767028809 -164.280822753906 1.335366487503
110.986244201660 -76.593093872070 -164.181655883789 1.813743114471
4.782567977905 -75.384681701660 -166.197784423828 1.717060208321
-35.241401672363 -75.979629516602 -167.491577148438 2.324573278427
-0.400988012552 -74.156547546387 -167.433166503906 1.179682254791
107.033569335938 -74.599197387695 -172.504501342773 1.257669091225
-41.505855560303 -71.622299194336 -172.521301269531 1.635841012001
28.083723068237 -72.808357238770 -170.824295043945 0.743442654610
111.125061035156 -74.287643432617 -172.339050292969 1.670846939087
-55.312404632568 -73.957992553711 -179.679687500000 2.113663434982
-28.830192565918 -76.367965698242 -173.372268676758 0.744352877140
102.680496215820 -76.000442504883 -174.420669555664 3.283843278885
30.200498580933 -76.286880493164 -173.572479248047 1.992954730988
113.512016296387 -74.912162780762 -175.453079223633 0.779804229736
-37.784442901611 -76.025764465332 -175.968795776367 1.662392735481
106.255340576172 -74.197227478027 -181.215591430664 0.858317017555
-59.064079284668 -74.805130004883 -179.598037719727 1.422594904900
-24.930128097534 -76.067840576172 -180.218002319336 0.754477083683
-144.212585449219 -74.204101562500 -184.243133544922 1.852585792542
-54.658802032471 -74.664947509766 -185.730941772461 1.975108504295
-146.843215942383 -74.065658569336 -187.884613037109 1.270354270935
-32.645511627197 -74.155838012695 -188.717514038086 1.334476232529
22.397983551025 -74.663864135742 -187.847808837891 1.875735640526
108.861854553223 -73.140815734863 -182.942184448242 1.142443776131
-30.346647262573 -75.830139160156 -190.037261962891 1.739960908890
12.399893760681 -76.015579223633 -192.573211669922 1.951523661613
18.268968582153 -74.691925048828 -201.069534301758 1.249943614006
-147.548187255859 -73.602935791016 -195.125076293945 2.373215436935
102.527519226074 -76.124588012695 -196.777801513672 1.433624863625
-18.386663436890 -72.251426696777 -195.350387573242 1.293801903725
103.655929565430 -72.916076660156 -191.276458740234 1.023445248604
14.921688079834 -74.004837036133 -189.717926025391 0.979064524174
-131.389022827148 -73.588172912598 -203.470916748047 1.034918308258
-142.052993774414 -74.154823303223 -201.663879394531 2.272020339966
96.077033996582 -71.993644714355 -200.953979492188 1.867601156235
-11.883503913879 -75.310874938965 -202.286102294922 1.448322772980
-15.205899238586 -76.506011962891 -200.666824340820 1.848469257355
10.541550636292 -75.217170715332 -207.042495727539 1.405425667763
-148.775894165039 -72.332557678223 -208.149154663086 2.369744539261
-146.394668579102 -75.499588012695 -208.532348632813 2.585011959076
99.383186340332 -76.639060974121 -204.678039550781 1.082782030106
-76.808418273926 -74.726066589355 -211.547912597656 0.539975047112
-36.984691619873 -73.237205505371 -204.279541015625 1.839068531990
18.422153472900 -74.289100646973 -211.701705932617 1.482074379921
-25.062601089478 -75.800559997559 -212.419387817383 0.866805553436
-78.729850769043 -73.034255981445 -214.031433105469 1.639441251755
91.934494018555 -74.080978393555 -210.067626953125 0.972345054150
-82.100028991699 -72.133613586426 -215.486618041992 1.624782323837
-146.616165161133 -75.098747253418 -220.618103027344 2.154180765152
-78.940711975098 -75.145210266113 -217.140960693359 1.791251301765
-15.607468605042 -73.801803588867 -214.458923339844 0.864653348923
-21.215717315674 -74.329460144043 -218.734329223633 1.299103617668
20.547464370728 -72.873649597168 -212.343414306641 1.856556534767
-5.695646762848 -74.190673828125 -215.456726074219 2.469671010971
-85.165748596191 -73.107650756836 -220.704299926758 3.400023460388
91.747749328613 -74.365470886230 -214.569641113281 1.518171072006
-95.040870666504 -75.118659973145 -217.400817871094 0.763357877731
-147.943542480469 -77.552864074707 -225.879699707031 2.050464868546
-16.335981369019 -74.329864501953 -221.984634399414 1.582361459732
16.286600112915 -73.895210266113 -217.414428710938 0.879177808762
-102.431480407715 -72.810684204102 -221.664093017578 1.416195511818
8.436856269836 -75.352409362793 -221.656814575195 1.072973966599
-24.520971298218 -75.831398010254 -218.080917358398 1.005873918533
83.458648681641 -75.070182800293 -224.559341430664 1.678355813026
-146.177474975586 -74.175872802734 -223.544189453125 1.734734773636
5.951807022095 -71.876510620117 -227.073165893555 1.007078528404
-7.953711986542 -75.358039855957 -223.319671630859 1.662970542908
17.225915908813 -71.648468017578 -222.015609741211 1.725493907928
84.193656921387 -73.121704101563 -224.355712890625 1.403113126755
-12.435390472412 -74.227836608887 -228.373474121094 0.787451326847
-129.916458129883 -75.060668945313 -229.026794433594 1.514274239540
-10.004188537598 -76.461235046387 -226.453689575195 1.990607976913
17.168306350708 -74.557022094727 -235.366729736328 1.591141819954
-125.258010864258 -73.642494201660 -227.828430175781 1.147876143456
-149.118957519531 -73.257713317871 -230.601974487305 0.810968816280
-140.406585693359 -73.657806396484 -231.013565063477 0.730484008789
-133.169998168945 -73.131011962891 -232.114089965820 1.061292290688
-13.505979537964 -73.986312866211 -228.405258178711 0.635709464550
71.945289611816 -73.748023986816 -230.645141601563 1.160044074059
-141.140502929688 -73.540275573730 -235.591629028320 3.106550455093
73.675109863281 -74.139564514160 -229.443542480469 0.765764772892
-17.566923141479 -75.869544982910 -228.134689331055 1.319376111031
-141.735031127930 -78.086112976074 -233.849029541016 2.130432367325
78.193878173828 -75.340080261230 -231.025161743164 0.687478125095
11.297789573669 -76.311012268066 -237.362182617188 1.789828181267
-142.993759155273 -75.170555114746 -237.363143920898 3.254475593567
-149.918731689453 -73.353927612305 -238.191696166992 3.053717851639
14.673951148987 -71.460739135742 -234.743682861328 1.568651080132
-2.487256050110 -74.115821838379 -238.122543334961 1.193289041519
-23.996160507202 -72.979728698730 -241.673278808594 1.292906522751
-2.762893915176 -72.388984680176 -241.249313354492 1.461772680283
-161.230621337891 -73.960052490234 -239.593215942383 1.314592242241
11.045902252197 -74.387413024902 -246.391006469727 1.792530298233
-163.893310546875 -72.527938842773 -237.608245849609 1.383950591087
-15.043087959290 -74.093452453613 -237.216995239258 1.445230603218
67.009986877441 -74.703712463379 -240.138656616211 1.751933097839
-10.401284217834 -73.405990600586 -242.186355590820 1.758156061172
-24.853431701660 -73.044204711914 -241.058975219727 1.301018714905
-25.834854125977 -72.345939636230 -243.171936035156 2.735316991806
-15.286458969116 -71.996032714844 -244.973037719727 2.929323673248
-144.860610961914 -72.628532409668 -237.685775756836 2.413138151169
9.153401374817 -75.060256958008 -245.058837890625 1.635774374008
65.008575439453 -74.817192077637 -242.358154296875 2.397493362427
12.926021575928 -73.941520690918 -245.810470581055 0.887205898762
-161.525497436523 -72.463401794434 -242.014404296875 2.579240798950
-47.998641967773 -74.301307678223 -245.759262084961 1.252856254578
4.090032100677 -78.527877807617 -248.737182617188 2.544885396957
17.297508239746 -71.415847778320 -248.707702636719 1.439275383949
-55.849796295166 -72.652389526367 -249.960174560547 2.931694030762
-3.554907083511 -72.785385131836 -245.683425903320 1.517029762268
21.490213394165 -75.052978515625 -249.682083129883 2.672637462616
-164.930709838867 -72.944190979004 -249.710250854492 1.195996642113
-71.020469665527 -75.226959228516 -251.155090332031 2.337114572525
-50.986610412598 -72.723632812500 -248.855331420898 2.534666061401
-78.768966674805 -73.139579772949 -250.401168823242 2.108820915222
-160.157852172852 -72.407646179199 -248.247055053711 1.573114037514
-151.013366699219 -73.348213195801 -254.111724853516 1.542072415352
-59.001304626465 -72.437438964844 -252.702331542969 3.751811027527
-68.533058166504 -75.692787170410 -253.114715576172 1.897344708443
-153.538970947266 -72.151496887207 -255.529647827148 2.290529966354
-151.818527221680 -71.870491027832 -253.619079589844 1.940048575401
-77.353759765625 -73.275848388672 -254.272674560547 1.088150501251
-92.593368530273 -71.349990844727 -254.510482788086 2.512795925140
-164.620162963867 -73.367156982422 -253.047744750977 0.616521179676
-155.083526611328 -72.535682678223 -257.709625244141 1.827757477760
-133.886993408203 -71.634429931641 -258.190124511719 2.986261129379
-82.019752502441 -74.848518371582 -255.226425170898 1.486715435982
-162.835647583008 -71.432235717773 -255.140594482422 2.465221405029
-143.681625366211 -74.811775207520 -258.722412109375 2.567687749863
-88.179977416992 -72.893173217773 -256.851409912109 1.027095317841
-96.957168579102 -69.320747375488 -260.642211914063 2.292098045349
-147.998901367188 -72.343734741211 -260.072113037109 1.697380304337
-95.419212341309 -72.534362792969 -260.777130126953 2.517006635666
-149.994750976563 -72.351203918457 -258.152252197266 1.515122532845
-99.719985961914 -73.480407714844 -258.467529296875 1.089314937592
-165.381042480469 -74.495765686035 -260.517364501953 1.356282234192
-160.790603637695 -74.766479492188 -260.992431640625 0.710241079330
-123.202072143555 -72.101409912109 -259.049896240234 2.357758760452
-149.355499267578 -74.147827148438 -261.214447021484 0.795966327190
-112.209121704102 -72.199028015137 -262.287506103516 1.536494135857
-14.368967056274 -75.550300598145 -262.774719238281 1.330980181694
-142.454177856445 -72.180564880371 -263.823242187500 1.467618942261
-124.484558105469 -72.575393676758 -262.855926513672 0.967528700829
-155.340866088867 -72.381652832031 -265.204071044922 1.841245174408
22.050601959229 -73.893630981445 -269.547637939453 1.016221880913
-148.512649536133 -72.304161071777 -281.735931396484 3.043237447739
-167.178115844727 -71.754295349121 -280.310974121094 2.273405790329
-5.886596202850 -76.425842285156 -281.770721435547 2.588975667953
-147.310699462891 -74.098869323730 -283.630249023438 1.898860096931
-6.778892993927 -72.268234252930 -282.180206298828 1.662474393845
14.249256134033 -72.463623046875 -286.765380859375 2.214172601700
-134.372146606445 -72.119728088379 -288.844207763672 3.676227807999
-70.375450134277 -74.049743652344 -286.391876220703 0.480958640575
-35.188079833984 -72.600090026855 -286.295593261719 2.936705350876
-113.780769348145 -71.131156921387 -289.666534423828 2.700845479965
-91.226478576660 -72.789093017578 -293.715057373047 1.974828124046
-90.362243652344 -71.915481567383 -294.556640625000 3.089353799820
-47.612674713135 -74.668197631836 -291.622558593750 2.240400552750
-114.966148376465 -71.031158447266 -293.563323974609 1.500321984291
-109.175788879395 -72.814170837402 -293.068420410156 2.350034236908
-31.426956176758 -73.555076599121 -292.902526855469 1.535415649414
-113.623374938965 -72.230529785156 -292.841033935547 1.359267115593
-124.688735961914 -72.615425109863 -293.406677246094 1.056843400002
-143.368942260742 -73.367164611816 -295.328613281250 1.387136101723
8.774669647217 -71.220527648926 -292.305847167969 2.349289178848
15.125447273254 -74.165817260742 -295.095245361328 1.579866886139
-156.189575195313 -72.557174682617 -296.460845947266 2.030001401901
-154.131912231445 -73.128921508789 -304.084869384766 2.842108011246
-144.360382080078 -73.403442382813 -313.434234619141 2.346125125885
-149.627426147461 -69.721786499023 -312.797973632813 1.585304737091
-151.461791992188 -75.278640747070 -314.989288330078 2.595160722733
27.592788696289 -76.352432250977 -17.147563934326 4.305475234985
24.229238510132 -75.647026062012 -19.468887329102 4.205461025238
21.780826568604 -76.291168212891 -22.876556396484 3.747852087021
27.468809127808 -76.212936401367 -40.806739807129 4.274655342102
-56.024600982666 -72.455558776855 -52.679122924805 2.552598237991
-65.997467041016 -74.297706604004 -52.270645141602 1.034404873848
-39.457267761230 -75.159675598145 -54.078720092773 2.029156923294
-81.840736389160 -76.534980773926 -60.921791076660 2.184918880463
81.722991943359 -78.822669982910 -75.576507568359 3.435266494751
-19.612199783325 -75.829795837402 -73.466377258301 2.563396692276
88.879913330078 -77.884231567383 -70.884361267090 3.956417560577
96.464103698730 -75.235679626465 -79.980316162109 1.745325684547
-93.544303894043 -74.724426269531 -81.737319946289 2.543136119843
71.496200561523 -74.240631103516 -79.593368530273 1.719909071922
-42.517620086670 -78.716644287109 -85.875022888184 2.321573257446
100.122543334961 -74.358711242676 -84.696144104004 2.949864387512
-54.201984405518 -77.057624816895 -91.293075561523 1.031291842461
51.780021667480 -75.231277465820 -90.521789550781 2.117747545242
72.062316894531 -76.678619384766 -90.997230529785 2.333434104919
57.256511688232 -77.216400146484 -97.244255065918 2.388393878937
50.930068969727 -76.024742126465 -101.015106201172 2.192302942276
70.837112426758 -77.408256530762 -95.706520080566 3.853789567947
45.970169067383 -73.633064270020 -100.418205261230 1.622843742371
102.946342468262 -75.977233886719 -100.945693969727 3.600077867508
108.636543273926 -76.671737670898 -106.052673339844 2.554532289505
80.918083190918 -72.352371215820 -102.685676574707 2.002883195877
88.717025756836 -76.021247863770 -103.004165649414 2.733714342117
101.545768737793 -74.793991088867 -99.518577575684 2.807362556458
107.539115905762 -71.946403503418 -102.599960327148 1.298566818237
39.235778808594 -78.663459777832 -107.156982421875 2.630950927734
109.824150085449 -74.369209289551 -120.207313537598 1.738130211830
113.213821411133 -76.455696105957 -119.727218627930 2.416630506516
33.027286529541 -74.980834960938 -121.784828186035 1.675583839417
43.092479705811 -75.958015441895 -120.610458374023 2.170670032501
112.468399047852 -74.109809875488 -128.381484985352 2.158887863159
39.120933532715 -76.688674926758 -127.457901000977 2.213160276413
113.371139526367 -73.696449279785 -129.940246582031 1.997185587883
110.100509643555 -74.613876342773 -124.409156799316 1.158857345581
25.249057769775 -73.086288452148 -138.892547607422 1.561994075775
-49.030601501465 -76.102058410645 -135.930419921875 1.992065310478
-53.749477386475 -74.566833496094 -139.140701293945 1.361668825150
112.336158752441 -73.736320495605 -134.260864257813 0.937904119492
-72.622360229492 -76.107749938965 -144.280395507813 1.098481416702
-75.015151977539 -74.738464355469 -141.521850585938 2.083071947098
-57.704689025879 -76.108871459961 -144.344802856445 3.597519159317
33.829128265381 -74.282989501953 -141.593566894531 1.368571877480
109.609413146973 -73.893844604492 -145.880950927734 2.155042409897
-66.673133850098 -74.500022888184 -147.434844970703 1.084670662880
-45.431922912598 -72.265823364258 -146.108795166016 1.902018308640
36.413978576660 -77.121414184570 -150.268127441406 2.165267944336
-66.367286682129 -75.891807556152 -151.009674072266 0.875303506851
113.567504882813 -72.387886047363 -144.407211303711 1.456037163734
111.839401245117 -74.787757873535 -157.332763671875 0.801492571831
114.511436462402 -75.844024658203 -150.425857543945 2.084584474564
-38.023525238037 -74.753257751465 -156.261032104492 1.914062738419
-65.695358276367 -74.824081420898 -162.252761840820 1.262703895569
-71.356437683105 -71.857063293457 -156.882202148438 2.151696920395
31.172439575195 -73.850189208984 -151.675354003906 1.228998541832
-1.199790954590 -76.125724792480 -164.210144042969 1.904975056648
108.004814147949 -75.030944824219 -159.209075927734 1.161457180977
110.521232604980 -72.683349609375 -155.104827880859 1.821275711060
112.518264770508 -73.714897155762 -157.552963256836 0.903100371361
-64.758796691895 -74.522109985352 -163.730743408203 0.525851905346
-46.160270690918 -75.687271118164 -163.139770507813 1.369554638863
1.715438008308 -74.576194763184 -167.851211547852 1.178512096405
-25.630090713501 -72.714843750000 -175.620605468750 1.807991504669
106.554054260254 -74.620628356934 -165.306320190430 1.829951882362
-36.577644348145 -73.574005126953 -162.097045898438 2.239387512207
110.662261962891 -74.875732421875 -169.736679077148 1.203824400902
-41.349342346191 -73.846572875977 -173.740936279297 1.220407009125
110.310546875000 -74.947319030762 -167.501739501953 1.209811687469
-149.047912597656 -72.723663330078 -184.018142700195 2.339402914047
-29.419916152954 -72.615638732910 -176.735626220703 1.619925022125
-20.964700698853 -72.221107482910 -182.668380737305 0.658383071423
27.320220947266 -76.374824523926 -177.777496337891 2.111930131912
16.191583633423 -74.402862548828 -182.018569946289 1.304458141327
25.250810623169 -74.549339294434 -183.883666992188 2.002965211868
106.883995056152 -75.195083618164 -184.512603759766 1.498385190964
-151.273376464844 -72.034011840820 -189.390396118164 1.691054821014
-20.622983932495 -74.997215270996 -189.778564453125 1.358670234680
104.429061889648 -73.296310424805 -178.953506469727 1.405829071999
103.724189758301 -73.287544250488 -191.352981567383 1.116991996765
106.214889526367 -74.103736877441 -180.583892822266 0.395015418530
97.080108642578 -76.298004150391 -195.577697753906 1.452812910080
-153.076431274414 -78.895233154297 -197.573013305664 1.541793584824
100.111801147461 -76.259506225586 -204.207946777344 1.311323881149
-29.466268539429 -72.556320190430 -196.399963378906 3.283487081528
99.105751037598 -72.667846679688 -197.605102539063 2.121901035309
-125.525871276855 -73.727111816406 -197.985290527344 1.510100126266
-29.648851394653 -76.417518615723 -193.711868286133 2.270384550095
-140.931503295898 -73.084777832031 -201.948043823242 1.352037668228
93.377349853516 -73.682716369629 -200.250549316406 1.627889394760
9.381254196167 -74.377723693848 -200.285095214844 1.318652391434
23.361532211304 -75.020782470703 -195.861114501953 1.258684158325
-147.604904174805 -72.681671142578 -202.361663818359 1.573944687843
-139.624328613281 -71.835815429688 -205.321914672852 2.949489831924
-12.220498085022 -73.904167175293 -205.844619750977 1.796572327614
-124.622154235840 -76.005134582520 -204.084472656250 3.415459871292
-144.234558105469 -76.499366760254 -205.267349243164 0.914750695229
7.874730110168 -72.771095275879 -201.535537719727 1.486772298813
-22.705720901489 -74.370765686035 -204.579223632813 2.389083862305
19.720230102539 -73.682502746582 -206.138412475586 0.546644270420
7.940863132477 -73.665046691895 -210.991577148438 0.945437848568
88.772323608398 -74.310089111328 -210.068511962891 2.037285566330
-21.038246154785 -70.086906433105 -212.940841674805 3.192354679108
93.317207336426 -72.968193054199 -210.022796630859 0.512034118176
97.654724121094 -73.495658874512 -207.525039672852 3.235568761826
-147.665649414063 -71.209075927734 -219.150741577148 2.744491338730
95.894348144531 -72.103614807129 -211.695724487305 1.237572431564
6.570635795593 -72.708251953125 -210.390777587891 1.702059507370
5.200185775757 -74.044296264648 -214.007186889648 1.305923938751
-34.171024322510 -72.619354248047 -210.618148803711 2.098333120346
-90.023551940918 -71.338760375977 -215.485488891602 0.968957364559
-29.831926345825 -72.981147766113 -214.284515380859 0.996638417244
84.758934020996 -74.357185363770 -216.196441650391 1.194447994232
86.308593750000 -73.732185363770 -219.195098876953 1.172910332680
-34.184585571289 -71.609535217285 -215.392440795898 4.027528285980
-82.687713623047 -70.011917114258 -220.811004638672 5.529901981354
-2.499789953232 -73.940216064453 -218.090576171875 1.745600700378
88.134361267090 -73.580627441406 -216.982223510742 1.259756684303
-149.344741821289 -73.460510253906 -224.398956298828 2.046052455902
-166.305892944336 -73.113838195801 -215.810317993164 2.707755565643
-158.822372436523 -71.996276855469 -224.297790527344 1.286717653275
-20.108131408691 -73.528999328613 -228.629058837891 1.876981258392
-152.067382812500 -73.508125305176 -225.771072387695 2.222063302994
-7.229672908783 -76.647285461426 -227.612396240234 2.069405317307
7.491753101349 -72.167259216309 -219.146423339844 1.751165032387
-162.746932983398 -74.322052001953 -225.696945190430 1.919518589973
-162.055221557617 -72.557136535645 -228.178680419922 0.327280342579
79.698242187500 -73.646751403809 -230.793029785156 0.986435949802
4.057829856873 -72.283119201660 -229.637954711914 1.023261070251
-152.576004028320 -72.920860290527 -226.822967529297 1.847612380981
-142.001739501953 -72.643943786621 -226.755920410156 1.006277680397
-20.007411956787 -74.442756652832 -226.104171752930 2.169497013092
3.051815986633 -75.587173461914 -225.751647949219 1.187886238098
81.960136413574 -73.175422668457 -223.750122070313 1.620113372803
-160.246643066406 -73.073326110840 -230.873229980469 3.051217079163
-146.523742675781 -71.755790710449 -230.170181274414 1.506902575493
-124.150459289551 -71.329383850098 -231.893112182617 1.059456706047
81.114028930664 -73.980728149414 -229.363998413086 1.787650823593
-114.884223937988 -70.763298034668 -231.875473022461 1.815296411514
-148.286895751953 -73.591201782227 -231.326324462891 1.288975954056
-150.368606567383 -73.841369628906 -232.300918579102 2.689790248871
-146.991088867188 -72.687255859375 -231.396286010742 0.763145267963
-154.143722534180 -70.929840087891 -231.642639160156 1.750680327415
-165.383209228516 -70.977195739746 -234.633697509766 1.558474898338
-135.396316528320 -71.474143981934 -235.931045532227 2.696796655655
-133.786315917969 -72.718124389648 -234.878372192383 2.217170953751
-154.815063476563 -72.123092651367 -232.968765258789 1.342509388924
-144.816009521484 -70.916862487793 -236.109390258789 0.704057276249
-151.958007812500 -70.870140075684 -236.465133666992 2.346450567245
73.489181518555 -72.683158874512 -227.672027587891 1.950980663300
68.341545104980 -71.076049804688 -238.955123901367 1.479139924049
-159.701400756836 -71.656509399414 -239.029083251953 1.933654189110
70.225578308105 -72.491500854492 -234.304000854492 1.168470740318
-18.804599761963 -72.841880798340 -237.999008178711 1.988365054131
9.982977867126 -72.775550842285 -237.712432861328 2.436647176743
9.758318901062 -74.865440368652 -236.921203613281 1.620884656906
-148.426971435547 -72.028503417969 -246.511703491211 3.601560115814
14.380936622620 -72.557922363281 -242.727111816406 1.533699154854
65.088996887207 -73.632415771484 -237.744476318359 1.129731893539
13.081396102905 -72.073120117188 -237.833297729492 2.349989175797
6.534796237946 -74.673492431641 -243.973937988281 1.017903923988
-6.239765167236 -71.370140075684 -242.230468750000 1.994250774384
-18.858852386475 -74.016578674316 -245.542327880859 2.879551410675
0.609402000904 -73.888893127441 -244.508499145508 1.313420057297
3.120678901672 -72.704315185547 -243.632186889648 1.072410345078
57.724346160889 -73.550949096680 -242.776153564453 1.746825695038
-56.837429046631 -72.786521911621 -246.626708984375 1.172632455826
19.052740097046 -72.654037475586 -248.517654418945 0.897482693195
-59.832393646240 -72.812889099121 -246.361938476563 1.702547907829
-7.584834098816 -72.293640136719 -249.488540649414 1.937045574188
-63.894653320313 -70.641403198242 -252.661895751953 3.283130168915
-85.180328369141 -75.374382019043 -253.291015625000 2.199151754379
-81.799186706543 -73.680068969727 -252.180953979492 1.855960011482
-13.416589736938 -71.939758300781 -253.273040771484 2.096727848053
-123.811271667480 -73.343994140625 -259.393981933594 1.165957927704
-14.009057998657 -71.569175720215 -256.801055908203 1.538332462311
-118.450935363770 -72.268760681152 -258.733703613281 2.882884025574
-115.154083251953 -70.693916320801 -260.300506591797 2.715163707733
-102.802810668945 -73.688034057617 -260.579772949219 1.764908790588
-143.390914916992 -71.632896423340 -264.913055419922 2.009137153625
-145.240554809570 -70.707267761230 -268.166931152344 2.239914894104
-166.969375610352 -70.718048095703 -266.895019531250 2.214236974716
16.294168472290 -73.873893737793 -281.502166748047 0.881434023380
-55.866245269775 -72.829650878906 -286.645782470703 2.161561250687
-64.801483154297 -71.955551147461 -286.836853027344 0.981628358364
-42.220806121826 -73.406906127930 -287.057373046875 1.315340161324
-28.010574340820 -73.585075378418 -285.552124023438 1.520864963531
-94.698684692383 -71.707504272461 -291.361358642578 0.816974401474
-29.014434814453 -70.630706787109 -289.146850585938 1.716090202332
-2.895992994308 -70.631202697754 -287.678192138672 2.576298713684
-165.775665283203 -71.923629760742 -291.434906005859 2.997535943985
-12.195914268494 -73.254394531250 -289.349456787109 1.923293471336
8.552997589111 -70.908119201660 -289.911865234375 1.521958351135
15.396946907043 -70.759490966797 -290.808471679688 2.017911672592
-55.514846801758 -72.179855346680 -292.967315673828 2.382447481155
-28.673011779785 -72.660644531250 -290.516052246094 1.572730302811
15.438545227051 -70.344154357910 -292.173553466797 2.377770900726
-68.257530212402 -72.439140319824 -293.927215576172 3.162495851517
-36.482673645020 -71.342094421387 -292.164062500000 1.928097486496
-16.325338363647 -70.775054931641 -292.510650634766 1.956389784813
14.756038665771 -72.459594726563 -291.786987304688 0.686542093754
-11.028492927551 -73.008949279785 -292.169616699219 2.029349565506
5.100555896759 -70.399169921875 -293.417358398438 2.521470546722
14.068215370178 -71.864608764648 -294.202941894531 1.340985178947
-133.740142822266 -72.054260253906 -295.140808105469 0.878587424755
-142.353927612305 -73.017028808594 -303.642944335938 1.795755267143
-147.216491699219 -74.030220031738 -314.226959228516 1.568477034569
38.911808013916 -72.437858581543 -13.573060035706 1.336141943932
29.732852935791 -75.405807495117 -11.924942016602 4.154252529144
37.936996459961 -75.563667297363 -16.649559020996 4.461748123169
19.920806884766 -75.307518005371 -21.517789840698 3.784770965576
42.500358581543 -75.467407226563 -23.707798004150 5.268302917480
22.470571517944 -74.876014709473 -22.402734756470 2.288068771362
23.268642425537 -77.292846679688 -30.617334365845 4.875265121460
21.382711410522 -76.715713500977 -36.043350219727 4.992542266846
42.010528564453 -73.908569335938 -32.732009887695 2.905593395233
26.172496795654 -75.321777343750 -36.986442565918 3.597711801529
40.348140716553 -75.419708251953 -34.599632263184 3.690811634064
31.576644897461 -74.294532775879 -38.031642913818 2.371908664703
33.464099884033 -75.558959960938 -39.210220336914 3.268837928772
31.107429504395 -74.799514770508 -41.472881317139 3.038339138031
41.510719299316 -75.088500976563 -42.278690338135 4.001811981201
34.403778076172 -73.568183898926 -43.605331420898 4.016417980194
-39.217803955078 -71.473365783691 -53.436992645264 1.513935208321
-31.184843063354 -71.273406982422 -50.347064971924 3.368069410324
-88.963760375977 -71.435195922852 -58.170001983643 4.208185672760
-87.762031555176 -76.198020935059 -66.166992187500 3.547239303589
79.322052001953 -75.653984069824 -69.387733459473 2.675059318542
82.893295288086 -76.062072753906 -72.156761169434 1.607404112816
-17.276304244995 -74.788246154785 -74.163482666016 3.300951242447
-87.827728271484 -77.042892456055 -73.021835327148 2.350432634354
-25.418788909912 -74.878471374512 -79.198913574219 2.488883972168
-50.233524322510 -76.438438415527 -88.675819396973 1.466290593147
64.312980651855 -72.371093750000 -86.285530090332 2.284056186676
53.957298278809 -73.247894287109 -92.489883422852 1.230457425117
98.026466369629 -74.628845214844 -90.247077941895 0.746135473251
71.547569274902 -75.266510009766 -96.303596496582 2.386046171188
-65.218780517578 -77.671211242676 -94.958885192871 1.373194813728
-65.947654724121 -74.404197692871 -97.863304138184 1.507096290588
44.517276763916 -75.802330017090 -97.780349731445 1.554697990417
75.003265380859 -76.643745422363 -102.463798522949 4.246152877808
51.969017028809 -77.739585876465 -104.016662597656 0.876475691795
100.593620300293 -75.710906982422 -98.287628173828 3.491041660309
-93.837829589844 -73.980247497559 -108.739158630371 3.322646617889
37.885864257813 -77.685455322266 -112.389038085938 1.857795476913
106.429748535156 -73.460121154785 -107.818038940430 1.055754303932
46.538291931152 -72.679092407227 -111.309303283691 2.891714572906
102.969055175781 -73.223442077637 -107.647346496582 1.578913331032
-85.833267211914 -74.399574279785 -114.995666503906 1.919286608696
35.830474853516 -74.669303894043 -113.432708740234 1.568280220032
107.194992065430 -75.458709716797 -117.835556030273 2.467136383057
103.270530700684 -73.421485900879 -115.834579467773 3.055362939835
107.417823791504 -75.621284484863 -115.125183105469 2.642529964447
109.383956909180 -76.306571960449 -115.751548767090 3.035373449326
35.828571319580 -74.092094421387 -114.622085571289 1.142115712166
31.885742187500 -76.858612060547 -120.125541687012 1.425505757332
43.495262145996 -73.996124267578 -115.902008056641 2.056451559067
109.329956054688 -74.264816284180 -123.571182250977 1.922121763229
39.160518646240 -73.203552246094 -125.933792114258 2.439262866974
108.884475708008 -75.010772705078 -131.846282958984 2.456127166748
113.127578735352 -73.060386657715 -130.087066650391 1.792795658112
32.864372253418 -73.531883239746 -123.354988098145 1.696530818939
-77.462074279785 -74.189781188965 -129.312500000000 3.113944292068
116.288818359375 -75.858322143555 -135.514633178711 1.170512676239
-58.020248413086 -76.180099487305 -139.870086669922 2.614345312119
35.353130340576 -75.023811340332 -136.689331054688 1.975583076477
-73.463485717773 -74.057434082031 -140.276580810547 0.572697222233
28.985340118408 -73.208953857422 -135.400375366211 1.676788568497
-76.006134033203 -74.490272521973 -143.089233398438 1.766998291016
-44.594882965088 -76.129150390625 -145.733047485352 2.022662401199
-72.391708374023 -74.177421569824 -138.326828002930 0.826280713081
110.960861206055 -71.577064514160 -138.415496826172 1.761271953583
114.345779418945 -74.180229187012 -141.576568603516 1.566564798355
119.085754394531 -74.956230163574 -145.164779663086 3.255346775055
-72.456855773926 -73.086555480957 -146.143539428711 1.521672129631
9.352519989014 -72.029830932617 -151.654449462891 1.401519894600
-55.771171569824 -73.287338256836 -154.060729980469 3.221144676208
-48.325569152832 -74.941406250000 -156.450088500977 2.293016672134
108.470367431641 -72.623313903809 -159.375000000000 1.058408737183
-41.551021575928 -74.898628234863 -152.468917846680 1.939780235291
12.060646057129 -72.765647888184 -159.246582031250 1.216051459312
22.148899078369 -73.182891845703 -159.651763916016 0.735457718372
114.346191406250 -74.848526000977 -164.010162353516 1.432001829147
30.105043411255 -72.251365661621 -162.918945312500 1.235054254532
-1.768169045448 -75.621444702148 -162.723434448242 1.348621368408
31.424371719360 -73.778182983398 -163.134979248047 1.545807480812
-68.535972595215 -70.018325805664 -160.949783325195 1.663844943047
-63.758754730225 -72.163368225098 -160.558731079102 1.831629395485
-67.285171508789 -73.177688598633 -165.388580322266 1.837303519249
113.945205688477 -72.476509094238 -161.267059326172 1.945136666298
-45.081909179688 -72.091522216797 -164.597305297852 2.162207603455
18.952760696411 -75.672119140625 -169.083435058594 1.719461202621
-63.650684356689 -74.675315856934 -172.671844482422 2.383473634720
-60.337333679199 -74.465034484863 -173.759536743164 1.675117850304
-40.332351684570 -73.968322753906 -161.914916992188 3.676452636719
-33.721305847168 -70.507385253906 -170.250961303711 2.260853767395
113.603660583496 -72.055335998535 -172.418853759766 1.133193135262
-35.888545989990 -73.423202514648 -177.033935546875 1.431275248528
16.027812957764 -73.652824401855 -173.841232299805 1.952156662941
109.458526611328 -76.046302795410 -184.982101440430 0.950504481792
-149.891586303711 -74.693145751953 -178.527770996094 2.906279563904
-144.368133544922 -73.988616943359 -177.531372070313 1.207211613655
-151.534393310547 -72.250244140625 -179.549118041992 2.279149770737
-143.337265014648 -71.021247863770 -182.634704589844 1.640467643738
-29.049509048462 -72.247245788574 -185.833328247070 1.158984661102
-23.493547439575 -72.344375610352 -186.829147338867 1.568064808846
22.926616668701 -71.625106811523 -190.584213256836 1.086298227310
-142.109130859375 -72.448738098145 -189.096633911133 2.228115558624
-145.397628784180 -72.107543945313 -188.550354003906 0.797143578529
-20.890634536743 -68.454254150391 -188.893646240234 1.889121651649
13.954752922058 -75.674064636230 -183.388488769531 1.786486744881
-145.104156494141 -73.263679504395 -194.498260498047 2.109906911850
-32.974925994873 -75.881401062012 -185.612808227539 0.556735813618
101.172515869141 -74.253013610840 -189.121353149414 1.425633192062
107.761466979980 -73.028312683105 -191.736373901367 1.227675795555
22.250343322754 -72.149864196777 -192.903274536133 1.482717990875
-19.059991836548 -75.500778198242 -190.362518310547 0.517154932022
-25.652059555054 -75.211395263672 -197.053985595703 2.376080036163
-151.293807983398 -70.762725830078 -198.325851440430 2.436329364777
-132.816680908203 -72.447471618652 -199.628997802734 0.709658265114
-123.647766113281 -71.771827697754 -197.173507690430 1.466769456863
-122.769577026367 -72.720809936523 -199.751007080078 1.285869956017
-21.227323532104 -71.106597900391 -198.078826904297 1.919835567474
11.000530242920 -74.190124511719 -194.043609619141 1.830387353897
94.526473999023 -71.032135009766 -200.959762573242 1.469326138496
-147.211364746094 -72.181098937988 -198.765853881836 1.523387789726
-146.106140136719 -70.989967346191 -202.069473266602 1.341260552406
-148.171051025391 -69.411209106445 -200.657287597656 2.528859615326
-155.063812255859 -70.129798889160 -201.982284545898 2.060702562332
-26.942520141602 -72.977111816406 -201.309188842773 2.767329216003
-13.972760200500 -76.641967773438 -196.604507446289 1.537971973419
-146.845855712891 -69.601791381836 -201.135833740234 1.835491895676
-16.799671173096 -73.800460815430 -199.194000244141 1.881600499153
-162.624359130859 -72.406799316406 -201.216217041016 2.391103744507
-132.700347900391 -72.643470764160 -201.569229125977 1.026739478111
15.222624778748 -70.930198669434 -209.128845214844 1.613895893097
-163.101608276367 -71.483505249023 -205.587951660156 1.973944902420
-144.695281982422 -72.987838745117 -206.949096679688 1.330595374107
10.929031372070 -73.412902832031 -201.664581298828 1.853944659233
-154.207824707031 -72.999847412109 -206.565948486328 1.583537578583
-23.014459609985 -73.719711303711 -201.990585327148 0.900987625122
102.899787902832 -72.829376220703 -200.285186767578 2.686533689499
-154.808288574219 -71.901718139648 -217.242050170898 1.005434632301
-163.786575317383 -72.489646911621 -213.379745483398 1.043003559113
-78.699424743652 -71.171798706055 -213.710830688477 2.289935350418
89.890747070313 -72.472732543945 -210.805221557617 1.399308323860
-3.476813077927 -71.685401916504 -216.088699340820 0.501063525677
-151.822357177734 -71.858062744141 -214.349884033203 2.086280345917
-88.399375915527 -69.544525146484 -216.883148193359 1.698843479156
-7.218453884125 -72.895622253418 -212.166687011719 1.862569093704
15.347450256348 -71.767204284668 -223.553131103516 1.525337219238
-145.001022338867 -72.996551513672 -220.699035644531 1.625781536102
-2.550076007843 -73.458427429199 -221.665878295898 1.724983453751
-19.507564544678 -69.531982421875 -221.868392944336 2.305498838425
-16.085689544678 -69.695037841797 -220.062652587891 2.437163114548
88.104202270508 -73.074996948242 -216.074279785156 1.036597013474
-21.766063690186 -70.406524658203 -218.158233642578 1.266400814056
-28.453067779541 -72.435340881348 -218.028594970703 1.848971605301
-105.457664489746 -71.790420532227 -224.425720214844 1.591465592384
-14.940153121948 -71.696067810059 -224.673553466797 1.856368303299
90.126586914063 -71.373252868652 -219.552215576172 0.920071840286
81.652381896973 -72.043785095215 -219.176712036133 0.530171394348
6.228527069092 -74.527748107910 -223.148590087891 1.931043982506
-10.993048667908 -72.495887756348 -226.862915039063 1.825441241264
78.646751403809 -76.164985656738 -223.201324462891 1.227058172226
-125.145797729492 -71.817955017090 -226.121856689453 1.700624227524
-23.228145599365 -72.638252258301 -223.489562988281 1.322388410568
-100.349838256836 -70.660224914551 -226.405624389648 2.224069118500
-105.631202697754 -72.909729003906 -229.136306762695 2.237097024918
-134.261276245117 -71.886589050293 -229.795745849609 1.888118386269
80.856170654297 -72.326110839844 -224.775924682617 1.513434529305
-124.642784118652 -72.505943298340 -229.485626220703 1.625493526459
4.403799057007 -72.300888061523 -229.950408935547 0.626860558987
78.186286926270 -72.123054504395 -224.531539916992 1.637449026108
-14.307995796204 -72.869644165039 -228.553817749023 0.914951682091
-10.643136024475 -72.990112304688 -231.847778320313 0.571286439896
-4.773931980133 -72.178649902344 -232.040054321289 1.917976975441
8.308610916138 -72.650550842285 -229.159912109375 1.516997337341
85.160583496094 -72.848831176758 -225.559478759766 2.081335067749
13.005631446838 -72.177825927734 -233.230972290039 0.894925236702
3.430469989777 -73.530616760254 -231.188354492188 1.774279236794
-7.331567764282 -73.290672302246 -229.726867675781 1.542637705803
-6.092494010925 -71.090019226074 -234.850540161133 1.327675104141
16.685295104980 -71.127899169922 -232.936599731445 1.325626373291
-10.848786354065 -71.048194885254 -235.642471313477 1.748953580856
72.682746887207 -72.318412780762 -238.072570800781 1.009872674942
-7.820456981659 -70.312797546387 -237.630325317383 0.824006795883
20.137504577637 -73.085197448730 -234.450225830078 1.586490511894
-164.259872436523 -70.588302612305 -244.478881835938 2.433593750000
-4.560871124268 -71.752662658691 -241.576782226563 1.897084832191
-9.281137466431 -70.874336242676 -242.868057250977 0.943215310574
-167.154769897461 -70.236869812012 -256.235412597656 3.037655830383
-9.704866409302 -72.548988342285 -245.990203857422 0.774315059185
18.037010192871 -72.582916259766 -246.449050903320 0.824122250080
-146.452911376953 -73.628181457520 -254.012542724609 1.658288478851
-67.805213928223 -70.596580505371 -249.717239379883 1.094120025635
-59.230293273926 -70.622474670410 -248.974517822266 2.559812545776
54.585578918457 -71.745758056641 -247.909866333008 1.996659517288
-76.755958557129 -71.887832641602 -249.075119018555 1.796165466309
17.467344284058 -72.699234008789 -248.817169189453 1.356299519539
-74.327072143555 -71.078018188477 -253.435012817383 1.295827269554
-15.546817779541 -72.382484436035 -251.042678833008 1.156152844429
-146.657180786133 -72.339683532715 -255.882522583008 2.407700061798
49.038433074951 -71.163085937500 -249.470016479492 1.022539973259
-79.737670898438 -69.541915893555 -253.719161987305 1.290827751160
-99.318000793457 -71.267471313477 -256.859008789063 2.271181344986
-96.518638610840 -74.644104003906 -256.056549072266 1.502898454666
-119.108650207520 -72.378974914551 -258.845916748047 3.221946954727
-106.060585021973 -71.136787414551 -258.879364013672 2.075918674469
-106.687904357910 -71.120903015137 -261.466522216797 0.817726671696
21.219999313354 -72.719024658203 -260.829315185547 2.377695798874
-127.489936828613 -69.531318664551 -267.459350585938 3.240977048874
-9.695012092590 -73.071037292480 -277.980560302734 1.365601897240
-145.417633056641 -72.128608703613 -284.206237792969 1.833929300308
-168.209625244141 -70.618995666504 -285.497619628906 0.813455641270
-125.297615051270 -71.428207397461 -288.763153076172 3.043060302734
-114.270103454590 -70.902702331543 -286.519622802734 0.673999547958
-76.212882995605 -67.976333618164 -289.083862304688 1.505386590958
-56.004463195801 -68.289855957031 -289.336761474609 2.701156139374
-43.000816345215 -70.541755676270 -288.051544189453 1.688798308372
-13.741776466370 -70.428352355957 -289.643249511719 1.375197291374
-12.254126548767 -69.844871520996 -289.833435058594 1.773314952850
-36.155883789063 -70.738067626953 -290.632080078125 2.046588420868
-33.730754852295 -70.198112487793 -289.770141601563 3.130006313324
-18.482490539551 -69.260528564453 -291.659118652344 3.297239065170
-70.103881835938 -71.297355651855 -293.139312744141 2.451325178146
-53.529918670654 -69.490028381348 -293.584197998047 3.842290401459
-14.077685356140 -68.610847473145 -292.240631103516 3.215316534042
-13.393175125122 -70.976509094238 -292.340087890625 1.883160591125
-3.657761096954 -69.987976074219 -292.235229492188 2.059308052063
3.319052934647 -68.986152648926 -293.806854248047 2.099951982498
-88.289421081543 -70.592887878418 -291.290008544922 1.573084473610
-143.315704345703 -69.218955993652 -293.202362060547 1.207732677460
-117.057281494141 -71.436759948730 -295.701049804688 3.370902538300
-153.170608520508 -73.032707214355 -301.167083740234 2.078810930252
-154.137481689453 -70.843315124512 -301.571105957031 1.826179146767
-144.356750488281 -71.215187072754 -303.127960205078 1.355687260628
45.171852111816 -76.081604003906 -21.905632019043 4.828844070435
18.004842758179 -74.928894042969 -24.781734466553 4.757234096527
48.271568298340 -75.838005065918 -27.220218658447 4.606499671936
46.788784027100 -76.443473815918 -34.426002502441 4.804229736328
85.719779968262 -72.791633605957 -67.926391601563 1.910275697708
95.111801147461 -73.897491455078 -74.194999694824 2.404523849487
98.737663269043 -72.764915466309 -80.897697448730 1.176831722260
96.716621398926 -74.516677856445 -84.733734130859 1.811693549156
54.780799865723 -74.475303649902 -88.626754760742 2.394052267075
48.590263366699 -75.124450683594 -93.903572082520 1.769970536232
61.633163452148 -72.490081787109 -91.916343688965 0.585412323475
-65.389945983887 -70.134994506836 -93.552940368652 1.034093379974
69.535789489746 -75.332359313965 -89.892990112305 2.934374570847
101.860176086426 -72.789100646973 -96.118583679199 1.969360113144
73.751884460449 -76.263610839844 -100.277534484863 3.668320655823
94.601463317871 -72.450088500977 -99.796348571777 1.557579755783
-81.562561035156 -74.558258056641 -102.691841125488 1.531125187874
44.079696655273 -74.165298461914 -103.391250610352 0.502572894096
-86.005622863770 -74.930534362793 -108.821418762207 2.517163038254
49.791950225830 -75.234222412109 -112.395744323730 1.196090459824
40.050014495850 -72.261245727539 -105.947288513184 1.452331662178
104.425018310547 -74.591957092285 -104.552154541016 1.666619658470
38.382308959961 -71.927825927734 -109.267257690430 1.622134447098
39.318553924561 -73.779907226563 -115.674919128418 2.678443193436
42.024692535400 -71.458839416504 -114.993553161621 1.090632677078
105.762870788574 -71.334800720215 -115.584205627441 1.708172678947
-82.516632080078 -72.438796997070 -122.095046997070 1.946079969406
111.480529785156 -73.841293334961 -124.997535705566 1.324414014816
37.476093292236 -70.980072021484 -122.466972351074 0.947506129742
41.847232818604 -72.721656799316 -120.127975463867 2.639822244644
34.479923248291 -73.391777038574 -122.599136352539 1.152533411980
-56.777675628662 -73.095024108887 -131.960052490234 1.042731523514
29.986526489258 -72.660743713379 -124.172416687012 1.770738840103
-77.394233703613 -74.529960632324 -138.402984619141 2.372349500656
-57.880077362061 -72.687484741211 -134.956268310547 1.650602102280
-78.784996032715 -71.666069030762 -135.197982788086 2.108274936676
33.273571014404 -72.483688354492 -128.881164550781 1.776499867439
-58.414005279541 -71.597587585449 -134.867538452148 2.039357662201
35.982303619385 -72.650871276855 -134.346130371094 1.608738183975
-74.746459960938 -72.421691894531 -140.915954589844 1.924178719521
-58.932201385498 -74.828880310059 -140.582199096680 1.827491760254
28.554492950439 -72.283790588379 -140.105529785156 0.888115525246
109.701675415039 -75.371086120605 -144.828659057617 1.551337838173
116.553932189941 -72.581321716309 -137.239852905273 2.379251718521
31.698345184326 -72.044784545898 -140.623641967773 1.917502999306
-46.649074554443 -71.074905395508 -143.681838989258 1.499049782753
109.193283081055 -72.368957519531 -154.186660766602 2.631408691406
-74.143203735352 -72.313697814941 -147.465240478516 1.237255573273
-56.042762756348 -73.529197692871 -142.791061401367 1.909013986588
32.224464416504 -74.602890014648 -151.467544555664 0.758517444134
-74.352729797363 -73.133117675781 -147.167617797852 1.009665489197
-71.150718688965 -73.805335998535 -150.887695312500 2.256953954697
116.400436401367 -71.584426879883 -149.350814819336 1.919144392014
-64.707504272461 -72.692810058594 -153.770584106445 2.727097034454
-39.915668487549 -71.999397277832 -153.752975463867 0.726658284664
28.572422027588 -70.088699340820 -150.858489990234 1.942000150681
-75.637992858887 -72.106056213379 -150.800704956055 1.767011404037
10.566148757935 -74.051391601563 -155.384826660156 1.234512090683
32.265964508057 -70.867736816406 -155.989517211914 0.989814281464
28.391250610352 -72.628723144531 -149.733718872070 2.607401132584
9.543234825134 -75.499916076660 -156.235473632813 1.867030858994
-48.619029998779 -71.112800598145 -155.131698608398 1.064792394638
26.258022308350 -71.557472229004 -153.593048095703 2.071673631668
-46.167106628418 -72.925079345703 -150.464660644531 3.207205295563
6.384139060974 -73.533035278320 -153.613021850586 1.810629487038
21.378709793091 -72.891273498535 -150.333328247070 2.469738960266
-72.388259887695 -74.087677001953 -156.425125122070 0.659045219421
-45.635997772217 -71.586967468262 -155.904464721680 2.326487302780
-69.074501037598 -70.433830261230 -160.141967773438 1.610588312149
13.036263465881 -69.632644653320 -161.582351684570 2.421579837799
22.677864074707 -72.624679565430 -149.553222656250 1.484385371208
1.804667949677 -71.470993041992 -162.878936767578 1.293885707855
20.616220474243 -72.100509643555 -156.678680419922 1.419713616371
29.807130813599 -73.274658203125 -164.568435668945 1.261147141457
-47.403762817383 -74.210174560547 -163.552566528320 2.186736583710
-33.792850494385 -72.507698059082 -162.296340942383 1.359678864479
-38.899734497070 -71.423774719238 -161.987899780273 1.719688177109
28.566270828247 -72.587150573730 -162.575942993164 1.312669754028
-44.808963775635 -72.562316894531 -168.403610229492 1.678593516350
-41.882976531982 -72.038864135742 -163.811798095703 2.200588226318
20.230030059814 -73.312011718750 -166.038208007813 0.468547135592
-41.249992370605 -72.054351806641 -174.383529663086 1.736191511154
29.957021713257 -71.104278564453 -172.277297973633 1.653330206871
114.845863342285 -71.271919250488 -166.274642944336 1.001863002777
-32.546131134033 -71.459655761719 -173.646942138672 2.013777017593
106.262619018555 -70.766609191895 -172.156616210938 1.284023284912
-34.408733367920 -70.410461425781 -178.331954956055 1.743288755417
-37.498104095459 -72.737571716309 -181.356735229492 1.637825489044
17.836944580078 -73.781997680664 -175.825775146484 0.827247977257
103.718460083008 -70.607757568359 -181.122695922852 2.066673040390
-29.049442291260 -71.315101623535 -185.280120849609 0.788432657719
-32.978782653809 -69.139595031738 -175.272735595703 1.975196957588
-23.556585311890 -72.480339050293 -187.298385620117 1.897518038750
-148.003967285156 -74.096862792969 -189.918258666992 2.620496749878
14.604828834534 -73.140502929688 -183.934646606445 1.258102893829
106.389686584473 -70.887588500977 -191.117706298828 0.888088107109
