-134.727493286133 -74.159187316895 -285.700134277344 0.702738821507
-7.806144237518 -71.032936096191 -283.216766357422 1.620902538300
-124.128456115723 -75.184814453125 -284.681610107422 1.636882901192
-140.896835327148 -72.319175720215 -286.535034179688 1.414990663528
-114.775840759277 -70.889724731445 -286.623352050781 0.975010037422
-75.776885986328 -70.972137451172 -288.211486816406 1.364923834801
-61.421001434326 -71.335800170898 -285.963562011719 1.005180478096
-4.579425811768 -72.281303405762 -287.775115966797 1.173773407936
-50.836582183838 -72.119598388672 -289.731079101563 1.004313707352
-58.761203765869 -71.963989257813 -288.311828613281 1.712341785431
-68.316001892090 -70.316352844238 -291.022583007813 1.143484115601
-85.867118835449 -72.518310546875 -293.678863525391 2.437440633774
-99.899696350098 -67.955863952637 -290.664764404297 0.946597158909
-160.276153564453 -70.400230407715 -292.362091064453 0.237444177270
-159.145248413086 -71.638771057129 -292.126708984375 1.885879635811
-125.182167053223 -73.225616455078 -296.547424316406 2.295863151550
-144.283569335938 -72.136550903320 -296.079284667969 1.088272929192
-155.434936523438 -71.671463012695 -301.459381103516 1.500459671021
-146.163375854492 -71.742294311523 -315.870697021484 3.543725252151
44.740566253662 -70.227554321289 -17.716646194458 1.624615073204
17.688783645630 -74.947929382324 -25.748208999634 4.466768741608
40.829421997070 -71.775650024414 -34.186515808105 1.041358709335
-19.429082870483 -73.451301574707 -66.185798645020 1.229853272438
79.961135864258 -70.686264038086 -64.453681945801 2.374186754227
84.011528015137 -68.141220092773 -66.741668701172 2.290766716003
74.873519897461 -70.420654296875 -67.464073181152 2.232864618301
73.707122802734 -71.098800659180 -66.805664062500 2.295562744141
92.098983764648 -73.758049011230 -71.911766052246 1.824343800545
-96.215087890625 -71.247863769531 -72.028625488281 3.474747896194
68.498504638672 -73.049224853516 -75.585174560547 2.589196920395
-37.847316741943 -68.960311889648 -76.669662475586 1.667594313622
98.318832397461 -72.281532287598 -85.269180297852 1.030517816544
60.362686157227 -73.755516052246 -88.583091735840 1.500834584236
106.436965942383 -72.159614562988 -92.407020568848 4.071785926819
104.125350952148 -72.720397949219 -96.226921081543 1.500355243683
69.712829589844 -71.892784118652 -97.116737365723 1.877694487572
-79.011207580566 -73.059669494629 -99.582038879395 1.847335934639
53.679496765137 -72.989395141602 -103.233894348145 1.593561887741
105.128219604492 -71.923065185547 -103.544204711914 0.729893147945
47.823547363281 -74.978546142578 -110.467735290527 1.282622337341
81.050567626953 -71.458023071289 -101.812034606934 2.233226537704
41.475631713867 -73.297370910645 -107.010543823242 2.348139762878
105.528984069824 -70.134498596191 -100.443832397461 0.764247536659
46.949287414551 -70.243705749512 -106.610946655273 1.986083507538
109.236373901367 -72.872657775879 -110.050987243652 1.763061642647
107.522880554199 -71.104515075684 -112.901397705078 0.867536306381
-79.492141723633 -67.866744995117 -114.245986938477 2.725476503372
-81.103012084961 -70.807205200195 -116.806121826172 1.720888614655
42.705043792725 -72.351615905762 -118.775238037109 2.767031192780
113.941307067871 -70.108734130859 -116.345718383789 0.900078237057
114.034843444824 -69.555603027344 -121.323272705078 1.124661564827
-83.762023925781 -70.792846679688 -127.321853637695 1.385199308395
106.943183898926 -70.882225036621 -121.167472839355 1.950888395309
-62.232910156250 -71.991455078125 -133.038314819336 2.408930301666
-87.943672180176 -69.733314514160 -126.977615356445 1.768018126488
-75.927413940430 -69.645965576172 -128.569259643555 1.290956377983
-58.322246551514 -67.032165527344 -126.032882690430 1.001150488853
31.992347717285 -70.301544189453 -128.623535156250 1.690120697021
39.907062530518 -71.806739807129 -132.347396850586 0.530143082142
-76.244178771973 -71.198005676270 -136.674758911133 1.620308279991
27.764608383179 -70.277488708496 -130.911972045898 1.631029486656
107.436149597168 -72.135551452637 -136.417419433594 2.085113763809
-42.230846405029 -70.861648559570 -147.113418579102 1.523747682571
24.971786499023 -69.464012145996 -146.117340087891 1.551202178001
112.868820190430 -68.320236206055 -144.106903076172 0.994190633297
34.348487854004 -71.729911804199 -142.750427246094 1.345229506493
110.634597778320 -71.210128784180 -141.394119262695 0.917317271233
-54.646179199219 -71.925918579102 -148.389434814453 1.111426591873
-67.956817626953 -71.692024230957 -150.030334472656 1.607480287552
-52.608871459961 -72.339866638184 -154.875122070313 2.314287900925
-43.083744049072 -70.694297790527 -166.225799560547 1.898402452469
4.170495033264 -69.473434448242 -154.510772705078 3.135009050369
110.444946289063 -68.663879394531 -152.677276611328 2.285821914673
108.645126342773 -70.390419006348 -157.299835205078 1.544875979424
8.372316360474 -68.025001525879 -158.432556152344 1.826638460159
3.330846071243 -71.484436035156 -161.114074707031 0.652430176735
15.113200187683 -70.625274658203 -157.303710937500 1.348180532455
22.840238571167 -70.088470458984 -152.367706298828 1.436583280563
112.333213806152 -72.080566406250 -164.095382690430 0.943906605244
106.771194458008 -72.569084167480 -168.155929565430 0.852987587452
24.505802154541 -69.637313842773 -171.466720581055 1.253167390823
26.168722152710 -70.156066894531 -161.876876831055 0.409571617842
113.699493408203 -70.616271972656 -160.164733886719 1.795720696449
-29.448463439941 -69.939811706543 -173.869491577148 0.814656734467
110.356369018555 -70.036003112793 -167.605407714844 0.576019585133
18.007268905640 -69.522331237793 -173.572357177734 2.379776239395
19.425958633423 -71.647544860840 -164.548919677734 1.207903623581
108.825111389160 -70.169235229492 -173.406326293945 1.683741211891
24.430570602417 -70.718307495117 -169.838943481445 1.950944781303
109.781471252441 -70.266487121582 -179.659698486328 1.855928897858
-39.005245208740 -69.392364501953 -175.429733276367 3.197751522064
26.728357315063 -68.967475891113 -172.283523559570 0.813114345074
107.174911499023 -70.458946228027 -181.995193481445 0.867009341717
23.795719146729 -70.225135803223 -178.704086303711 1.316663503647
-153.178070068359 -68.815841674805 -185.861450195313 1.888803362846
-30.252397537231 -69.900115966797 -187.990631103516 1.751145124435
25.026592254639 -71.382385253906 -184.067245483398 1.639667987823
-111.778442382813 -70.387825012207 -193.163009643555 0.658225357533
-110.772026062012 -70.813903808594 -189.885833740234 2.176977157593
21.592159271240 -69.430274963379 -190.067291259766 1.562386631966
12.595677375793 -71.611923217773 -185.321609497070 1.031544327736
-26.700263977051 -71.815322875977 -190.277770996094 1.442086815834
-30.009206771851 -71.474266052246 -187.948806762695 1.095625162125
-26.252651214600 -71.326988220215 -185.244934082031 1.056665658951
18.762178421021 -71.818115234375 -178.580123901367 2.290884256363
-151.926681518555 -70.275947570801 -194.530838012695 1.685530304909
-144.827026367188 -71.510948181152 -197.168792724609 2.025415182114
-141.304962158203 -70.526405334473 -196.168853759766 0.719504356384
-20.600999832153 -68.964096069336 -191.090972900391 1.466591000557
13.553054809570 -70.537864685059 -198.434936523438 2.394847154617
99.201316833496 -71.694145202637 -193.644729614258 1.891897678375
-114.754165649414 -70.392608642578 -200.771347045898 1.749986290932
19.693090438843 -70.146697998047 -199.596420288086 1.243064880371
-17.394521713257 -69.999427795410 -195.840545654297 0.852789044380
-18.644943237305 -69.363494873047 -197.415313720703 0.725497305393
98.677276611328 -70.606468200684 -198.023330688477 0.897913992405
8.774312973022 -71.519599914551 -199.532028198242 1.859354972839
-23.658163070679 -69.622467041016 -195.197219848633 1.843230366707
-122.261535644531 -71.979515075684 -202.414886474609 1.047997593880
-134.024871826172 -69.465065002441 -202.887451171875 0.873151719570
-112.200729370117 -69.043769836426 -205.479507446289 2.751137733459
-143.581527709961 -70.825050354004 -204.893630981445 0.678307712078
19.468681335449 -71.074012756348 -196.714950561523 0.882216513157
95.703590393066 -71.660331726074 -204.498489379883 2.541819810867
-166.748123168945 -69.025558471680 -205.788436889648 2.091769933701
100.321640014648 -71.399108886719 -201.738189697266 1.640851140022
-17.806119918823 -70.730361938477 -208.197631835938 1.351711392403
93.306167602539 -73.840194702148 -211.765289306641 0.573507666588
89.072906494141 -69.549247741699 -214.663604736328 1.296822309494
13.283248901367 -69.985198974609 -210.130966186523 2.124541997910
17.022508621216 -71.316070556641 -209.806869506836 1.708692312241
11.189242362976 -70.502517700195 -208.453613281250 1.225218653679
-10.124231338501 -70.598785400391 -219.391189575195 1.447896957397
-96.539955139160 -69.837966918945 -218.054763793945 1.255735039711
-7.336314201355 -71.735877990723 -215.791885375977 1.811752080917
91.218147277832 -70.003875732422 -212.894683837891 0.989367008209
-92.063087463379 -71.560997009277 -220.789199829102 2.003606081009
-102.626121520996 -71.782402038574 -220.924774169922 2.029836893082
-92.867744445801 -71.501296997070 -220.518692016602 2.075362682343
87.694068908691 -71.984123229980 -220.023956298828 1.259258508682
-134.316894531250 -71.280845642090 -226.742462158203 0.843974828720
-133.698837280273 -66.848472595215 -228.452957153320 2.031361341476
-117.902061462402 -69.721565246582 -226.771667480469 1.920322418213
-112.618423461914 -68.585311889648 -226.510391235352 0.773663163185
-133.460250854492 -69.710472106934 -225.107223510742 0.965960741043
-108.178390502930 -74.476692199707 -227.352706909180 2.403062582016
-113.757377624512 -69.789894104004 -228.601882934570 1.941773772240
-8.412137031555 -69.893714904785 -224.865432739258 0.883376419544
-18.284860610962 -71.664405822754 -224.129013061523 2.023340463638
-0.954819977283 -70.936248779297 -231.624633789063 1.485750794411
-9.655679702759 -69.522537231445 -227.705612182617 0.835519254208
15.375956535339 -71.542274475098 -231.778320312500 1.313884258270
-17.116708755493 -71.045906066895 -227.860671997070 1.353027939796
-164.606109619141 -69.927101135254 -225.695159912109 2.508826732635
-1.954530000687 -69.426445007324 -231.572723388672 1.526672840118
81.284057617188 -71.064613342285 -228.029617309570 1.732686281204
8.966917991638 -70.487815856934 -234.736923217773 0.584800064564
-7.819694042206 -69.971946716309 -231.400238037109 2.374145746231
-155.701370239258 -67.845497131348 -237.001571655273 1.657586097717
-139.582626342773 -70.913871765137 -234.567642211914 2.213776111603
67.025199890137 -68.533233642578 -234.283996582031 1.349543213844
-6.249904155731 -70.942611694336 -234.527267456055 1.143294215202
4.915604114532 -70.750389099121 -233.508438110352 1.968662500381
70.953163146973 -70.708175659180 -235.331649780273 0.544884741306
77.429924011230 -72.274948120117 -233.567825317383 0.405921697617
68.992767333984 -72.554512023926 -237.272872924805 2.251929283142
-1.492025971413 -69.899589538574 -236.314376831055 1.299748659134
56.477622985840 -70.961074829102 -238.416534423828 2.601824522018
-17.251989364624 -70.782768249512 -238.604217529297 0.995958983898
-16.043966293335 -70.075057983398 -240.649444580078 1.208037614822
9.257493972778 -70.986724853516 -239.640274047852 1.838122963905
66.430015563965 -71.207000732422 -240.990798950195 1.217320799828
61.455986022949 -70.948959350586 -238.305999755859 1.206844687462
52.287864685059 -69.164299011230 -245.983871459961 1.253216981888
61.904708862305 -72.604591369629 -242.504211425781 1.356646180153
-15.979867935181 -69.804443359375 -248.972854614258 1.629045605659
-83.125450134277 -69.345291137695 -249.662277221680 1.837577939034
-76.619369506836 -68.361755371094 -252.759765625000 2.779745578766
43.934013366699 -71.179603576660 -248.868606567383 2.047088146210
-143.790725708008 -68.646041870117 -251.961059570313 1.521976232529
38.800426483154 -71.507774353027 -255.526458740234 1.029235601425
-88.845787048340 -70.632492065430 -252.467605590820 1.593896865845
-153.958938598633 -70.071357727051 -257.157073974609 1.386479496956
-141.700973510742 -69.675292968750 -256.576599121094 1.062765359879
48.583763122559 -71.933807373047 -251.444396972656 1.768500685692
-124.857299804688 -68.163208007813 -255.973846435547 1.396091222763
-115.927436828613 -69.366378784180 -257.280853271484 1.076990723610
-93.963096618652 -69.221412658691 -256.927459716797 1.252312541008
-15.314034461975 -72.867012023926 -254.172180175781 2.069643735886
32.163532257080 -71.130851745605 -258.424499511719 1.102522015572
24.033763885498 -71.690856933594 -260.154174804688 1.994113206863
-156.161422729492 -69.759140014648 -259.135467529297 0.572199225426
-113.931846618652 -71.483573913574 -263.894439697266 1.804329872131
-13.333488464355 -70.762008666992 -260.373992919922 2.219966650009
-133.869979858398 -70.123703002930 -266.068725585938 1.864419102669
-12.473299026489 -69.504798889160 -270.981872558594 1.035676956177
-164.696792602539 -69.593734741211 -277.568145751953 2.342349052429
-8.867819786072 -69.637634277344 -279.117004394531 1.654547572136
-161.973403930664 -68.912101745605 -290.337371826172 1.579013347626
-160.066818237305 -69.329925537109 -278.679046630859 1.993566513062
-145.170898437500 -69.299629211426 -286.607086181641 2.108573675156
-167.721389770508 -70.112266540527 -285.782012939453 1.226010084152
16.246883392334 -68.949424743652 -286.680603027344 1.810921311378
-103.241195678711 -72.118019104004 -287.399841308594 1.607726812363
-86.531684875488 -69.660484313965 -286.989776611328 0.570881724358
-167.143539428711 -69.300086975098 -286.361907958984 1.702500581741
-89.591049194336 -70.271568298340 -289.009490966797 1.504852890968
-152.012268066406 -71.691635131836 -289.371734619141 2.444369077682
-73.188346862793 -70.620918273926 -290.247070312500 2.391839981079
-67.188911437988 -70.359222412109 -289.560272216797 1.476253867149
-80.758895874023 -69.352836608887 -290.915771484375 1.277658224106
-2.992964982986 -66.805076599121 -289.232452392578 1.810700297356
-83.831253051758 -70.868461608887 -291.959167480469 2.294934511185
-97.486457824707 -70.321296691895 -292.314544677734 1.473460555077
-114.504333496094 -70.288414001465 -293.528747558594 1.438099622726
-115.685295104980 -69.504470825195 -294.421844482422 2.190921783447
-135.281295776367 -66.996307373047 -294.475219726563 2.375397443771
-142.268203735352 -73.636703491211 -301.789154052734 2.505285501480
-143.439575195313 -73.090675354004 -312.282806396484 1.693221926689
22.257972717285 -71.038787841797 -16.274444580078 1.811388969421
28.472116470337 -68.946578979492 -19.049297332764 2.187148094177
27.171575546265 -72.129386901855 -17.637302398682 1.966483116150
42.459667205811 -71.577972412109 -23.071956634521 2.111486196518
22.907703399658 -71.778877258301 -31.076356887817 1.205775499344
-78.598831176758 -68.039619445801 -49.409069061279 2.218244075775
86.606620788574 -69.067726135254 -63.059486389160 1.279281973839
-15.763993263245 -70.649520874023 -68.021804809570 1.313165545464
99.142990112305 -69.813919067383 -70.403785705566 1.995712637901
95.076484680176 -70.521461486816 -75.447082519531 2.887606859207
69.084434509277 -73.644622802734 -78.319213867188 1.906440019608
66.346046447754 -70.293945312500 -83.642097473145 1.400910258293
-48.078872680664 -71.025680541992 -83.073417663574 2.109400749207
59.570011138916 -70.099052429199 -82.270866394043 3.260754108429
-98.578598022461 -70.229866027832 -88.552108764648 3.667961835861
-52.021865844727 -69.352760314941 -87.554344177246 1.622281908989
-57.046562194824 -75.289833068848 -89.337272644043 3.495266199112
96.258300781250 -71.966476440430 -94.947761535645 2.408263921738
56.061466217041 -71.841003417969 -96.400138854980 2.402802228928
61.524799346924 -68.798004150391 -90.384735107422 1.499612689018
-97.885269165039 -68.057334899902 -96.648941040039 1.751366257668
106.773956298828 -69.260261535645 -93.894447326660 2.829836130142
45.619831085205 -69.785003662109 -96.104522705078 1.434803366661
99.274688720703 -69.560310363770 -96.192939758301 2.269483327866
104.855720520020 -70.029235839844 -104.437644958496 1.582950711250
100.853149414063 -69.949768066406 -103.807670593262 3.124895811081
72.650527954102 -69.635314941406 -102.620056152344 1.017365932465
85.831024169922 -70.792793273926 -104.280158996582 1.822202444077
47.183364868164 -72.356002807617 -110.107246398926 2.149224996567
108.443878173828 -70.337844848633 -104.900627136230 1.197084426880
43.793689727783 -70.072921752930 -107.177597045898 1.257520318031
43.380397796631 -67.992958068848 -100.294624328613 1.182530045509
108.777648925781 -70.927757263184 -110.876464843750 0.859184563160
-80.359199523926 -68.554481506348 -110.326988220215 1.550922274590
45.973239898682 -69.491035461426 -112.776107788086 0.966349899769
35.334125518799 -70.231620788574 -112.183540344238 2.553939580917
104.204856872559 -69.866294860840 -107.402000427246 1.483571767807
41.448772430420 -68.370758056641 -111.338340759277 1.117646217346
-90.652832031250 -68.783096313477 -117.428649902344 1.611486792564
-97.901657104492 -69.011947631836 -116.635383605957 2.088283538818
106.596229553223 -68.797393798828 -118.049362182617 2.172405719757
-94.876411437988 -72.495643615723 -118.280830383301 1.196765899658
37.594272613525 -69.090980529785 -121.699844360352 0.963755905628
36.196453094482 -69.177276611328 -117.010292053223 2.309594869614
-81.200508117676 -69.619247436523 -124.755462646484 1.603673100471
29.165153503418 -68.110687255859 -132.703643798828 1.827327966690
108.018295288086 -70.885063171387 -130.579910278320 1.651963233948
-51.281951904297 -69.551727294922 -134.775588989258 1.462729334831
-89.921218872070 -70.010795593262 -130.748870849609 1.937673211098
35.610458374023 -70.512229919434 -134.467346191406 1.661578416824
-91.461174011230 -68.269058227539 -135.768981933594 1.975587248802
-91.253677368164 -70.434425354004 -137.401245117188 2.244914293289
-49.361427307129 -72.252517700195 -137.144241333008 1.310593962669
-72.195053100586 -69.890113830566 -140.315322875977 1.029908061028
-51.326759338379 -68.831581115723 -136.502212524414 1.631304264069
112.347259521484 -68.672637939453 -137.148620605469 0.524495482445
-76.065002441406 -67.865753173828 -140.908508300781 1.461380839348
34.343814849854 -69.784912109375 -130.611495971680 1.408365845680
-78.594657897949 -68.514610290527 -139.241348266602 0.953564941883
-77.173698425293 -68.399429321289 -135.518035888672 1.195081949234
-88.284721374512 -69.135719299316 -137.363159179688 1.725270867348
-54.638324737549 -69.847091674805 -150.419143676758 1.674079537392
30.542907714844 -68.484497070313 -146.796493530273 1.877328157425
29.022348403931 -68.761840820313 -150.441818237305 1.935087203979
17.604330062866 -68.424484252930 -143.968063354492 0.520559430122
112.547737121582 -71.137336730957 -146.319915771484 1.128676176071
-98.011970520020 -71.364532470703 -155.426864624023 2.872611284256
15.717581748962 -70.837471008301 -149.723922729492 1.774968624115
-72.032035827637 -70.376060485840 -149.760848999023 1.465289950371
22.314306259155 -69.574752807617 -149.557205200195 1.709779024124
-47.923877716064 -68.701545715332 -154.952087402344 1.597823381424
7.601172924042 -67.978302001953 -150.508438110352 2.748547792435
9.921348571777 -69.797119140625 -156.441268920898 1.702580332756
17.548009872437 -70.289749145508 -162.737182617188 2.666997432709
-46.829902648926 -70.375808715820 -162.618041992188 1.167893290520
-41.187618255615 -67.637413024902 -153.657287597656 1.776499271393
-46.314899444580 -68.425682067871 -158.328582763672 2.040557384491
-103.520584106445 -68.726554870605 -170.826889038086 0.671982824802
19.435194015503 -68.024688720703 -171.770797729492 0.312000840902
-37.310890197754 -69.763336181641 -173.327285766602 1.928815722466
13.929980278015 -67.316719055176 -177.763336181641 3.808668613434
-146.391174316406 -71.674293518066 -174.870849609375 1.602292299271
-34.428668975830 -67.176116943359 -174.098464965820 1.868845224380
-153.016723632813 -67.839393615723 -178.009170532227 1.847590446472
20.005109786987 -69.942070007324 -181.139068603516 2.278481721878
-32.537036895752 -70.911613464355 -172.423217773438 0.771220922470
-109.232696533203 -70.675437927246 -181.994689941406 2.027316570282
-106.722434997559 -69.550445556641 -183.106521606445 0.924245297909
-31.379011154175 -68.124488830566 -182.945297241211 1.341464400291
-21.278139114380 -70.205429077148 -184.238388061523 1.849991679192
14.956189155579 -69.716789245605 -189.005004882813 1.834653854370
18.731864929199 -69.390930175781 -194.721221923828 1.453070878983
15.451150894165 -66.680404663086 -186.287887573242 1.501469135284
-142.369567871094 -69.902885437012 -188.205337524414 0.949281036854
17.041187286377 -69.112358093262 -191.167434692383 1.096856832504
9.937117576599 -70.568847656250 -196.684204101563 1.440860867500
-140.553161621094 -67.969741821289 -197.169677734375 1.496688604355
-117.584121704102 -69.926879882813 -197.810287475586 2.569222211838
14.781173706055 -68.502609252930 -197.265563964844 1.959194421768
-113.043220520020 -70.663688659668 -195.714447021484 1.728931903839
-108.709793090820 -70.017295837402 -192.465911865234 2.185271739960
-163.372543334961 -70.937080383301 -200.177459716797 2.234902620316
-21.748311996460 -71.822120666504 -201.410308837891 0.835551857948
15.742294311523 -67.982933044434 -201.037338256836 2.065388917923
-139.560516357422 -67.654357910156 -202.920501708984 1.103572607040
-133.613540649414 -69.070297241211 -207.096130371094 2.482967615128
-18.402116775513 -68.753105163574 -206.306854248047 0.864669859409
-11.716538429260 -69.461624145508 -203.431320190430 0.881479859352
-15.834762573242 -69.778732299805 -207.320175170898 1.451242685318
-144.888793945313 -70.482513427734 -208.361999511719 2.223997354507
-17.375850677490 -71.279052734375 -209.170379638672 2.456885337830
-12.563403129578 -68.351493835449 -212.097366333008 1.496766567230
16.210603713989 -69.049232482910 -209.496826171875 0.950945675373
-11.512543678284 -69.429222106934 -209.658538818359 1.588742852211
10.734290122986 -67.251319885254 -211.333709716797 1.890191912651
-8.618920326233 -70.387626647949 -216.263290405273 1.415790677071
-16.709026336670 -70.761665344238 -211.793167114258 1.332186341286
12.797872543335 -69.569297790527 -222.313140869141 1.506873011589
-1.804859995842 -70.860404968262 -219.762908935547 0.986299037933
11.818204879761 -68.598205566406 -221.691970825195 1.600449562073
-4.967652797699 -70.321884155273 -223.941345214844 1.723459482193
-157.266372680664 -69.009017944336 -223.500625610352 1.315635442734
82.536338806152 -70.454116821289 -220.054000854492 1.858405470848
-134.447143554688 -68.911178588867 -224.693557739258 0.298959076405
-134.428741455078 -68.948356628418 -225.809326171875 0.636783361435
-8.643551826477 -69.793968200684 -226.187698364258 0.644045054913
12.287481307983 -70.846557617188 -232.138580322266 1.268770933151
-153.250000000000 -68.246772766113 -226.115066528320 0.844836890697
85.636741638184 -68.576225280762 -219.470733642578 0.966522991657
-4.681035995483 -69.575057983398 -224.150039672852 1.538712501526
1.588690042496 -70.751373291016 -225.722183227539 2.189790010452
73.282546997070 -69.949714660645 -226.416900634766 2.731090784073
2.611193895340 -70.274848937988 -232.244979858398 1.877945065498
-16.543373107910 -69.965919494629 -230.422058105469 1.466068983078
-123.250144958496 -71.903060913086 -236.540390014648 2.725779056549
-3.334629058838 -69.693702697754 -235.926452636719 1.120038986206
1.421125054359 -69.558006286621 -233.648468017578 0.882510244846
67.075950622559 -70.745086669922 -236.623733520508 1.376928567886
-159.575332641602 -68.362968444824 -240.411010742188 1.651118278503
-10.241902351379 -70.265144348145 -244.459167480469 1.390936613083
-166.591415405273 -69.967933654785 -239.970062255859 1.329579591751
9.017292022705 -71.043914794922 -243.253570556641 0.571234762669
-166.081665039063 -68.326599121094 -240.040054321289 1.352146029472
-159.377029418945 -67.779136657715 -244.988098144531 1.013830900192
55.497261047363 -70.683807373047 -247.350433349609 2.222454786301
64.266181945801 -68.718269348145 -242.742660522461 1.363385200500
56.473846435547 -69.312889099121 -242.046768188477 1.416109681129
51.808906555176 -71.036788940430 -247.544387817383 1.538577795029
-159.070526123047 -68.296249389648 -246.866012573242 1.582459568977
-154.729721069336 -69.783843994141 -251.821945190430 1.652007579803
-14.479309082031 -68.954917907715 -248.375427246094 1.079153776169
-152.620697021484 -68.708564758301 -247.347885131836 1.032699108124
21.918321609497 -72.462669372559 -252.640823364258 1.123911499977
-166.388870239258 -69.217155456543 -251.943222045898 1.298649191856
-166.622482299805 -66.424247741699 -245.913635253906 2.805673837662
-80.981956481934 -68.481498718262 -251.983612060547 2.025149583817
-168.398208618164 -69.895072937012 -264.712463378906 1.515511155128
-85.397529602051 -69.583877563477 -257.039062500000 1.836705446243
40.523536682129 -67.760086059570 -250.873352050781 1.617787718773
24.030651092529 -72.732727050781 -254.820739746094 2.297681093216
-158.475494384766 -67.760299682617 -260.581634521484 1.805491685867
-100.411460876465 -67.075119018555 -260.313751220703 1.861136794090
39.202049255371 -70.172103881836 -257.104888916016 2.175472974777
-100.938781738281 -70.146331787109 -260.311035156250 1.094188332558
-153.193923950195 -65.192855834961 -262.748352050781 1.776649713516
-106.365936279297 -67.448066711426 -260.603637695313 1.162660479546
-164.078231811523 -68.753082275391 -260.568939208984 0.957959651947
-112.557861328125 -70.383216857910 -262.968750000000 1.215295791626
-152.848068237305 -70.190849304199 -267.283172607422 2.235891580582
-156.772979736328 -70.623840332031 -265.283752441406 0.712587594986
-166.194015502930 -70.298545837402 -265.274871826172 1.475570678711
-160.736236572266 -68.438575744629 -264.455841064453 1.173804283142
-165.027709960938 -67.759193420410 -268.992553710938 2.691104888916
-161.631057739258 -67.131423950195 -268.018768310547 2.369104862213
24.889543533325 -70.708183288574 -263.937103271484 1.768137216568
-150.586853027344 -68.412437438965 -267.139160156250 1.657725930214
-146.880096435547 -67.912948608398 -285.420898437500 2.926735639572
20.012027740479 -73.669319152832 -277.950958251953 1.950258374214
-8.981440544128 -68.826789855957 -274.583251953125 2.997023344040
-125.761581420898 -71.369285583496 -284.971252441406 0.955411136150
-135.837844848633 -72.872978210449 -287.554595947266 2.099722146988
-135.698822021484 -68.668693542480 -287.771148681641 1.123226404190
-125.701980590820 -68.719093322754 -286.426879882813 1.534555554390
-115.495773315430 -68.780967712402 -288.302337646484 1.497353911400
-106.692207336426 -69.684333801270 -288.211730957031 1.398659825325
12.633895874023 -69.780090332031 -289.563232421875 1.090260267258
-86.702919006348 -68.765914916992 -287.931640625000 1.037412762642
-147.545257568359 -70.243896484375 -293.422302246094 1.986040353775
-99.414146423340 -67.887939453125 -290.222137451172 1.127603411674
-125.353080749512 -67.933998107910 -292.162689208984 0.798441290855
10.753251075745 -73.679985046387 -288.591369628906 2.291351795197
-113.389739990234 -69.967414855957 -293.447387695313 1.660263895988
1.793913960457 -70.038452148438 -290.612915039063 1.817851066589
-142.153656005859 -69.777099609375 -291.942474365234 1.008221387863
-153.862716674805 -70.976531982422 -299.911346435547 1.420490384102
-157.898193359375 -70.309371948242 -310.633636474609 2.056499004364
-152.683425903320 -70.634445190430 -313.311981201172 0.906508326530
47.680332183838 -71.897148132324 -23.719995498657 1.972043991089
18.704120635986 -70.979728698730 -31.946836471558 2.152875185013
32.255744934082 -71.358581542969 -36.487991333008 1.122207403183
-51.026302337646 -69.253028869629 -49.293529510498 1.498026013374
-16.206256866455 -68.665023803711 -61.027046203613 2.294449567795
92.118675231934 -72.954429626465 -69.879524230957 2.034382104874
66.700958251953 -68.567497253418 -68.506164550781 3.648041486740
-23.149816513062 -71.074104309082 -74.357582092285 1.584735035896
-95.556427001953 -70.462303161621 -83.182456970215 2.060177326202
-42.255065917969 -70.268440246582 -78.986938476563 1.455849885941
63.989147186279 -69.344253540039 -81.227272033691 2.572520256042
56.214900970459 -72.242515563965 -85.254493713379 2.899413585663
55.194503784180 -69.849662780762 -86.259117126465 1.444210529327
-58.800590515137 -69.589660644531 -87.963775634766 2.737464427948
65.319213867188 -68.502265930176 -87.745780944824 1.246405720711
43.595115661621 -72.058067321777 -95.696289062500 2.348450899124
65.783592224121 -70.741638183594 -91.629486083984 2.255568265915
-65.517837524414 -67.923973083496 -96.005851745605 0.711055457592
49.200328826904 -69.087898254395 -94.987907409668 2.620358943939
43.780635833740 -70.066940307617 -97.558883666992 1.853031873703
102.259880065918 -70.817253112793 -95.038543701172 2.365522861481
-70.348754882813 -71.674507141113 -99.758583068848 1.839985132217
108.353080749512 -70.166618347168 -99.883689880371 1.327691555023
-80.749031066895 -68.058372497559 -98.454864501953 2.601941347122
54.682136535645 -71.250938415527 -103.017341613770 1.423490047455
47.284427642822 -68.025810241699 -99.623748779297 0.628728806973
92.851387023926 -71.096893310547 -100.301513671875 2.756217002869
85.746994018555 -64.062957763672 -108.469871520996 1.219754576683
52.410320281982 -69.610183715820 -102.863647460938 2.903326749802
-74.519927978516 -69.846328735352 -108.008155822754 0.953734934330
-77.567008972168 -68.816604614258 -111.244964599609 2.285525560379
-82.060432434082 -71.129226684570 -119.711448669434 1.081540346146
-93.901550292969 -73.247650146484 -118.825683593750 1.797834515572
104.639739990234 -69.358573913574 -113.200981140137 1.546119332314
-86.641052246094 -68.242393493652 -120.179702758789 1.149262547493
-80.148277282715 -67.465530395508 -120.483139038086 1.589092135429
109.587738037109 -67.912803649902 -113.868293762207 1.577859520912
-64.867279052734 -64.930824279785 -118.744453430176 1.582136988640
112.697586059570 -70.802955627441 -129.565292358398 0.778117835522
108.486213684082 -69.269279479980 -127.787300109863 1.184104084969
109.992889404297 -68.754013061523 -119.207153320313 2.622997999191
-94.106468200684 -68.157905578613 -137.591232299805 1.215644359589
-51.367179870605 -67.322074890137 -140.598663330078 0.334187299013
-76.769157409668 -70.196342468262 -146.245056152344 1.041801929474
-69.762092590332 -68.181945800781 -150.269271850586 1.573911786079
-73.712913513184 -67.403343200684 -145.056732177734 1.307122588158
-55.439094543457 -67.109268188477 -144.736267089844 2.122872591019
-48.890777587891 -68.453712463379 -149.745758056641 1.328541874886
19.577432632446 -69.892478942871 -144.034591674805 1.839623451233
-95.399909973145 -67.083305358887 -149.218765258789 2.139713525772
-44.853851318359 -69.960853576660 -148.267242431641 0.979533255100
-54.858272552490 -68.306739807129 -150.215377807617 1.758391261101
-43.169731140137 -67.068237304688 -155.755020141602 1.344392299652
27.852745056152 -70.997619628906 -161.568649291992 0.441162139177
-49.104061126709 -67.771278381348 -151.818908691406 2.021318197250
-97.679405212402 -69.092239379883 -150.582214355469 1.350222706795
-42.641132354736 -68.201934814453 -159.664077758789 0.871523141861
25.367706298828 -67.636924743652 -152.977279663086 2.052342414856
-102.249046325684 -69.138717651367 -163.088546752930 0.902924299240
21.569665908813 -68.631813049316 -156.846160888672 3.233511686325
-106.410598754883 -66.722991943359 -171.975997924805 2.383787631989
-100.807388305664 -67.114295959473 -163.903121948242 2.641395330429
22.005674362183 -66.212036132813 -164.122497558594 3.279470443726
25.134815216064 -67.436889648438 -167.393524169922 0.939251840115
-105.894927978516 -69.607414245605 -174.825881958008 1.137620449066
-142.774032592773 -68.923522949219 -177.040878295898 1.775990247726
-23.434087753296 -68.145339965820 -186.850173950195 1.596173524857
-25.549970626831 -67.440811157227 -183.358200073242 0.923344492912
-113.114799499512 -67.804504394531 -188.659179687500 1.454705357552
-143.143478393555 -66.101020812988 -189.695953369141 1.656563401222
-106.128227233887 -69.579071044922 -182.168502807617 1.144368767738
-153.753387451172 -70.059829711914 -196.011016845703 1.813186645508
-130.669692993164 -70.411987304688 -194.929931640625 0.917426526546
-135.004257202148 -68.220664978027 -196.632247924805 1.867736339569
-21.069652557373 -66.195602416992 -192.530410766602 2.170243978500
-121.763229370117 -68.825958251953 -195.220321655273 0.746906459332
-114.340934753418 -66.974891662598 -196.702911376953 0.886954605579
-22.146360397339 -69.731132507324 -195.758758544922 0.949710845947
-154.435134887695 -66.416229248047 -200.069107055664 1.440349936485
-133.008972167969 -70.907806396484 -207.782531738281 3.787483215332
-124.474426269531 -67.072052001953 -205.938629150391 1.275673151016
16.433547973633 -67.314529418945 -202.323532104492 1.301781415939
-161.105560302734 -67.161170959473 -206.554992675781 2.265144109726
9.394802093506 -70.734138488770 -211.483764648438 1.884527087212
13.550352096558 -70.787864685059 -213.150848388672 1.244567751884
-19.172233581543 -68.052993774414 -207.242218017578 0.521192610264
-5.339181900024 -69.394729614258 -214.384872436523 1.734288215637
-166.522415161133 -68.209671020508 -212.037933349609 1.037951707840
-158.703384399414 -67.420150756836 -216.470748901367 1.425238609314
-97.138420104980 -69.340362548828 -218.271652221680 0.562146723270
-100.948303222656 -67.745376586914 -226.291854858398 1.487774372101
-159.858581542969 -66.538589477539 -222.785675048828 1.981463670731
-103.935867309570 -68.662658691406 -221.295440673828 1.471575498581
-14.096117973328 -69.114898681641 -217.790817260742 1.399834156036
-125.343208312988 -68.504043579102 -226.671264648438 2.283495426178
-141.917419433594 -70.121528625488 -226.008834838867 1.218916535378
-4.603813171387 -69.559867858887 -223.192901611328 1.736411929131
-133.466842651367 -67.383026123047 -227.011123657227 1.696928501129
-124.403099060059 -67.376861572266 -226.605667114258 0.841539621353
-112.966117858887 -68.748901367188 -228.784225463867 2.666556596756
2.162118911743 -68.715698242188 -227.320358276367 1.334183335304
-107.121513366699 -68.049468994141 -228.895446777344 0.668616652489
-158.153274536133 -69.531845092773 -224.037200927734 1.977527022362
-147.371826171875 -69.476661682129 -228.089401245117 2.006749868393
-165.537918090820 -68.209457397461 -226.646408081055 1.206159710884
-7.018864154816 -69.765861511230 -228.345306396484 1.639002084732
-8.902041435242 -64.870780944824 -230.354919433594 3.106487274170
78.066406250000 -65.642677307129 -225.310852050781 2.940456628799
2.552989006042 -67.679687500000 -231.229568481445 1.040519952774
-142.606124877930 -67.620254516602 -234.333602905273 1.182504534721
-13.055458068848 -69.765266418457 -228.963882446289 1.467723369598
75.556274414063 -70.689117431641 -225.526458740234 1.355246543884
73.567062377930 -69.182800292969 -231.341445922852 2.776434659958
-132.774505615234 -68.258216857910 -233.444198608398 1.869832992554
-159.554595947266 -67.389801025391 -229.205520629883 1.087908148766
-113.183380126953 -67.419647216797 -233.293899536133 2.174636125565
-121.852531433105 -67.306129455566 -234.847290039063 2.099996566772
-166.424850463867 -66.155944824219 -235.450408935547 2.470897674561
-158.326431274414 -67.211898803711 -238.264114379883 1.532414436340
-140.940734863281 -68.336418151855 -239.022933959961 4.602809906006
-9.275820732117 -72.046272277832 -235.103057861328 2.197542190552
-3.290962934494 -68.757392883301 -239.596008300781 1.183353304863
-160.647384643555 -66.408279418945 -240.526321411133 2.399896860123
6.785664081573 -70.739349365234 -239.775985717773 1.413886666298
7.381048202515 -67.850929260254 -235.669342041016 1.236560702324
-162.077514648438 -67.836822509766 -242.824157714844 1.936812996864
14.271651268005 -69.546066284180 -243.377624511719 1.562980055809
51.291503906250 -69.243026733398 -244.500518798828 0.839756190777
53.207611083984 -67.440727233887 -247.063430786133 1.116088509560
-11.171977043152 -69.739105224609 -245.679946899414 1.878645181656
50.331600189209 -67.383804321289 -246.464065551758 1.450557112694
-162.955963134766 -68.389205932617 -254.633544921875 2.727885961533
-163.001190185547 -67.010353088379 -250.200653076172 0.822915852070
-160.404678344727 -68.888717651367 -250.128280639648 1.700693130493
54.201042175293 -68.718437194824 -251.085556030273 1.178500890732
-89.583740234375 -69.666549682617 -253.442169189453 1.457641482353
-124.783630371094 -68.433280944824 -254.233535766602 0.666334033012
-105.646003723145 -69.740745544434 -255.539382934570 0.317950695753
30.477302551270 -69.550018310547 -256.118164062500 1.065276503563
42.189910888672 -69.128776550293 -250.881286621094 1.385758280754
-99.262199401855 -67.761627197266 -255.122879028320 1.543245434761
-93.220146179199 -67.183525085449 -256.463409423828 1.550435304642
45.535408020020 -68.453178405762 -253.237121582031 2.104941129684
43.302547454834 -67.894210815430 -254.511566162109 1.444532155991
-155.893417358398 -69.656326293945 -260.550170898438 0.912192463875
33.694896697998 -67.535774230957 -255.732254028320 0.843779444695
-140.197189331055 -70.595901489258 -265.214477539063 2.603457689285
-115.322502136230 -66.491729736328 -261.769561767578 0.797116041183
-133.561141967773 -68.493728637695 -265.330322265625 1.692018270493
31.877727508545 -71.053451538086 -262.413604736328 1.841498494148
-126.219429016113 -68.878463745117 -265.360412597656 1.360563516617
-10.095250129700 -67.468437194824 -258.942382812500 2.990036725998
23.345464706421 -70.901168823242 -271.673187255859 1.093599319458
-9.644021987915 -67.953498840332 -267.066070556641 1.346653699875
22.764787673950 -68.063148498535 -280.258697509766 2.419831037521
-150.186264038086 -68.699134826660 -283.822052001953 1.965998172760
-9.871863365173 -70.571235656738 -278.350494384766 1.855053901672
-153.348953247070 -70.799560546875 -287.010467529297 2.664489984512
-125.688606262207 -67.276702880859 -285.866088867188 1.376915812492
-156.790237426758 -70.546562194824 -288.862243652344 0.962109446526
-116.602241516113 -68.517776489258 -287.632141113281 0.931003034115
-105.328933715820 -69.565826416016 -289.943634033203 1.956823348999
-6.879076004028 -68.507904052734 -287.198760986328 0.826674640179
-109.300239562988 -68.474761962891 -292.505828857422 2.006875276566
-116.054382324219 -69.605491638184 -289.738006591797 2.470156431198
-117.686172485352 -68.887550354004 -292.075347900391 1.397547721863
-135.605804443359 -66.581413269043 -290.641204833984 1.077980518341
-124.034118652344 -70.748085021973 -293.703582763672 1.657009959221
-156.807296752930 -69.713943481445 -291.331298828125 0.790096640587
-145.172271728516 -71.507789611816 -296.767120361328 1.263400912285
-151.404144287109 -68.039848327637 -300.157379150391 0.648923456669
-152.925659179688 -66.767768859863 -310.841949462891 1.596895694733
-155.757797241211 -68.258651733398 -302.341308593750 2.214313030243
-145.191497802734 -69.533348083496 -312.769409179688 1.551232695580
-149.480148315430 -67.689292907715 -313.850555419922 2.146020889282
33.248924255371 -70.067718505859 -12.873821258545 1.797878384590
42.505161285400 -70.944404602051 -15.544139862061 1.719569087029
25.422584533691 -64.824066162109 -27.130556106567 2.909470558167
48.793098449707 -69.083007812500 -28.870346069336 1.809501528740
28.582674026489 -69.708763122559 -34.947952270508 1.944427847862
35.686687469482 -72.208885192871 -35.391201019287 2.013910055161
-58.213329315186 -67.565521240234 -45.264701843262 1.942247390747
83.265701293945 -68.295745849609 -60.705059051514 3.343402862549
79.532989501953 -68.938491821289 -64.378387451172 1.901939868927
-93.449417114258 -66.340408325195 -62.379531860352 2.336171388626
-13.883286476135 -67.033493041992 -62.606887817383 2.183137416840
-91.454147338867 -71.008499145508 -67.510963439941 1.159769058228
95.450004577637 -68.451202392578 -68.858879089355 2.579292774200
-17.430793762207 -66.059074401855 -67.857055664063 2.305182218552
67.111740112305 -70.121757507324 -74.632446289063 1.383604645729
-39.873851776123 -71.397682189941 -76.332145690918 1.575836658478
-29.969095230103 -72.788253784180 -78.746864318848 2.072466850281
55.681362152100 -67.856880187988 -84.852218627930 2.455328702927
-47.037605285645 -77.850021362305 -86.323860168457 0.663520455360
62.744937896729 -65.885543823242 -82.791534423828 1.609059333801
52.845054626465 -69.138427734375 -85.292480468750 2.277235269547
49.589305877686 -71.433624267578 -91.159515380859 1.467917323112
62.421772003174 -68.043586730957 -90.354759216309 0.657006025314
57.327556610107 -69.084136962891 -95.854896545410 1.567595839500
101.238327026367 -67.006607055664 -94.537612915039 1.780756235123
103.289894104004 -69.756767272949 -94.680755615234 1.673015475273
57.455993652344 -71.315948486328 -97.129943847656 1.798673748970
106.093833923340 -66.913581848145 -96.925430297852 0.793573617935
-74.831535339355 -71.022972106934 -100.050239562988 1.431385993958
-72.278144836426 -68.337219238281 -101.281944274902 1.405849099159
101.264366149902 -69.695068359375 -96.328224182129 1.551831483841
52.860469818115 -67.924591064453 -99.801986694336 0.815923631191
70.217277526855 -69.692039489746 -99.884407043457 0.397013455629
-72.823150634766 -65.192810058594 -103.254966735840 2.435819625854
-83.413185119629 -66.679504394531 -106.110336303711 1.218984246254
92.837898254395 -68.251068115234 -106.356666564941 1.331581830978
41.819244384766 -68.049201965332 -104.312080383301 1.197869539261
101.662223815918 -67.863937377930 -101.088539123535 1.862768292427
43.229259490967 -67.939674377441 -111.122482299805 0.819845616817
109.922241210938 -66.848449707031 -105.174652099609 1.205890536308
-82.846252441406 -65.267669677734 -108.695480346680 2.041673421860
105.475349426270 -65.732604980469 -107.309989929199 3.282241344452
-86.780044555664 -65.920913696289 -118.734550476074 2.105580329895
-59.415557861328 -69.531372070313 -127.172615051270 1.695289015770
-56.595310211182 -66.529251098633 -127.022758483887 1.995426177979
-74.382843017578 -68.549896240234 -129.439559936523 1.638071417809
-51.589408874512 -69.208320617676 -130.423156738281 0.740467250347
-85.857040405273 -68.679679870605 -131.895935058594 1.243372917175
-78.252197265625 -69.044357299805 -134.900177001953 2.224059581757
-84.515869140625 -67.317153930664 -128.256988525391 2.448374748230
-57.604373931885 -70.785087585449 -139.078460693359 1.469933748245
-73.251296997070 -66.678512573242 -139.224105834961 0.680262506008
-60.104991912842 -67.212318420410 -136.785827636719 1.610236287117
-62.364784240723 -69.447044372559 -139.158172607422 1.756967067719
22.139364242554 -68.675506591797 -139.830078125000 2.047254085541
-89.403472900391 -68.506973266602 -144.617630004883 1.876346349716
-46.800292968750 -69.414062500000 -144.519317626953 1.903912186623
-99.375312805176 -65.809112548828 -149.874221801758 1.259932637215
-101.217079162598 -67.066040039063 -152.363525390625 2.323594808578
17.138345718384 -70.411323547363 -151.817428588867 1.952609419823
13.125635147095 -70.278808593750 -157.189743041992 0.539709031582
-98.762268066406 -67.779518127441 -158.977569580078 1.074269413948
-101.878356933594 -66.435905456543 -158.313537597656 0.950933218002
-99.420608520508 -67.215278625488 -169.233367919922 1.808803200722
20.829177856445 -66.549468994141 -168.649169921875 1.974932193756
-110.686309814453 -68.828048706055 -170.254425048828 3.665627479553
18.943689346313 -69.488227844238 -168.013137817383 0.967028200626
-146.703857421875 -68.679473876953 -177.699813842773 2.414147853851
16.900077819824 -68.451217651367 -175.837051391602 0.502363383770
22.401620864868 -68.882179260254 -185.275939941406 1.098176479340
-153.476806640625 -66.461822509766 -188.520553588867 1.830746293068
20.501817703247 -68.739654541016 -178.338989257813 1.106126904488
17.021507263184 -67.056632995605 -177.717712402344 0.917974114418
-139.911575317383 -71.451423645020 -190.250534057617 3.781963348389
-151.808868408203 -68.731986999512 -190.107238769531 2.148963451385
18.604854583740 -67.184150695801 -188.631134033203 0.743283152580
18.962631225586 -66.534248352051 -187.106430053711 1.843558192253
-144.606964111328 -67.835166931152 -193.575027465820 1.812620401382
-108.529571533203 -69.834915161133 -196.859725952148 1.818822264671
20.964975357056 -68.258438110352 -195.883331298828 0.755661725998
-124.991889953613 -65.402946472168 -194.399581909180 1.293395042419
11.837459564209 -68.782157897949 -197.314117431641 2.412745237350
-132.550903320313 -65.874168395996 -195.953201293945 1.272103786469
-153.441482543945 -66.937789916992 -194.599319458008 1.278123259544
-162.912475585938 -69.554618835449 -200.119613647461 2.231448888779
-162.531433105469 -66.205001831055 -200.736663818359 0.997673034668
-18.823354721069 -66.134147644043 -201.354598999023 1.267435312271
-166.064559936523 -68.112747192383 -202.227081298828 1.408322215080
-23.244028091431 -67.374557495117 -192.696258544922 1.647828459740
-15.519598007202 -67.942161560059 -198.310867309570 2.043281555176
13.517124176025 -67.522865295410 -194.447586059570 0.859332501888
-159.281173706055 -65.597740173340 -199.869018554688 0.839005470276
-110.710304260254 -66.992790222168 -202.258316040039 1.347833514214
-18.091007232666 -68.511581420898 -205.691665649414 1.051331162453
-157.517456054688 -68.585136413574 -202.794464111328 0.825587511063
16.559206008911 -66.123039245605 -199.212356567383 0.909889578819
-164.758895874023 -66.912292480469 -203.217849731445 0.870210826397
-121.818618774414 -69.874992370605 -204.867034912109 1.756731629372
-112.712623596191 -66.429290771484 -206.600555419922 3.115311145782
-124.653091430664 -64.929756164551 -207.152618408203 2.468655586243
-13.596734046936 -69.230293273926 -203.752548217773 1.760549426079
-16.399452209473 -66.237915039063 -204.903701782227 1.843047857285
-163.809768676758 -65.844779968262 -210.532623291016 1.197741746902
-160.604629516602 -66.575675964355 -214.726272583008 2.051254749298
-165.238708496094 -67.873001098633 -220.566558837891 2.300730228424
-146.155593872070 -68.925361633301 -213.518707275391 2.342162847519
-143.713867187500 -68.205184936523 -224.052536010742 1.033906698227
-6.099580764771 -66.669975280762 -220.824508666992 1.723798751831
-12.056734085083 -67.026519775391 -217.017593383789 1.958952784538
-99.606849670410 -67.853164672852 -222.408187866211 0.612034440041
-6.193408966064 -67.340103149414 -223.990905761719 1.337096810341
-164.351837158203 -66.880836486816 -227.570297241211 1.039190053940
-111.272972106934 -65.163467407227 -231.220581054688 2.038792133331
-0.080343998969 -66.528709411621 -227.315063476563 0.801585316658
4.843533992767 -66.282287597656 -229.717193603516 0.648328065872
-111.849891662598 -68.160362243652 -233.136840820313 2.093061685562
-1.898612022400 -65.400550842285 -230.964096069336 1.681542873383
-115.792137145996 -66.808235168457 -236.543655395508 2.149577856064
-5.797776222229 -66.209922790527 -237.090408325195 1.091892480850
-3.271398067474 -68.381622314453 -233.368759155273 1.399620890617
-0.320834010839 -67.490982055664 -237.226730346680 2.095970392227
69.091133117676 -68.395675659180 -234.924575805664 1.670998215675
-13.499613761902 -69.851142883301 -236.327865600586 1.421159148216
3.863621950150 -67.354591369629 -237.856979370117 1.064223527908
11.055797576904 -67.512374877930 -240.714340209961 0.907595217228
6.938333988190 -69.225524902344 -238.584274291992 1.475467562675
0.859031021595 -69.972274780273 -240.085617065430 1.105687618256
66.433837890625 -68.943374633789 -236.393417358398 2.035892963409
