-75.452079772949 -74.026924133301 -140.525283813477 1.772697448730
-58.151699066162 -75.498847961426 -143.358947753906 2.674746751785
33.392784118652 -73.929443359375 -140.811126708984 2.067757129669
109.165428161621 -73.857040405273 -145.248199462891 1.633457064629
-67.120887756348 -73.910026550293 -146.457168579102 0.987613320351
-45.869983673096 -71.724624633789 -145.207260131836 1.032555460930
35.951457977295 -76.914115905762 -149.444274902344 1.901142597198
-66.826545715332 -75.359565734863 -150.009948730469 1.652612328529
113.131263732910 -72.340774536133 -143.806167602539 1.032168388367
111.370140075684 -74.940521240234 -156.688537597656 1.268961548805
114.052215576172 -75.895408630371 -149.770767211914 2.067720890045
-38.489536285400 -74.397697448730 -155.332641601563 2.106474637985
-66.173103332520 -74.473228454590 -161.269882202148 1.655332207680
-71.814025878906 -71.402526855469 -155.936523437500 1.986287355423
30.717830657959 -73.648551940918 -150.893463134766 2.037520408630
-1.686040043831 -76.017295837402 -163.328857421875 1.362870454788
107.531120300293 -75.200988769531 -158.553451538086 1.661298632622
110.063156127930 -72.796592712402 -154.491897583008 1.958378434181
112.052055358887 -73.873535156250 -156.927093505859 0.722360849380
-65.238456726074 -74.197906494141 -162.754257202148 0.662186145782
-46.642692565918 -75.414466857910 -162.180160522461 0.471378415823
1.227090954781 -74.535514831543 -166.999679565430 0.663054168224
-26.127372741699 -72.708503723145 -174.745758056641 2.160158157349
106.069801330566 -74.883079528809 -164.653686523438 2.069453954697
-37.051235198975 -73.316291809082 -161.189453125000 1.488302469254
110.168495178223 -75.222167968750 -169.087219238281 0.956491231918
-41.846519470215 -73.758621215820 -172.818420410156 1.075807809830
109.820922851563 -75.256996154785 -166.850753784180 1.390238285065
-149.560760498047 -72.446495056152 -182.907485961914 1.704042434692
-29.919027328491 -72.614646911621 -175.855010986328 2.056543827057
-21.474174499512 -72.342369079590 -181.809356689453 1.558224916458
26.806470870972 -76.575920104980 -176.944717407227 2.457047462463
15.676033973694 -74.635292053223 -181.195495605469 1.080757856369
24.731081008911 -74.841140747070 -183.075241088867 1.581873059273
106.360374450684 -75.764411926270 -183.848968505859 1.087790966034
-151.794464111328 -71.835197448730 -188.285812377930 2.005344867706
-21.155359268188 -75.232460021973 -188.875045776367 2.243392467499
103.922477722168 -73.769309997559 -178.316177368164 1.711762547493
103.193420410156 -73.955703735352 -190.712860107422 1.542231202126
105.702484130859 -74.608451843262 -179.936889648438 1.206809759140
96.531364440918 -77.011268615723 -194.876434326172 2.502847194672
-153.635772705078 -78.819915771484 -196.354629516602 1.532663583755
99.546310424805 -77.120162963867 -203.511947631836 2.250755786896
-30.003585815430 -72.868354797363 -195.517684936523 2.979071140289
98.564826965332 -73.420524597168 -196.965255737305 2.024135828018
-126.069412231445 -73.749359130859 -196.901565551758 2.213986635208
-30.193456649780 -76.685638427734 -192.768066406250 2.674452543259
-141.480606079102 -73.119720458984 -200.844757080078 1.327271819115
92.827995300293 -74.458610534668 -199.583312988281 2.337166309357
8.830164909363 -74.878738403320 -199.447128295898 1.619977116585
22.816894531250 -75.497077941895 -195.040039062500 1.954712748528
-148.153442382813 -72.701370239258 -201.252059936523 0.878641068935
-140.175964355469 -71.928939819336 -204.240585327148 2.055819511414
-12.780755043030 -74.422973632813 -204.972412109375 2.212052822113
-125.185012817383 -76.127174377441 -202.965393066406 3.131861448288
-144.801193237305 -76.575889587402 -204.102966308594 1.140978574753
7.326426982880 -73.287300109863 -200.720153808594 1.434060573578
-23.264947891235 -74.834983825684 -203.679824829102 1.539682984352
19.159894943237 -74.310722351074 -205.330429077148 1.564303278923
7.371191024780 -74.331947326660 -210.160842895508 1.431825399399
88.201789855957 -75.227172851563 -209.381271362305 2.348670721054
-21.599903106689 -70.690330505371 -212.111801147461 3.295747280121
92.751091003418 -73.899620056152 -209.365570068359 1.243056297302
97.091751098633 -74.401458740234 -206.867980957031 2.728423833847
-148.242187500000 -71.496162414551 -218.062316894531 3.004241943359
95.327758789063 -73.070243835449 -211.056961059570 1.496939778328
6.005253791809 -73.361221313477 -209.572769165039 2.000894069672
4.623413085938 -74.750183105469 -213.164810180664 2.303390741348
-34.736274719238 -73.142395019531 -209.724090576172 2.424108266830
-90.593757629395 -71.756401062012 -214.505035400391 0.900409221649
-30.405544281006 -73.576751708984 -213.392456054688 2.098523378372
84.176315307617 -75.358688354492 -215.500015258789 1.316999673843
85.722137451172 -74.786613464355 -218.511199951172 1.054923295975
-34.755882263184 -72.208702087402 -214.513824462891 3.306162357330
-83.264068603516 -70.538597106934 -219.864959716797 4.332836151123
-3.084145069122 -74.685913085938 -217.234710693359 1.348309993744
87.552703857422 -74.605812072754 -216.304489135742 2.080481290817
-149.938827514648 -73.825370788574 -223.270797729492 1.258910298347
-166.881973266602 -73.286369323730 -214.656555175781 3.289594650269
-159.411437988281 -72.328651428223 -223.174972534180 0.467679768801
-20.711605072021 -74.384857177734 -227.744903564453 2.891368865967
-152.664291381836 -73.885910034180 -224.636810302734 2.077515602112
-7.841379165649 -77.528762817383 -226.703170776367 2.389449596405
6.911024093628 -72.962753295898 -218.337661743164 1.907633543015
-163.346267700195 -74.663536071777 -224.529418945313 1.850877881050
-162.653671264648 -72.940650939941 -227.040267944336 1.511247038841
79.089469909668 -74.864227294922 -230.096435546875 0.780476570129
3.456263065338 -73.234428405762 -228.819473266602 1.527154088020
-153.173049926758 -73.313804626465 -225.696960449219 1.194304704666
-142.597824096680 -73.070518493652 -225.654434204102 1.749007225037
-20.608924865723 -75.258613586426 -225.205978393555 1.198501586914
2.447114944458 -76.472862243652 -224.879104614258 0.641693353653
81.366622924805 -74.288208007813 -223.066238403320 1.515966534615
-160.852035522461 -73.505615234375 -229.729690551758 1.902675986290
-147.123596191406 -72.222038269043 -229.073806762695 1.379132390022
-124.752441406250 -71.896461486816 -230.845825195313 1.759810924530
80.506950378418 -75.180046081543 -228.664962768555 2.319342374802
-115.484397888184 -71.360549926758 -230.854827880859 1.065817713737
-148.894943237305 -74.069839477539 -230.197204589844 1.596510767937
-150.979354858398 -74.328674316406 -231.163742065430 2.909891128540
-147.596343994141 -73.171371459961 -230.284027099609 0.699563503265
-154.743713378906 -71.394668579102 -230.544754028320 1.838945746422
-165.989105224609 -71.452812194824 -233.513305664063 1.616852998734
-136.006576538086 -72.068649291992 -234.859573364258 2.516020298004
-134.398559570313 -73.300979614258 -233.790267944336 1.753368258476
-155.421508789063 -72.606681823730 -231.850418090820 1.064029693604
-145.424743652344 -71.483406066895 -235.028869628906 1.166722059250
-152.567230224609 -71.418945312500 -235.371719360352 1.784496426582
72.889663696289 -73.830703735352 -226.979385375977 2.028038740158
67.725257873535 -72.386627197266 -238.276840209961 0.708327054977
-160.318130493164 -72.220664978027 -237.908096313477 1.929762959480
69.613761901855 -73.734001159668 -233.607345581055 2.034803152084
-19.424148559570 -73.851333618164 -237.127090454102 1.860129356384
9.364003181458 -73.874816894531 -236.896316528320 2.219237327576
9.134103775024 -75.951087951660 -236.071456909180 2.137680530548
-149.059600830078 -72.748725891113 -245.405273437500 2.792720079422
13.752845764160 -73.751495361328 -241.922164916992 1.550991535187
64.466789245605 -74.912712097168 -237.019439697266 1.516310334206
12.464445114136 -73.184555053711 -237.034240722656 2.804814577103
5.897455215454 -75.860923767090 -243.120208740234 0.709939718246
-6.862884998322 -72.488365173340 -241.405319213867 1.429529070854
-19.496944427490 -75.145828247070 -244.650604248047 2.235240936279
-0.026393000036 -75.065521240234 -243.655960083008 2.101781129837
2.490423917770 -73.875373840332 -242.803390502930 0.498394459486
57.092632293701 -74.887252807617 -242.037765502930 2.876222133636
-57.473377227783 -73.808708190918 -245.682266235352 1.791122913361
18.412998199463 -73.955131530762 -247.719314575195 1.835336565971
-60.467891693115 -73.821044921875 -245.411407470703 0.934408545494
-8.225115776062 -73.522918701172 -248.645202636719 0.653167545795
-64.535369873047 -71.736854553223 -251.737426757813 1.847801923752
-85.837493896484 -76.409461975098 -252.250610351563 2.347584486008
-82.448707580566 -74.708770751953 -251.174102783203 1.221016645432
-14.063072204590 -73.210243225098 -252.423767089844 1.168413639069
-124.473495483398 -74.349899291992 -258.311706542969 1.194367527962
-14.661222457886 -72.893951416016 -255.956100463867 1.484435081482
-119.108413696289 -73.281860351563 -257.678833007813 1.861670732498
-115.809532165527 -71.742988586426 -259.276794433594 2.257190942764
-103.468612670898 -74.781646728516 -259.531799316406 2.815454483032
-144.058227539063 -72.662742614746 -263.820098876953 0.871637403965
-145.911193847656 -71.782989501953 -267.084808349609 1.810712814331
-167.637420654297 -71.702293395996 -265.771575927734 2.894822597504
15.586075782776 -75.691093444824 -280.674926757813 1.977953195572
-56.580486297607 -74.492355346680 -285.697326660156 2.772017478943
-65.513198852539 -73.592132568359 -285.885314941406 0.767908930779
-42.937820434570 -75.120826721191 -286.125610351563 0.824822962284
-28.725328445435 -75.321578979492 -284.644744873047 1.057812690735
-95.418220520020 -73.318161010742 -290.356353759766 2.101490259171
-29.726608276367 -72.421562194824 -288.284149169922 1.640527129173
-3.605482101440 -72.484283447266 -286.865325927734 1.747203230858
-166.495559692383 -73.302436828613 -290.291351318359 1.534669399261
-12.917119979858 -75.103256225586 -288.476928710938 2.514541625977
7.838168144226 -72.834259033203 -289.116088867188 1.561342716217
14.680801391602 -72.722366333008 -290.027923583984 0.904987573624
-56.239326477051 -73.944473266602 -292.029083251953 1.515580058098
-29.394453048706 -74.474151611328 -289.621490478516 2.271178245544
14.721082687378 -72.328964233398 -291.399536132813 0.857698440552
-68.984634399414 -74.177246093750 -292.960510253906 2.545349836349
-37.202995300293 -73.156417846680 -291.275451660156 1.012904405594
-17.044637680054 -72.661048889160 -291.669342041016 0.951262712479
14.032465934753 -74.435729980469 -290.977996826172 1.829039096832
-11.754416465759 -74.906585693359 -291.302825927734 0.866817295551
4.380558013916 -72.369895935059 -292.622650146484 0.976959764957
13.341861724854 -73.877044677734 -293.401824951172 1.547812461853
-134.467910766602 -73.597091674805 -294.055603027344 1.378661870956
-143.101364135742 -74.666900634766 -302.524963378906 2.115667104721
-147.987854003906 -75.832580566406 -313.082214355469 0.838986217976
38.731403350830 -70.062370300293 -12.846167564392 1.200038313866
29.546091079712 -72.973587036133 -11.133529663086 3.146156549454
37.740436553955 -73.233573913574 -15.870617866516 2.551642417908
19.715702056885 -72.995925903320 -20.708059310913 2.178057670593
42.290298461914 -73.264686584473 -22.938154220581 3.189303874969
22.265121459961 -72.586929321289 -21.604610443115 0.973260700703
23.039297103882 -75.136886596680 -29.781164169312 3.245240211487
21.144659042358 -74.640060424805 -35.212093353271 3.695309162140
41.787910461426 -71.848167419434 -31.985109329224 1.722466468811
25.937095642090 -73.277023315430 -36.186374664307 1.922190070152
40.116981506348 -73.383399963379 -33.825256347656 2.539651393890
31.342500686646 -72.284286499023 -37.258075714111 1.142495274544
33.223533630371 -73.573493957520 -38.419948577881 1.955982804298
30.864929199219 -72.842460632324 -40.689937591553 1.726009011269
41.265636444092 -73.178344726563 -41.510810852051 2.119909524918
34.161090850830 -71.656059265137 -42.847995758057 2.554872274399
-39.472373962402 -69.476768493652 -52.571834564209 2.572063207626
-31.432786941528 -69.253952026367 -49.500755310059 1.632328867912
-89.227104187012 -69.350906372070 -57.210289001465 2.587859869003
-88.056465148926 -74.244407653809 -65.132652282715 1.895203471184
79.021934509277 -74.299438476563 -68.679222106934 2.344187498093
82.586418151855 -74.763282775879 -71.448181152344 0.824702322483
-17.582263946533 -73.193222045898 -73.284545898438 1.652733683586
-88.138290405273 -75.198120117188 -71.973022460938 1.941350221634
-25.734817504883 -73.336929321289 -78.302413940430 1.723969221115
-50.572952270508 -74.966285705566 -87.706085205078 2.451147079468
63.990627288818 -71.236892700195 -85.598617553711 2.004308938980
53.620059967041 -72.178436279297 -91.768524169922 0.357603311539
97.688812255859 -73.667953491211 -89.587768554688 0.759223520756
71.196205139160 -74.315193176270 -95.583015441895 2.257218599319
-65.574378967285 -76.249832153320 -93.940208435059 1.686040639877
-66.298309326172 -73.027114868164 -96.894920349121 0.714602887630
44.161476135254 -74.785850524902 -96.999664306641 2.010769605637
74.635375976563 -75.801673889160 -101.727050781250 3.257201910019
51.594692230225 -76.846595764160 -103.218475341797 1.548836469650
100.236732482910 -74.886337280273 -97.614921569824 3.201471090317
-94.208152770996 -72.685012817383 -107.723121643066 2.889995574951
37.495468139648 -76.879646301270 -111.563865661621 1.930886387825
106.061523437500 -72.806762695313 -107.191062927246 1.648455739021
46.166202545166 -71.885108947754 -110.580482482910 2.961794376373
102.601951599121 -72.556053161621 -107.017578125000 1.379351496696
-86.217224121094 -73.230155944824 -113.987358093262 1.171308279037
35.447849273682 -73.873779296875 -112.651550292969 1.929986476898
106.800712585449 -74.967132568359 -117.176895141602 3.123839855194
102.886795043945 -72.885444641113 -115.201179504395 3.165534973145
107.028305053711 -75.087249755859 -114.464706420898 1.746981978416
108.990974426270 -75.788871765137 -115.083808898926 2.468385219574
35.445495605469 -73.315574645996 -113.849967956543 0.804121971130
31.482965469360 -76.156455993652 -119.301139831543 2.355455636978
43.109947204590 -73.265136718750 -115.145828247070 2.049634218216
108.928337097168 -73.871734619141 -122.934867858887 2.299889326096
38.758220672607 -72.618225097656 -125.180702209473 2.236530542374
108.464279174805 -74.747924804688 -131.196166992188 2.260182142258
112.717117309570 -72.783691406250 -129.476318359375 1.495489001274
32.466087341309 -72.884803771973 -122.585037231445 1.897807478905
-77.873367309570 -73.275840759277 -128.321594238281 2.890520572662
115.858650207520 -75.678062438965 -134.864624023438 0.772458732128
-58.458751678467 -75.497764587402 -138.883071899414 1.724739313126
34.923942565918 -74.597061157227 -135.898620605469 2.521592140198
-73.895774841309 -73.331237792969 -139.293975830078 1.111971735954
28.564607620239 -72.741035461426 -134.626647949219 1.475811243057
-76.445304870605 -73.800468444824 -142.094543457031 2.032176733017
-45.044757843018 -75.584205627441 -144.771606445313 1.225735902786
-72.820594787598 -73.423667907715 -137.344604492188 0.824640393257
110.538970947266 -71.426101684570 -137.823196411133 1.529746294022
113.909240722656 -74.090362548828 -140.948806762695 0.801434457302
118.639656066895 -74.938934326172 -144.533203125000 2.526734352112
-72.897460937500 -72.457221984863 -145.177551269531 1.609642028809
8.904015541077 -71.756568908691 -150.860092163086 1.712332725525
-56.228004455566 -72.838760375977 -153.122238159180 3.160691976547
-48.792488098145 -74.555068969727 -155.499099731445 1.381264328957
108.004165649414 -72.797851562500 -158.758590698242 1.200726628304
-42.010078430176 -74.471099853516 -151.531997680664 1.150447964668
11.594907760620 -72.622077941895 -158.444671630859 0.484714537859
21.680944442749 -73.078796386719 -158.862319946289 1.042003512383
113.863677978516 -75.115837097168 -163.368865966797 0.881226778030
29.633678436279 -72.225509643555 -162.159057617188 1.567902565002
-2.249872922897 -75.487541198730 -161.849288940430 1.767888188362
30.947618484497 -73.759887695313 -162.353240966797 1.544974327087
-68.995552062988 -69.638053894043 -160.038238525391 1.962404489517
-64.224571228027 -71.792243957520 -159.622146606445 0.783433735371
-67.763687133789 -72.871788024902 -164.428497314453 0.858208179474
113.475746154785 -72.699134826660 -160.663162231445 2.663084030151
-45.555507659912 -71.845947265625 -163.696838378906 1.260692954063
18.458328247070 -75.707420349121 -168.247055053711 1.075568437576
-64.148307800293 -74.497123718262 -171.693878173828 2.020272493362
-60.836425781250 -74.315055847168 -172.791076660156 1.825284123421
-40.806838989258 -73.695343017578 -160.993927001953 3.347705125809
-34.200881958008 -70.389305114746 -169.396606445313 2.373977422714
113.113800048828 -72.454505920410 -171.819564819336 1.553120374680
-36.390819549561 -73.405647277832 -176.128128051758 2.137455463409
15.530666351318 -73.754577636719 -173.030853271484 1.729739785194
108.931205749512 -76.631439208984 -184.309738159180 1.126929283142
-150.400100708008 -74.325508117676 -177.384841918945 2.141134500504
-144.872451782227 -73.623313903809 -176.410308837891 0.371199190617
-152.036956787109 -71.893814086914 -178.441864013672 1.647426009178
-143.841918945313 -70.740989685059 -181.562210083008 2.060606479645
-29.565193176270 -72.392402648926 -184.958129882813 1.791086673737
-24.011529922485 -72.523597717285 -185.962814331055 1.840208530426
22.403314590454 -72.016387939453 -189.817092895508 1.286989688873
-142.631057739258 -72.275230407715 -188.002899169922 1.249425649643
-145.917358398438 -71.914604187012 -187.455871582031 0.912601292133
-21.400032043457 -68.675399780273 -188.093978881836 0.952687799931
13.432415962219 -75.920806884766 -182.540740966797 1.953839063644
-145.639251708984 -73.166275024414 -193.385147094727 1.020612359047
-33.501953125000 -76.009696960449 -184.672256469727 0.550407946110
100.642990112305 -74.877143859863 -188.461273193359 1.281509518623
107.230766296387 -73.715850830078 -191.107986450195 1.069563150406
21.720811843872 -72.575790405273 -192.126220703125 1.017481684685
-19.595153808594 -75.750381469727 -189.453887939453 0.999456405640
-26.199302673340 -75.545997619629 -196.136550903320 1.978026866913
-151.828216552734 -70.706314086914 -197.240325927734 2.308580636978
-133.359237670898 -72.472167968750 -198.551589965820 0.819134831429
-124.183387756348 -71.787559509277 -196.124603271484 0.599391579628
-123.313316345215 -72.780342102051 -198.688323974609 1.421562433243
-21.763269424438 -71.472572326660 -197.235076904297 1.660138487816
10.462226867676 -74.597068786621 -193.212509155273 1.375019431114
93.984336853027 -71.823440551758 -200.336853027344 2.039079666138
-147.751266479492 -72.144889831543 -197.665435791016 0.895343005657
-146.648635864258 -71.010154724121 -200.989715576172 0.409779995680
-148.705642700195 -69.402343750000 -199.598937988281 2.031402349472
-155.603271484375 -70.119346618652 -200.899215698242 2.006522893906
-27.490808486938 -73.375549316406 -200.424362182617 2.368158578873
-14.523852348328 -77.007507324219 -195.686553955078 1.326507329941
-147.382003784180 -69.604866027832 -200.076904296875 2.125439882278
-17.346572875977 -74.198348999023 -198.315597534180 2.057034730911
-163.169662475586 -72.359069824219 -200.082595825195 1.928965330124
-133.247329711914 -72.699424743652 -200.488662719727 0.522363960743
14.665420532227 -71.591659545898 -208.355758666992 2.001014232635
-163.652450561523 -71.503952026367 -204.467575073242 0.931615114212
-145.253799438477 -73.090103149414 -205.839569091797 1.009164094925
10.378371238708 -73.941093444824 -200.844757080078 1.846746087074
-154.765563964844 -73.064819335938 -205.438186645508 2.160193920135
-23.566516876221 -74.141777038574 -201.101303100586 1.304693937302
102.353073120117 -73.637153625488 -199.649642944336 2.834799766541
-155.383300781250 -72.134902954102 -216.129272460938 0.321989119053
-164.355895996094 -72.631805419922 -212.241027832031 1.489022493362
-79.265708923340 -71.598320007324 -212.754806518555 1.656464815140
89.324737548828 -73.405448913574 -210.149276733398 1.559104561806
-4.049930095673 -72.396308898926 -215.267150878906 0.965602040291
-152.391601562500 -72.054977416992 -213.243850708008 1.839959740639
-88.966499328613 -69.989990234375 -215.934204101563 1.455529093742
-7.787816047668 -73.531639099121 -211.319259643555 2.025457382202
14.759361267090 -72.658683776855 -222.765090942383 0.762461662292
-145.586410522461 -73.316787719727 -219.587005615234 1.243758916855
-3.139847040176 -74.260955810547 -220.817123413086 1.843784689903
-20.084861755371 -70.282669067383 -221.049942016602 1.499668359756
-16.660015106201 -70.428161621094 -219.248336791992 2.423597812653
87.525962829590 -74.085693359375 -215.404663085938 2.224844217300
-22.338941574097 -71.090606689453 -217.322021484375 1.166505932808
-29.032232284546 -73.095169067383 -217.147384643555 1.064203262329
-106.046684265137 -72.299797058105 -223.407577514648 0.700558304787
-15.529987335205 -72.506118774414 -223.828933715820 2.140252828598
89.547065734863 -72.446189880371 -218.913116455078 1.571061730385
81.071479797363 -73.082878112793 -218.510864257813 1.148552060127
5.632327079773 -75.382530212402 -222.299301147461 1.374090075493
-11.589783668518 -73.353637695313 -226.012786865234 1.330354452133
78.044624328613 -77.257774353027 -222.463592529297 2.665431022644
-125.738090515137 -72.289802551270 -225.065658569336 1.967818498611
-23.818670272827 -73.402153015137 -222.614334106445 1.581623435020
-100.939094543457 -71.218025207520 -225.414947509766 1.750970363617
-106.233055114746 -73.493400573730 -228.099395751953 1.937145829201
-134.860900878906 -72.387054443359 -228.720642089844 1.519029021263
80.263420104980 -73.451728820801 -224.103347778320 1.490134119987
-125.243881225586 -73.032913208008 -228.418975830078 1.757519364357
3.801561117172 -73.258308410645 -229.132247924805 1.555198669434
77.594696044922 -73.236053466797 -223.857147216797 0.425910115242
-14.909222602844 -73.743408203125 -227.691223144531 1.563755035400
-11.251212120056 -73.928329467773 -230.989791870117 1.555984139442
-5.379788875580 -73.139282226563 -231.206130981445 1.568003058434
7.706754207611 -73.608139038086 -228.343704223633 1.538011670113
84.564575195313 -74.000976562500 -224.886657714844 1.250314116478
12.397327423096 -73.215705871582 -232.430694580078 1.573109984398
2.821827888489 -74.504402160645 -230.348602294922 2.131944894791
-7.936501026154 -74.205932617188 -228.870666503906 1.401819944382
-6.700294017792 -72.091232299805 -234.031097412109 0.654355108738
16.080949783325 -72.173286437988 -232.160079956055 1.711502194405
-11.457963943481 -72.046432495117 -234.814559936523 0.959198653698
72.064117431641 -73.629005432129 -237.382873535156 1.100766777992
-8.431148529053 -71.352722167969 -236.819610595703 1.300818204880
19.523824691772 -74.165756225586 -233.648895263672 1.890797853470
-164.883743286133 -71.224441528320 -243.365554809570 2.708449840546
-5.183969020844 -72.865928649902 -240.748809814453 1.481270313263
-9.903870582581 -71.992813110352 -242.044952392578 1.820582985878
-167.800430297852 -71.050804138184 -255.120681762695 2.774828433990
-10.339131355286 -73.715576171875 -245.139221191406 1.047333359718
17.401544570923 -73.847740173340 -245.650177001953 0.690448641777
-147.105392456055 -74.474128723145 -252.883407592773 1.397258639336
-68.440010070801 -71.632324218750 -248.786437988281 1.232767462730
-59.863784790039 -71.674499511719 -248.059692382813 1.815432310104
53.949726104736 -73.153770446777 -247.193618774414 1.507784008980
-77.393630981445 -72.883842468262 -248.106811523438 2.267840862274
16.826881408691 -73.999893188477 -248.015060424805 1.709571123123
-74.970649719238 -72.151527404785 -252.483657836914 0.842339456081
-16.190366744995 -73.610412597656 -250.182571411133 2.429087877274
-147.309127807617 -73.214912414551 -254.773284912109 2.676193952560
48.401466369629 -72.577835083008 -248.752304077148 1.246583938599
-80.376770019531 -70.602424621582 -252.781967163086 1.682752966881
-99.968704223633 -72.313568115234 -255.856704711914 1.328549146652
-97.178756713867 -75.686149597168 -255.005874633789 2.135706186295
-119.766700744629 -73.391693115234 -257.788024902344 2.272374868393
-106.714759826660 -72.192977905273 -257.866058349609 1.649301171303
-107.347076416016 -72.216239929199 -260.451934814453 0.349651455879
20.555990219116 -74.223289489746 -260.032470703125 2.221569538116
-128.155502319336 -70.654113769531 -266.429779052734 2.151438951492
-10.393440246582 -74.747062683105 -277.117126464844 2.188280582428
-146.124206542969 -73.459007263184 -283.099090576172 0.911788940430
-168.913665771484 -71.895446777344 -284.371002197266 1.345876932144
-126.010955810547 -72.897224426270 -287.704803466797 2.086359977722
-114.977432250977 -72.372207641602 -285.490875244141 1.800916552544
-76.915985107422 -69.611816406250 -288.173767089844 1.333174347878
-56.709217071533 -69.995567321777 -288.460052490234 1.426018357277
-43.710464477539 -72.269332885742 -287.163818359375 1.086268305779
-14.454367637634 -72.277198791504 -288.812744140625 0.841526567936
-12.965205192566 -71.701698303223 -289.015045166016 0.749029636383
-36.871253967285 -72.529144287109 -289.753936767578 1.240519881248
-34.442707061768 -71.983482360840 -288.905303955078 2.852951288223
-19.195192337036 -71.126098632813 -290.837951660156 2.178375482559
-70.825729370117 -73.017005920410 -292.187408447266 2.357581377029
-54.246883392334 -71.271331787109 -292.692504882813 3.115043163300
-14.789443969727 -70.500198364258 -291.438110351563 1.051127910614
-14.112815856934 -72.869377136230 -291.501159667969 1.105557560921
-4.374053955078 -71.911216735840 -291.430572509766 1.203837990761
2.602895975113 -70.957420349121 -293.031219482422 1.215257763863
-89.005241394043 -72.223571777344 -290.314971923828 1.444736957550
-144.030410766602 -70.699897766113 -292.144409179688 1.361585855484
-117.784255981445 -73.043273925781 -294.657318115234 2.707765340805
-153.913192749023 -74.607688903809 -300.028594970703 1.160049200058
-154.873733520508 -72.421852111816 -300.465606689453 0.992799162865
-145.097320556641 -72.850532531738 -302.034942626953 2.357468128204
44.963298797607 -73.858856201172 -21.131511688232 2.538819313049
17.794607162476 -72.663055419922 -23.973972320557 3.052745342255
48.053405761719 -73.710098266602 -26.455186843872 2.435093402863
46.554595947266 -74.425384521484 -33.647579193115 3.229777097702
85.431762695313 -71.435165405273 -67.275833129883 1.728756070137
94.807891845703 -72.671501159668 -73.543861389160 1.240147829056
98.424316406250 -71.657699584961 -80.270637512207 2.102557420731
96.390106201172 -73.463699340820 -84.074424743652 1.618955850601
54.447109222412 -73.346862792969 -87.887901306152 1.633378386497
48.244205474854 -74.059669494629 -93.141929626465 1.744448781013
61.299449920654 -71.436752319336 -91.221725463867 1.308720946312
-65.718322753906 -68.691665649414 -92.654197692871 1.911251068115
69.196739196777 -74.272346496582 -89.168365478516 1.770276427269
101.516998291016 -71.934532165527 -95.495117187500 2.507025003433
73.389503479004 -75.382675170898 -99.544746398926 2.843580961227
94.252258300781 -71.630332946777 -99.164009094238 2.137912750244
-81.923034667969 -73.206871032715 -101.690704345703 2.043858528137
43.718257904053 -73.236953735352 -102.635101318359 1.047044634819
-86.379241943359 -73.662147521973 -107.805114746094 3.523731708527
49.409416198730 -74.467872619629 -111.632255554199 1.532398223877
39.689796447754 -71.360656738281 -105.213478088379 0.994949758053
104.059509277344 -73.879867553711 -103.903747558594 0.655437052250
38.016700744629 -71.074691772461 -108.535163879395 1.468520164490
38.934413909912 -73.031639099121 -114.914268493652 1.854652523994
41.649402618408 -70.708900451660 -114.275115966797 1.287999033928
105.386383056641 -70.803222656250 -114.988815307617 1.828902959824
-82.908103942871 -71.393577575684 -121.123367309570 0.949059188366
111.077484130859 -73.478042602539 -124.371871948242 1.709141850471
37.087795257568 -70.334304809570 -121.746559143066 1.169443607330
41.457817077637 -72.052734375000 -119.388420104980 2.540967226028
34.083557128906 -72.737976074219 -121.834579467773 0.888711571693
-57.190719604492 -72.291198730469 -131.025573730469 1.032025694847
29.589492797852 -72.017364501953 -123.410766601563 2.023335695267
-77.824371337891 -73.760978698730 -137.405624389648 1.617916107178
-58.297641754150 -71.927818298340 -134.025802612305 1.897319793701
-79.199569702148 -70.841857910156 -134.244018554688 1.145529508591
32.867893218994 -71.926101684570 -128.127975463867 1.879302859306
-58.827854156494 -70.834899902344 -133.953430175781 1.695172905922
35.565391540527 -72.189170837402 -133.594726562500 1.871873021126
-75.174674987793 -71.701683044434 -139.956893920898 0.885485112667
-59.367698669434 -74.155075073242 -139.614883422852 1.813478589058
28.127580642700 -71.889511108398 -139.345123291016 1.082302093506
109.254943847656 -75.317626953125 -144.172683715820 1.567300200462
116.131034851074 -72.429832458496 -136.642333984375 1.869535207748
31.271175384521 -71.669097900391 -139.872940063477 1.294538259506
-47.078517913818 -70.491233825684 -142.797286987305 2.446548461914
108.738037109375 -72.463264465332 -153.576354980469 2.934313774109
-74.583869934082 -71.699989318848 -146.508209228516 1.792911887169
-56.478374481201 -72.900222778320 -141.849655151367 1.526650547981
31.767810821533 -74.401290893555 -150.675689697266 1.520340442657
-74.795471191406 -72.513870239258 -146.197158813477 1.631237268448
-71.602928161621 -73.255737304688 -149.912139892578 1.706004858017
115.957130432129 -71.625442504883 -148.767333984375 1.819087982178
-65.161773681641 -72.210403442383 -152.824630737305 2.937176704407
-40.367828369141 -71.598060607910 -152.865188598633 1.471035957336
28.131641387939 -69.866027832031 -150.131698608398 1.189945816994
-76.084480285645 -71.540588378906 -149.843704223633 1.370932817459
10.103787422180 -73.841255187988 -154.560089111328 1.038331985474
31.812608718872 -70.738777160645 -155.256683349609 1.389088034630
27.944419860840 -72.387199401855 -148.966262817383 2.241198539734
9.074515342712 -75.299781799316 -155.385604858398 2.488614320755
-49.070945739746 -70.705017089844 -154.241333007813 0.792662858963
25.807147979736 -71.370567321777 -152.838088989258 2.299307584763
-46.615806579590 -72.450759887695 -149.550674438477 2.913903474808
5.926949024200 -73.281036376953 -152.788818359375 2.213903903961
20.929904937744 -72.636283874512 -149.548278808594 2.369930267334
-72.852195739746 -73.622177124023 -155.442001342773 1.457225680351
-46.090980529785 -71.201194763184 -155.012100219727 1.762934207916
-69.533851623535 -70.038871765137 -159.222869873047 2.316607952118
12.576130867004 -69.529891967773 -160.831909179688 2.083296298981
22.231437683105 -72.361557006836 -148.774993896484 0.979949116707
1.336112976074 -71.351829528809 -162.077697753906 1.679114222527
20.157598495483 -71.944183349609 -155.903961181641 1.122573018074
29.329225540161 -73.273948669434 -163.791458129883 0.435024142265
-47.882183074951 -73.940071105957 -162.614059448242 1.372497797012
-34.263385772705 -72.262428283691 -161.410995483398 0.733475804329
-39.366111755371 -71.156997680664 -161.110153198242 0.776179075241
28.094495773315 -72.550735473633 -161.807830810547 1.662313342094
-45.291526794434 -72.378196716309 -167.495681762695 1.452700734138
-42.354892730713 -71.791275024414 -162.918350219727 1.476093649864
19.749198913574 -73.303314208984 -165.242248535156 1.245614767075
-41.742607116699 -71.977195739746 -173.489669799805 1.772409439087
29.471109390259 -71.227119445801 -171.534194946289 1.763555526733
114.370536804199 -71.577407836914 -165.690994262695 1.262239813805
-33.035438537598 -71.399383544922 -172.779205322266 1.483877897263
105.777511596680 -71.137702941895 -171.563934326172 2.110862016678
-34.903766632080 -70.418830871582 -177.476791381836 1.073527812958
-38.006580352783 -72.783683776855 -180.458236694336 1.558998346329
17.335493087769 -73.921272277832 -175.016525268555 1.318732500076
103.216369628906 -71.113327026367 -180.526565551758 2.416160821915
-29.561017990112 -71.451576232910 -184.419830322266 1.118949770927
-33.463722229004 -69.104095458984 -174.440917968750 1.281657695770
-24.075925827026 -72.666809082031 -186.429718017578 1.963852405548
-148.532806396484 -73.916900634766 -188.786956787109 1.671966075897
14.089648246765 -73.398406982422 -183.128433227539 1.205386996269
105.867156982422 -71.561058044434 -190.520904541016 1.166652202606
-157.540527343750 -71.080169677734 -195.311645507813 0.993102669716
-26.926332473755 -72.219802856445 -191.718566894531 1.032552480698
-116.073799133301 -70.702857971191 -196.578887939453 1.039112687111
-133.495285034180 -71.834999084473 -198.277389526367 1.057418227196
-109.746940612793 -70.237640380859 -201.076431274414 1.904967665672
-111.780090332031 -70.089309692383 -200.846740722656 0.731548070908
-15.626321792603 -70.563270568848 -197.863525390625 1.162693858147
19.277725219727 -73.613182067871 -197.112167358398 1.710854411125
-18.511226654053 -68.117431640625 -201.563812255859 1.454373002052
-125.221847534180 -70.670761108398 -204.682601928711 1.292653799057
-23.946676254272 -70.582664489746 -206.916122436523 3.001878738403
-131.551116943359 -73.709655761719 -203.925964355469 1.444457650185
-13.213147163391 -71.017158508301 -202.584243774414 1.006791591644
-144.906661987305 -71.121910095215 -205.439514160156 0.803497076035
90.737960815430 -71.899971008301 -207.946792602539 2.007753372192
-165.779067993164 -71.338989257813 -203.805313110352 0.918796837330
-3.286329984665 -74.275131225586 -213.839462280273 1.602999687195
10.765176773071 -69.503761291504 -210.446212768555 1.762875199318
9.343545913696 -69.868721008301 -216.715087890625 2.143626928329
82.662734985352 -72.000015258789 -217.926879882813 1.177971363068
4.998888015747 -70.670150756836 -214.248718261719 2.430325984955
14.404821395874 -72.112106323242 -214.165069580078 1.216754198074
-15.892856597900 -75.500213623047 -215.365417480469 2.227745532990
-90.441627502441 -71.073066711426 -216.935394287109 1.340666413307
-99.354927062988 -72.396644592285 -217.612289428711 1.724016785622
-4.150307178497 -70.934722900391 -221.222610473633 1.317462325096
-167.814941406250 -71.492385864258 -227.256713867188 1.400130271912
12.153180122375 -70.991394042969 -221.339340209961 1.437968730927
-144.314437866211 -71.689819335938 -224.130264282227 0.601750612259
11.393410682678 -70.743568420410 -225.552520751953 0.912905752659
-134.383880615234 -71.712219238281 -224.388671875000 1.078000783920
-116.911926269531 -71.531059265137 -227.265304565430 1.839883446693
16.778264999390 -69.405029296875 -223.271682739258 2.330420255661
75.154205322266 -71.898078918457 -226.347198486328 2.376137256622
5.609745025635 -70.167457580566 -224.329711914063 2.225561141968
-113.538314819336 -72.623588562012 -227.432891845703 1.579763054848
75.302070617676 -71.879547119141 -227.664749145508 2.108659744263
79.962097167969 -73.040603637695 -230.162750244141 1.842953085899
-123.364341735840 -71.801391601563 -232.313064575195 0.306416034698
-116.775596618652 -72.754203796387 -232.593566894531 1.901515960693
-11.750687599182 -71.572181701660 -231.378234863281 1.366648316383
70.421699523926 -73.863395690918 -228.474075317383 2.158877611160
65.209495544434 -71.899353027344 -235.195114135742 0.431696385145
73.680175781250 -71.630249023438 -232.079635620117 2.212656497955
-133.861648559570 -71.920700073242 -236.845687866211 2.750922441483
70.292335510254 -74.438796997070 -234.731414794922 0.729316055775
65.568359375000 -73.444671630859 -235.669754028320 1.628209352493
-167.420989990234 -72.666137695313 -229.412353515625 1.445983052254
-0.558452010155 -74.419776916504 -240.222656250000 1.752376437187
15.916286468506 -71.839340209961 -242.362930297852 2.282619237900
-5.396259784698 -72.523818969727 -240.864105224609 1.584226846695
13.485797882080 -72.869102478027 -241.231567382813 0.667806327343
65.778663635254 -73.331588745117 -239.449111938477 1.652750611305
10.411277770996 -73.692054748535 -240.875656127930 1.763987302780
-9.400167465210 -68.625244140625 -243.127182006836 1.338081359863
-1.193946003914 -71.698997497559 -243.153411865234 1.635971307755
65.099716186523 -72.600677490234 -243.892547607422 0.883186817169
5.487708091736 -74.115837097168 -244.348587036133 1.379082798958
-9.646490097046 -72.364387512207 -242.256271362305 1.617532610893
13.651508331299 -73.105308532715 -245.746658325195 1.002042174339
-167.112060546875 -68.959724426270 -242.232513427734 1.046935558319
59.397315979004 -70.719108581543 -248.430450439453 1.444226384163
51.839881896973 -71.272827148438 -249.117904663086 0.786326825619
55.575134277344 -74.216049194336 -242.071685791016 2.074690341949
-13.335538864136 -71.862983703613 -250.078262329102 0.865944445133
55.676609039307 -74.249526977539 -246.453063964844 2.914504528046
-73.699783325195 -72.179283142090 -248.995956420898 1.340352535248
51.236289978027 -73.177398681641 -250.363723754883 1.752551198006
-90.507919311523 -73.229560852051 -253.782318115234 1.446875810623
-127.001884460449 -73.361282348633 -254.977844238281 1.717817783356
-134.318023681641 -69.208251953125 -254.243179321289 1.079891085625
46.346138000488 -71.912536621094 -254.486602783203 2.396739959717
-137.040039062500 -70.923362731934 -257.139739990234 2.487722635269
-109.236595153809 -74.832969665527 -256.002868652344 2.791017055511
-113.320816040039 -70.290794372559 -258.067443847656 1.341727614403
-83.859596252441 -72.449714660645 -254.305496215820 2.173376083374
-112.516838073730 -73.169769287109 -262.641937255859 1.991760611534
-124.706283569336 -71.134223937988 -264.399902343750 0.252683788538
-145.307723999023 -70.406311035156 -266.911956787109 0.961651861668
-14.671886444092 -72.707901000977 -261.773193359375 1.413572549820
-170.048049926758 -70.677108764648 -266.196807861328 3.819884061813
-12.647949218750 -73.900245666504 -271.997131347656 1.356599450111
-159.491012573242 -68.494842529297 -267.786041259766 2.073878288269
-153.793167114258 -69.171348571777 -275.085052490234 1.389378070831
-168.972229003906 -68.980430603027 -276.950378417969 2.877931356430
-12.915239334106 -70.255424499512 -275.888031005859 1.084563612938
-134.011627197266 -72.114067077637 -284.529022216797 1.281926870346
-159.163131713867 -69.729011535645 -287.945770263672 2.295684099197
-144.898437500000 -70.887542724609 -282.794250488281 0.962457895279
-135.862609863281 -73.938972473145 -285.568267822266 0.540075659752
-8.919831275940 -71.134162902832 -283.945587158203 1.030971050262
-125.259445190430 -74.993614196777 -284.625061035156 0.693636417389
-142.032897949219 -72.081436157227 -286.356018066406 1.201817274094
-115.909629821777 -70.716545104980 -286.619354248047 0.500687301159
-76.922775268555 -70.891418457031 -288.474639892578 1.792475819588
-62.552806854248 -71.296699523926 -286.326049804688 1.481722354889
-5.727496147156 -72.378318786621 -288.529235839844 0.809032082558
-51.996398925781 -72.096656799316 -290.167999267578 0.666029810905
-59.910709381104 -71.925193786621 -288.694152832031 2.346405506134
-69.479682922363 -70.246620178223 -291.335021972656 0.854423344135
-87.054000854492 -72.397918701172 -293.876922607422 2.548096656799
-101.054191589355 -67.808769226074 -290.754699707031 0.770191192627
-161.446746826172 -70.098838806152 -292.045104980469 1.078002929688
-160.317367553711 -71.340805053711 -291.820770263672 1.190460205078
-126.389389038086 -73.000038146973 -296.478118896484 1.960415482521
-145.484359741211 -71.864860534668 -295.876312255859 0.769865870476
-156.671066284180 -71.357711791992 -301.178680419922 1.898714184761
-147.498504638672 -71.412948608398 -315.653289794922 2.722226858139
45.443450927734 -71.170021057129 -18.810276031494 1.498358249664
18.325662612915 -75.801765441895 -26.668972015381 4.399014949799
41.415893554688 -72.664306640625 -35.257041931152 1.351721644402
-19.064062118530 -74.104820251465 -66.847358703613 1.799242019653
80.342262268066 -71.590934753418 -65.788406372070 1.816114306450
84.383255004883 -69.049819946289 -68.097282409668 2.466859340668
75.234855651855 -71.304649353027 -68.763168334961 1.454096913338
74.071304321289 -71.981658935547 -68.098602294922 2.074337959290
92.421104431152 -74.672828674316 -73.337554931641 1.110471010208
-95.882484436035 -71.695320129395 -72.158462524414 3.752367734909
68.797897338867 -73.895637512207 -76.847404479980 2.565912961960
-37.542293548584 -69.540107727051 -77.192893981934 1.731879115105
98.553115844727 -73.175979614258 -86.733261108398 0.584570050240
60.571628570557 -74.546943664551 -89.791145324707 2.487123966217
106.622512817383 -73.055084228516 -93.926170349121 2.708550453186
104.283439636230 -73.599906921387 -97.731628417969 0.982265174389
69.867813110352 -72.684562683105 -98.383621215820 1.908769726753
-78.872039794922 -73.476005554199 -99.833732604980 2.005122423172
53.790325164795 -73.725028991699 -104.393760681152 1.868954777718
105.238227844238 -72.785469055176 -105.053459167480 2.020591497421
47.880084991455 -75.680274963379 -111.592605590820 0.139889389277
81.174224853516 -72.265350341797 -103.155258178711 2.111704587936
41.560184478760 -73.992622375488 -108.087570190430 1.837976217270
105.664649963379 -71.006210327148 -101.951156616211 0.920015990734
47.044059753418 -70.953620910645 -107.717330932617 2.133543968201
109.299385070801 -73.727821350098 -111.590721130371 1.544715404510
107.570861816406 -71.947807312012 -114.424613952637 1.371798634529
-79.440292358398 -68.242660522461 -114.480171203613 2.672095060349
-81.075973510742 -71.172248840332 -117.037033081055 1.947542190552
42.711456298828 -73.018417358398 -119.857849121094 2.786621809006
113.968048095703 -70.958732604980 -117.910133361816 1.288113951683
114.028915405273 -70.392509460449 -122.886726379395 1.909929037094
-83.806808471680 -71.123138427734 -127.534233093262 1.544305682182
106.935203552246 -71.701950073242 -122.685905456543 1.847959756851
-62.320358276367 -72.359825134277 -133.401138305664 2.825938940048
-87.983337402344 -70.054153442383 -127.158561706543 1.692528963089
-75.978073120117 -69.992355346680 -128.832199096680 1.585126996040
-58.349494934082 -67.429023742676 -126.409461975098 0.685723900795
31.936809539795 -70.915420532227 -129.627075195313 1.250341176987
39.822082519531 -72.430267333984 -133.409042358398 1.223356485367
-76.354141235352 -71.521888732910 -136.939437866211 1.415237903595
27.693592071533 -70.874763488770 -131.886444091797 1.535931468010
107.320716857910 -72.915657043457 -137.942153930664 2.064664363861
-42.412277221680 -71.241935729980 -147.609786987305 1.984853863716
24.798875808716 -70.013648986816 -147.070114135742 1.662132501602
112.710174560547 -69.093254089355 -145.658477783203 2.057289123535
34.192695617676 -72.311798095703 -143.773513793945 1.898963570595
110.487350463867 -71.984840393066 -142.938156127930 1.684734582901
-54.838661193848 -72.271995544434 -148.803604125977 1.032004475594
-68.159584045410 -72.000701904297 -150.352706909180 1.506208062172
-52.846805572510 -72.673629760742 -155.304153442383 2.335545778275
-43.395458221436 -71.021301269531 -166.715362548828 1.341727018356
3.940704107285 -69.949005126953 -155.320922851563 2.370854854584
110.226890563965 -69.407928466797 -154.212921142578 1.487919569016
108.391189575195 -71.117622375488 -158.827621459961 0.913057804108
8.119207382202 -68.500503540039 -159.267532348633 2.190506458282
3.050887107849 -71.940231323242 -161.923660278320 1.046686172485
14.861136436462 -71.120498657227 -158.191772460938 1.266293406487
22.623071670532 -70.616073608398 -153.307373046875 1.397545337677
112.028472900391 -72.798706054688 -165.652740478516 1.919971942902
106.437606811523 -73.262550354004 -169.676391601563 1.228122949600
24.159086227417 -70.117912292480 -172.416076660156 1.272660255432
25.886257171631 -70.666465759277 -162.839263916016 1.514383316040
113.425262451172 -71.348335266113 -161.727661132813 2.109228849411
-29.810934066772 -70.280166625977 -174.450195312500 1.488849282265
110.032783508301 -70.739852905273 -169.143692016602 1.590957045555
17.646610260010 -69.981178283691 -174.476852416992 1.632999181747
19.121671676636 -72.134056091309 -165.469024658203 1.556159257889
108.461555480957 -70.853759765625 -174.934326171875 1.445412278175
24.092288970947 -71.203071594238 -170.790710449219 2.132068634033
109.374877929688 -70.936637878418 -181.194335937500 1.574601411819
-39.376766204834 -69.704849243164 -175.943511962891 3.327233314514
26.377668380737 -69.451408386230 -173.246292114258 1.369882941246
106.751930236816 -71.116371154785 -183.512451171875 2.407106399536
23.398050308228 -70.684585571289 -179.649948120117 0.718545496464
-153.616455078125 -68.817237854004 -185.591735839844 2.143027544022
-30.711332321167 -70.200668334961 -188.565338134766 1.251251459122
24.589317321777 -71.830528259277 -185.024475097656 2.187675952911
-112.271804809570 -70.472335815430 -193.180725097656 1.120317697525
-111.244064331055 -70.909683227539 -189.911651611328 2.614979743958
21.118814468384 -69.853843688965 -190.995651245117 1.645959019661
12.149580955505 -72.025878906250 -186.194305419922 1.172882080078
-27.179721832275 -72.118545532227 -190.881851196289 1.523507833481
-30.471796035767 -71.775520324707 -188.529373168945 0.609814643860
-26.696477890015 -71.644798278809 -185.850906372070 1.684012770653
18.361513137817 -72.265403747559 -179.495758056641 2.761013507843
-152.428054809570 -70.257225036621 -194.273345947266 1.940063953400
-145.349716186523 -71.502761840820 -196.963119506836 1.605459570885
-141.818435668945 -70.529640197754 -195.984710693359 1.181607961655
-21.079059600830 -69.280288696289 -191.729187011719 1.324140191078
13.019924163818 -70.919082641602 -199.310974121094 1.609318971634
98.695785522461 -72.300598144531 -195.110366821289 2.036521673203
-115.299499511719 -70.449363708496 -200.768493652344 2.171092987061
19.152828216553 -70.540039062500 -200.513427734375 1.584987998009
-17.907739639282 -70.310844421387 -196.503341674805 0.355430662632
-19.167308807373 -69.667602539063 -198.067810058594 0.747642815113
98.144523620605 -71.199897766113 -199.482360839844 1.794970750809
8.231352806091 -71.886024475098 -200.377929687500 1.442159652710
-24.165872573853 -69.920074462891 -195.816146850586 1.537560820580
-122.821876525879 -72.013236999512 -202.364807128906 1.040388226509
-134.581848144531 -69.468368530273 -202.750137329102 1.325116038322
-112.774963378906 -69.094261169434 -205.490417480469 2.544567584991
-144.155380249023 -70.799270629883 -204.694442749023 0.537809133530
18.945817947388 -71.474502563477 -197.632965087891 1.835703134537
95.123992919922 -72.229042053223 -205.939788818359 2.564327001572
-167.322967529297 -68.939941406250 -205.425842285156 2.192350387573
99.761459350586 -71.986671447754 -203.210479736328 1.724933862686
-18.405672073364 -71.007667541504 -208.859222412109 1.722453117371
92.671493530273 -74.383491516113 -213.195785522461 2.181449651718
88.429237365723 -70.074310302734 -216.053604125977 1.710992455482
12.671507835388 -70.334434509277 -211.003372192383 1.275260448456
16.409559249878 -71.675437927246 -210.708419799805 2.419615983963
10.587737083435 -70.851051330566 -209.313110351563 1.537759423256
-10.800221443176 -70.865173339844 -220.104721069336 0.778391540051
-97.202606201172 -69.893623352051 -218.174667358398 0.866514205933
-7.990600109100 -72.018806457520 -216.527618408203 2.368714332581
90.585380554199 -70.538993835449 -214.300628662109 2.098457813263
-92.748863220215 -71.620414733887 -220.944259643555 2.127524137497
-103.313095092773 -71.815261840820 -221.008102416992 1.788322091103
