66.561668395996 -71.845542907715 -232.337570190430 2.151114702225
-166.487106323242 -73.083274841309 -229.088394165039 1.119063258171
0.510990023613 -73.510437011719 -237.720230102539 1.231881737709
16.988533020020 -70.819587707520 -239.696716308594 1.012953996658
-4.334767818451 -71.671104431152 -238.459152221680 0.873780488968
14.552804946899 -71.850326538086 -238.577575683594 1.570678114891
66.820106506348 -71.800895690918 -236.115371704102 1.553305149078
11.481369018555 -72.694610595703 -238.245819091797 2.480564117432
-8.343476295471 -67.852127075195 -240.846069335938 1.808607578278
-0.110541000962 -70.850601196289 -240.709350585938 2.194175481796
66.192550659180 -71.159057617188 -240.580078125000 0.858072698116
6.607371807098 -73.228004455566 -241.773147583008 1.243329286575
-8.567778587341 -71.576515197754 -239.908523559570 1.239025473595
14.779343605042 -72.168991088867 -243.084945678711 1.528480768204
-166.044448852539 -69.613426208496 -241.970703125000 1.379592418671
60.533126831055 -69.414535522461 -245.225265502930 1.497335195541
52.990505218506 -70.050109863281 -245.999237060547 0.164394900203
56.659851074219 -72.827369689941 -238.851745605469 3.453063488007
-12.159070014954 -71.254562377930 -247.785263061523 1.023258566856
56.818618774414 -72.941452026367 -243.230056762695 0.985692322254
-72.527084350586 -72.103164672852 -247.472503662109 1.601420760155
52.420173645020 -71.982978820801 -247.216796875000 1.000285863876
-89.261505126953 -73.396133422852 -252.453811645508 1.611499905586
-125.734207153320 -73.884109497070 -254.115219116211 1.106191396713
-133.096008300781 -69.785263061523 -253.552459716797 1.349426031113
47.572998046875 -70.839874267578 -251.425109863281 1.577312350273
-135.764724731445 -71.578826904297 -256.451141357422 1.085290670395
-107.944671630859 -75.211944580078 -254.884262084961 3.592087984085
-112.041999816895 -70.746559143066 -257.085845947266 1.456480383873
-82.614151000977 -72.565345764160 -252.906082153320 2.269529342651
-111.152954101563 -73.702690124512 -261.594909667969 1.784656763077
-123.336158752441 -71.811866760254 -263.547058105469 1.659584641457
-143.908828735352 -71.319427490234 -266.336669921875 1.772291302681
-13.335563659668 -72.329177856445 -259.478515625000 3.588008403778
-168.652984619141 -71.803306579590 -265.934326171875 3.318317890167
-11.168233871460 -73.693016052246 -269.651489257813 2.341977596283
-158.096038818359 -69.554458618164 -267.428466796875 1.695585370064
-152.297897338867 -70.314506530762 -274.639770507813 1.106583833694
-167.452514648438 -70.297279357910 -276.703094482422 1.707419157028
-11.417348861694 -70.123840332031 -273.613098144531 1.179219722748
-132.369720458984 -73.251289367676 -283.772125244141 0.425348013639
-157.494903564453 -71.160552978516 -287.555664062500 0.785604417324
-143.288681030273 -72.092391967773 -282.200592041016 2.122689962387
-134.190689086914 -75.112083435059 -284.800720214844 1.256355285645
-7.309772014618 -71.115776062012 -281.600799560547 2.150082349777
-123.591712951660 -76.051895141602 -283.701843261719 2.655446052551
-140.366516113281 -73.326087951660 -285.702270507813 1.154108166695
-114.255226135254 -71.727279663086 -285.655639648438 1.415107846260
-75.247520446777 -71.579803466797 -287.006530761719 0.772996127605
-60.903671264648 -71.813484191895 -284.666351318359 1.964033246040
-4.047111034393 -72.415748596191 -286.118957519531 1.933372855186
-50.291458129883 -72.588142395020 -288.356781005859 1.889905571938
-58.225490570068 -72.461730957031 -286.988128662109 1.655500054359
-67.773872375488 -70.920249938965 -289.782623291016 1.474228858948
-85.293769836426 -73.279251098633 -292.509307861328 2.048243999481
-99.373741149902 -68.761123657227 -289.653625488281 0.971028447151
-159.721603393555 -71.627494812012 -291.676361083984 1.681666135788
-158.584213256836 -72.854675292969 -291.414306640625 2.546323299408
-124.585067749023 -74.289688110352 -295.603668212891 1.940176367760
-143.695602416992 -73.318328857422 -295.268524169922 1.271199464798
-154.816467285156 -73.012367248535 -300.722656250000 0.903005659580
-145.456222534180 -73.253013610840 -315.074707031250 2.679967403412
43.597526550293 -65.719665527344 -15.835053443909 1.926213502884
16.626625061035 -70.744880676270 -23.953226089478 3.689250707626
39.797767639160 -67.556579589844 -32.301315307617 3.163339614868
-20.250839233398 -70.138275146484 -64.633186340332 4.027251720428
79.106971740723 -66.695358276367 -62.345016479492 1.746646761894
83.154853820801 -64.160774230957 -64.648994445801 3.153180837631
74.036346435547 -66.511245727539 -65.389968872070 1.257688045502
72.870330810547 -67.186386108398 -64.727836608887 0.717248082161
91.309997558594 -69.806526184082 -69.679389953613 2.208567380905
-97.012100219727 -68.531257629395 -70.974540710449 2.486544847488
67.728462219238 -69.311050415039 -73.506256103516 0.986610472202
-38.632854461670 -65.936218261719 -75.298835754395 3.390059709549
97.602195739746 -68.503173828125 -83.020927429199 3.803804874420
59.677421569824 -70.278404235840 -86.540100097656 1.824296712875
105.763092041016 -68.442314147949 -90.110618591309 3.099846124649
103.478675842285 -69.079254150391 -93.934936523438 1.626843094826
69.067642211914 -68.491249084473 -95.045860290527 1.459994196892
-79.627830505371 -70.670921325684 -98.390876770020 2.884521722794
53.079624176025 -69.790496826172 -101.241432189941 1.443890929222
104.521347045898 -68.392517089844 -101.257865905762 1.844700217247
47.281200408936 -71.933395385742 -108.477699279785 1.657793402672
80.430999755859 -68.057441711426 -99.678916931152 4.796597003937
40.901443481445 -70.238716125488 -105.086334228516 1.371389985085
104.891502380371 -66.551994323730 -98.184211730957 0.951323270798
46.352737426758 -67.143287658691 -104.702682495117 0.963909804821
108.675453186035 -69.419158935547 -107.723640441895 0.718188047409
106.968154907227 -67.708084106445 -110.612335205078 1.400117635727
-80.052085876465 -65.716476440430 -113.138847351074 1.056869983673
-81.628189086914 -68.708000183105 -115.661193847656 2.424420833588
42.197029113770 -69.473243713379 -116.857032775879 1.147920250893
113.401077270508 -66.725540161133 -114.033332824707 3.095412969589
113.521644592285 -66.251502990723 -119.018455505371 3.035515785217
-84.222549438477 -68.879249572754 -126.191673278809 2.040799617767
106.437866210938 -67.621849060059 -118.884269714355 2.364927768707
-62.651412963867 -70.028198242188 -131.757965087891 1.546568632126
-88.412979125977 -67.841735839844 -125.889747619629 1.502865672112
-76.387977600098 -67.701210021973 -127.409942626953 1.245406389236
-58.815952301025 -64.931991577148 -124.809455871582 2.241498231888
31.532079696655 -67.651130676270 -126.801490783691 2.769335746765
39.479080200195 -69.163864135742 -130.452850341797 2.043511629105
-76.644889831543 -69.384742736816 -135.491271972656 0.825131416321
27.318422317505 -67.691368103027 -129.115539550781 4.458395481110
107.032638549805 -69.115699768066 -134.108901977539 2.958853483200
-42.570903778076 -68.992767333984 -145.728240966797 1.364870548248
24.613939285278 -67.139511108398 -144.348602294922 1.390832543373
112.487762451172 -65.388389587402 -141.825607299805 3.737010955811
33.984184265137 -69.289833068848 -140.889160156250 1.213306069374
110.255584716797 -68.249076843262 -139.080383300781 2.304769277573
-54.971035003662 -70.158554077148 -147.062042236328 1.918653011322
-68.272567749023 -70.038078308105 -148.786880493164 1.672484397888
-52.891269683838 -70.662857055664 -153.527816772461 0.820687890053
-43.307353973389 -69.136741638184 -164.845657348633 2.841856002808
3.865127086639 -67.419357299805 -152.866348266602 4.731468677521
110.118888854980 -65.884941101074 -150.403854370117 5.085469722748
108.358688354492 -67.696945190430 -155.008911132813 3.639431238174
8.081551551819 -66.006362915039 -156.785400390625 2.472839355469
3.079071998596 -69.541175842285 -159.441513061523 2.462668418884
14.831995964050 -68.544067382813 -155.574264526367 1.689199209213
22.524923324585 -67.877807617188 -150.600906372070 2.078912258148
112.099296569824 -69.471397399902 -161.754074096680 1.263161778450
106.565612792969 -70.061195373535 -165.839797973633 2.533766984940
24.304922103882 -67.721321105957 -169.694274902344 1.827927112579
25.912168502808 -68.075714111328 -160.087478637695 1.436787962914
113.431922912598 -67.935501098633 -157.839233398438 2.190469264984
-29.630489349365 -68.415382385254 -172.417922973633 2.025352001190
110.130928039551 -67.496223449707 -165.308319091797 2.751778841019
17.818849563599 -67.682579040527 -171.840728759766 1.793462038040
19.195716857910 -69.653846740723 -162.775955200195 2.469362735748
108.636253356934 -67.732254028320 -171.115493774414 2.381367444992
24.226657867432 -68.776611328125 -168.049865722656 1.719234347343
109.631645202637 -67.923255920410 -177.360610961914 2.792195558548
-39.180831909180 -67.955535888672 -174.044464111328 3.322746515274
26.528091430664 -67.050102233887 -170.508270263672 1.666922450066
107.040779113770 -68.170104980469 -179.708435058594 2.537895917892
23.643148422241 -68.429466247559 -176.925445556641 2.175924777985
-153.288726806641 -68.293312072754 -185.173873901367 2.070707798004
-30.347837448120 -68.606842041016 -186.542465209961 1.140604853630
24.914403915405 -69.664276123047 -182.261840820313 1.328813672066
-111.835716247559 -69.710861206055 -192.198959350586 0.449695169926
-110.846740722656 -70.077865600586 -188.909347534180 1.645138859749
21.504405975342 -67.830917358398 -188.313049316406 1.677881956100
12.493173599243 -69.995216369629 -183.587448120117 2.343203783035
-26.769435882568 -70.535087585449 -188.777114868164 0.621245741844
-30.094764709473 -70.178489685059 -186.473953247070 0.688788712025
-26.355928421021 -69.963394165039 -183.750137329102 1.274466514587
18.619318008423 -70.053176879883 -176.806381225586 0.472676157951
-151.974685668945 -69.883682250977 -193.811019897461 1.491790413857
-144.851135253906 -71.114219665527 -196.385879516602 2.327323913574
-141.341690063477 -70.090782165527 -195.380584716797 1.460933685303
-20.683797836304 -67.657371520996 -189.599044799805 1.613440752029
13.524200439453 -69.124809265137 -196.710281372070 1.846445083618
99.147087097168 -69.643661499023 -191.384643554688 2.107756853104
-114.764518737793 -69.856826782227 -199.824081420898 2.111924648285
19.668609619141 -68.712097167969 -197.840774536133 1.173374772072
-17.441574096680 -68.747535705566 -194.311935424805 1.568980097771
-18.686365127563 -68.145072937012 -195.904235839844 1.228102326393
98.642967224121 -68.629608154297 -195.783203125000 2.302968025208
8.758722305298 -70.155235290527 -197.820343017578 1.399981498718
-23.711353302002 -68.401336669922 -193.712615966797 1.920584559441
-122.251258850098 -71.518928527832 -201.487319946289 0.680359244347
-134.027435302734 -69.089408874512 -202.071228027344 1.619233727455
-112.190940856934 -68.566787719727 -204.537750244141 2.186609983444
-143.562622070313 -70.543838500977 -204.113052368164 1.312482357025
19.432476043701 -69.594642639160 -194.946197509766 0.815078735352
95.716003417969 -69.806358337402 -202.258483886719 0.850665926933
-166.734390258789 -68.910575866699 -205.176589965820 1.800999164581
100.315216064453 -69.470794677734 -199.474868774414 0.954838156700
-17.772478103638 -69.678718566895 -206.657974243164 0.760452032089
93.377403259277 -72.117828369141 -209.503753662109 1.059182524681
89.134452819824 -67.901588439941 -212.496032714844 2.056576490402
13.322742462158 -68.761077880859 -208.415084838867 1.914142727852
17.068441390991 -70.062095642090 -208.047103881836 1.065901756287
11.221841812134 -69.265197753906 -206.742340087891 2.052121400833
-10.022931098938 -69.675926208496 -217.805572509766 1.379573464394
-96.448356628418 -69.459503173828 -217.003784179688 1.533740043640
-7.249917030334 -70.737022399902 -214.171707153320 1.424958705902
91.271667480469 -68.313812255859 -210.707107543945 2.265686750412
-91.943748474121 -71.196708679199 -219.683135986328 0.914334893227
-102.504104614258 -71.489395141602 -219.878967285156 1.696051239967
-92.750427246094 -71.137954711914 -219.418487548828 1.259966611862
87.804328918457 -70.430870056152 -217.824890136719 2.585294961929
-134.161087036133 -71.288414001465 -225.895370483398 0.243643447757
-133.561126708984 -66.880020141602 -227.672958374023 1.665891408920
-117.756782531738 -69.622383117676 -225.850387573242 1.327823400497
-112.482292175293 -68.447532653809 -225.575424194336 0.284685820341
-133.324661254883 -69.686508178711 -224.280380249023 1.037699580193
-107.999259948730 -74.322448730469 -226.296310424805 1.795271039009
-113.600578308105 -69.692848205566 -227.654174804688 1.511791467667
-8.281798362732 -69.047317504883 -223.279983520508 2.275019407272
-18.147241592407 -70.870590209961 -222.574935913086 1.614254713058
-0.776502013206 -70.148994445801 -229.976394653320 2.401354551315
-9.510224342346 -68.729766845703 -226.133193969727 1.258485555649
15.558482170105 -70.650489807129 -230.021652221680 2.030549526215
-16.960182189941 -70.304229736328 -226.308914184570 1.017587065697
-164.464279174805 -70.116386413574 -225.052978515625 2.340780496597
-1.786226034164 -68.645133972168 -229.954742431641 2.115999698639
81.437850952148 -69.681518554688 -225.882858276367 1.813672304153
9.161085128784 -69.685470581055 -233.035461425781 1.490240097046
-7.648702144623 -69.226188659668 -229.808990478516 1.889370203018
-155.503799438477 -68.157653808594 -236.337295532227 1.791303396225
-139.380874633789 -71.081130981445 -233.757110595703 1.808877229691
67.201683044434 -67.343894958496 -232.263061523438 2.905602693558
-6.053491115570 -70.236450195313 -232.910507202148 0.781514763832
5.104073047638 -69.954872131348 -231.827438354492 1.988625526428
71.149955749512 -69.509559631348 -233.251953125000 1.458302736282
77.625717163086 -71.005485534668 -231.424133300781 1.694718003273
69.213478088379 -71.399505615234 -235.175125122070 1.370184302330
-1.291540980339 -69.191024780273 -234.685333251953 1.356721520424
56.695583343506 -69.906517028809 -236.419815063477 4.380363941193
-17.031108856201 -70.213867187500 -237.055908203125 2.323849678040
-15.815125465393 -69.531066894531 -239.104888916016 1.525201201439
9.485009193420 -70.260833740234 -237.928344726563 1.527480244637
66.664993286133 -70.128440856934 -238.929611206055 0.854327499866
61.672992706299 -69.860054016113 -236.279403686523 1.104003429413
52.540924072266 -68.258483886719 -244.040176391602 1.277153372765
62.158184051514 -71.579658508301 -240.447753906250 1.137181520462
-15.701606750488 -69.393211364746 -247.431030273438 1.836407184601
-82.843254089355 -69.384681701660 -248.533493041992 2.994557619095
-76.324737548828 -68.408248901367 -251.606964111328 2.727484941483
44.218132019043 -70.374313354492 -246.942642211914 2.664865970612
-143.496505737305 -69.119407653809 -251.209762573242 1.882164478302
39.127792358398 -70.842536926270 -253.625289916992 2.123370170593
-88.537818908691 -70.754005432129 -251.352340698242 1.647838950157
-153.623184204102 -70.694190979004 -256.443634033203 1.788395285606
-141.371841430664 -70.208656311035 -255.795486450195 0.998034060001
48.888393402100 -71.139167785645 -249.477874755859 1.089595198631
-124.542282104492 -68.576896667480 -255.115295410156 0.577144443989
-115.596977233887 -69.742340087891 -256.348846435547 1.079786419868
-93.636611938477 -69.447967529297 -255.865081787109 1.724577069283
-14.984089851379 -72.534133911133 -252.576446533203 1.059651374817
32.506546020508 -70.555473327637 -256.569061279297 1.095964670181
24.391342163086 -71.196281433105 -258.338623046875 1.953917980194
-155.815444946289 -70.428077697754 -258.440032958984 0.519212126732
-113.547157287598 -71.951950073242 -262.915435791016 1.286902070045
-12.979069709778 -70.515678405762 -258.799163818359 2.249867916107
-133.479904174805 -70.757568359375 -265.231689453125 1.093060851097
-12.061809539795 -69.422706604004 -269.420410156250 1.652266860008
-164.238220214844 -70.613410949707 -276.924255371094 2.481802940369
-8.405607223511 -69.662055969238 -277.530426025391 1.779313087463
-161.440841674805 -70.118309020996 -289.686065673828 1.365194559097
-159.603302001953 -70.337104797363 -278.011230468750 0.744449436665
-144.659423828125 -70.336120605469 -285.848571777344 1.586137652397
-167.208862304688 -71.283050537109 -285.146850585938 0.862323164940
16.750162124634 -68.930534362793 -284.952178955078 1.180571436882
-102.708335876465 -72.892311096191 -286.342590332031 0.951990067959
-86.017852783203 -70.319206237793 -285.871032714844 1.240843653679
-166.632705688477 -70.476486206055 -285.736206054688 1.580743551254
-89.060745239258 -70.982528686523 -287.899139404297 2.387249231339
-151.468109130859 -72.816780090332 -288.615783691406 2.389979124069
-72.648826599121 -71.244262695313 -289.031799316406 2.523739099503
-66.655540466309 -70.932342529297 -288.313049316406 2.009585857391
-80.223144531250 -70.036613464355 -289.766479492188 1.368377327919
-2.487065076828 -66.953269958496 -287.654327392578 2.507736206055
-83.279190063477 -71.588813781738 -290.804016113281 2.265099525452
-96.935203552246 -71.136802673340 -291.250610351563 2.245912551880
-113.945152282715 -71.234741210938 -292.568023681641 0.358000636101
-115.125633239746 -70.472930908203 -293.480712890625 1.622239470482
-134.736709594727 -68.094268798828 -293.692687988281 1.361686587334
-141.635559082031 -74.896400451660 -300.941314697266 2.650870561600
-142.745895385742 -74.525978088379 -311.449249267578 1.609553337097
21.112186431885 -66.654869079590 -14.515925407410 4.046016693115
27.329650878906 -64.566680908203 -17.286365509033 3.129027128220
26.041006088257 -67.734947204590 -15.831399917603 3.223819255829
41.358345031738 -67.170471191406 -21.181707382202 2.215322256088
21.857658386230 -67.627365112305 -29.299867630005 3.725747585297
-79.556274414063 -64.846359252930 -48.303291320801 2.348219871521
85.733192443848 -65.011260986328 -60.936817169189 2.079485177994
-16.592672348022 -67.342292785645 -66.491699218750 2.987624645233
98.319023132324 -65.792755126953 -68.192314147949 0.612951874733
94.288238525391 -66.607482910156 -73.248092651367 4.066496849060
68.335021972656 -69.946258544922 -76.226806640625 1.459987521172
65.607849121094 -66.699150085449 -81.619178771973 0.866278946400
-48.811317443848 -68.170684814453 -81.730361938477 3.312895774841
58.822399139404 -66.526710510254 -80.292228698730 2.994364738464
-99.280502319336 -67.793190002441 -87.526199340820 4.239443778992
-52.737396240234 -66.595497131348 -86.261291503906 1.665583372116
-57.712654113770 -72.593101501465 -87.979118347168 3.039462327957
95.599212646484 -68.356475830078 -92.715599060059 5.423700332642
55.412082672119 -68.517379760742 -94.412696838379 3.332141399384
60.818599700928 -65.342849731445 -88.413955688477 3.519392490387
-98.551437377930 -65.745956420898 -95.652488708496 1.190253376961
106.090522766113 -65.564987182617 -91.642280578613 1.835041999817
44.955787658691 -66.525306701660 -94.213195800781 2.941370010376
98.607620239258 -65.950843811035 -93.980949401855 4.481222152710
104.242134094238 -66.515045166016 -102.183189392090 1.414628982544
100.235343933105 -66.451705932617 -101.578773498535 0.982188105583
72.024497985840 -66.302925109863 -100.566818237305 2.107912540436
85.222145080566 -67.400497436523 -102.128456115723 2.514491319656
46.621917724609 -69.309661865234 -108.163185119629 2.044655561447
107.834983825684 -66.807525634766 -102.619476318359 2.103074550629
43.199645996094 -67.002250671387 -105.291061401367 1.180431127548
42.730644226074 -64.815208435059 -98.444953918457 3.872596025467
108.209281921387 -67.490760803223 -108.582954406738 0.962256550789
-80.938766479492 -66.347099304199 -109.214637756348 1.287733554840
45.409770965576 -66.495742797852 -110.884910583496 2.411775350571
34.772212982178 -67.296379089355 -110.344848632813 4.989206790924
103.608474731445 -66.403808593750 -105.153656005859 1.485929131508
40.869422912598 -65.382247924805 -109.492660522461 2.770370244980
-91.186866760254 -66.756652832031 -116.373794555664 1.874438405037
-98.438804626465 -67.020233154297 -115.620780944824 2.760717153549
106.058311462402 -65.489723205566 -115.802146911621 2.825025796890
-95.381095886230 -70.509925842285 -117.191848754883 1.295356273651
37.083415985107 -66.293334960938 -119.864387512207 2.521496057510
35.657379150391 -66.313758850098 -115.182586669922 3.574537515640
-81.684478759766 -67.648002624512 -123.628997802734 2.234294176102
28.715951919556 -65.544380187988 -130.933227539063 2.935238838196
107.570816040039 -67.768203735352 -128.288787841797 2.595271825790
-51.705944061279 -67.544937133789 -133.467926025391 1.963243365288
-90.365478515625 -68.192451477051 -129.667953491211 1.846473097801
35.187332153320 -67.931587219238 -132.619201660156 2.795082807541
-91.885734558105 -66.541358947754 -134.724563598633 0.487509489059
-91.654251098633 -68.731147766113 -136.320617675781 2.572800159454
-49.753517150879 -70.270645141602 -135.781326293945 0.631162106991
-72.581977844238 -68.108779907227 -139.127807617188 1.594774603844
-51.744777679443 -66.852813720703 -135.206115722656 1.239315629005
111.925720214844 -65.632843017578 -134.865844726563 4.008071899414
-76.461181640625 -66.119537353516 -139.776748657227 1.411951422691
33.892345428467 -67.150985717773 -128.783248901367 1.679091811180
-78.996803283691 -66.758186340332 -138.114715576172 1.678441166878
-77.599533081055 -66.574172973633 -134.385223388672 1.803138494492
-88.694030761719 -67.412597656250 -136.285415649414 1.973670244217
-54.964111328125 -68.112457275391 -149.124725341797 2.034901618958
30.182697296143 -66.134536743164 -145.009674072266 2.631462812424
28.686395645142 -66.480102539063 -148.659210205078 1.619360446930
17.226856231689 -66.113983154297 -142.260833740234 2.070196628571
112.198463439941 -68.242568969727 -143.995056152344 1.325640439987
-98.295471191406 -69.993690490723 -154.369522094727 1.315344452858
15.391126632690 -68.631027221680 -147.988555908203 1.920078754425
-72.357772827148 -68.744674682617 -148.563171386719 1.008830070496
21.978424072266 -67.322654724121 -147.802230834961 0.974589824677
-48.229450225830 -66.995643615723 -153.634811401367 2.057721138000
7.261425018311 -65.837966918945 -148.867843627930 5.056553363800
9.629708290100 -67.736228942871 -154.756622314453 1.380558133125
17.297948837280 -68.279571533203 -160.997619628906 3.838379621506
-47.077598571777 -68.785118103027 -161.266174316406 1.644796133041
-41.508277893066 -65.866859436035 -152.316543579102 3.933717966080
-46.601558685303 -66.763290405273 -157.005508422852 2.268595695496
-103.726211547852 -67.638504028320 -169.842864990234 1.597372651100
19.225986480713 -66.146995544434 -170.054824829102 2.423241376877
-37.497074127197 -68.281730651855 -171.926132202148 2.442098140717
13.753263473511 -65.571022033691 -176.091110229492 4.766102313995
-146.551239013672 -70.931114196777 -174.098037719727 1.668122529984
-34.626911163330 -65.688362121582 -172.721267700195 3.147891521454
-153.181961059570 -67.190353393555 -177.337432861328 2.035694360733
19.865833282471 -68.210212707520 -179.387527465820 1.722268462181
-32.721561431885 -69.384124755859 -170.974945068359 1.154855608940
-109.356872558594 -69.803123474121 -181.012298583984 2.481680631638
-106.847129821777 -68.679649353027 -182.126831054688 1.073952913284
-31.516874313354 -66.758148193359 -181.533157348633 1.833423376083
-21.395032882690 -68.793334960938 -182.731658935547 1.774428606033
14.864014625549 -68.143829345703 -187.286422729492 0.845674037933
18.672578811646 -67.884750366211 -192.984207153320 2.059396505356
15.322674751282 -65.061203002930 -184.615417480469 3.545370101929
-142.459228515625 -69.346939086914 -187.434677124023 1.446387529373
16.958326339722 -67.560432434082 -189.445632934570 1.381616115570
9.897843360901 -69.151451110840 -194.981170654297 1.934930443764
-140.600265502930 -67.545578002930 -196.417709350586 0.666247725487
-117.615570068359 -69.362327575684 -196.888031005859 1.765179753304
14.731958389282 -67.063110351563 -195.566299438477 0.568279385567
-113.082977294922 -70.035781860352 -194.753250122070 1.969505190849
-108.773864746094 -69.309150695801 -191.489364624023 2.532433271408
-163.381118774414 -70.709960937500 -199.515380859375 1.779384493828
-21.749200820923 -70.687545776367 -199.877960205078 2.355301856995
15.712876319885 -66.597557067871 -199.340057373047 1.169540286064
-139.574340820313 -67.315734863281 -202.166748046875 1.593563079834
-133.592788696289 -68.759330749512 -206.283111572266 1.668192744255
-18.392824172974 -67.675407409668 -204.802780151367 2.060532569885
-11.720619201660 -68.294067382813 -201.875915527344 2.687709808350
-15.812728881836 -68.700286865234 -205.783996582031 0.780757427216
-144.850723266602 -70.265388488770 -207.594299316406 1.577268958092
-17.332706451416 -70.240066528320 -207.619186401367 1.487990975380
-12.521334648132 -67.328262329102 -210.563598632813 1.438052773476
16.240047454834 -67.795951843262 -207.778366088867 1.248583793640
-11.478560447693 -68.359939575195 -208.101501464844 2.395274400711
10.763648986816 -66.063537597656 -209.676910400391 2.106504440308
-8.538269042969 -69.404907226563 -214.672424316406 1.283692598343
-16.653123855591 -69.760337829590 -210.245849609375 1.121190905571
12.909592628479 -68.543281555176 -220.605072021484 2.311061382294
-1.699916005135 -69.888992309570 -218.122772216797 2.039713859558
11.919881820679 -67.568817138672 -220.005493164063 3.453678369522
-4.840370178223 -69.438095092773 -222.328353881836 1.914675593376
-157.144241333008 -69.115295410156 -222.829132080078 1.202858924866
82.637123107910 -68.935340881348 -217.910614013672 1.989525198936
-134.319213867188 -68.887184143066 -223.885543823242 1.058921933174
-134.293701171875 -68.942077636719 -225.000457763672 0.199377223849
-8.505718231201 -68.970252990723 -224.605041503906 1.252901196480
12.467857360840 -69.980857849121 -230.411682128906 1.319390296936
-153.116867065430 -68.368690490723 -225.431137084961 1.065183401108
85.721710205078 -67.028099060059 -217.338821411133 2.404635429382
-4.557297229767 -68.692840576172 -222.547256469727 2.073390007019
1.729431033134 -69.853088378906 -224.062408447266 2.069483757019
73.419555664063 -68.593360900879 -224.336593627930 3.591907739639
2.788919925690 -69.474273681641 -230.585708618164 1.366868495941
-16.378087997437 -69.261619567871 -228.883758544922 1.034876823425
-123.030532836914 -71.994819641113 -235.615005493164 2.115125656128
-3.137784004211 -68.991027832031 -234.311889648438 1.479560613632
1.602903962135 -68.787780761719 -232.007675170898 0.987744987011
67.281074523926 -69.592514038086 -234.566696166992 1.293468832970
-159.353317260742 -68.754951477051 -239.761337280273 1.229360938072
-9.988644599915 -69.744079589844 -242.875930786133 0.483822464943
-166.361480712891 -70.398544311523 -239.337127685547 1.030295014381
9.267398834229 -70.377388000488 -241.541625976563 1.024115681648
-165.861907958984 -68.755241394043 -239.430343627930 1.248448371887
-159.130645751953 -68.243118286133 -244.345916748047 1.119486927986
55.768394470215 -69.778617858887 -245.362777709961 1.572555661201
64.495964050293 -67.682266235352 -240.734191894531 1.218479633331
56.703495025635 -68.316673278809 -240.075973510742 0.600654423237
52.083652496338 -70.158790588379 -245.573333740234 1.084326744080
-158.809280395508 -68.788192749023 -246.213424682617 0.973216414452
-154.428588867188 -70.326423645020 -251.118545532227 2.096070766449
-14.210257530212 -68.524429321289 -246.838226318359 0.792199611664
-152.354080200195 -69.165924072266 -246.649627685547 1.467942476273
22.234773635864 -71.861640930176 -250.826797485352 0.852337539196
-166.090179443359 -69.838073730469 -251.319335937500 1.408674836159
-166.378860473633 -66.950668334961 -245.336837768555 2.124612092972
-80.691146850586 -68.544113159180 -250.855377197266 2.350174903870
-168.016586303711 -70.733291625977 -264.087982177734 1.200917482376
-85.068359375000 -69.756095886230 -255.919097900391 1.313246488571
40.798065185547 -67.009704589844 -249.022552490234 2.381857395172
24.362161636353 -72.152702331543 -252.989288330078 2.030915021896
-158.133407592773 -68.467811584473 -259.932006835938 1.455507755280
-100.077743530273 -67.398376464844 -259.324279785156 1.796410799026
39.530490875244 -69.529685974121 -255.222488403320 2.134516477585
-100.585258483887 -70.472541809082 -259.275482177734 1.634765744209
-152.855285644531 -65.900840759277 -262.107666015625 2.531910896301
-106.027801513672 -67.814880371094 -259.644104003906 1.537099242210
-163.729598999023 -69.496917724609 -259.937286376953 0.898384451866
-112.186012268066 -70.827957153320 -261.999237060547 1.006810307503
-152.449340820313 -70.968360900879 -266.559600830078 1.684863686562
-156.383590698242 -71.394996643066 -264.577239990234 1.530262708664
-165.806411743164 -71.131278991699 -264.630523681641 2.075587511063
-160.365890502930 -69.222763061523 -263.808441162109 1.453899621964
-164.633666992188 -68.644134521484 -268.381317138672 1.950419068336
-161.247192382813 -67.978652954102 -267.397216796875 1.358519554138
25.264009475708 -70.268661499023 -262.131591796875 1.486724853516
-150.200576782227 -69.173110961914 -266.430450439453 2.087861299515
-146.384796142578 -68.941864013672 -284.695129394531 1.729489564896
20.491928100586 -73.485443115234 -276.125396728516 2.307143926620
-8.552322387695 -68.779548645020 -273.011016845703 3.175336360931
-125.247589111328 -72.252250671387 -284.062469482422 0.894339859486
-135.297882080078 -73.863006591797 -286.682220458984 0.914619624615
-135.184646606445 -69.661895751953 -286.965301513672 0.963628232479
-125.196136474609 -69.625350952148 -285.560028076172 0.874834477901
-114.978401184082 -69.650413513184 -287.372558593750 0.960174798965
-106.169921875000 -70.494560241699 -287.214263916016 0.638111650944
13.160394668579 -69.830833435059 -287.842895507813 0.951098859310
-86.189064025879 -69.440956115723 -286.828125000000 0.891819357872
-146.985702514648 -71.404808044434 -292.661987304688 2.876539468765
-98.891365051270 -68.682952880859 -289.209197998047 0.760847985744
-124.817054748535 -68.929840087891 -291.305480957031 0.651033461094
11.298996925354 -73.726913452148 -286.820007324219 2.285584926605
-112.833175659180 -70.905189514160 -292.485076904297 1.267373323441
2.328960895538 -70.176910400391 -288.953796386719 2.871879577637
-141.606430053711 -70.879112243652 -291.157257080078 1.761791110039
-153.258300781250 -72.282485961914 -299.176513671875 1.049410223961
-157.232009887695 -71.813354492188 -309.932312011719 2.161216735840
-151.998901367188 -72.147087097168 -312.573516845703 1.607208013535
46.584846496582 -67.465797424316 -21.792982101440 2.840390443802
17.654438018799 -66.869781494141 -30.208438873291 4.949134349823
31.235889434814 -67.232505798340 -34.660953521729 1.808890819550
-51.977722167969 -65.877250671387 -48.001678466797 3.119493246078
-17.090713500977 -65.249099731445 -59.532466888428 2.918892621994
91.312011718750 -68.970390319824 -67.660217285156 1.357748627663
65.858566284180 -64.728523254395 -66.511009216309 2.676949024200
-23.936517715454 -67.916503906250 -72.864379882813 1.212555766106
-96.289955139160 -67.919914245605 -82.135345458984 1.708160400391
-43.017749786377 -67.310066223145 -77.621429443359 2.010284423828
63.230075836182 -65.726402282715 -79.234184265137 2.229079008102
55.499584197998 -68.739540100098 -83.261322021484 3.056492805481
54.469974517822 -66.369789123535 -84.310333251953 1.827916622162
-59.511810302734 -66.883285522461 -86.707824707031 2.870050907135
64.594734191895 -64.980102539063 -85.757202148438 1.344705104828
42.943298339844 -68.804748535156 -93.780799865723 3.871366262436
65.097404479980 -67.278221130371 -89.601615905762 1.332224726677
-66.190093994141 -65.390457153320 -94.816017150879 1.197658061981
48.524784088135 -65.787002563477 -93.086280822754 0.751572668552
43.127422332764 -66.842491149902 -95.673934936523 3.550007820129
101.593696594238 -67.169593811035 -92.788520812988 2.458384990692
-70.973571777344 -69.232078552246 -98.537261962891 2.514393806458
107.712249755859 -66.556671142578 -97.606567382813 1.197279214859
-81.404762268066 -65.663711547852 -97.354568481445 4.734399318695
54.069683074951 -68.042274475098 -101.046722412109 0.977569460869
46.630607604980 -64.811767578125 -97.750053405762 1.436263799667
92.219734191895 -67.594963073730 -98.103096008301 6.157674312592
85.120483398438 -60.739242553711 -106.425979614258 2.108418464661
51.786430358887 -66.414176940918 -100.933090209961 1.680436134338
-75.105644226074 -67.563438415527 -106.840141296387 1.877674460411
-78.139350891113 -66.605590820313 -110.111396789551 2.042972803116
-82.565643310547 -69.082710266113 -118.566711425781 1.741665244102
-94.398071289063 -71.264152526855 -117.718673706055 1.147325992584
104.075706481934 -65.986076354980 -110.957298278809 2.807020425797
-87.161819458008 -66.233779907227 -119.108871459961 2.252095937729
-80.672439575195 -65.419387817383 -119.385482788086 1.547129988670
109.018295288086 -64.518806457520 -111.617790222168 3.037409782410
-65.419075012207 -62.757221221924 -117.595344543457 1.594740271568
112.243148803711 -67.639251708984 -127.247337341309 0.618251979351
108.011131286621 -66.104934692383 -125.519660949707 2.856180667877
109.461677551270 -65.442642211914 -116.939933776855 2.869562149048
-94.520439147949 -66.476676940918 -136.564315795898 1.662414669991
-51.769744873047 -65.409317016602 -139.326416015625 1.716269254684
-77.117477416992 -68.539756774902 -145.079406738281 1.969588637352
-70.098945617676 -66.544158935547 -149.092987060547 2.024269819260
-74.086669921875 -65.708160400391 -143.917572021484 1.415708780289
-55.817436218262 -65.289382934570 -143.491439819336 1.459071516991
-49.229915618896 -66.670890808105 -148.439056396484 1.371812582016
19.209756851196 -67.569908142090 -142.291870117188 2.421512603760
-95.749282836914 -65.596702575684 -148.215179443359 2.598394870758
-45.192520141602 -68.127738952637 -146.912200927734 1.770696520805
-55.195232391357 -66.570518493652 -148.947021484375 2.320100069046
-43.481086730957 -65.344299316406 -154.435073852539 2.580827236176
27.599657058716 -68.901191711426 -159.755630493164 2.380838632584
-49.434844970703 -66.023124694824 -150.524139404297 1.761169910431
-98.007354736328 -67.642066955566 -149.559997558594 1.508066773415
-42.921165466309 -66.536895751953 -158.322189331055 2.250019311905
25.040231704712 -65.419837951660 -151.234436035156 2.941319227219
-102.499633789063 -67.918502807617 -162.091354370117 0.819223940372
21.272541046143 -66.501319885254 -155.109741210938 3.282567739487
-106.621963500977 -65.672538757324 -171.041397094727 3.104446411133
-101.066078186035 -65.897972106934 -162.929565429688 2.935823440552
21.737659454346 -64.195449829102 -162.421173095703 4.793195247650
24.894681930542 -65.451957702637 -165.653167724609 2.587611436844
-106.070190429688 -68.598739624023 -173.841491699219 1.507313966751
-142.938629150391 -68.191780090332 -176.290008544922 1.420699357986
-23.548124313354 -66.789451599121 -185.389129638672 2.810824155807
-25.689933776855 -66.043022155762 -181.921737670898 2.723091840744
-113.216369628906 -67.064636230469 -187.745300292969 0.971963882446
-143.248458862305 -65.574554443359 -188.990707397461 1.479069828987
-106.258529663086 -68.689376831055 -181.184890747070 0.721491813660
-153.793609619141 -69.703231811523 -195.305496215820 2.194012641907
-130.715209960938 -69.886940002441 -194.079406738281 1.009746074677
-135.053268432617 -67.751548767090 -195.842803955078 1.722532272339
-21.161436080933 -64.915382385254 -191.085494995117 2.840624809265
-121.817535400391 -68.247497558594 -194.341354370117 1.514302849770
-114.398361206055 -66.371841430664 -195.808547973633 1.416441440582
-22.195457458496 -68.509071350098 -194.263183593750 1.427478075027
-154.473876953125 -66.129547119141 -199.425521850586 1.540843486786
-132.972183227539 -70.603591918945 -206.936309814453 3.060785293579
-124.474044799805 -66.683044433594 -205.102600097656 1.507052421570
16.407699584961 -65.945304870605 -200.632583618164 2.281549453735
-161.099365234375 -67.021789550781 -205.938827514648 2.199973344803
9.447594642639 -69.556999206543 -209.779190063477 1.398869276047
13.613574028015 -69.610183715820 -211.420043945313 0.878830790520
-19.161674499512 -66.995407104492 -205.753890991211 1.355459094048
-5.276610851288 -68.360641479492 -212.790390014648 2.754580259323
-166.475540161133 -68.193290710449 -211.436889648438 1.033839225769
-158.634658813477 -67.423622131348 -215.834442138672 1.092412948608
-97.048675537109 -68.969360351563 -217.232254028320 0.938330888748
-100.819389343262 -67.527839660645 -225.299865722656 1.540424585342
-159.756668090820 -66.650764465332 -222.169570922852 1.855671405792
-103.831634521484 -68.384620666504 -220.307525634766 1.711270928383
-14.014066696167 -68.192657470703 -216.253234863281 1.212898969650
-125.206108093262 -68.452140808105 -225.814468383789 1.920897245407
-141.773300170898 -70.167289733887 -225.226379394531 1.349110007286
-4.486059188843 -68.661842346191 -221.590026855469 1.667776465416
-133.334564208984 -67.389907836914 -226.221359252930 1.354219436646
-124.273704528809 -67.317924499512 -225.761291503906 1.249008297920
-112.814933776855 -68.649742126465 -227.848403930664 1.992919445038
2.299535036087 -67.839530944824 -225.689529418945 1.465499997139
-106.974388122559 -67.913940429688 -227.935501098633 1.247343063354
-158.024444580078 -69.652427673340 -223.362594604492 2.151089429855
-147.218856811523 -69.591499328613 -227.349929809570 2.146348476410
-165.401275634766 -68.420310974121 -226.037261962891 1.438475489616
-6.868011951447 -68.966026306152 -226.752960205078 1.778398990631
-8.770325660706 -64.116142272949 -228.852157592773 4.450161933899
78.168647766113 -64.237968444824 -223.270874023438 4.969395160675
2.707741022110 -66.863639831543 -229.612411499023 1.676283597946
-142.426940917969 -67.804054260254 -233.594192504883 0.796032369137
-12.900568008423 -69.014831542969 -227.407943725586 0.898444771767
75.692481994629 -69.303527832031 -223.420700073242 2.274771451950
73.729393005371 -67.903480529785 -229.271011352539 2.686340570450
-132.597061157227 -68.363342285156 -232.635269165039 2.200872898102
-159.407745361328 -67.602546691895 -228.572982788086 0.481793105602
-113.013038635254 -67.394248962402 -232.380035400391 2.270339250565
-121.673027038574 -67.362342834473 -233.987411499023 2.010924816132
-166.247299194336 -66.513740539551 -234.878250122070 2.027566194534
-158.125091552734 -67.561531066895 -237.625671386719 1.605265855789
-140.728164672852 -68.584220886230 -238.261291503906 4.007619380951
-9.068632125854 -71.368965148926 -233.486801147461 2.013310670853
-3.077599048615 -68.113273620605 -237.995666503906 0.872967779636
-160.437225341797 -66.809417724609 -239.914459228516 1.868421554565
7.012516021729 -70.031845092773 -238.082931518555 2.087161540985
7.564005851746 -67.074272155762 -234.019607543945 1.676476001740
-161.843963623047 -68.283859252930 -242.197708129883 1.288036465645
14.512653350830 -68.847351074219 -241.657943725586 2.486531496048
51.535991668701 -68.319992065430 -242.561798095703 1.455342650414
53.456157684326 -66.546417236328 -245.141662597656 1.315034985542
-10.914569854736 -69.243743896484 -244.110580444336 1.783261537552
50.576206207275 -66.498741149902 -244.560668945313 1.093484044075
-162.646224975586 -69.030807495117 -254.001815795898 2.311002492905
-162.727584838867 -67.581558227539 -249.591949462891 0.325142979622
-160.119506835938 -69.441490173340 -249.473770141602 1.614202618599
54.482513427734 -67.881767272949 -249.136703491211 1.013830304146
-89.275985717773 -69.808624267578 -252.346694946289 1.279532313347
-124.477569580078 -68.818618774414 -253.370452880859 1.446020245552
-105.324241638184 -70.021499633789 -254.539489746094 1.123732686043
30.796010971069 -68.949020385742 -254.298599243164 1.542371392250
42.473247528076 -68.367401123047 -248.998458862305 0.705000340939
-98.956008911133 -67.994224548340 -254.116210937500 0.957327842712
-92.909683227539 -67.398101806641 -255.429290771484 1.135386228561
45.828739166260 -67.707695007324 -251.344573974609 1.653590679169
43.600193023682 -67.183807373047 -252.641281127930 2.233513355255
-155.539398193359 -70.346153259277 -259.854553222656 1.127625107765
33.998115539551 -66.907836914063 -253.925598144531 1.613155007362
-139.809066772461 -71.257453918457 -264.408264160156 2.184947013855
-114.983009338379 -66.935966491699 -260.879333496094 0.664044916630
-133.186126708984 -69.114013671875 -264.517669677734 1.772778391838
32.244777679443 -70.543762207031 -260.560516357422 1.256378650665
-125.842041015625 -69.451110839844 -264.497222900391 1.777023792267
-9.770998001099 -67.178504943848 -257.400970458984 3.030315876007
23.768791198730 -70.595466613770 -269.872772216797 0.881299614906
-9.266719818115 -67.790489196777 -265.512969970703 2.407184362411
23.222616195679 -67.899002075195 -278.506042480469 2.145889282227
-149.695587158203 -69.723999023438 -283.103881835938 2.498480796814
-9.408302307129 -70.589820861816 -276.755126953125 2.386026144028
-152.825012207031 -71.895812988281 -286.277282714844 2.731013059616
-125.195503234863 -68.174125671387 -285.022369384766 0.831756889820
-156.256408691406 -71.694999694824 -288.153625488281 1.268340706825
-116.090644836426 -69.383781433105 -286.713348388672 0.628128409386
-104.796813964844 -70.394859313965 -288.939575195313 2.592358350754
-6.374545097351 -68.648750305176 -285.617095947266 1.730424523354
-108.759246826172 -69.370933532715 -291.542907714844 1.279545068741
-115.522850036621 -70.501434326172 -288.798156738281 2.420775890350
-117.144828796387 -69.831672668457 -291.156524658203 1.580400466919
-135.087448120117 -67.620231628418 -289.867889404297 0.754574358463
-123.470520019531 -71.759521484375 -292.793060302734 1.405951023102
-156.263656616211 -70.902114868164 -290.635742187500 1.013842105865
-144.584106445313 -72.706481933594 -295.971710205078 0.719613671303
-150.817260742188 -69.334083557129 -299.454711914063 1.511143326759
-152.281234741211 -68.243057250977 -310.167327880859 2.053081512451
-155.155899047852 -69.616287231445 -301.661132812500 0.968935966492
-144.517700195313 -70.988426208496 -312.003448486328 1.149857759476
-148.811416625977 -69.190017700195 -313.139892578125 1.654417276382
32.075538635254 -65.557609558105 -11.064950942993 1.572780013084
41.353477478027 -66.416282653809 -13.664880752563 2.870023965836
24.303337097168 -60.594020843506 -25.450971603394 2.002796649933
47.711086273193 -64.727172851563 -26.980976104736 3.784395694733
27.542856216431 -65.582344055176 -33.169795989990 2.097422361374
34.665435791016 -68.042678833008 -33.529956817627 3.405361652374
-59.200115203857 -64.172599792480 -44.043933868408 2.291297197342
82.372955322266 -64.223602294922 -58.615303039551 1.877564907074
78.667106628418 -64.949440002441 -62.300342559814 2.029317140579
-94.337493896484 -63.452079772949 -61.388839721680 2.585782289505
-14.768645286560 -63.627876281738 -61.124198913574 4.112596035004
-92.280662536621 -68.188499450684 -66.432601928711 0.839212536812
94.607894897461 -64.429702758789 -66.691795349121 2.539445400238
-18.290021896362 -62.760803222656 -66.410659790039 2.305990934372
66.317016601563 -66.377861022949 -72.608985900879 2.006271123886
-40.645668029785 -68.381088256836 -74.934532165527 2.851445436478
-30.717491149902 -69.745246887207 -77.266738891602 1.767955541611
54.935314178467 -64.351608276367 -82.932655334473 3.119818449020
-47.706108093262 -75.039184570313 -84.864601135254 2.715961694717
61.973228454590 -62.301372528076 -80.861198425293 1.761646747589
52.110088348389 -65.658576965332 -83.369438171387 3.656123876572
48.905334472656 -68.068595886230 -89.218490600586 2.918999671936
61.710487365723 -64.582183837891 -88.390663146973 3.137633323669
56.656993865967 -65.743911743164 -93.904083251953 1.771890521049
100.544532775879 -63.358188629150 -92.354942321777 3.866384267807
102.614631652832 -66.096794128418 -92.441574096680 1.762525677681
56.807655334473 -67.994941711426 -95.142387390137 2.125262737274
105.413925170898 -63.271587371826 -94.714553833008 2.846297979355
-75.458580017090 -68.614654541016 -98.866409301758 0.871002197266
-72.915039062500 -65.932289123535 -100.125572204590 1.145385503769
100.598915100098 -66.074714660645 -94.102020263672 2.972490787506
52.206874847412 -64.676918029785 -97.896194458008 1.816404223442
69.574897766113 -66.331802368164 -97.845359802246 2.010814189911
-73.468170166016 -62.823478698730 -102.152015686035 1.568051338196
-84.030647277832 -64.424942016602 -105.047126770020 2.411410570145
92.225120544434 -64.846504211426 -104.203071594238 3.200252056122
41.194614410400 -64.945922851563 -102.470352172852 4.629235267639
101.014213562012 -64.317398071289 -98.888595581055 1.030369997025
42.645732879639 -64.936119079590 -109.272987365723 2.802099704742
109.292472839355 -63.313362121582 -102.940475463867 4.249748706818
-83.456939697266 -63.050956726074 -107.651100158691 1.064519762993
104.851692199707 -62.260940551758 -105.120269775391 4.159792900085
-87.324661254883 -63.890438079834 -117.702003479004 1.894736528397
-59.886096954346 -67.456207275391 -125.915550231934 1.011253595352
-57.086238861084 -64.433685302734 -125.796813964844 1.430920243263
-74.845184326172 -66.609115600586 -128.288360595703 1.637794375420
-52.042358398438 -67.133972167969 -129.123504638672 1.646477341652
-86.302993774414 -66.853279113770 -130.811630249023 2.679353237152
-78.677627563477 -67.216178894043 -133.763626098633 1.544005513191
-84.993026733398 -65.423965454102 -127.186973571777 1.735908746719
-57.993709564209 -68.888328552246 -137.788604736328 1.123985171318
-73.665603637695 -64.887115478516 -138.094635009766 1.821927070618
-60.531360626221 -65.295783996582 -135.568710327148 1.717249393463
-62.762069702148 -67.582916259766 -137.918518066406 2.747836112976
21.737892150879 -66.269096374512 -138.092010498047 2.858591079712
-89.772186279297 -66.907310485840 -143.555648803711 1.395995974541
-47.165451049805 -67.533813476563 -143.185348510742 1.493692994118
-99.728713989258 -64.359199523926 -148.915008544922 1.674822568893
-101.547004699707 -65.667816162109 -151.394912719727 1.732223987579
16.821954727173 -68.229133605957 -150.079986572266 2.077523946762
12.841575622559 -68.208839416504 -155.477890014648 0.623568713665
-99.047035217285 -66.470924377441 -157.981704711914 2.328176975250
-102.175735473633 -65.137283325195 -157.358154296875 0.992164254189
-99.645935058594 -66.075119018555 -168.249038696289 2.101402759552
20.591211318970 -64.612937927246 -166.948883056641 3.064856290817
-110.894515991211 -67.777732849121 -169.312164306641 4.307571887970
18.720836639404 -67.553421020508 -166.277221679688 2.729526281357
-146.865829467773 -67.984031677246 -176.976501464844 1.479921698570
16.718715667725 -66.655097961426 -174.128952026367 2.737400054932
22.280847549438 -67.200965881348 -183.526306152344 2.413700103760
-153.586288452148 -65.984138488770 -187.872146606445 1.700131177902
20.337553024292 -66.959930419922 -176.604141235352 2.037783145905
16.842710494995 -65.290008544922 -176.030960083008 3.157251596451
-139.978790283203 -70.911872863770 -189.439880371094 2.840991258621
-151.894027709961 -68.268417358398 -189.412124633789 1.848404765129
18.493906021118 -65.581703186035 -186.931182861328 2.139823436737
18.838106155396 -64.905174255371 -185.414947509766 2.897905588150
-144.676879882813 -67.380065917969 -192.850250244141 1.818725347519
-108.567810058594 -69.195899963379 -195.884368896484 1.429613947868
20.905443191528 -66.756393432617 -194.150817871094 2.779832839966
-125.073181152344 -64.833000183105 -193.595138549805 1.949066758156
11.790461540222 -67.362663269043 -195.628158569336 2.515373945236
-132.619323730469 -65.378479003906 -195.186660766602 1.701789140701
-153.510528564453 -66.557037353516 -193.942169189453 1.521849751472
-162.930343627930 -69.323768615723 -199.476928710938 1.726441264153
