-62.839378356934 -83.480361938477 -86.393768310547 3.246890306473
-60.820373535156 -84.226890563965 -97.617942810059 2.741531372070
-72.363189697266 -86.403564453125 -94.631927490234 1.202764511108
-67.495422363281 -85.082809448242 -96.648086547852 1.788663268089
-77.486518859863 -85.380851745605 -101.129440307617 1.623461365700
-68.867126464844 -84.444389343262 -100.372337341309 1.019828796387
-76.507164001465 -82.669204711914 -104.175521850586 1.532212495804
-40.876125335693 -83.802711486816 -197.147933959961 2.169543027878
-36.883163452148 -84.727050781250 -196.478546142578 0.858417093754
9.816748619080 -86.348182678223 -263.992218017578 2.031893730164
3.687333106995 -86.733833312988 -262.129638671875 1.045292973518
-149.112350463867 -83.754310607910 -285.697998046875 0.901738047600
-140.305664062500 -81.498428344727 -289.558807373047 2.748024225235
-140.804580688477 -83.751152038574 -290.852233886719 2.075304269791
-144.335220336914 -84.454582214355 -292.115661621094 1.248066067696
-149.058700561523 -83.552680969238 -294.283294677734 2.664519309998
-149.010055541992 -82.034019470215 -298.485382080078 3.184568166733
-52.322002410889 -83.423774719238 -83.623336791992 2.663658380508
-63.106899261475 -83.562049865723 -82.139373779297 1.839397192001
-64.633270263672 -82.503219604492 -82.327728271484 3.161055326462
-69.524879455566 -83.083457946777 -88.058097839355 2.589477539063
-76.704040527344 -82.465400695801 -92.179626464844 3.286422967911
-71.975013732910 -83.624000549316 -99.546371459961 1.875289440155
-36.264884948730 -81.761535644531 -189.139328002930 0.906354308128
-46.751636505127 -83.891609191895 -201.108352661133 1.010728478432
-148.185317993164 -84.001548767090 -250.232971191406 1.273249387741
-0.070009000599 -85.710212707520 -256.237548828125 1.153707265854
9.191968917847 -85.463325500488 -259.231811523438 2.218440532684
-135.223312377930 -80.531631469727 -261.294525146484 2.047829866409
3.639700889587 -85.220344543457 -259.225830078125 1.475756168365
-2.186472892761 -84.714309692383 -259.364135742188 0.673344492912
-149.587524414063 -81.697563171387 -261.570770263672 2.360907793045
2.827455997467 -86.727966308594 -264.215362548828 1.276793479919
-145.488815307617 -79.472213745117 -265.085815429688 0.454239070415
-148.215698242188 -82.667167663574 -269.516815185547 2.737804412842
3.928428888321 -83.907295227051 -267.023315429688 1.566265106201
5.863905906677 -85.041084289551 -275.723541259766 2.226367235184
-149.522506713867 -82.627273559570 -278.081848144531 2.343109607697
-146.708312988281 -83.696327209473 -285.436920166016 1.955572128296
-147.827117919922 -83.068504333496 -286.203552246094 1.681865334511
-145.167190551758 -81.322425842285 -287.825073242188 2.412191152573
-134.687393188477 -81.511177062988 -290.448120117188 2.571025848389
-151.841476440430 -83.390228271484 -291.386291503906 1.589933633804
-144.847122192383 -81.769035339355 -301.744506835938 2.632893085480
-64.878677368164 -82.765220642090 -80.444168090820 1.897802472115
-47.115196228027 -82.277862548828 -81.763778686523 1.668238639832
-49.978153228760 -83.756790161133 -81.328651428223 2.049402475357
-42.101409912109 -81.229667663574 -84.832244873047 0.817828595638
-50.252368927002 -86.038375854492 -90.889137268066 3.543897151947
-77.295478820801 -81.151565551758 -88.028274536133 2.417485475540
-83.041847229004 -82.303672790527 -92.183860778809 2.229096174240
-18.630041122437 -83.767906188965 -180.762908935547 1.054440855980
-29.335006713867 -85.612541198730 -187.154495239258 1.195514798164
-37.267543792725 -82.388214111328 -200.847625732422 2.754965305328
-51.993591308594 -83.617073059082 -201.406646728516 2.621701002121
-48.658042907715 -83.434471130371 -204.016784667969 2.403347253799
-55.018993377686 -85.275787353516 -205.431259155273 0.398197054863
-51.979866027832 -82.233184814453 -207.803131103516 2.482496976852
-60.794380187988 -82.942825317383 -207.274291992188 1.550675153732
-67.253913879395 -82.255615234375 -209.412979125977 1.887867450714
-148.792739868164 -79.554771423340 -216.558990478516 0.864918053150
-143.975357055664 -78.407379150391 -224.830841064453 1.737688660622
-140.248245239258 -80.883064270020 -228.475296020508 2.779492139816
-145.892578125000 -81.387252807617 -234.267196655273 0.978769659996
-145.585678100586 -80.875648498535 -239.759429931641 2.126748800278
-145.581359863281 -80.179573059082 -242.313659667969 2.062414169312
-145.657348632813 -81.287643432617 -252.610244750977 1.810873150826
8.194978713989 -85.590431213379 -255.552551269531 1.476712226868
-149.555389404297 -82.238983154297 -256.432525634766 1.409001588821
-144.380599975586 -80.684616088867 -257.063446044922 1.997741460800
-140.248550415039 -79.535507202148 -259.347137451172 2.543394565582
-152.979629516602 -80.588951110840 -261.160217285156 1.912301301956
-144.586685180664 -80.160362243652 -260.827636718750 1.891067266464
-140.843536376953 -80.224403381348 -261.714904785156 1.991310238838
-1.601732969284 -83.376060485840 -268.048309326172 2.030474901199
9.733995437622 -83.298210144043 -267.662231445313 1.139342069626
0.694157004356 -83.873260498047 -273.845153808594 1.689154505730
-147.913116455078 -82.331436157227 -283.111450195313 2.567942142487
-148.659362792969 -81.062683105469 -286.304168701172 0.329073697329
-56.178077697754 -82.045570373535 -79.370948791504 2.584885835648
-41.614257812500 -83.650779724121 -80.664970397949 2.104554653168
-70.051452636719 -82.011749267578 -79.530761718750 1.730914115906
-46.775394439697 -80.568634033203 -84.408782958984 1.032531142235
-65.334228515625 -84.428741455078 -98.221450805664 1.929573655128
-62.313411712646 -81.959861755371 -98.647483825684 2.276826143265
-74.702857971191 -80.309638977051 -103.482551574707 2.174901962280
-81.611083984375 -80.986572265625 -106.785034179688 1.751431703568
-20.840793609619 -81.796226501465 -179.645767211914 1.159966826439
-29.888978958130 -83.484992980957 -188.276718139648 2.110514879227
-30.320392608643 -85.329994201660 -191.204956054688 0.811262488365
-23.725704193115 -82.936645507813 -188.317382812500 1.587030410767
-32.125160217285 -81.967224121094 -188.112350463867 1.971928358078
-44.098316192627 -81.953857421875 -198.047363281250 1.999803543091
-144.718002319336 -79.614463806152 -203.378738403320 0.736949980259
-62.452239990234 -82.145973205566 -209.231704711914 1.753661751747
-148.725189208984 -80.749977111816 -226.168334960938 1.837551355362
-141.679550170898 -79.593284606934 -227.114196777344 1.127593755722
-151.453582763672 -80.937553405762 -228.629394531250 2.438161849976
-143.148529052734 -79.342674255371 -232.172698974609 1.219348669052
-136.909042358398 -80.310577392578 -232.378753662109 2.229133367538
-148.813552856445 -78.858901977539 -233.436676025391 2.510718822479
-149.488784790039 -81.771751403809 -247.219055175781 1.529486179352
13.419791221619 -83.299446105957 -247.218154907227 0.963816225529
-2.701236009598 -84.918113708496 -253.585113525391 1.835227370262
-139.640960693359 -80.819137573242 -263.267150878906 3.537595033646
-3.302736997604 -81.436019897461 -271.622680664063 1.321850061417
13.115261077881 -86.412384033203 -265.477386474609 2.752616405487
-4.693679809570 -84.808181762695 -265.013122558594 1.294271230698
-145.504470825195 -79.414573669434 -270.727783203125 0.714543342590
-143.370086669922 -79.317146301270 -287.424865722656 1.319508194923
-141.836959838867 -82.160255432129 -293.879547119141 2.882406234741
-146.040130615234 -80.109397888184 -293.937286376953 1.785389184952
-150.430511474609 -81.259544372559 -300.160308837891 1.915974617004
-68.130615234375 -80.841926574707 -74.738960266113 1.658957481384
-61.093162536621 -80.802886962891 -74.992713928223 2.070116281509
-44.545429229736 -82.837417602539 -76.728569030762 1.039730906487
-37.392490386963 -81.745346069336 -79.844223022461 1.413817286491
-72.166580200195 -80.442665100098 -78.133300781250 2.494044780731
-47.939487457275 -81.641372680664 -87.692131042480 1.440325140953
-54.456832885742 -82.694740295410 -93.233467102051 1.417594790459
-68.280281066895 -80.602928161621 -101.823043823242 3.757919549942
-11.423295021057 -82.051208496094 -176.911163330078 1.810916662216
-18.547672271729 -82.878486633301 -184.031860351563 0.902309596539
-50.016277313232 -80.580627441406 -187.246002197266 1.901426672935
-145.784988403320 -80.637893676758 -191.720046997070 2.528382778168
-43.785957336426 -80.684226989746 -194.744308471680 1.694487094879
-147.296279907227 -79.445167541504 -195.915542602539 1.400344252586
-136.863876342773 -81.473953247070 -199.489227294922 1.618558645248
-37.532455444336 -81.917816162109 -198.738189697266 2.044821739197
-144.373748779297 -78.836502075195 -201.046813964844 2.184852838516
-142.830429077148 -78.096771240234 -202.121246337891 1.889765620232
-53.376491546631 -81.250427246094 -201.514739990234 2.099588871002
-151.255554199219 -78.319633483887 -199.600677490234 2.176692247391
-58.324077606201 -82.710586547852 -205.181320190430 2.442353248596
-147.156555175781 -78.847541809082 -205.280090332031 2.592952013016
-62.451217651367 -80.279785156250 -212.467788696289 2.421077966690
16.400608062744 -83.124053955078 -238.426773071289 1.652701497078
12.674562454224 -84.140594482422 -237.035369873047 1.659733176231
-148.140090942383 -79.322669982910 -236.364517211914 3.029245376587
19.524911880493 -82.146545410156 -248.045578002930 1.851743340492
15.973436355591 -85.997535705566 -248.731353759766 3.362045288086
11.863134384155 -84.300048828125 -255.540893554688 1.952928185463
13.141823768616 -82.648200988770 -255.920593261719 1.350559830666
-152.269668579102 -80.492446899414 -258.052978515625 2.462769985199
-135.845001220703 -80.953849792480 -262.662933349609 3.057419776917
14.534289360046 -82.903839111328 -266.370391845703 1.643976688385
-148.560424804688 -81.879981994629 -275.617095947266 2.610507965088
-143.984207153320 -82.128616333008 -278.496185302734 3.083710670471
7.609412193298 -81.411231994629 -276.968994140625 2.241133928299
-144.883575439453 -80.801750183105 -277.839691162109 1.428949475288
-137.870513916016 -82.623039245605 -286.665771484375 2.297646284103
-147.552017211914 -80.824317932129 -290.762786865234 1.423028826714
-150.014038085938 -80.639457702637 -290.166107177734 1.203489065170
-153.996673583984 -77.268127441406 -292.242767333984 2.556075334549
-137.026504516602 -79.979911804199 -292.794830322266 2.202727079391
-152.907592773438 -81.975456237793 -293.162475585938 1.158600926399
-58.725452423096 -79.414596557617 -71.688499450684 2.524817228317
-55.162754058838 -78.468963623047 -73.682815551758 4.558452129364
-40.718624114990 -79.697868347168 -75.416351318359 2.947686433792
-78.731903076172 -79.073272705078 -84.379005432129 3.310216903687
-38.194869995117 -80.158752441406 -83.511039733887 2.539324998856
-41.706687927246 -81.466484069824 -84.962181091309 0.797525346279
-82.695045471191 -83.035514831543 -102.398315429688 2.358759403229
-71.840896606445 -76.146347045898 -103.303970336914 3.223636627197
34.289051055908 -82.657325744629 -126.078468322754 2.558015346527
31.018218994141 -81.387962341309 -145.160980224609 2.411629676819
-11.698752403259 -82.097564697266 -179.234512329102 1.432670593262
-17.395416259766 -81.072608947754 -183.303421020508 1.516082286835
-27.191188812256 -79.048912048340 -185.335845947266 1.587902665138
-36.640285491943 -81.308692932129 -190.498214721680 0.798142313957
-52.589332580566 -80.206771850586 -187.499816894531 0.826498150826
-29.270143508911 -79.499237060547 -193.835708618164 2.852996110916
-142.824829101563 -78.293937683105 -188.321105957031 2.068346023560
-148.693038940430 -78.062080383301 -196.439926147461 2.148650884628
-151.716613769531 -78.101989746094 -200.662933349609 1.829517483711
-148.963775634766 -76.993446350098 -204.642456054688 0.799704313278
-68.359565734863 -82.389274597168 -210.266586303711 1.182420969009
-60.236824035645 -78.831062316895 -210.922393798828 2.754590272903
-146.457366943359 -79.485496520996 -213.016220092773 1.504419922829
-72.190223693848 -80.630455017090 -212.263961791992 1.820136427879
-69.053573608398 -82.412734985352 -214.151916503906 2.409724235535
-77.369323730469 -80.549591064453 -215.646163940430 1.630959272385
-142.118286132813 -80.113487243652 -227.961654663086 1.863020181656
-141.079528808594 -79.640220642090 -231.966735839844 1.527697205544
-149.180618286133 -79.617507934570 -248.147003173828 2.151924848557
15.140260696411 -81.132225036621 -249.153686523438 2.413260459900
8.651540756226 -83.023567199707 -249.507202148438 2.172304630280
-135.094543457031 -82.292411804199 -257.659576416016 1.495287299156
15.594416618347 -82.642204284668 -258.842559814453 1.241562962532
12.995892524719 -84.668724060059 -262.441833496094 2.111657381058
-149.464675903320 -80.904708862305 -263.981750488281 2.473716735840
-151.268615722656 -80.902114868164 -277.813659667969 1.275590419769
0.101031996310 -83.454978942871 -274.528625488281 1.302713990211
10.382132530212 -79.808654785156 -278.216094970703 1.731804490089
-153.250686645508 -82.213180541992 -286.000183105469 2.133676052094
-143.622344970703 -80.296234130859 -285.077697753906 0.252476125956
-148.948684692383 -84.268089294434 -303.274993896484 2.127457857132
-46.872398376465 -80.994766235352 -74.643249511719 1.593915343285
-68.874061584473 -79.269935607910 -68.629798889160 1.051144480705
-42.621570587158 -78.460647583008 -68.550453186035 1.878553271294
-33.493946075439 -79.661247253418 -77.016952514648 1.909876227379
-74.869651794434 -75.094505310059 -70.362716674805 4.598985195160
-29.307689666748 -81.227195739746 -78.944755554199 1.855107307434
-46.494651794434 -78.630088806152 -84.926231384277 1.191419482231
-56.080150604248 -77.707061767578 -94.536285400391 1.896035790443
-60.040779113770 -83.130935668945 -96.273880004883 1.951781392097
-63.411903381348 -80.079612731934 -101.332275390625 2.596643686295
-86.947265625000 -78.117362976074 -107.804641723633 3.340902090073
43.243209838867 -81.205627441406 -119.025924682617 1.571472764015
38.380886077881 -81.366836547852 -128.301345825195 3.056313753128
-41.812095642090 -78.831138610840 -163.697372436523 1.868664503098
-38.101600646973 -81.227233886719 -162.353225708008 1.808518648148
-7.029996871948 -80.082496643066 -171.618957519531 1.352332234383
-60.236007690430 -78.912170410156 -172.760223388672 1.878775238991
-56.650363922119 -79.906066894531 -178.981384277344 2.404863595963
-58.228382110596 -79.456039428711 -175.680770874023 1.262133955956
-31.751001358032 -79.007492065430 -172.448348999023 1.759266972542
-52.179267883301 -78.801040649414 -183.874176025391 1.679812908173
-25.336713790894 -79.370834350586 -183.358306884766 1.874149560928
-146.522567749023 -80.258071899414 -187.319229125977 1.991584897041
-49.302322387695 -78.999534606934 -182.382110595703 0.861917734146
-44.436084747314 -80.461303710938 -194.090011596680 1.843805551529
-31.558860778809 -78.052108764648 -186.646270751953 1.683547973633
-32.050209045410 -78.314064025879 -190.197128295898 1.803332448006
-31.445201873779 -78.680694580078 -192.892852783203 2.713425159454
-23.454656600952 -80.292449951172 -190.288131713867 0.898425519466
-44.746189117432 -81.107437133789 -196.788696289063 1.986413240433
-143.535888671875 -78.277793884277 -196.367233276367 1.502923488617
-38.355354309082 -80.299079895020 -197.336898803711 1.387305021286
-40.757465362549 -81.210289001465 -201.863037109375 1.394060730934
-42.251949310303 -78.902229309082 -201.092071533203 1.724921226501
-42.995967864990 -79.176979064941 -200.113845825195 1.273689389229
-132.621749877930 -77.678405761719 -202.790634155273 2.933906793594
-135.275665283203 -76.385353088379 -202.907730102539 2.099750757217
-47.125495910645 -81.651916503906 -203.177551269531 0.742271542549
-58.703395843506 -79.950088500977 -205.071517944336 2.178488016129
-36.773952484131 -79.538261413574 -205.401229858398 1.666481614113
-143.397186279297 -78.113349914551 -206.679336547852 1.460114717484
-68.294235229492 -77.834320068359 -208.835723876953 1.564635872841
-33.258853912354 -80.584922790527 -209.148773193359 2.186097860336
16.806837081909 -80.558036804199 -204.684143066406 1.589820027351
-75.210594177246 -77.648628234863 -212.509063720703 1.870044589043
-27.403924942017 -77.428405761719 -213.643493652344 1.139156460762
13.230607986450 -81.190193176270 -219.706237792969 1.778036475182
-148.463073730469 -78.895927429199 -219.772674560547 3.397413969040
10.547424316406 -81.953086853027 -227.689712524414 1.583147525787
14.193644523621 -81.972396850586 -222.769378662109 1.388986468315
16.139148712158 -81.806060791016 -230.147232055664 1.764436841011
-133.834564208984 -81.331909179688 -228.884460449219 1.580968022346
-146.790710449219 -78.485527038574 -231.320312500000 1.220450282097
11.097192764282 -82.149902343750 -236.440719604492 1.169538736343
16.019590377808 -80.760772705078 -238.049148559570 1.174029588699
13.327422142029 -79.637687683105 -237.266296386719 2.289606571198
-148.872985839844 -80.850349426270 -241.066452026367 1.341950416565
-144.139938354492 -80.847602844238 -241.562622070313 2.446033000946
16.823156356812 -80.675956726074 -239.086242675781 1.454510688782
-33.347736358643 -78.781578063965 -245.884170532227 2.770992517471
18.551036834717 -81.630470275879 -247.898788452148 1.132878899574
-39.357494354248 -80.437255859375 -246.259704589844 1.960588812828
-145.878311157227 -82.033447265625 -255.218688964844 1.981157422066
14.493859291077 -81.531066894531 -254.641723632813 2.208323240280
-141.740707397461 -79.367034912109 -260.159820556641 1.398325562477
-149.945526123047 -79.435775756836 -255.361846923828 2.791979789734
19.109277725220 -81.568534851074 -259.561859130859 2.875087261200
-6.883584976196 -78.242668151855 -253.112503051758 2.304512023926
-6.437480926514 -81.509468078613 -263.902465820313 3.012901306152
-145.307830810547 -79.523597717285 -258.603149414063 2.703879117966
-152.808502197266 -75.418991088867 -261.686279296875 2.734083652496
-144.165710449219 -80.201774597168 -264.655975341797 1.227398872375
-150.175964355469 -75.535888671875 -264.999694824219 1.551656603813
-150.794097900391 -79.255630493164 -270.733398437500 0.800532639027
-8.985891342163 -80.719413757324 -268.868774414063 1.953863739967
-0.676753997803 -80.270782470703 -272.568542480469 2.573020696640
12.293302536011 -84.523918151855 -268.964538574219 1.848285555840
9.606318473816 -80.483840942383 -282.211791992188 2.735670566559
4.655124187469 -81.710235595703 -281.638793945313 1.914419531822
-135.188552856445 -76.353912353516 -293.141906738281 1.459919810295
-141.875183105469 -80.065628051758 -291.818878173828 1.392434358597
-60.484802246094 -76.966445922852 -66.579589843750 3.103576183319
-41.344058990479 -77.222717285156 -65.186759948730 1.828199505806
-53.585750579834 -78.288764953613 -67.197631835938 2.191056728363
-45.745689392090 -77.414031982422 -67.675521850586 2.589848995209
-70.584724426270 -77.908294677734 -65.861465454102 1.768111944199
-81.247398376465 -77.745445251465 -74.577041625977 3.129621028900
-30.706293106079 -77.006362915039 -82.045684814453 2.798213958740
-40.724735260010 -78.413925170898 -87.213111877441 2.552047252655
-47.617111206055 -78.407516479492 -87.110115051270 0.707349598408
-85.470626831055 -76.620742797852 -88.102836608887 3.817719459534
-76.560073852539 -77.578079223633 -104.820465087891 3.442823171616
42.825397491455 -81.134490966797 -109.934722900391 1.562970042229
-84.314758300781 -78.738906860352 -111.898208618164 1.294093847275
40.914539337158 -81.308418273926 -119.480773925781 0.909150063992
41.841194152832 -81.905128479004 -128.036346435547 3.179335355759
35.919746398926 -79.350486755371 -121.964912414551 1.367957353592
33.473213195801 -81.266403198242 -126.946174621582 3.055584907532
35.969917297363 -79.757133483887 -138.951049804688 0.879612207413
25.983772277832 -77.746833801270 -146.462310791016 0.811100006104
-44.927925109863 -79.982749938965 -151.562026977539 0.349338740110
30.657270431519 -79.543502807617 -148.281036376953 1.731481909752
24.826589584351 -79.815368652344 -157.951446533203 1.511304974556
-45.953071594238 -78.691566467285 -157.259582519531 1.049142003059
28.652753829956 -81.120094299316 -154.924514770508 1.194204568863
-43.157295227051 -77.410484313965 -164.488586425781 0.943703889847
27.323648452759 -79.703460693359 -167.667602539063 1.688194274902
-59.319492340088 -79.184143066406 -170.681091308594 1.990861415863
-8.331947326660 -81.995048522949 -176.947631835938 1.840944290161
-34.801475524902 -76.071655273438 -174.656372070313 2.957917690277
-15.703347206116 -79.737815856934 -175.942718505859 2.304937839508
-53.751270294189 -77.513488769531 -176.598846435547 1.931812763214
23.200450897217 -79.180786132813 -172.944152832031 1.166447758675
-14.967840194702 -79.765190124512 -182.550292968750 1.472470879555
-21.946449279785 -81.064025878906 -187.501922607422 1.525691866875
-56.197250366211 -78.287445068359 -186.614166259766 3.388026952744
-27.083379745483 -78.802284240723 -185.023544311523 1.486593842506
19.746713638306 -78.715347290039 -188.250427246094 1.149906158447
-149.870925903320 -75.696807861328 -187.402465820313 1.020614385605
-26.768579483032 -78.191375732422 -189.810317993164 2.140000581741
-48.002956390381 -77.455993652344 -192.169631958008 2.048588752747
-149.510223388672 -79.321350097656 -196.342391967773 2.364193916321
-142.129562377930 -78.953758239746 -200.201171875000 1.494641184807
-19.265666961670 -79.108520507813 -196.743316650391 1.135304927826
-16.993192672729 -80.166389465332 -199.708251953125 2.841077566147
-48.132274627686 -79.145156860352 -197.847793579102 2.102657794952
-21.497154235840 -77.047897338867 -200.053649902344 2.121683120728
-49.584495544434 -78.695198059082 -204.730285644531 2.524868488312
-43.795383453369 -79.909072875977 -202.940368652344 2.632007122040
-55.494239807129 -80.243934631348 -203.049499511719 1.332407712936
-17.354137420654 -77.910377502441 -207.517852783203 2.694520950317
-148.995651245117 -79.115730285645 -210.928771972656 1.221512436867
-57.284896850586 -77.550796508789 -205.656463623047 2.086330890656
-55.242103576660 -78.468215942383 -208.114898681641 2.695508718491
-30.583850860596 -78.266212463379 -204.456207275391 1.764175057411
-14.580237388611 -80.508277893066 -203.829330444336 2.020967006683
-37.228099822998 -79.158950805664 -207.605590820313 1.693614363670
-77.038650512695 -80.638877868652 -213.792373657227 1.585487961769
-143.537460327148 -79.415580749512 -213.401489257813 2.936564445496
-32.175605773926 -80.141395568848 -206.492004394531 1.854041218758
8.925013542175 -79.504295349121 -211.218505859375 2.329984188080
-60.061744689941 -78.858337402344 -212.414505004883 3.762991666794
-69.444625854492 -77.963058471680 -214.937301635742 2.534020185471
-25.116025924683 -77.420433044434 -217.913894653320 1.224591493607
-10.079347610474 -79.338401794434 -213.627838134766 2.000645875931
-23.522684097290 -79.131614685059 -221.882965087891 2.142622470856
15.469560623169 -79.761970520020 -217.211227416992 0.486536681652
-149.895462036133 -77.137245178223 -225.758605957031 2.666870355606
-8.504198074341 -78.812591552734 -218.531372070313 1.804429769516
-150.715469360352 -78.559638977051 -230.626724243164 2.083349704742
8.940391540527 -82.528861999512 -232.109802246094 2.726979732513
14.502207756042 -81.384918212891 -226.942901611328 1.175277948380
-3.513729095459 -80.663955688477 -225.616363525391 1.171666860580
18.045997619629 -78.953330993652 -227.567535400391 0.972143888474
-135.433319091797 -79.097526550293 -232.004486083984 1.698063492775
10.549611091614 -80.720336914063 -225.402877807617 1.665686845779
-152.192535400391 -76.606437683105 -233.568328857422 1.515121579170
-145.985916137695 -79.893447875977 -235.155395507813 1.905864477158
-1.845806002617 -79.314628601074 -223.804244995117 0.965515732765
19.034467697144 -79.155883789063 -236.604873657227 1.736224651337
-31.316770553589 -80.807815551758 -242.400756835938 2.648202896118
-143.851364135742 -75.300079345703 -241.101821899414 2.819584369659
-39.524387359619 -78.654762268066 -241.602218627930 1.713587760925
-44.824737548828 -79.502616882324 -244.221588134766 1.371203899384
-27.276115417480 -80.172859191895 -244.362426757813 2.572771310806
18.986656188965 -80.642807006836 -244.228973388672 2.497337579727
-47.167560577393 -79.720039367676 -245.455215454102 1.117071628571
15.597843170166 -81.711921691895 -246.102996826172 0.780580699444
10.250346183777 -78.620788574219 -239.918304443359 2.380931377411
11.204543113708 -82.331779479980 -246.798126220703 1.514948844910
-43.069694519043 -77.967529296875 -248.096664428711 2.755674362183
21.485118865967 -81.557670593262 -248.060653686523 1.266836404800
-142.684295654297 -77.521530151367 -250.377685546875 3.845128059387
22.177967071533 -80.115608215332 -248.825485229492 1.453135848045
3.109823942184 -82.810562133789 -249.500442504883 1.098650097847
11.429496765137 -79.947616577148 -251.347457885742 1.939223051071
-150.026779174805 -75.713890075684 -256.595672607422 1.647365212440
-147.752273559570 -78.707603454590 -262.092559814453 3.049178361893
-142.224029541016 -79.019134521484 -263.763854980469 1.911987066269
-153.129898071289 -75.736114501953 -263.726165771484 1.897920846939
18.191690444946 -80.219116210938 -269.156219482422 0.779598712921
-151.203170776367 -75.007568359375 -273.974822998047 1.621381521225
-4.402835845947 -80.179168701172 -277.915313720703 2.612101554871
-150.076278686523 -73.476730346680 -276.196289062500 1.849483489990
-144.497497558594 -76.812347412109 -277.030609130859 3.030579090118
-150.632690429688 -76.390548706055 -278.659637451172 2.530177354813
-153.562316894531 -75.948753356934 -287.424865722656 2.565479278564
-134.200637817383 -75.700653076172 -289.505371093750 1.574193239212
-149.330154418945 -78.936264038086 -290.598754882813 2.160162687302
-148.308090209961 -83.068397521973 -291.609436035156 2.153383970261
-146.728576660156 -78.066596984863 -297.733184814453 2.692657947540
-151.597473144531 -76.325119018555 -296.146759033203 1.356196165085
-146.503631591797 -73.846275329590 -296.503753662109 1.811694383621
-150.280654907227 -76.818161010742 -302.185455322266 2.391237020493
-146.195678710938 -77.098747253418 -302.497100830078 0.832214117050
-147.713562011719 -76.006027221680 -303.119476318359 2.296324729919
-54.979274749756 -76.848167419434 -59.159034729004 2.442735195160
-60.304985046387 -77.636604309082 -61.440490722656 1.134269595146
-47.584884643555 -77.059707641602 -63.443737030029 1.824939489365
-28.735292434692 -79.650833129883 -73.966293334961 1.461468935013
-53.347011566162 -78.200767517090 -91.730895996094 1.857382416725
-86.306991577148 -80.703659057617 -102.779205322266 1.806053876877
49.634590148926 -81.700752258301 -107.352691650391 3.037431240082
-79.755729675293 -80.106529235840 -106.386054992676 0.666152775288
39.690166473389 -80.242370605469 -113.195800781250 2.043593883514
39.013813018799 -79.886131286621 -121.227653503418 2.471156835556
37.621967315674 -79.122772216797 -125.212440490723 1.267937302589
38.412826538086 -78.342025756836 -136.310485839844 1.451530337334
31.917867660522 -78.988075256348 -137.823715209961 1.118447780609
34.661701202393 -79.848297119141 -135.984863281250 1.825325131416
29.700422286987 -79.186508178711 -150.296035766602 1.059911608696
-43.031307220459 -78.407279968262 -148.874588012695 1.611042857170
28.386348724365 -79.139366149902 -142.903182983398 1.507882714272
-64.375648498535 -76.519050598145 -155.090438842773 1.303830265999
-39.281574249268 -80.077613830566 -155.472366333008 1.433856368065
-60.607021331787 -78.671051025391 -166.832763671875 1.218807458878
-41.707580566406 -78.174057006836 -160.793884277344 2.518851280212
30.520189285278 -80.053276062012 -156.319702148438 1.719229102135
-34.904872894287 -80.434814453125 -165.584091186523 1.122938275337
-3.179224967957 -78.596923828125 -168.688476562500 1.935288190842
31.292306900024 -79.678901672363 -160.423233032227 2.046639442444
-10.035916328430 -79.986022949219 -168.936950683594 1.289909958839
-61.529533386230 -76.437461853027 -165.866256713867 0.812633097172
-35.591434478760 -78.430053710938 -169.435394287109 1.125711679459
-27.807178497314 -76.518569946289 -175.013809204102 1.839574575424
27.609519958496 -80.153999328613 -174.989990234375 2.511077404022
-54.826286315918 -77.963790893555 -179.725738525391 1.013873815536
-30.219579696655 -76.546592712402 -177.814331054688 2.321154117584
23.937566757202 -80.468978881836 -181.230941772461 2.609398841858
-50.186958312988 -77.452018737793 -186.208633422852 1.382398128510
-25.070734024048 -76.921447753906 -188.469406127930 2.937402963638
-53.194072723389 -77.100761413574 -183.267242431641 1.304199218750
-38.479206085205 -79.598114013672 -196.979919433594 1.319308519363
-29.324216842651 -80.010559082031 -189.868255615234 1.474202752113
-41.499359130859 -78.609054565430 -196.489639282227 1.164309501648
-23.747640609741 -77.515403747559 -192.942504882813 2.037070512772
-133.935043334961 -76.971855163574 -199.839141845703 1.164496183395
17.844390869141 -79.454078674316 -201.154769897461 2.107973098755
-134.880493164063 -72.537872314453 -199.860977172852 1.516068100929
-22.868202209473 -77.041007995605 -198.893386840820 1.136301994324
-17.678831100464 -76.051399230957 -198.517822265625 1.696838259697
-40.108905792236 -76.367790222168 -196.974319458008 1.302037715912
16.393632888794 -79.978881835938 -192.253646850586 3.937448740005
-15.401774406433 -78.532203674316 -200.143478393555 1.534317851067
-60.592189788818 -77.234291076660 -207.740356445313 2.301432132721
-35.603065490723 -76.428054809570 -205.249267578125 0.335849374533
-65.275161743164 -75.955505371094 -208.708404541016 2.156151056290
-69.234092712402 -75.514457702637 -210.454101562500 1.410271048546
19.683944702148 -79.292945861816 -211.704193115234 3.727141141891
-84.655258178711 -78.308143615723 -214.773727416992 0.662154495716
-29.045316696167 -78.557334899902 -218.364486694336 1.886133313179
-80.303390502930 -78.609313964844 -215.759826660156 0.408106029034
-145.075729370117 -78.812797546387 -219.717483520508 2.360473155975
-7.833599090576 -78.161193847656 -216.079895019531 0.472007244825
-10.848025321960 -77.617782592773 -220.358062744141 2.393914461136
14.170372962952 -78.757835388184 -214.163131713867 1.071790456772
14.334569931030 -80.437774658203 -222.124465942383 0.711051166058
-2.563690900803 -78.663604736328 -232.488525390625 1.314344525337
-132.801864624023 -75.440269470215 -228.379852294922 1.423102259636
-146.808242797852 -78.831970214844 -231.285812377930 0.962933182716
-146.495727539063 -73.306404113770 -233.165023803711 2.345664978027
10.773450851440 -79.276916503906 -233.885818481445 1.659514069557
2.062552928925 -79.055343627930 -236.414901733398 1.685858964920
-23.735569000244 -77.471328735352 -238.107223510742 1.339568972588
-148.867431640625 -75.542938232422 -239.847045898438 1.477185606956
11.285266876221 -77.733253479004 -246.265640258789 0.780352175236
-23.855344772339 -78.400611877441 -244.717712402344 2.403369188309
19.509990692139 -77.225868225098 -238.716201782227 1.199049830437
-54.660327911377 -77.882270812988 -246.431579589844 1.786386370659
-50.292659759521 -75.961647033691 -248.701675415039 1.995585322380
-144.596466064453 -78.637870788574 -247.241104125977 1.722856402397
-62.083560943604 -76.948310852051 -248.248641967773 1.222808480263
-3.577606916428 -74.836715698242 -250.344924926758 3.955919027328
-9.027915000916 -79.681266784668 -257.906433105469 1.198733568192
-147.447357177734 -78.880317687988 -258.651458740234 1.483921408653
-133.722244262695 -75.702049255371 -259.785156250000 0.839720547199
-135.164199829102 -74.603645324707 -263.097137451172 1.667945981026
19.765459060669 -77.613479614258 -262.912078857422 2.099650859833
-144.732192993164 -78.169288635254 -272.818450927734 2.978824138641
18.832309722900 -82.133750915527 -270.812866210938 3.064939260483
-148.595474243164 -74.232406616211 -271.788452148438 3.258594512939
4.398153781891 -83.994194030762 -278.427093505859 2.787946701050
-145.839157104492 -76.118278503418 -284.457366943359 1.771090745926
4.488072872162 -77.647438049316 -285.078643798828 1.817637801170
-152.407852172852 -77.822341918945 -284.356811523438 2.561553239822
-140.819961547852 -75.536705017090 -290.098724365234 1.255033016205
-136.460830688477 -75.913970947266 -286.528533935547 1.421089172363
-147.992416381836 -80.938926696777 -292.859619140625 2.237310886383
-17.402078628540 -78.516761779785 -290.956207275391 2.228190183640
-153.425399780273 -76.279335021973 -293.722595214844 1.492257952690
-149.183990478516 -76.008445739746 -296.000640869141 1.115188837051
-148.016021728516 -74.181503295898 -312.741241455078 1.521467328072
-56.631507873535 -75.285087585449 -59.730117797852 2.692064762115
-38.624683380127 -77.348808288574 -63.148681640625 1.774655938148
-73.342597961426 -76.649154663086 -63.609809875488 1.695141911507
-27.916465759277 -76.366241455078 -70.746948242188 1.891185760498
-26.486970901489 -79.097908020020 -74.806915283203 1.071172595024
-85.088882446289 -76.377304077148 -85.020408630371 3.237096548080
88.012123107910 -77.972763061523 -84.872314453125 1.715370178223
-37.286735534668 -76.026969909668 -83.272651672363 2.901134967804
81.878669738770 -80.912284851074 -84.651046752930 3.144044876099
76.349533081055 -78.315574645996 -88.408332824707 2.229214429855
86.326698303223 -77.106132507324 -92.261741638184 1.329242467880
81.668952941895 -78.236717224121 -92.541069030762 0.930069923401
93.128105163574 -78.799697875977 -92.099792480469 2.058862924576
-89.662315368652 -72.863334655762 -96.774772644043 4.368802547455
53.012104034424 -77.541366577148 -106.279838562012 2.468636274338
-90.882339477539 -73.720260620117 -117.659072875977 1.400315165520
39.562274932861 -78.874458312988 -112.956886291504 1.405261754990
50.111316680908 -78.255729675293 -114.091049194336 2.767723321915
41.956504821777 -79.242637634277 -117.434280395508 0.663099944592
31.267101287842 -78.747467041016 -132.715057373047 1.125992298126
26.840379714966 -79.718322753906 -141.582733154297 0.990919649601
26.233528137207 -76.173049926758 -145.725311279297 1.059482336044
33.106914520264 -77.957672119141 -148.211257934570 1.325510978699
-49.034587860107 -77.894966125488 -154.207031250000 1.067150354385
-44.815326690674 -77.716377258301 -152.770065307617 1.655518293381
-40.937618255615 -78.274246215820 -155.897201538086 1.675144195557
27.626840591431 -80.195373535156 -150.273986816406 1.431885838509
24.033676147461 -77.737258911133 -169.374633789063 0.732162237167
-35.044273376465 -77.231903076172 -165.029174804688 2.178533792496
-33.886161804199 -76.631156921387 -159.681350708008 1.810064554214
-45.897163391113 -75.576385498047 -156.973953247070 2.156208038330
2.733719110489 -78.041328430176 -166.720855712891 2.146622896194
25.298597335815 -78.486358642578 -157.724075317383 1.884461879730
31.377244949341 -75.512069702148 -161.468399047852 2.306501865387
27.579038619995 -78.176132202148 -169.193206787109 1.946823120117
-9.020906448364 -77.228981018066 -170.779510498047 1.252379298210
-0.007441000082 -77.309417724609 -170.836685180664 1.993411064148
-55.083160400391 -76.017097473145 -173.173141479492 1.436509370804
-60.198123931885 -76.535575866699 -169.421142578125 1.220448017120
-37.885749816895 -78.158615112305 -174.207595825195 2.056301593781
-37.997669219971 -76.238746643066 -168.060806274414 2.248702287674
23.864862442017 -78.290618896484 -174.491485595703 1.723997712135
-20.120149612427 -79.968666076660 -179.119613647461 1.560788989067
-34.616428375244 -80.040718078613 -181.619796752930 1.988443732262
-59.378612518311 -78.253288269043 -180.201004028320 1.115903735161
105.679733276367 -80.603500366211 -180.970458984375 3.069074392319
20.742769241333 -78.450248718262 -171.599197387695 1.069283366203
-25.185491561890 -76.654060363770 -180.590133666992 0.597466409206
-48.900413513184 -75.137290954590 -182.443908691406 2.118809700012
-16.004457473755 -75.932518005371 -180.027526855469 2.421072244644
109.088539123535 -80.464477539063 -179.069732666016 3.882173538208
-47.723579406738 -77.585845947266 -183.813140869141 1.562700271606
17.332569122314 -78.738815307617 -185.529067993164 1.021214962006
26.466958999634 -77.991004943848 -181.839935302734 1.344695687294
-54.150062561035 -76.617546081543 -181.961334228516 2.190961837769
-22.034543991089 -76.112350463867 -182.958312988281 1.768782258034
-55.561176300049 -77.874946594238 -176.578811645508 1.300585865974
-32.276096343994 -72.782135009766 -182.634216308594 0.681686758995
-26.858407974243 -77.296943664551 -186.652847290039 1.632367014885
23.032350540161 -79.786560058594 -187.736495971680 1.998777031898
-49.728378295898 -77.452743530273 -188.445648193359 1.056704282761
105.069740295410 -80.293083190918 -190.477279663086 2.772604703903
-50.724643707275 -74.264236450195 -191.667114257813 1.258643865585
13.267030715942 -79.407920837402 -201.647262573242 2.202531337738
18.445196151733 -78.037551879883 -201.888687133789 1.423707127571
-45.486213684082 -76.601623535156 -190.984542846680 1.479876637459
-19.308128356934 -76.653556823730 -191.150421142578 1.295698046684
104.134643554688 -80.369766235352 -197.116851806641 3.442059516907
103.875503540039 -81.087829589844 -197.322326660156 4.134688377380
-45.380622863770 -74.303085327148 -191.327850341797 1.121439218521
-147.582427978516 -77.280670166016 -196.777587890625 2.079174041748
-47.300785064697 -75.557594299316 -200.496414184570 3.393666028976
-144.874374389648 -75.217147827148 -200.837951660156 1.057802081108
-135.325714111328 -73.609657287598 -203.367721557617 2.531749725342
-41.782688140869 -75.022308349609 -199.403381347656 2.215112686157
12.800108909607 -78.322952270508 -209.586196899414 1.191328525543
-16.710931777954 -76.819351196289 -203.485000610352 1.091710686684
16.358039855957 -79.463745117188 -204.761062622070 0.769867897034
91.561408996582 -80.793823242188 -210.283737182617 3.919315338135
-37.704158782959 -75.892547607422 -200.903732299805 1.381538391113
-10.020554542542 -78.847106933594 -207.836990356445 1.306117177010
-9.978105545044 -78.089385986328 -211.379837036133 0.895344913006
-37.028633117676 -77.298095703125 -210.200546264648 0.871668279171
10.740644454956 -79.804283142090 -207.408966064453 1.300582289696
-74.347526550293 -74.195816040039 -211.583618164063 1.413241147995
15.131916046143 -79.140304565430 -214.179336547852 1.820040225983
-35.356529235840 -76.373596191406 -210.137649536133 1.947169661522
-142.784774780273 -74.238021850586 -209.947540283203 2.903339385986
-144.720626831055 -73.435340881348 -213.857803344727 3.604490280151
-85.058731079102 -75.831390380859 -214.485458374023 2.706118583679
-33.892360687256 -76.280174255371 -211.923843383789 1.478681206703
-23.704080581665 -77.671844482422 -215.011840820313 1.613553643227
-27.830615997314 -77.615837097168 -213.850097656250 1.355334758759
-90.539878845215 -75.843032836914 -219.475433349609 0.983809173107
-86.532020568848 -75.585685729980 -216.616256713867 1.772050499916
10.721796989441 -77.632507324219 -221.001617431641 2.529466390610
-148.024581909180 -73.547218322754 -218.384017944336 2.537740707397
-11.364813804626 -76.942741394043 -213.885498046875 1.283409357071
8.875934600830 -80.572486877441 -218.987213134766 1.240833044052
-142.531036376953 -74.976211547852 -218.836944580078 3.620064258575
-19.628379821777 -78.760978698730 -222.105941772461 1.216991066933
-2.775609016418 -77.753204345703 -223.805557250977 1.805752635002
-1.553856015205 -78.658973693848 -219.451522827148 1.646277308464
-151.524505615234 -74.138961791992 -225.405151367188 2.653868198395
-135.088287353516 -73.059120178223 -227.713989257813 0.786571204662
-5.123486995697 -77.333641052246 -225.608352661133 0.536578059196
-148.287612915039 -78.712509155273 -229.660064697266 1.176982998848
1.749035954475 -77.038070678711 -231.699172973633 0.556490838528
17.958383560181 -76.463729858398 -233.298309326172 1.508654713631
-0.872713029385 -75.943443298340 -236.141632080078 0.962096393108
2.343019008636 -77.418540954590 -235.948104858398 0.660933256149
8.719598770142 -81.187950134277 -234.120971679688 2.367929935455
-149.456771850586 -74.700859069824 -235.943557739258 1.753581047058
-17.790271759033 -76.935821533203 -239.217834472656 1.097242355347
-32.346813201904 -79.872344970703 -241.252426147461 1.591927289963
7.860606193542 -75.312179565430 -232.115142822266 1.188964128494
0.431843996048 -76.654510498047 -238.513763427734 1.331928491592
5.530032157898 -78.611129760742 -236.282455444336 2.333406686783
-52.526554107666 -75.955635070801 -242.746856689453 1.725404381752
-149.660293579102 -73.509170532227 -247.505935668945 2.660437583923
-150.696182250977 -74.926139831543 -250.115997314453 2.330045938492
11.163337707520 -79.243194580078 -248.209426879883 1.918900966644
21.980213165283 -78.818885803223 -248.870269775391 0.808088958263
-58.425472259521 -76.086296081543 -249.824432373047 1.343252420425
-145.502029418945 -73.957519531250 -254.980972290039 1.976436734200
-152.256347656250 -77.176109313965 -256.333862304688 3.060984849930
-148.325744628906 -78.092140197754 -258.800384521484 1.437353491783
-142.413879394531 -75.768882751465 -260.925415039063 1.382816791534
-135.765838623047 -74.958160400391 -258.431793212891 0.878096878529
-11.508912086487 -77.122146606445 -258.394500732422 1.881242752075
-143.825500488281 -74.763473510742 -266.551940917969 2.697077512741
-10.703676223755 -79.495147705078 -262.964813232422 2.578253984451
-148.279907226563 -74.815536499023 -277.757720947266 1.435348629951
-148.348129272461 -75.889389038086 -284.320556640625 2.549503087997
-150.953109741211 -76.378013610840 -283.510589599609 1.910504341125
-3.400106906891 -74.659774780273 -287.825622558594 1.288472175598
-142.658630371094 -72.184951782227 -287.617462158203 2.611216306686
-32.463188171387 -76.468116760254 -285.900787353516 1.487930059433
-31.110961914063 -75.069343566895 -290.142822265625 1.936161875725
-18.194847106934 -77.022956848145 -288.384368896484 0.921044766903
-8.603965759277 -77.397949218750 -290.366516113281 2.095918178558
16.482793807983 -78.442977905273 -293.178070068359 1.885083079338
-124.566284179688 -74.226448059082 -290.174987792969 1.729533791542
-55.333362579346 -77.169151306152 -289.212036132813 1.227196931839
-37.913059234619 -76.175720214844 -292.119110107422 1.552981972694
-32.207515716553 -77.552482604980 -291.225677490234 1.574990034103
-8.756896972656 -77.618499755859 -290.647674560547 1.903702855110
6.641475200653 -76.960273742676 -289.402069091797 0.748192965984
-141.128890991211 -76.913002014160 -294.032196044922 3.791976451874
9.013240814209 -78.840377807617 -293.122131347656 2.598305463791
-152.065734863281 -75.593223571777 -304.051330566406 2.767743587494
-148.061721801758 -74.551109313965 -302.577148437500 3.530020236969
-151.045227050781 -73.870643615723 -312.620880126953 1.077525377274
-145.783126831055 -74.353538513184 -312.881134033203 0.725005447865
-50.317207336426 -74.320106506348 -55.533153533936 1.627099156380
-54.168464660645 -75.017868041992 -57.829589843750 1.880577683449
-65.211242675781 -74.531555175781 -57.099296569824 1.873895645142
-43.149448394775 -75.781211853027 -59.541500091553 1.580308675766
-38.141170501709 -73.536331176758 -60.396095275879 3.090553760529
-22.393712997437 -73.931159973145 -65.846954345703 2.017333745956
-81.865394592285 -74.913124084473 -68.747360229492 2.130760431290
82.520523071289 -78.073493957520 -80.156501770020 1.891896843910
-89.292488098145 -74.917503356934 -83.843200683594 1.984394311905
84.924484252930 -80.234687805176 -82.561462402344 2.905465841293
86.568077087402 -79.031440734863 -84.079093933105 2.759855508804
94.148849487305 -78.118919372559 -85.690116882324 2.310067892075
-58.512584686279 -79.895210266113 -95.389999389648 1.826372146606
85.350646972656 -79.132331848145 -94.752952575684 3.264241695404
80.717163085938 -77.702079772949 -93.862297058105 1.379692554474
90.411102294922 -80.341011047363 -91.824645996094 3.517916202545
-61.642166137695 -78.579299926758 -98.652587890625 2.639402866364
55.201862335205 -77.313903808594 -98.044792175293 1.508669137955
46.765460968018 -78.430152893066 -106.900276184082 1.521087050438
41.324310302734 -78.282043457031 -107.171455383301 2.383764266968
39.009704589844 -77.481597900391 -110.139724731445 0.501741111279
-90.804992675781 -74.264221191406 -114.456779479980 2.495974302292
36.761932373047 -78.743423461914 -118.778327941895 2.126857042313
-83.288436889648 -75.545173645020 -112.998733520508 2.653871536255
43.477909088135 -79.079933166504 -125.239540100098 1.200152516365
34.620376586914 -78.136772155762 -123.291000366211 0.860259413719
34.004440307617 -78.171295166016 -123.756370544434 1.563914656639
43.297096252441 -77.464721679688 -121.971084594727 2.585909605026
40.523963928223 -79.729217529297 -127.842330932617 2.046281337738
-53.563739776611 -71.726882934570 -139.026473999023 2.249168872833
37.183860778809 -78.868461608887 -135.977081298828 1.731868505478
37.424957275391 -77.689544677734 -142.468475341797 1.398081183434
-49.221378326416 -72.226921081543 -140.706756591797 1.839813470840
-47.449989318848 -76.966285705566 -142.208969116211 1.398178696632
35.506557464600 -78.683334350586 -144.787872314453 1.265340089798
111.354888916016 -78.416999816895 -142.992935180664 3.013066768646
113.457145690918 -78.762664794922 -143.414794921875 3.468693017960
27.914352416992 -78.828575134277 -145.732284545898 1.835525989532
-41.403511047363 -75.837203979492 -149.156463623047 1.669974327087
113.039199829102 -80.768730163574 -157.570358276367 3.813026428223
-40.904373168945 -75.363197326660 -156.022811889648 2.640107631683
-65.263153076172 -76.876358032227 -160.583541870117 1.127774953842
111.788658142090 -79.843704223633 -163.362792968750 2.796431779861
24.859924316406 -78.094879150391 -165.677871704102 2.142129898071
0.748288989067 -77.900512695313 -165.293426513672 2.134931325912
113.729820251465 -80.401359558105 -156.559906005859 3.883327007294
-62.507545471191 -76.095306396484 -164.010238647461 0.694782733917
-35.283233642578 -77.277893066406 -161.861511230469 0.784043371677
113.247833251953 -78.507270812988 -165.486968994141 2.752406120300
29.223131179810 -75.798187255859 -159.689620971680 1.685407042503
-63.861461639404 -74.612457275391 -169.212081909180 1.137779355049
110.602294921875 -78.732147216797 -170.031738281250 1.984276890755
-63.647800445557 -77.327758789063 -170.044677734375 2.677589178085
-51.395854949951 -77.372497558594 -179.211624145508 1.048684477806
107.081474304199 -78.357376098633 -175.385025024414 2.920213699341
-60.343727111816 -74.766815185547 -170.353210449219 1.477642536163
112.723182678223 -79.149467468262 -174.783386230469 2.579629182816
-58.231052398682 -77.027603149414 -174.338760375977 1.296809315681
-12.621212005615 -76.286384582520 -178.001754760742 1.104197263718
-10.998104095459 -77.609504699707 -180.063720703125 2.124704599380
108.138336181641 -79.796005249023 -172.898391723633 2.520775556564
22.088504791260 -77.095771789551 -171.815841674805 2.384157180786
29.545665740967 -78.424339294434 -171.171051025391 2.052264928818
-54.405773162842 -76.661773681641 -178.370666503906 2.066075563431
19.919412612915 -77.141242980957 -184.727767944336 2.240324497223
-56.482196807861 -75.764045715332 -179.571487426758 1.593722701073
-50.228744506836 -74.235160827637 -189.558364868164 0.910776972771
15.239809989929 -77.245666503906 -182.978530883789 1.225108504295
-58.772964477539 -74.841217041016 -184.082611083984 2.673769474030
109.946487426758 -78.107582092285 -185.947937011719 2.999318599701
23.163011550903 -77.682304382324 -181.494094848633 2.100199460983
-30.660264968872 -76.329216003418 -189.550308227539 1.036998867989
-42.173347473145 -74.367370605469 -194.848312377930 2.852516174316
11.947551727295 -76.170547485352 -196.585769653320 1.527012586594
-19.973381042480 -77.258148193359 -191.233291625977 1.141649127007
