-4.836139202118 -69.277671813965 -234.405914306641 1.572561264038
-1.909546017647 -68.389190673828 -238.282592773438 1.139696121216
67.510116577148 -69.797767639160 -236.529983520508 1.884778618813
-15.097409248352 -70.660102844238 -237.291656494141 2.638451337814
2.270724058151 -68.279434204102 -238.945007324219 0.754290699959
9.439034461975 -68.474319458008 -241.859497070313 1.181353330612
5.326228141785 -70.168579101563 -239.705459594727 1.172102570534
-0.769805014133 -70.864822387695 -241.162582397461 1.993482828140
64.837570190430 -70.319419860840 -237.980529785156 1.548370361328
68.583518981934 -69.573921203613 -240.115875244141 1.830731630325
11.322760581970 -70.109741210938 -243.597747802734 2.006691217422
56.907142639160 -68.816207885742 -241.186721801758 0.641369760036
55.173011779785 -71.313461303711 -240.742858886719 1.706815958023
45.736057281494 -67.104324340820 -246.326385498047 1.758417367935
37.058612823486 -70.208305358887 -251.425964355469 2.584213018417
38.783992767334 -69.509994506836 -253.377624511719 1.739158391953
-135.725708007813 -67.847160339355 -255.497772216797 1.458086848259
-15.262531280518 -70.686538696289 -253.324844360352 1.346292972565
24.124195098877 -70.372947692871 -258.962707519531 1.945163488388
46.230907440186 -69.522773742676 -252.955307006836 1.376073479652
22.907434463501 -67.390716552734 -255.984176635742 1.797852754593
-101.994216918945 -66.959587097168 -259.703369140625 0.772576630116
31.868679046631 -68.468566894531 -256.208496093750 1.224019765854
-151.703598022461 -67.757621765137 -260.757598876953 2.159116506577
-117.320388793945 -65.413688659668 -260.353851318359 1.730021476746
-105.991477966309 -67.720726013184 -256.957122802734 1.199145317078
-7.892574787140 -67.663146972656 -259.854675292969 1.347341060638
-151.930175781250 -70.033264160156 -257.625244140625 2.564641237259
30.610363006592 -67.230895996094 -259.376007080078 1.341105937958
-113.807136535645 -68.113464355469 -257.744476318359 0.457271665335
26.444606781006 -68.822990417480 -259.474914550781 1.027707815170
-135.376586914063 -65.764266967773 -261.093811035156 0.825540184975
-118.516670227051 -67.147529602051 -261.044891357422 2.250800371170
-107.707733154297 -65.466651916504 -260.862731933594 2.200970411301
-117.872817993164 -66.584869384766 -264.126434326172 1.035269141197
-138.918563842773 -68.092880249023 -263.684844970703 2.277911424637
26.478164672852 -68.171005249023 -263.365539550781 1.197932481766
-119.509216308594 -66.365135192871 -265.687164306641 2.510009765625
-144.935302734375 -68.391799926758 -266.929260253906 1.940236330032
-6.443016052246 -69.167640686035 -272.462524414063 2.063961982727
-154.306259155273 -67.733558654785 -282.487396240234 2.538268327713
-9.912731170654 -69.112136840820 -282.629821777344 1.907474994659
-5.558428764343 -69.186019897461 -286.795837402344 1.472402811050
-135.893478393555 -68.777488708496 -287.072601318359 1.133092641830
-124.629356384277 -66.035461425781 -289.493347167969 0.860627174377
-138.241394042969 -66.459465026855 -292.893676757813 3.051737546921
-128.319320678711 -68.948196411133 -295.882446289063 2.020843982697
-153.173782348633 -68.772354125977 -296.305969238281 1.818209052086
-153.353027343750 -68.779151916504 -302.167236328125 1.948065161705
-149.370010375977 -70.123901367188 -303.174774169922 3.920196294785
-151.776489257813 -64.980407714844 -300.614471435547 1.686041355133
-145.362487792969 -68.232933044434 -302.952026367188 2.081166744232
-147.506500244141 -66.988273620605 -303.701080322266 2.089324474335
-149.959167480469 -67.437927246094 -312.735076904297 1.169813036919
19.697160720825 -73.844894409180 -31.067741394043 2.618935823441
46.389007568359 -72.848701477051 -35.278892517090 1.121235132217
25.649774551392 -74.788154602051 -39.268604278564 3.703111171722
31.332542419434 -73.005516052246 -41.180469512939 1.738284468651
-46.522079467773 -67.848770141602 -49.196899414063 2.023983001709
-80.925483703613 -69.322021484375 -51.503337860107 1.890876054764
78.911407470703 -68.875602722168 -62.810180664063 1.818794369698
76.645172119141 -68.335327148438 -62.683353424072 1.693037152290
68.617721557617 -69.935279846191 -68.180923461914 3.262361049652
-98.676307678223 -67.548980712891 -74.084754943848 3.348941802979
98.919288635254 -71.102531433105 -75.310623168945 1.731507539749
-36.485614776611 -65.975715637207 -78.230293273926 2.080795764923
65.927947998047 -70.277633666992 -78.344085693359 2.828081130981
-45.778278350830 -66.853660583496 -81.159927368164 1.583198428154
-52.433090209961 -67.034919738770 -83.658226013184 2.480037927628
49.162731170654 -70.654144287109 -90.516761779785 1.187371850014
100.531150817871 -70.837181091309 -89.838516235352 0.986630558968
63.984321594238 -67.967941284180 -95.307723999023 2.659105062485
55.590805053711 -69.083953857422 -95.545883178711 2.461566925049
47.534484863281 -69.809364318848 -102.213783264160 2.403527498245
57.229251861572 -67.847854614258 -98.257888793945 1.111387372017
103.137535095215 -69.144920349121 -99.071380615234 1.131252169609
69.505187988281 -70.900184631348 -106.032653808594 5.178904533386
47.444370269775 -68.840507507324 -106.641372680664 0.951036989689
76.380928039551 -70.747840881348 -106.654342651367 2.488273859024
89.309791564941 -68.571456909180 -110.092445373535 3.216385126114
-80.157882690430 -68.937301635742 -108.806678771973 2.025018453598
-88.308906555176 -70.150390625000 -110.680503845215 2.834156751633
-85.679664611816 -69.329925537109 -115.563171386719 2.753025054932
-62.114719390869 -67.044075012207 -118.218482971191 1.483490824699
-57.619964599609 -71.551704406738 -124.874511718750 3.043763399124
-95.679222106934 -66.586311340332 -122.435516357422 1.756017088890
-79.384193420410 -67.774391174316 -121.035629272461 0.939738094807
-78.235328674316 -69.361137390137 -130.233444213867 1.722767949104
-62.815082550049 -69.452919006348 -128.491683959961 1.694889187813
-90.722389221191 -63.879337310791 -130.820159912109 1.770625829697
-93.013679504395 -68.457710266113 -130.364913940430 2.987131118774
-50.432987213135 -70.619117736816 -137.276779174805 1.247458934784
-55.943454742432 -66.171676635742 -136.530136108398 1.939030766487
-78.257476806641 -66.406898498535 -139.395233154297 1.582066416740
-56.090747833252 -67.977249145508 -143.113433837891 0.819468021393
-76.421920776367 -68.148284912109 -145.150909423828 2.076654434204
21.133245468140 -67.337585449219 -140.292068481445 1.233202219009
-59.332778930664 -68.759017944336 -146.463668823242 3.147409200668
-53.559345245361 -67.507583618164 -146.832412719727 0.919859290123
10.225388526917 -69.820266723633 -154.909988403320 2.446603536606
13.305983543396 -67.413879394531 -152.540725708008 1.611342430115
-145.097778320313 -65.684349060059 -176.613845825195 1.695653200150
-110.235130310059 -69.182365417480 -180.375610351563 1.335961818695
-109.240470886230 -67.363624572754 -188.502456665039 2.520910739899
-151.443908691406 -67.839462280273 -195.083251953125 1.886402010918
-113.287925720215 -66.993713378906 -186.085479736328 1.324179887772
-154.491607666016 -65.243553161621 -196.826614379883 1.479778528214
-115.746543884277 -64.571075439453 -197.607650756836 1.325801610947
-148.908233642578 -67.679573059082 -199.756561279297 1.310748696327
-152.596664428711 -69.907402038574 -205.111770629883 2.189195156097
-153.652542114258 -69.634284973145 -212.093780517578 3.673517465591
-146.794311523438 -67.726539611816 -222.820510864258 1.856697916985
-154.191970825195 -69.669960021973 -224.273864746094 1.966236829758
-105.854362487793 -67.420936584473 -223.543029785156 1.507273435593
-104.561241149902 -67.181396484375 -226.767074584961 1.209725022316
-124.588088989258 -63.965919494629 -227.631988525391 1.289706230164
-111.598037719727 -64.944419860840 -228.262496948242 1.224997282028
-156.262130737305 -68.846984863281 -232.630996704102 2.474150180817
-4.393506050110 -69.107666015625 -229.716384887695 1.826367139816
-134.257720947266 -65.483993530273 -231.349563598633 0.774424314499
-156.181350708008 -68.584533691406 -236.286193847656 1.314697146416
-135.960891723633 -66.432098388672 -235.276245117188 2.451887369156
-12.948810577393 -69.113334655762 -241.064971923828 1.465746521950
6.567752838135 -69.947639465332 -242.845886230469 1.900277137756
61.662139892578 -66.592514038086 -241.578048706055 0.499429672956
18.231306076050 -69.161308288574 -247.944641113281 1.304853796959
58.718181610107 -67.982437133789 -246.684005737305 1.837948679924
40.133396148682 -67.122825622559 -247.336791992188 3.309036493301
52.960838317871 -68.969253540039 -249.767471313477 1.077494263649
-152.848388671875 -67.375778198242 -253.102264404297 1.926954269409
-154.260696411133 -67.770889282227 -253.668289184570 2.191376686096
40.427524566650 -70.463943481445 -255.608779907227 1.066205024719
29.985723495483 -66.815277099609 -259.196960449219 1.326732397079
46.102264404297 -67.257507324219 -250.851409912109 1.571215391159
-144.905624389648 -68.913757324219 -256.642120361328 2.337649345398
-136.024032592773 -65.658676147461 -256.510406494141 1.633472681046
-127.208335876465 -66.280525207520 -257.716339111328 1.834142446518
-135.359527587891 -65.347190856934 -257.929412841797 1.243528485298
-142.415786743164 -64.935699462891 -259.142456054688 1.553974032402
-125.218582153320 -66.550819396973 -258.621856689453 0.778745532036
-143.475219726563 -66.467491149902 -261.302215576172 1.680616974831
-126.537132263184 -67.443588256836 -262.146240234375 1.996174216270
-126.895820617676 -63.955509185791 -263.217651367188 1.693265676498
-126.849983215332 -69.211158752441 -264.439178466797 1.708130359650
-119.215522766113 -66.714576721191 -263.053894042969 1.250032901764
-5.717230796814 -68.553916931152 -265.550018310547 1.893487930298
25.971998214722 -69.887504577637 -263.515838623047 1.769548416138
-147.727935791016 -68.601058959961 -266.236145019531 1.318744182587
26.961576461792 -65.787551879883 -267.022399902344 1.121480941772
-5.832677841187 -67.369773864746 -270.838226318359 1.485791921616
15.131416320801 -71.731079101563 -284.447967529297 2.483251333237
-143.611648559570 -67.241813659668 -290.147552490234 1.741397976875
-126.276275634766 -65.486244201660 -288.747100830078 1.436459541321
-135.302810668945 -66.551864624023 -288.268920898438 1.092100501060
-158.247039794922 -64.580230712891 -290.682250976563 2.328186988831
-125.704887390137 -66.036994934082 -289.593658447266 0.881471753120
-118.810440063477 -64.177474975586 -289.968048095703 1.493502497673
-128.242156982422 -65.598670959473 -292.243865966797 1.919940114021
-151.880493164063 -67.814392089844 -297.193908691406 1.962507605553
26.100662231445 -72.901672363281 -14.387090682983 2.147777080536
29.527116775513 -74.221748352051 -18.648857116699 1.996890902519
37.165069580078 -74.252082824707 -18.525959014893 3.494383096695
45.727077484131 -65.974517822266 -25.210815429688 1.517258048058
23.235378265381 -73.122940063477 -28.167343139648 2.153863668442
22.293691635132 -73.224899291992 -34.609432220459 2.250277042389
-37.525981903076 -68.786941528320 -46.715393066406 2.570252180099
-84.223922729492 -68.613479614258 -52.284980773926 2.202610969543
-16.199684143066 -68.385894775391 -57.443836212158 1.347157955170
68.710571289063 -68.514564514160 -65.997016906738 3.224703073502
95.887100219727 -69.204002380371 -67.921707153320 3.163830757141
62.789615631104 -68.933181762695 -81.310699462891 2.691221237183
60.470794677734 -65.203926086426 -82.028366088867 1.704959869385
99.886329650879 -66.557601928711 -83.763412475586 2.919912338257
-64.452102661133 -65.684059143066 -89.148826599121 1.571797609329
-65.622627258301 -65.638580322266 -93.729957580566 1.757368683815
46.621269226074 -67.119644165039 -95.264236450195 1.646589994431
-65.717559814453 -65.389686584473 -97.316947937012 1.771669983864
-71.127037048340 -65.304344177246 -100.097663879395 1.596851825714
-101.767013549805 -64.575736999512 -97.442802429199 3.131002187729
-75.546493530273 -66.257324218750 -101.490791320801 1.337710499763
46.015930175781 -68.252296447754 -103.211547851563 2.588265895844
-72.244117736816 -68.330650329590 -104.083396911621 1.298120856285
49.671730041504 -68.238456726074 -100.584663391113 2.305366754532
95.837364196777 -70.281837463379 -103.206390380859 1.449634194374
89.802742004395 -68.998497009277 -107.841354370117 1.992544889450
-76.393463134766 -67.403343200684 -112.875617980957 1.753474831581
-83.439414978027 -67.115646362305 -112.318351745605 2.086299419403
-64.206909179688 -65.771942138672 -119.659477233887 2.309589385986
-97.572746276855 -65.907073974609 -119.241020202637 1.260478734970
-78.987060546875 -69.131912231445 -128.649673461914 1.852888464928
-92.786094665527 -63.331912994385 -125.830612182617 2.961454868317
-64.769515991211 -65.556373596191 -120.947792053223 1.680316925049
-61.564693450928 -65.589385986328 -118.904075622559 1.119471907616
-89.290527343750 -64.635002136230 -130.207275390625 0.295510023832
-63.519504547119 -68.583084106445 -129.730087280273 1.546369552612
-84.816864013672 -65.764480590820 -129.406005859375 1.502682209015
-74.018707275391 -67.469635009766 -132.828186035156 1.774190425873
-67.367424011230 -67.762619018555 -131.813308715820 4.761215209961
-62.599605560303 -64.159576416016 -136.738250732422 2.273300886154
-55.555934906006 -66.623794555664 -138.582061767578 1.604680180550
-93.245094299316 -66.371955871582 -136.148605346680 1.845276117325
-98.456596374512 -66.878273010254 -142.542068481445 2.872457981110
-88.018569946289 -68.032287597656 -136.180068969727 1.214040279388
22.021852493286 -68.919342041016 -147.011611938477 1.659173488617
-51.453475952148 -67.738601684570 -144.415512084961 1.276405453682
13.460717201233 -65.639633178711 -148.903915405273 0.991028606892
-99.731758117676 -65.234710693359 -162.772186279297 1.708759307861
-101.231948852539 -65.301002502441 -172.105606079102 1.841394066811
-101.550918579102 -63.077171325684 -172.268707275391 2.794107913971
-109.753204345703 -67.384849548340 -168.779541015625 3.413872480392
-107.137954711914 -67.790908813477 -182.588317871094 1.791955471039
-111.010879516602 -64.088668823242 -180.209732055664 1.680145859718
-144.998672485352 -66.262252807617 -188.434082031250 1.578898191452
-112.623664855957 -65.884155273438 -188.107803344727 1.082658290863
-134.701385498047 -62.710540771484 -194.519821166992 2.805519342422
-146.956329345703 -67.986564636230 -198.888290405273 1.836429238319
-125.173736572266 -66.562393188477 -198.361923217773 2.922809362411
-156.855743408203 -67.538291931152 -199.187820434570 2.613531827927
-146.237075805664 -65.685676574707 -201.643478393555 1.505619883537
-123.550086975098 -62.821788787842 -200.909469604492 0.811787188053
-135.810836791992 -66.296585083008 -204.333938598633 1.816795468330
-146.766311645508 -65.475471496582 -209.261642456055 2.322208166122
-134.099731445313 -66.673248291016 -224.506240844727 0.913778424263
-114.048576354980 -65.087654113770 -228.744430541992 1.769332647324
-150.391372680664 -67.537605285645 -229.551452636719 0.894503414631
-118.582908630371 -63.999355316162 -231.292892456055 2.687984943390
-112.333221435547 -65.271102905273 -232.887420654297 2.379611492157
-125.905616760254 -66.757926940918 -235.379806518555 0.766171038151
-129.964538574219 -67.558021545410 -235.970291137695 2.268675804138
-118.768424987793 -63.655830383301 -235.817276000977 2.659016847610
1.292291998863 -67.872062683105 -235.543045043945 0.992355227470
-151.581268310547 -66.500640869141 -236.718002319336 1.529941439629
5.952587127686 -69.855148315430 -233.061721801758 1.047670960426
6.736139774323 -65.691108703613 -240.425582885742 1.490642666817
-0.064179003239 -68.328704833984 -240.204528808594 1.146504759789
13.356621742249 -65.810462951660 -240.794158935547 2.253311634064
-146.213821411133 -66.760437011719 -237.419433593750 1.803625702858
-5.148106098175 -66.672462463379 -245.322174072266 2.877086162567
17.958066940308 -65.112556457520 -243.324844360352 1.285743117332
45.993709564209 -66.154304504395 -248.838882446289 1.500498175621
49.485137939453 -66.726089477539 -246.675064086914 1.616245627403
-148.550079345703 -67.131004333496 -252.781799316406 2.007240295410
-7.863186836243 -68.291175842285 -253.820129394531 2.564437627792
26.527599334717 -67.066711425781 -257.561553955078 0.810108542442
-134.864303588867 -62.297016143799 -260.468688964844 2.874221801758
-128.994659423828 -64.097198486328 -262.121734619141 2.151155471802
-128.571868896484 -65.363777160645 -259.192077636719 2.217918395996
24.043125152588 -66.960105895996 -261.167663574219 2.108389616013
-137.718887329102 -66.093650817871 -264.456024169922 3.472604036331
27.146087646484 -67.841659545898 -260.666778564453 1.118908643723
28.925111770630 -67.365112304688 -265.287414550781 1.788179755211
-153.906036376953 -66.082359313965 -265.937255859375 2.854864358902
-149.343734741211 -69.314048767090 -289.400268554688 1.336264371872
-154.152435302734 -66.091865539551 -291.146789550781 1.995902895927
-144.520767211914 -64.375389099121 -291.838226318359 1.076531291008
6.719765186310 -68.897689819336 -293.931671142578 1.968691587448
-155.854309082031 -65.248100280762 -295.942565917969 2.406535863876
42.681751251221 -73.601829528809 -26.837100982666 3.576508522034
33.563964843750 -73.770927429199 -41.061702728271 2.119181394577
-67.535049438477 -67.436248779297 -46.907844543457 2.551510095596
-76.906356811523 -65.416236877441 -46.660621643066 2.009814262390
-29.816747665405 -67.911033630371 -51.140487670898 1.423242807388
-23.750703811646 -68.677703857422 -57.583110809326 2.872650861740
-15.864608764648 -66.498382568359 -67.418991088867 1.582872986794
-27.941576004028 -65.247291564941 -70.897560119629 2.653145551682
64.374923706055 -68.183425903320 -72.889099121094 3.888273954391
-99.978507995605 -65.012123107910 -80.333061218262 4.137228488922
-50.497070312500 -66.472976684570 -84.306869506836 0.781265556812
52.443447113037 -67.039848327637 -85.382461547852 2.236672639847
54.295360565186 -67.853134155273 -88.428649902344 1.560908436775
65.544754028320 -67.860046386719 -88.240180969238 1.428618431091
102.247932434082 -68.138412475586 -92.811729431152 1.890201330185
51.331745147705 -65.854759216309 -93.036148071289 2.094477415085
97.258796691895 -68.903007507324 -101.686027526855 1.200563549995
-81.294456481934 -67.589439392090 -103.609626770020 1.556678533554
-99.849578857422 -67.535995483398 -104.536598205566 2.952001571655
75.056083679199 -67.203567504883 -110.134262084961 3.315073251724
-78.142250061035 -64.875526428223 -103.265953063965 2.165758848190
-81.133460998535 -67.831687927246 -118.794975280762 2.980482816696
-85.516960144043 -65.329299926758 -119.891593933105 1.392874479294
-56.824726104736 -67.531425476074 -127.032455444336 1.379991650581
-81.503677368164 -65.971336364746 -127.411811828613 1.199822545052
-63.218532562256 -67.812805175781 -131.790008544922 0.699379920959
-81.601547241211 -68.490554809570 -135.323410034180 1.942579507828
-76.419189453125 -63.978790283203 -133.624862670898 1.472654938698
-82.950805664063 -62.848258972168 -126.662231445313 1.282252669334
-88.945091247559 -64.742462158203 -130.538787841797 0.308045983315
-63.960079193115 -66.054679870605 -132.689346313477 2.435105085373
-92.048934936523 -65.732398986816 -134.876647949219 1.070194840431
-52.533405303955 -67.627647399902 -134.343627929688 2.070882320404
-56.848670959473 -67.221023559570 -141.158264160156 1.860141873360
25.108789443970 -67.506217956543 -137.901382446289 2.560267448425
-60.587497711182 -62.888660430908 -137.437606811523 1.578563809395
11.689117431641 -68.182937622070 -147.004531860352 2.259577035904
18.019224166870 -66.431579589844 -148.898956298828 2.338049650192
16.366548538208 -66.307785034180 -152.572906494141 0.949655115604
-98.707633972168 -66.550071716309 -145.856216430664 1.675580859184
-96.040641784668 -66.097938537598 -154.716293334961 2.697390556335
-98.826225280762 -61.980640411377 -154.066772460938 1.596287608147
-101.312500000000 -65.849494934082 -157.888595581055 1.684420108795
-96.342155456543 -64.416114807129 -159.739746093750 1.461159229279
-153.105300903320 -70.119804382324 -177.080337524414 0.759208261967
-155.025421142578 -66.557113647461 -177.919998168945 2.983700275421
-107.325592041016 -66.132804870605 -184.482223510742 1.658293724060
-144.566192626953 -62.146404266357 -179.547348022461 2.230577945709
-112.359039306641 -65.536338806152 -180.462875366211 2.847191572189
-152.642501831055 -64.657234191895 -188.761260986328 1.940545082092
-114.310760498047 -65.231643676758 -194.290893554688 2.468040466309
-108.927291870117 -64.840621948242 -188.327789306641 0.996585547924
-144.476089477539 -65.852493286133 -197.313247680664 2.389013528824
-135.511322021484 -65.492301940918 -199.187515258789 2.257243156433
-109.944381713867 -65.163475036621 -199.504623413086 1.683598518372
-116.995506286621 -65.181282043457 -201.543746948242 1.544104218483
-114.883888244629 -63.808784484863 -202.481872558594 0.699522614479
-115.464637756348 -64.242942810059 -204.696640014648 1.428705453873
-135.369277954102 -64.114501953125 -200.255615234375 1.404512643814
-136.193771362305 -64.898475646973 -201.596893310547 2.475639581680
-133.718780517578 -66.083175659180 -203.507736206055 0.780727982521
-125.962844848633 -62.750003814697 -204.126296997070 1.430620312691
-126.643272399902 -64.213294982910 -207.831771850586 3.161220312119
-118.300048828125 -63.315021514893 -205.909729003906 2.608252286911
-147.701873779297 -65.422393798828 -218.299163818359 1.866780281067
-152.368515014648 -65.262512207031 -226.042022705078 3.244626045227
-155.956588745117 -62.219165802002 -224.935546875000 2.100553035736
-143.042282104492 -67.356933593750 -226.435623168945 1.344559669495
-136.089920043945 -64.163200378418 -228.685440063477 1.539734244347
-126.548751831055 -66.134696960449 -225.264511108398 0.497765034437
-143.049926757813 -63.854614257813 -231.002777099609 1.990559101105
-150.480468750000 -67.139427185059 -231.023193359375 2.050514221191
-139.125549316406 -64.858070373535 -227.741165161133 2.325996637344
-133.906997680664 -62.855442047119 -229.879989624023 1.189651727676
-150.336105346680 -66.329048156738 -232.681015014648 2.973462104797
-136.028152465820 -64.552192687988 -234.279037475586 2.948390722275
-126.839660644531 -62.541595458984 -230.859741210938 1.762045502663
-8.557111740112 -68.535263061523 -237.929840087891 1.662208795547
2.463943004608 -66.043754577637 -238.520294189453 1.098310112953
9.967155456543 -65.581275939941 -242.956634521484 1.331559538841
9.586516380310 -66.824401855469 -243.174026489258 0.430653989315
-10.938634872437 -67.176879882813 -245.143218994141 0.745145440102
-12.708800315857 -64.412071228027 -248.623916625977 1.826377749443
41.583843231201 -63.629085540771 -252.943878173828 1.207220673561
48.420345306396 -67.618606567383 -251.124343872070 0.715336799622
-146.707901000977 -63.141227722168 -257.139923095703 1.176777243614
40.489768981934 -65.560676574707 -257.548522949219 0.939458310604
32.741344451904 -65.655288696289 -253.190353393555 1.761036992073
-158.680603027344 -63.007354736328 -259.174285888672 3.247984170914
-152.723297119141 -62.802158355713 -261.149261474609 1.129396200180
-148.947158813477 -66.821174621582 -262.426574707031 2.551986932755
0.744180977345 -66.366645812988 -265.176727294922 1.670105814934
-154.549560546875 -63.822990417480 -267.183654785156 3.323202371597
-0.380389988422 -65.605690002441 -276.379699707031 3.648193597794
-147.365905761719 -65.736045837402 -274.880493164063 0.615475654602
-147.851425170898 -63.586463928223 -285.519256591797 0.834265112877
-153.358459472656 -64.391548156738 -284.078094482422 0.617372214794
-151.517761230469 -63.305328369141 -285.067382812500 1.224288105965
-146.680862426758 -63.531352996826 -285.557922363281 0.816864073277
-157.052139282227 -61.736904144287 -288.920013427734 2.938232183456
-152.132492065430 -61.826175689697 -286.764862060547 1.854481577873
-151.808303833008 -64.365562438965 -286.948791503906 1.522464275360
-147.081344604492 -65.631546020508 -288.260437011719 1.407648801804
-144.129089355469 -63.260890960693 -289.387695312500 1.894250512123
12.518089294434 -67.015060424805 -292.015472412109 3.367036581039
-149.737350463867 -61.897186279297 -290.721099853516 1.894776225090
-158.088531494141 -63.490242004395 -291.699401855469 2.732125997543
-153.225021362305 -63.016361236572 -290.885925292969 1.357953667641
-151.939315795898 -63.036987304688 -295.681457519531 1.593479514122
-153.180465698242 -63.182323455811 -291.282714843750 1.232769727707
-149.839614868164 -65.339286804199 -293.095825195313 1.665614604950
0.375402003527 -63.953323364258 -294.211639404297 2.377546072006
-146.214065551758 -64.130012512207 -295.057250976563 1.329610228539
-147.637176513672 -63.864021301270 -295.403808593750 1.219914197922
27.586000442505 -62.923141479492 -20.411813735962 3.335034608841
38.016365051270 -69.589286804199 -17.852733612061 1.897467732430
40.290004730225 -65.247947692871 -24.091611862183 3.621172666550
17.802145004272 -73.154251098633 -32.157733917236 3.770343065262
28.048725128174 -63.431735992432 -36.450607299805 3.161612272263
38.441776275635 -74.643569946289 -36.636760711670 2.815513610840
-60.075580596924 -64.857574462891 -44.116256713867 3.309706687927
-55.437248229980 -66.591499328613 -46.341800689697 2.395973205566
88.000007629395 -67.877136230469 -60.803070068359 2.418248176575
-98.436836242676 -64.096145629883 -66.286582946777 2.249326467514
92.340507507324 -70.222175598145 -67.264114379883 0.559230983257
63.185440063477 -65.383140563965 -67.888572692871 4.263405323029
101.469985961914 -68.995849609375 -77.316192626953 1.385908842087
63.276596069336 -67.108154296875 -74.570991516113 3.175528287888
-42.871726989746 -68.591705322266 -79.230842590332 0.599469780922
57.908420562744 -64.465072631836 -83.183631896973 1.894773721695
-60.962982177734 -63.864280700684 -79.420570373535 3.582658529282
61.089595794678 -64.910301208496 -85.891448974609 2.100740432739
61.065250396729 -66.468505859375 -82.806686401367 1.721801161766
-100.882194519043 -65.831901550293 -82.308708190918 3.557967185974
49.517654418945 -67.210395812988 -90.770126342773 2.052797079086
49.477909088135 -68.355064392090 -94.391288757324 2.085809230804
62.808998107910 -67.655464172363 -92.971969604492 1.527527451515
50.760540008545 -64.401565551758 -95.816345214844 1.242640972137
-83.636535644531 -65.778221130371 -108.996177673340 2.222379446030
82.464256286621 -70.261436462402 -105.727363586426 2.325942039490
-78.520858764648 -64.216423034668 -114.873908996582 0.998617649078
-77.021537780762 -64.126548767090 -109.672752380371 0.788102924824
-83.738479614258 -66.298751831055 -121.880287170410 2.177136421204
-88.909805297852 -65.169898986816 -112.237464904785 2.308985471725
-92.017440795898 -67.567337036133 -120.749794006348 1.308190584183
-80.237045288086 -65.419670104980 -125.817687988281 0.936437070370
-56.483322143555 -62.237495422363 -128.248657226563 2.212015867233
-77.436317443848 -66.699272155762 -134.961212158203 1.505875587463
-56.984516143799 -62.392333984375 -135.926834106445 2.046111583710
-90.534225463867 -64.536354064941 -136.651779174805 1.395753026009
26.720367431641 -64.959182739258 -138.707351684570 0.781945645809
18.039625167847 -66.226219177246 -140.316192626953 2.617991685867
-93.549011230469 -64.733337402344 -139.946609497070 1.932670950890
17.027473449707 -65.541366577148 -151.911422729492 1.045467138290
-91.209106445313 -66.101402282715 -145.976669311523 1.393959522247
-95.794486999512 -63.661514282227 -147.607864379883 1.317419886589
17.845249176025 -65.539436340332 -154.116088867188 2.053037405014
-97.591827392578 -62.815555572510 -146.584197998047 1.064743638039
-97.647308349609 -62.768642425537 -148.502761840820 1.307981967926
-102.423583984375 -63.351737976074 -158.773086547852 1.850698947906
-100.380859375000 -64.833808898926 -159.672058105469 2.810691595078
-107.357131958008 -63.360782623291 -175.128784179688 2.114921092987
-107.286895751953 -63.554264068604 -168.783157348633 2.617731094360
-103.492721557617 -65.256675720215 -165.293487548828 3.002396821976
-107.647651672363 -62.883796691895 -173.164901733398 0.775166094303
-139.710037231445 -68.097145080566 -178.272918701172 2.960553884506
-109.204505920410 -63.814392089844 -178.820510864258 1.026487946510
-144.474792480469 -63.182041168213 -188.848312377930 1.605327248573
-150.402694702148 -65.672645568848 -188.477996826172 1.351276755333
-150.869201660156 -63.938686370850 -195.067367553711 2.205674409866
-126.452140808105 -63.475990295410 -196.952499389648 1.179191231728
-132.815460205078 -61.821681976318 -200.387695312500 1.345200777054
-122.387336730957 -64.055564880371 -199.032623291016 0.873879909515
-142.537216186523 -65.980514526367 -204.437576293945 0.589243710041
-125.683021545410 -64.050338745117 -204.892517089844 1.062121152878
-147.349121093750 -65.684661865234 -207.095397949219 2.365440607071
-151.899978637695 -66.669830322266 -207.154907226563 1.245578050613
-158.480819702148 -62.465332031250 -230.860595703125 3.778456211090
-142.882644653320 -65.301452636719 -234.361022949219 2.634115934372
-128.352600097656 -63.658729553223 -234.917541503906 2.759840965271
-155.022781372070 -61.727344512939 -233.262481689453 1.343030333519
-4.297441005707 -67.791374206543 -237.189498901367 1.786492586136
12.077392578125 -66.850708007813 -241.040405273438 1.320040822029
-4.095613956451 -64.594871520996 -242.458145141602 0.905878841877
-150.177368164063 -64.199584960938 -245.981369018555 1.817483305931
-7.342538833618 -64.834075927734 -248.009414672852 2.777955055237
-149.451034545898 -62.399280548096 -254.109039306641 1.342592000961
-7.638657093048 -64.310447692871 -250.188735961914 2.317389726639
-152.038024902344 -64.307479858398 -253.382888793945 1.528002977371
23.656156539917 -67.853866577148 -254.760787963867 1.563678503036
-155.111755371094 -62.953788757324 -256.755981445313 0.885422468185
-148.861389160156 -64.253837585449 -254.638061523438 1.259347081184
-153.986465454102 -61.455085754395 -255.191024780273 1.851998209953
-151.714782714844 -62.469154357910 -258.881713867188 0.693821847439
33.746089935303 -65.496200561523 -255.391220092773 2.073601961136
28.035491943359 -65.423728942871 -261.853698730469 1.079960346222
-147.683303833008 -62.930488586426 -258.768768310547 0.775611698627
-151.553207397461 -61.050315856934 -261.617828369141 1.726172327995
-157.100906372070 -62.088909149170 -260.487518310547 2.794638633728
-149.224548339844 -63.144283294678 -263.638732910156 1.309621334076
25.290468215942 -64.526451110840 -262.799713134766 1.644130945206
26.850641250610 -64.563133239746 -264.584045410156 1.920970559120
-152.576248168945 -61.690853118896 -264.261566162109 1.335063576698
-143.869293212891 -63.217880249023 -263.707366943359 0.912936151028
-153.059219360352 -63.152656555176 -266.417846679688 2.267460107803
-146.901550292969 -62.444129943848 -262.495758056641 1.517200946808
-149.124038696289 -65.037765502930 -266.137023925781 2.169319152832
-152.645065307617 -61.874309539795 -267.971527099609 3.163913249969
-150.898620605469 -63.075057983398 -268.106872558594 2.373412132263
-152.145538330078 -63.150993347168 -284.017761230469 1.364179134369
-150.862228393555 -64.943237304688 -284.274536132813 1.179362535477
-150.192657470703 -63.793724060059 -281.205383300781 1.595013976097
15.465847969055 -66.256248474121 -284.616699218750 2.270912408829
-155.701644897461 -62.154537200928 -285.281372070313 2.101396322250
-147.274780273438 -61.512226104736 -284.456634521484 1.508087396622
-5.049111843109 -67.428749084473 -289.941101074219 2.130900859833
5.772275924683 -66.238288879395 -295.004089355469 2.833517313004
-152.189834594727 -64.581962585449 -297.013427734375 1.625959157944
23.986986160278 -73.398063659668 -21.890781402588 1.770005464554
40.731410980225 -66.226524353027 -28.540128707886 3.680315971375
48.239097595215 -72.572387695313 -31.644296646118 0.946647644043
40.170814514160 -65.554267883301 -32.825954437256 2.441877126694
22.832307815552 -73.286323547363 -38.333335876465 3.128653287888
40.279014587402 -74.285697937012 -38.447784423828 2.661301612854
79.213356018066 -67.166885375977 -61.238742828369 2.353681802750
74.781661987305 -66.126190185547 -60.020668029785 2.570253849030
-15.560079574585 -68.483871459961 -68.486312866211 2.068627834320
63.600921630859 -64.526542663574 -68.769035339355 3.487253427505
-29.987968444824 -70.609825134277 -76.382026672363 1.739258050919
-31.506851196289 -67.124847412109 -79.271438598633 1.787084341049
-56.513805389404 -64.307304382324 -79.273330688477 2.224425077438
-53.117267608643 -65.728462219238 -80.664482116699 3.371489286423
62.993621826172 -69.299362182617 -82.860885620117 1.540233135223
101.281196594238 -69.901313781738 -89.470687866211 2.055702447891
-63.826389312744 -62.582691192627 -87.952514648438 1.956817388535
52.167987823486 -67.318122863770 -96.177940368652 2.198012590408
60.256752014160 -63.292625427246 -92.929435729980 1.865816712379
102.181541442871 -66.841041564941 -95.715019226074 1.779463052750
-67.253822326660 -62.924488067627 -97.155113220215 1.936859965324
54.907924652100 -62.907444000244 -96.705375671387 0.806958436966
-72.473678588867 -67.082115173340 -104.953338623047 1.931475043297
65.157569885254 -67.961982727051 -98.189361572266 2.858981847763
67.546272277832 -65.710266113281 -102.716354370117 2.552339553833
-73.280395507813 -66.157485961914 -109.245460510254 1.959727644920
-99.263282775879 -62.234294891357 -111.906318664551 2.695266962051
-70.599555969238 -61.735755920410 -109.945617675781 1.606843233109
-83.860519409180 -62.895057678223 -111.244873046875 1.445377826691
-66.958160400391 -63.630790710449 -112.783638000488 1.790628790855
-85.148681640625 -62.518264770508 -114.250320434570 0.725402295589
-81.462753295898 -63.422973632813 -118.609558105469 1.166401982307
-77.368576049805 -64.965408325195 -119.967887878418 1.607690572739
-69.153564453125 -66.838623046875 -123.135673522949 4.754909038544
-83.446060180664 -66.259010314941 -127.440406799316 1.335953116417
30.771806716919 -65.630157470703 -126.071159362793 4.132301330566
-54.281711578369 -64.064247131348 -128.579483032227 0.881085515022
27.029485702515 -65.319641113281 -131.998367309570 2.051647424698
27.737657546997 -67.135375976563 -134.023849487305 2.556611537933
30.951200485229 -63.880359649658 -135.067520141602 1.028701663017
-53.500259399414 -65.091667175293 -137.900146484375 0.898862540722
19.115213394165 -64.592483520508 -147.222137451172 1.684541821480
23.411489486694 -63.955131530762 -141.241821289063 2.545709609985
-146.222290039063 -60.218444824219 -177.993286132813 1.433796763420
-150.730453491211 -62.506542205811 -176.878814697266 1.536320209503
-151.875900268555 -63.805709838867 -179.583511352539 1.122094154358
-149.357040405273 -61.911918640137 -188.430633544922 1.463736057281
-147.612350463867 -62.188999176025 -188.966156005859 1.747837901115
-148.225402832031 -64.703521728516 -193.611282348633 1.537307620049
-144.180953979492 -64.406105041504 -194.632904052734 1.608749508858
-147.582901000977 -61.615699768066 -197.525115966797 0.900055050850
-125.010513305664 -59.661735534668 -199.919647216797 2.532656669617
-134.785171508789 -63.149131774902 -202.077545166016 1.760788559914
-148.255172729492 -62.345787048340 -211.167129516602 1.676036477089
-149.038482666016 -63.030174255371 -224.909942626953 0.892693221569
-152.874694824219 -62.456634521484 -225.157089233398 1.034655690193
-147.011596679688 -59.865058898926 -229.615432739258 2.291740655899
-156.352874755859 -61.558128356934 -227.591796875000 2.237730026245
-150.539886474609 -61.470863342285 -233.890945434570 1.126278758049
-151.606369018555 -61.806774139404 -230.060867309570 0.481668680906
-148.365783691406 -60.656070709229 -231.339706420898 1.429886221886
-142.720352172852 -60.662620544434 -232.576751708984 1.522796511650
-147.641067504883 -61.782833099365 -234.867568969727 0.357844144106
-157.015411376953 -61.417720794678 -234.942443847656 3.707388401031
6.363780975342 -64.528152465820 -241.211044311523 1.781744360924
-12.866031646729 -66.979820251465 -242.340072631836 1.935585975647
-148.387664794922 -64.069618225098 -237.071456909180 2.343900918961
-152.609741210938 -62.800197601318 -237.379364013672 2.518654108047
-149.432846069336 -63.039745330811 -236.455566406250 1.184233427048
9.330065727234 -64.144081115723 -246.833343505859 2.037044048309
-151.364913940430 -60.670959472656 -241.988372802734 3.210968732834
-148.662185668945 -60.338886260986 -254.624771118164 1.885460972786
-2.637145996094 -62.399734497070 -251.254745483398 1.033141374588
-150.522567749023 -62.620906829834 -255.431961059570 1.159684538841
-149.993194580078 -62.275997161865 -254.719955444336 1.435065746307
-146.608444213867 -62.249698638916 -257.821655273438 1.245092988014
-143.659057617188 -62.275154113770 -258.862060546875 1.846402406693
24.596654891968 -63.126247406006 -260.827087402344 2.136725187302
-151.335861206055 -60.781848907471 -267.450256347656 2.934278726578
23.566968917847 -66.847007751465 -269.858764648438 1.608718872070
14.546100616455 -67.123672485352 -289.253631591797 2.075332164764
-0.495492011309 -62.485702514648 -291.099029541016 1.357573628426
8.580261230469 -61.650325775146 -291.648193359375 1.441720366478
28.181142807007 -65.325195312500 -18.105352401733 2.662260770798
42.863868713379 -73.228019714355 -38.697444915771 2.718340873718
31.930231094360 -73.826637268066 -40.686397552490 1.583431720734
-44.998619079590 -64.525436401367 -48.122699737549 2.569512605667
-91.823760986328 -62.253356933594 -52.795703887939 2.105769872665
-95.561668395996 -62.325515747070 -59.642345428467 1.497683882713
-21.808937072754 -62.686912536621 -65.034851074219 1.732976794243
98.411399841309 -65.812988281250 -71.879051208496 2.460685729980
101.961822509766 -61.587482452393 -76.931274414063 1.886990427971
100.408973693848 -69.217491149902 -79.309516906738 1.653366446495
-53.099929809570 -65.136940002441 -85.097862243652 0.719882428646
-63.750839233398 -61.005100250244 -84.850082397461 1.934385180473
57.514320373535 -63.129955291748 -88.929740905762 2.065801143646
51.311523437500 -62.704856872559 -88.728843688965 1.425312280655
-66.492988586426 -63.036598205566 -96.667877197266 1.821323990822
-101.027633666992 -62.463829040527 -106.431877136230 2.732490301132
80.417663574219 -66.760528564453 -108.314163208008 1.884232521057
-80.397621154785 -65.697700500488 -111.636901855469 1.107107400894
-69.118003845215 -62.325286865234 -112.285057067871 1.798816204071
-83.821693420410 -63.815864562988 -116.085891723633 1.862939000130
-87.586647033691 -62.907543182373 -114.941696166992 1.659401535988
-82.074752807617 -63.992904663086 -117.969841003418 1.846078515053
-70.945770263672 -64.254104614258 -115.896232604980 3.302491664886
-67.795982360840 -64.798484802246 -118.834182739258 2.571909904480
-83.209846496582 -62.736206054688 -119.957000732422 2.066700458527
-80.476455688477 -61.180809020996 -115.261032104492 1.450549125671
-66.639976501465 -64.528305053711 -120.942726135254 0.933820128441
-86.124198913574 -63.287590026855 -117.948608398438 2.177556514740
-76.310188293457 -63.202816009521 -122.442962646484 0.881054699421
-77.852317810059 -64.361328125000 -129.548690795898 1.988417387009
-79.781204223633 -61.961139678955 -130.121932983398 1.790810585022
27.036149978638 -61.854728698730 -128.440536499023 3.321160078049
-57.563396453857 -65.033699035645 -130.766494750977 3.864887237549
24.169866561890 -64.266319274902 -133.234024047852 2.283546209335
22.295389175415 -63.010295867920 -135.459548950195 1.608328104019
-143.740341186523 -61.733497619629 -195.394042968750 1.710683107376
-140.847961425781 -64.482795715332 -200.255294799805 0.620596528053
-157.038040161133 -61.027267456055 -202.616714477539 3.568147659302
-151.251403808594 -60.956108093262 -202.264373779297 0.495016694069
-155.804077148438 -64.173645019531 -202.752166748047 2.832490682602
-151.249145507813 -60.143836975098 -204.826004028320 0.951931774616
-142.686752319336 -63.186019897461 -205.919845581055 1.646580457687
-150.803436279297 -61.965911865234 -206.701583862305 1.651270985603
-150.761581420898 -60.825717926025 -224.851303100586 0.701445698738
-149.587509155273 -60.234676361084 -225.561584472656 1.574061632156
-148.994400024414 -61.822891235352 -224.701507568359 0.873866975307
-146.707580566406 -63.350589752197 -224.135879516602 1.108980417252
-151.267059326172 -60.754364013672 -227.931930541992 1.935052752495
-143.900772094727 -61.091274261475 -226.225189208984 0.758089661598
-145.425750732422 -60.981315612793 -227.965942382813 0.877144873142
-144.355133056641 -59.029373168945 -225.186965942383 1.991765737534
-144.677017211914 -62.700973510742 -230.705032348633 1.233644962311
-145.719985961914 -61.808845520020 -232.380661010742 1.505368351936
-149.109069824219 -63.325275421143 -236.358627319336 1.538490891457
-150.214477539063 -60.677875518799 -234.903289794922 0.627310395241
1.592651963234 -63.394477844238 -240.633544921875 2.085343122482
17.339857101440 -64.693954467773 -242.638793945313 1.363450527191
22.996416091919 -64.317596435547 -253.294616699219 3.000246047974
24.467872619629 -63.356651306152 -261.144592285156 2.316056966782
6.907028198242 -60.998916625977 -266.127075195313 1.924323916435
20.709287643433 -66.973793029785 -278.776855468750 1.738495469093
1.078910946846 -63.261409759521 -279.110290527344 1.869657278061
4.373798847198 -61.006244659424 -289.324645996094 0.983039677143
9.793814659119 -64.231788635254 -291.210815429688 1.230160593987
47.232501983643 -73.371101379395 -20.372072219849 2.625102758408
30.187549591064 -62.185062408447 -36.846836090088 1.444767594337
-30.766759872437 -64.123825073242 -49.757957458496 2.126166820526
-21.546226501465 -64.292701721191 -51.267105102539 3.552768468857
-12.288623809814 -65.437789916992 -58.136051177979 1.441202878952
90.201843261719 -65.827026367188 -62.304553985596 1.721701502800
-102.406913757324 -61.437263488770 -69.748611450195 4.085698604584
103.023590087891 -64.828575134277 -74.265838623047 1.265164494514
55.193477630615 -62.862457275391 -83.609817504883 3.300344228745
60.673507690430 -67.241119384766 -89.925582885742 2.316129446030
-67.940361022949 -64.171012878418 -89.576171875000 3.717061281204
52.103145599365 -66.130012512207 -94.627098083496 1.544598937035
60.343727111816 -62.668361663818 -92.041725158691 1.552737236023
102.003517150879 -63.982868194580 -97.463996887207 1.310168743134
-66.619361877441 -60.952877044678 -98.413375854492 1.148684859276
-70.639465332031 -61.648128509521 -99.282058715820 1.793418884277
72.319244384766 -63.793544769287 -109.242790222168 2.609839916229
-78.446807861328 -63.122707366943 -107.740447998047 1.181019663811
-62.427406311035 -65.146255493164 -113.231620788574 2.736841201782
38.491416931152 -61.969394683838 -118.283798217773 2.645727872849
-84.536666870117 -61.430995941162 -123.254425048828 2.171107530594
39.705215454102 -62.360923767090 -118.994827270508 1.919948577881
-92.162818908691 -64.615959167480 -118.857177734375 1.896530151367
-99.400817871094 -63.167476654053 -124.100540161133 3.901861190796
-68.756561279297 -63.675788879395 -124.694747924805 2.747592687607
36.445281982422 -62.053260803223 -125.631202697754 0.973635911942
-64.267066955566 -61.082435607910 -130.850051879883 1.111510753632
-62.125244140625 -62.761322021484 -134.693817138672 1.456637501717
-57.895278930664 -62.782611846924 -138.813842773438 0.741270840168
-145.573867797852 -59.472606658936 -198.767944335938 1.363546729088
-147.826599121094 -58.624412536621 -194.113769531250 2.399331331253
-150.405105590820 -60.998405456543 -196.773681640625 0.799301803112
-154.480453491211 -60.251750946045 -198.803726196289 0.942019939423
-150.424072265625 -59.782684326172 -200.199401855469 0.936224639416
-143.724151611328 -59.315177917480 -197.500885009766 1.572967052460
-144.856399536133 -59.049724578857 -199.973129272461 2.479031085968
-146.703720092773 -60.925262451172 -200.813842773438 1.073334455490
-147.860397338867 -59.809123992920 -203.732482910156 1.095954418182
-154.752182006836 -59.403339385986 -205.262481689453 3.139718294144
-145.795318603516 -60.987987518311 -206.667388916016 0.865896642208
-148.034774780273 -62.700691223145 -208.180038452148 2.882124185562
-147.530502319336 -59.283370971680 -205.006469726563 0.743590295315
-150.317276000977 -60.044128417969 -206.836486816406 1.803865313530
-149.073623657227 -60.293148040771 -226.114013671875 1.077859640121
-8.271137237549 -64.711959838867 -240.283477783203 0.642539262772
2.927298069000 -62.440933227539 -241.558715820313 2.738213300705
9.535945892334 -61.405792236328 -244.075271606445 1.327039599419
5.684758186340 -61.699756622314 -243.586380004883 1.749587059021
19.492235183716 -63.666404724121 -249.433441162109 1.156725525856
-1.513705968857 -64.962768554688 -256.629699707031 0.991351902485
7.856800079346 -62.888256072998 -272.172515869141 2.466841936111
25.902814865112 -61.578144073486 -267.827819824219 1.725220322609
17.727478027344 -64.754867553711 -282.962921142578 1.022895336151
29.714805603027 -67.284835815430 -13.517361640930 2.423187017441
-71.447166442871 -61.720890045166 -43.150608062744 2.303715229034
-39.438026428223 -63.885684967041 -48.480960845947 3.266004085541
67.910926818848 -64.324989318848 -65.353652954102 1.174752712250
-29.727163314819 -65.377799987793 -71.892051696777 3.151197433472
-37.551029205322 -61.071315765381 -77.574691772461 2.355215549469
-45.082138061523 -62.648509979248 -79.086524963379 1.906831741333
60.917594909668 -61.843509674072 -91.618362426758 0.909288048744
103.032905578613 -62.772594451904 -88.472854614258 1.447861433029
64.704956054688 -68.206565856934 -92.666427612305 1.237579822540
-73.968688964844 -61.290092468262 -100.828765869141 1.915829539299
100.167617797852 -64.656433105469 -102.945907592773 2.318188905716
96.346778869629 -65.102294921875 -105.903282165527 1.077901721001
-68.067985534668 -60.623794555664 -106.186325073242 1.322614192963
78.422607421875 -64.242454528809 -108.039497375488 1.483456850052
91.128738403320 -62.131462097168 -109.199142456055 1.104168772697
-62.941539764404 -63.007503509521 -110.750213623047 1.494286537170
44.603549957275 -63.425754547119 -113.244026184082 3.558904409409
-64.228073120117 -65.665443420410 -116.730934143066 1.849786162376
-81.591796875000 -61.034172058105 -113.703025817871 1.464683771133
-57.829105377197 -64.649673461914 -121.415298461914 1.450955748558
-79.219543457031 -61.370796203613 -117.366058349609 1.046272039413
33.139354705811 -62.663822174072 -121.961486816406 3.593256950378
-93.978157043457 -64.131629943848 -123.395225524902 1.439898729324
-53.203540802002 -62.920280456543 -131.055313110352 1.433343410492
20.183172225952 -60.850543975830 -140.109893798828 1.461343169212
7.243122100830 -61.134170532227 -243.355880737305 1.280063152313
-1.589416027069 -62.233879089355 -244.857986450195 1.031710147858
4.905367851257 -62.423580169678 -288.303314208984 2.572905302048
22.326038360596 -67.748291015625 -20.136785507202 3.157502889633
36.293724060059 -64.418663024902 -17.507274627686 1.797832250595
18.352264404297 -62.329856872559 -20.877792358398 3.018524408340
42.254535675049 -65.105499267578 -23.869333267212 1.835967183113
-51.031051635742 -62.850131988525 -44.707374572754 2.333510875702
-12.263716697693 -65.135131835938 -63.053035736084 1.971259117126
-101.985015869141 -59.706546783447 -86.933334350586 3.119544982910
66.944152832031 -61.481178283691 -102.580635070801 2.384236335754
82.387680053711 -62.623416900635 -108.391853332520 0.912126958370
-70.172325134277 -62.370906829834 -115.831138610840 2.088987827301
45.876949310303 -61.829864501953 -117.101112365723 1.849168658257
-80.121765136719 -60.035709381104 -121.870399475098 1.086401343346
-61.119224548340 -61.799034118652 -120.432334899902 2.533555507660
-64.426307678223 -62.785297393799 -133.046325683594 1.744276165962
