-114.876472473145 -67.927215576172 -32.036193847656 33.232666015625
-61.385303497314 -64.810760498047 -98.198585510254 4.596964359283
-67.420219421387 -65.668540954590 -83.844711303711 6.609282970428
31.897247314453 -63.188465118408 -225.306594848633 17.213693618774
25.562463760376 -62.244754791260 -220.816726684570 12.513095855713
-54.242000579834 -65.817390441895 -118.925483703613 3.135068893433
18.576139450073 -60.173316955566 -207.376708984375 8.225691795349
24.389503479004 -57.524028778076 -222.936035156250 15.400671005249
-64.052902221680 -65.119216918945 -101.450897216797 3.875412225723
-47.404453277588 -62.941768646240 -124.799224853516 6.060304641724
-72.907302856445 -66.975898742676 -93.597091674805 5.879047870636
-70.300605773926 -67.003845214844 -104.413803100586 0.838144779205
-118.237632751465 -68.749114990234 -41.003681182861 30.833011627197
-54.664176940918 -66.813545227051 -128.941711425781 1.007192730904
-119.787811279297 -69.603996276855 -38.920852661133 33.369190216064
-120.457885742188 -69.645446777344 -36.026222229004 35.381523132324
21.425302505493 -61.421535491943 -235.269866943359 7.031326293945
-126.549896240234 -69.383995056152 -36.887065887451 39.685699462891
-69.753616333008 -66.060455322266 -108.689865112305 2.419372797012
-72.900756835938 -65.603446960449 -110.840782165527 0.987415730953
-44.837112426758 -66.227165222168 -141.888107299805 2.489472627640
-13.001930236816 -64.172737121582 -185.054641723633 9.624303817749
-50.329723358154 -65.325378417969 -135.738647460938 0.768297076225
-121.317550659180 -69.144935607910 -48.753696441650 29.788181304932
-124.762962341309 -69.385162353516 -48.886741638184 32.726169586182
-46.844184875488 -63.833583831787 -139.611145019531 2.999207258224
-18.082143783569 -64.376983642578 -185.695556640625 5.915107250214
-68.649208068848 -63.986579895020 -119.384880065918 2.104782581329
-122.952827453613 -70.623718261719 -46.298122406006 32.699928283691
16.594459533691 -62.614231109619 -241.004302978516 1.648168683052
31.815950393677 -61.509231567383 -246.331329345703 8.170186996460
20.912836074829 -62.894149780273 -247.648406982422 1.652964472771
-66.217445373535 -67.115898132324 -139.604217529297 5.124971389771
15.743756294250 -64.414848327637 -241.664123535156 1.100558638573
-73.014907836914 -64.732086181641 -129.844482421875 2.531331300735
-75.587509155273 -68.116355895996 -112.345794677734 1.062072634697
24.242376327515 -62.127861022949 -253.756958007813 1.139659881592
18.548120498657 -60.928367614746 -251.532562255859 2.915483236313
-129.143936157227 -69.777336120605 -62.967864990234 32.853427886963
-80.152511596680 -68.639030456543 -120.862098693848 1.586499571800
16.634279251099 -63.644218444824 -244.686508178711 3.208172559738
7.126657962799 -64.670471191406 -235.677947998047 0.809712350368
-65.766609191895 -65.828102111816 -136.569915771484 4.142086029053
-78.080581665039 -63.127727508545 -120.993476867676 1.227091670036
-124.535224914551 -70.190101623535 -57.022270202637 30.050252914429
18.059045791626 -65.397956848145 -251.613388061523 4.168165206909
10.078143119812 -64.318313598633 -242.413009643555 2.308403968811
-5.867986202240 -65.572021484375 -223.779479980469 1.670542597771
-128.577651977539 -70.937904357910 -59.133563995361 33.387969970703
-10.702491760254 -65.650764465332 -215.723510742188 1.763454318047
8.934769630432 -63.711952209473 -243.895767211914 1.268780708313
7.644576072693 -63.516445159912 -242.597946166992 2.503704547882
6.147612094879 -63.757568359375 -242.342956542969 2.538706302643
12.590412139893 -64.203819274902 -247.871856689453 4.301539897919
18.178977966309 -62.780143737793 -255.435867309570 5.861665725708
-1.594442963600 -65.176269531250 -233.953872680664 2.361780881882
-1.874011993408 -62.424526214600 -232.346755981445 4.736732006073
11.135169029236 -64.120712280273 -249.015396118164 4.423431396484
1.206264019012 -67.473037719727 -244.437179565430 4.418486595154
8.221639633179 -63.742996215820 -249.352600097656 4.600130081177
-126.302452087402 -70.493591308594 -66.087287902832 29.893476486206
-128.488876342773 -72.698493957520 -76.884475708008 31.641351699829
9.888359069824 -64.982032775879 -254.084426879883 7.096987247467
-125.820289611816 -71.866111755371 -73.777824401855 29.044744491577
-75.976814270020 -66.843986511230 -143.466247558594 1.816928982735
-91.362037658691 -70.129974365234 -120.280059814453 0.999328792095
-90.441734313965 -68.572555541992 -124.535011291504 3.376968622208
-1.102220058441 -65.331100463867 -255.340026855469 1.491872787476
-98.204605102539 -70.293937683105 -120.567359924316 4.115445137024
-124.575965881348 -70.065101623535 -76.457077026367 27.105655670166
-95.103797912598 -70.698265075684 -117.959297180176 1.380503296852
-94.635635375977 -69.460311889648 -128.330154418945 5.520517349243
-85.645606994629 -68.448951721191 -135.226348876953 2.007003307343
-79.304351806641 -68.642997741699 -149.726516723633 5.186668872833
-91.204406738281 -69.859367370605 -134.268188476563 1.581491708755
-92.335044860840 -68.083251953125 -130.071258544922 2.340917110443
-124.962104797363 -70.002899169922 -86.033309936523 27.105005264282
-58.397693634033 -68.607444763184 -176.933929443359 4.730108737946
-104.203651428223 -72.206222534180 -120.018074035645 9.399072647095
-54.832809448242 -67.993446350098 -182.701965332031 5.977921485901
-90.730659484863 -70.406791687012 -141.960800170898 2.140293836594
-58.581657409668 -70.328887939453 -188.312728881836 7.399076938629
-46.232563018799 -66.188484191895 -206.149246215820 10.706451416016
-45.363174438477 -69.178680419922 -201.562149047852 6.250432014465
-91.243186950684 -71.492103576660 -147.882873535156 3.815198421478
-27.641927719116 -68.383705139160 -238.545959472656 5.565907001495
-92.924209594727 -69.934974670410 -151.930084228516 2.987599134445
-32.557014465332 -67.669197082520 -235.065002441406 8.807020187378
-35.149028778076 -66.928878784180 -233.029479980469 10.855654716492
-40.606937408447 -68.066375732422 -224.764526367188 14.758195877075
-19.531869888306 -67.842674255371 -262.024017333984 5.192301750183
-20.482368469238 -66.831672668457 -263.579040527344 6.711219787598
-7.705915927887 -66.034400939941 -279.514007568359 1.468534827232
-130.609909057617 -72.222976684570 -141.419036865234 32.872787475586
-91.758850097656 -72.791084289551 -200.318481445313 13.339919090271
-83.588127136230 -72.424964904785 -209.712524414063 3.341214418411
-100.585601806641 -73.430488586426 -192.373306274414 8.849083900452
-107.308074951172 -71.622291564941 -183.570846557617 2.319740772247
-66.073356628418 -71.014686584473 -237.332839965820 8.785202980042
-108.630958557129 -75.694770812988 -184.233764648438 6.045829772949
-123.850982666016 -73.479675292969 -164.216812133789 18.574836730957
-26.796461105347 -68.897583007813 -292.450134277344 3.786013603210
-119.045829772949 -73.785881042480 -168.580703735352 12.967402458191
-131.864089965820 -73.164680480957 -155.186126708984 23.317962646484
-136.467391967773 -73.951255798340 -149.484237670898 27.262428283691
-94.710662841797 -72.457832336426 -205.751281738281 9.275390625000
-110.224792480469 -72.761260986328 -185.099822998047 3.259950399399
-138.496398925781 -76.135421752930 -150.449508666992 26.113403320313
-86.665412902832 -72.352424621582 -217.275085449219 0.666878163815
-108.067726135254 -73.373809814453 -191.679367065430 4.417581081390
-117.870597839355 -75.465339660645 -175.598526000977 11.232786178589
-141.015472412109 -74.087783813477 -148.812957763672 26.827550888062
-123.552139282227 -74.036911010742 -170.348098754883 16.430471420288
-132.148452758789 -76.131317138672 -159.538131713867 20.138566970825
-140.471633911133 -75.255989074707 -152.291229248047 23.746303558350
-49.725238800049 -71.791961669922 -269.281372070313 16.809425354004
-49.161151885986 -69.165298461914 -285.057800292969 3.096163034439
-58.056873321533 -69.301994323730 -291.991424560547 2.922569036484
65.224502563477 -46.588336944580 39.631004333496 58.539371490479
70.611938476563 -48.795612335205 30.880191802979 53.202838897705
64.597328186035 -49.017078399658 35.171817779541 54.050994873047
72.696853637695 -50.176509857178 20.502189636230 45.864265441895
56.908760070801 -50.536018371582 38.040138244629 53.796623229980
66.726036071777 -48.414413452148 19.310798645020 41.472007751465
62.056983947754 -49.673252105713 15.727869033813 35.823978424072
58.969425201416 -50.587425231934 11.769495010376 30.773868560791
48.614704132080 -51.355911254883 30.667850494385 44.251674652100
55.403488159180 -51.835453033447 15.891512870789 32.615428924561
47.051773071289 -50.878475189209 27.259613037109 40.589084625244
52.019359588623 -51.059936523438 17.521318435669 32.920604705811
49.153293609619 -50.037631988525 20.745706558228 34.944789886475
50.434276580811 -50.276699066162 15.004317283630 30.073982238770
43.458503723145 -52.439319610596 22.471361160278 35.169357299805
45.770118713379 -51.114906311035 18.280683517456 31.559242248535
84.600227355957 -53.305343627930 -47.432853698730 10.762924194336
80.077537536621 -51.749656677246 -41.313037872314 14.599161148071
108.043769836426 -54.107246398926 -89.181686401367 3.676954507828
103.166572570801 -48.001552581787 -93.681022644043 1.793758153915
-2.441900014877 -53.606925964355 35.752250671387 57.881896972656
-8.099523544312 -52.472621917725 36.376178741455 61.290847778320
55.520503997803 -52.948654174805 -40.981338500977 10.083644866943
96.289436340332 -48.649555206299 -100.378036499023 3.922324895859
55.797752380371 -53.130657196045 -52.234767913818 15.636203765869
63.415702819824 -51.358108520508 -77.443534851074 0.841487467289
-5.987115859985 -59.802330017090 15.645145416260 44.013694763184
-5.550164222717 -57.523998260498 2.216281890869 34.643943786621
-30.813947677612 -58.213005065918 38.577873229980 77.661018371582
-17.408014297485 -59.316719055176 13.431950569153 50.990989685059
65.851737976074 -51.858081817627 -94.491714477539 1.839333534241
62.856487274170 -51.758998870850 -96.384246826172 0.658892929554
-2.763752937317 -55.320220947266 -8.864830017090 26.396175384521
-27.765550613403 -59.287528991699 14.012291908264 59.654525756836
-16.083293914795 -56.376083374023 -6.583627223969 39.466636657715
-37.379356384277 -58.856906890869 35.355720520020 79.641380310059
74.261703491211 -53.728096008301 -126.610343933105 16.259429931641
-10.483241081238 -56.615238189697 -23.257392883301 28.026327133179
-48.006813049316 -60.792160034180 34.360378265381 77.266838073730
-16.113479614258 -57.774200439453 -16.128849029541 34.032554626465
-46.205379486084 -60.934970855713 32.455127716064 75.539146423340
63.750907897949 -53.690952301025 -121.937248229980 14.471648216248
-8.089808464050 -56.862293243408 -23.008075714111 27.795333862305
-55.621250152588 -60.662708282471 27.712585449219 70.146553039551
-53.250137329102 -61.056289672852 27.597377777100 70.216804504395
-55.817924499512 -60.956550598145 32.520526885986 74.931121826172
-55.669635772705 -59.377948760986 31.199014663696 73.565643310547
-12.530285835266 -59.154720306396 -22.943031311035 28.228570938110
-11.759328842163 -58.598609924316 -32.331005096436 19.048974990845
-17.189104080200 -59.618026733398 -22.639871597290 27.467147827148
-62.038608551025 -61.440017700195 27.506135940552 69.726112365723
-21.717485427856 -61.020133972168 -30.277177810669 19.087438583374
-68.857192993164 -62.865726470947 21.544576644897 64.265930175781
-69.628089904785 -62.143722534180 24.752048492432 67.459770202637
-17.256288528442 -59.751712799072 -33.089298248291 17.178110122681
44.905517578125 -56.252109527588 -124.228675842285 3.481664896011
-77.328819274902 -62.288551330566 25.090602874756 68.319473266602
27.963010787964 -58.654708862305 -113.148559570313 11.050579071045
-28.051004409790 -59.686672210693 -38.402629852295 10.067879676819
36.140346527100 -57.619445800781 -126.040794372559 1.935806274414
-23.450111389160 -60.550094604492 -44.298244476318 5.358079433441
35.512130737305 -58.947540283203 -133.254699707031 2.216866970062
16.453367233276 -57.879085540771 -108.756301879883 22.949026107788
35.517250061035 -59.159324645996 -125.260780334473 2.989118814468
-76.691177368164 -63.209423065186 20.525220870972 63.812744140625
-81.624679565430 -63.035598754883 18.224819183350 62.133979797363
-82.908576965332 -62.958095550537 19.818109512329 63.910346984863
30.865180969238 -60.501171112061 -130.253860473633 2.180072069168
-25.715030670166 -63.763397216797 -70.135139465332 1.144799232483
14.579063415527 -58.489048004150 -121.314277648926 16.383634567261
6.883070945740 -60.072425842285 -120.927909851074 22.422298431396
-91.280860900879 -65.344627380371 4.389595985413 51.061534881592
7.635289192200 -60.830390930176 -110.048225402832 28.674276351929
-30.866352081299 -60.779861450195 -70.718704223633 1.547266602516
-37.562210083008 -62.333316802979 -61.793830871582 9.676699638367
-97.830535888672 -64.905853271484 8.882164001465 57.274192810059
-46.502815246582 -62.146682739258 -62.063800811768 15.030073165894
-27.872623443604 -61.225742340088 -84.846679687500 9.277237892151
-46.742248535156 -61.808273315430 -58.372646331787 12.831096649170
16.439718246460 -61.541896820068 -136.800582885742 5.628502845764
14.449372291565 -62.346733093262 -132.852523803711 9.235133171082
11.206878662109 -57.886817932129 -138.876937866211 10.069520950317
-95.787475585938 -66.154060363770 8.928128242493 56.852546691895
-1.022670984268 -59.850669860840 -118.302482604980 30.318691253662
-43.789558410645 -61.453697204590 -70.197700500488 9.383388519287
5.494801998138 -60.761413574219 -139.810272216797 12.614761352539
1.098111987114 -60.847328186035 -136.905456542969 17.403402328491
-1.531440973282 -62.030418395996 -112.470977783203 34.254772186279
-14.584028244019 -61.044639587402 -113.727531433105 39.866371154785
-102.553871154785 -66.159652709961 0.677205979824 51.763599395752
-16.708787918091 -63.874164581299 -121.967834472656 34.264415740967
-46.869312286377 -63.440586090088 -77.423240661621 4.177230358124
-110.330253601074 -65.300735473633 -8.433216094971 47.226829528809
49.935104370117 -56.747276306152 -211.114181518555 30.967821121216
49.089374542236 -56.440143585205 -208.242370605469 32.370311737061
52.164398193359 -58.263751983643 -213.017852783203 27.739210128784
44.783611297607 -57.659168243408 -209.174468994141 28.405687332153
-28.517967224121 -62.780582427979 -123.050575256348 23.409421920776
-32.523262023926 -64.993034362793 -116.718879699707 22.840545654297
-63.159152984619 -66.629638671875 -82.399124145508 5.311157703400
38.264579772949 -61.091869354248 -213.451644897461 22.311199188232
40.461425781250 -60.102020263672 -217.083023071289 25.298957824707
-35.626415252686 -66.718490600586 -114.423873901367 20.968852996826
-51.132274627686 -61.612930297852 -84.891960144043 3.065510034561
37.593391418457 -61.572750091553 -219.938720703125 22.600666046143
-26.699426651001 -61.580070495605 -121.706741333008 25.886360168457
-109.841781616211 -69.316261291504 -20.376590728760 38.405387878418
-113.960815429688 -67.809432983398 -14.699314117432 44.749073028564
-65.465042114258 -67.237266540527 -84.766510009766 5.848762989044
-38.347091674805 -62.566982269287 -113.044738769531 18.688091278076
-36.888320922852 -62.584274291992 -122.995094299316 16.215559005737
37.670143127441 -61.235137939453 -225.370407104492 23.146522521973
24.006633758545 -60.022895812988 -209.085510253906 11.068894386292
22.497575759888 -62.153652191162 -203.885910034180 7.467809200287
18.145883560181 -63.914447784424 -204.927124023438 4.678660869598
-41.704906463623 -66.594200134277 -124.726051330566 10.773257255554
-58.502582550049 -65.641685485840 -96.256439208984 6.142897129059
-114.519584655762 -68.827087402344 -31.812915802002 33.406940460205
33.676086425781 -63.697139739990 -223.091400146484 18.486639022827
32.287773132324 -61.398948669434 -221.450744628906 18.325641632080
33.995376586914 -63.748985290527 -224.116867065430 18.790273666382
36.426345825195 -62.152946472168 -230.816497802734 19.679454803467
-40.207942962646 -64.498725891113 -128.789642333984 10.556690216064
-46.958869934082 -63.316215515137 -117.082595825195 9.344105720520
30.185802459717 -63.247058868408 -228.423950195313 15.840948104858
-46.762844085693 -66.454467773438 -118.283462524414 9.527959823608
43.194419860840 -60.425903320313 -234.968078613281 13.853462219238
23.097085952759 -60.623504638672 -214.266128540039 10.959755897522
-72.950592041016 -67.874671936035 -98.451980590820 1.988543868065
39.124511718750 -61.214420318604 -239.601806640625 11.786356925964
25.321809768677 -61.331371307373 -227.479934692383 13.385810852051
-63.704441070557 -66.863136291504 -99.420333862305 3.575152873993
31.931121826172 -61.812267303467 -231.308258056641 15.931483268738
-43.107986450195 -64.408905029297 -124.963882446289 9.580804824829
-120.682571411133 -71.211326599121 -24.868734359741 42.810840606689
23.463994979858 -62.698638916016 -241.627029418945 3.728357791901
34.637214660645 -62.574405670166 -243.084136962891 9.732412338257
-17.323333740234 -63.749271392822 -174.987808227539 11.283949851990
-119.257286071777 -69.844787597656 -42.495399475098 31.263959884644
-69.159355163574 -68.701065063477 -119.295257568359 5.574223041534
23.731956481934 -62.091903686523 -236.134094238281 7.171739578247
-14.428604125977 -64.614990234375 -186.660995483398 7.602802753448
-59.488544464111 -66.848510742188 -120.156372070313 1.928183674812
-86.451126098633 -69.005310058594 -108.053215026855 0.853150963783
15.800759315491 -62.508388519287 -233.067367553711 6.698029041290
-72.719039916992 -67.635673522949 -121.759170532227 3.714713811874
-61.486667633057 -69.717941284180 -137.099304199219 2.132149219513
-61.989143371582 -69.995803833008 -129.381271362305 2.422102451324
-124.028877258301 -70.492683410645 -47.801193237305 32.895713806152
-58.509513854980 -67.135162353516 -134.083435058594 2.855182409286
-54.109714508057 -65.805023193359 -138.803604125977 1.620806574821
-11.497956275940 -65.498321533203 -207.035049438477 2.769815444946
-66.792091369629 -70.315383911133 -132.695968627930 4.951075553894
-126.100250244141 -71.132545471191 -44.811874389648 36.132434844971
-120.335563659668 -71.004684448242 -52.912673950195 27.866687774658
-77.670578002930 -66.635261535645 -116.558769226074 1.514295816422
-71.286895751953 -65.815086364746 -129.401672363281 2.974249839783
-121.539489746094 -70.815116882324 -58.630424499512 27.122962951660
-3.376172065735 -65.440330505371 -219.432174682617 2.702097415924
-61.433094024658 -67.406166076660 -138.912796020508 1.800885558128
-16.077999114990 -67.125984191895 -200.791473388672 1.964576363564
-14.225721359253 -64.712570190430 -206.588287353516 2.539164066315
2.359875917435 -62.472076416016 -231.572250366211 3.480510234833
-127.003776550293 -71.063331604004 -55.886688232422 32.895206451416
-4.190291881561 -66.701210021973 -221.913818359375 1.064277648926
-82.502342224121 -68.629981994629 -119.029495239258 2.187502861023
-126.268142700195 -72.023895263672 -55.992603302002 32.534442901611
-68.608222961426 -68.939346313477 -132.958282470703 3.969294548035
-74.931434631348 -68.141258239746 -135.579788208008 1.109190940857
-77.331176757813 -67.490974426270 -130.368774414063 1.411631703377
-83.278282165527 -68.611656188965 -113.628433227539 1.343132853508
-130.238250732422 -72.316253662109 -53.266063690186 37.013084411621
-88.456703186035 -71.602081298828 -117.132759094238 1.468817591667
-83.008316040039 -68.813896179199 -122.867263793945 2.307745933533
-75.797126770020 -66.249252319336 -133.048324584961 1.876257181168
-80.042938232422 -68.097709655762 -134.063552856445 0.226566866040
-91.188507080078 -71.297988891602 -111.859504699707 3.883489847183
-76.233116149902 -68.718750000000 -138.195709228516 1.546819329262
-131.020629882813 -72.634704589844 -71.986343383789 34.407669067383
-82.766708374023 -70.076942443848 -136.888809204102 4.288097858429
-97.608055114746 -67.719116210938 -113.713050842285 3.253903150558
8.889315605164 -65.456481933594 -264.369110107422 4.512526035309
-85.146430969238 -70.518379211426 -133.342208862305 1.421472072601
-83.732353210449 -70.955589294434 -140.354400634766 5.229727268219
4.707312107086 -67.307060241699 -273.443664550781 4.448433399200
-88.161308288574 -68.366920471191 -140.787048339844 1.238534927368
-104.013160705566 -72.806205749512 -121.325866699219 9.979159355164
-11.394330978394 -64.927131652832 -255.341476440430 3.364432334900
-53.337146759033 -71.427810668945 -189.730575561523 4.255858421326
-57.537681579590 -68.761474609375 -184.696899414063 6.494838714600
-126.650520324707 -72.806159973145 -91.583221435547 29.649620056152
-48.290634155273 -68.714317321777 -199.636566162109 7.385213851929
-106.764183044434 -69.298469543457 -123.134346008301 11.388594627380
-57.019050598145 -69.385513305664 -198.213012695313 10.976746559143
-88.957916259766 -70.674522399902 -147.980133056641 4.806726455688
-11.289484977722 -65.991897583008 -255.043197631836 2.449908018112
-126.310920715332 -73.363510131836 -96.852210998535 29.196949005127
-52.693790435791 -69.394355773926 -201.784286499023 9.996870040894
-39.156105041504 -69.615715026855 -221.172927856445 11.115756034851
-41.187358856201 -67.847717285156 -217.922790527344 11.550424575806
-29.512500762939 -66.178741455078 -234.390594482422 9.384686470032
-38.072040557861 -68.480484008789 -225.846267700195 13.524174690247
-39.952106475830 -68.119201660156 -227.913833618164 14.787998199463
-117.788772583008 -70.862663269043 -122.434890747070 22.016998291016
-33.563518524170 -69.122871398926 -249.355911254883 8.688311576843
-111.204063415527 -72.996696472168 -162.758712768555 8.874410629272
-32.515529632568 -69.729682922363 -272.165710449219 14.321107864380
-20.250209808350 -69.385437011719 -292.075897216797 4.125214576721
-50.438175201416 -70.500022888184 -258.616302490234 12.108706474304
-56.500614166260 -70.967514038086 -250.456024169922 3.334696292877
-81.570106506348 -74.007324218750 -218.739501953125 2.638336420059
-91.078262329102 -75.056838989258 -205.764328002930 7.803442478180
-100.441055297852 -73.950729370117 -192.668136596680 9.170716285706
-116.705612182617 -73.702232360840 -170.889907836914 10.433223724365
-119.545188903809 -75.502662658691 -171.641555786133 13.643839836121
-104.482292175293 -75.196640014648 -189.789840698242 6.801263809204
-106.065032958984 -73.823135375977 -187.334213256836 5.007825851440
-116.071609497070 -75.799163818359 -174.847686767578 10.764695167542
-87.054634094238 -73.657150268555 -217.333053588867 1.395131349564
-94.753417968750 -73.743896484375 -204.307815551758 10.415366172791
-119.560783386230 -75.343269348145 -172.232955932617 13.435705184937
-120.644157409668 -75.008705139160 -171.808975219727 14.143724441528
-127.120269775391 -77.596771240234 -164.849197387695 19.905082702637
-129.626724243164 -76.568008422852 -159.672714233398 21.440773010254
-75.721015930176 -71.633705139160 -234.791061401367 12.987051963806
-44.952598571777 -71.433616638184 -276.958465576172 9.585013389587
-60.769714355469 -69.889106750488 -256.141967773438 7.761628627777
-40.714714050293 -69.521736145020 -288.259704589844 1.917094945908
-41.885910034180 -71.577911376953 -291.011505126953 1.338330507278
-49.874485015869 -70.406211853027 -283.751800537109 3.346522808075
56.540958404541 -50.384456634521 39.768337249756 55.296298980713
69.190925598145 -50.069766998291 15.868293762207 40.068965911865
50.283321380615 -50.257408142090 36.986831665039 50.819862365723
44.230300903320 -50.935092926025 31.955759048462 44.687530517578
-6.976409912109 -56.080646514893 41.913890838623 65.535469055176
-15.026021003723 -55.927009582520 44.845745086670 72.228553771973
-24.868228912354 -58.253726959229 45.330345153809 78.607200622559
-23.339406967163 -55.292430877686 43.061431884766 75.742515563965
-4.383197784424 -56.462604522705 8.550485610962 37.821907043457
-2.465312004089 -52.436668395996 -3.618434906006 28.517202377319
-8.807888984680 -58.442100524902 9.550097465515 41.880672454834
68.774002075195 -57.298763275146 -93.922485351563 2.252442359924
-11.216461181641 -56.130039215088 15.372968673706 47.421337127686
-37.804733276367 -59.707675933838 36.382270812988 80.583908081055
-23.563383102417 -55.609378814697 13.352408409119 55.530532836914
-36.784420013428 -61.012966156006 29.345962524414 73.783119201660
69.208320617676 -54.301219940186 -109.728202819824 4.256429195404
-7.692728996277 -56.410739898682 -12.543675422668 29.580171585083
67.148292541504 -53.891216278076 -117.713752746582 10.167304039001
-17.386936187744 -58.342487335205 -12.243189811707 37.533855438232
-5.419126033783 -58.875415802002 -17.436403274536 26.548627853394
-46.120235443115 -61.805389404297 37.222820281982 80.306533813477
-8.466380119324 -58.564788818359 -21.408363342285 28.536973953247
-13.815485954285 -59.275764465332 -22.996608734131 27.809732437134
-15.675379753113 -60.934093475342 -21.063772201538 29.302413940430
-52.742889404297 -61.988864898682 32.168071746826 74.864822387695
55.813663482666 -56.796970367432 -124.117141723633 11.254226684570
-64.229629516602 -63.169300079346 25.767433166504 68.125572204590
-19.088048934937 -61.820083618164 -31.117670059204 18.944869995117
-20.954284667969 -61.092414855957 -25.674095153809 23.731946945190
-18.008419036865 -61.156150817871 -31.709934234619 18.445201873779
31.149333953857 -57.918697357178 -109.308273315430 11.436519622803
-17.036733627319 -57.702323913574 -36.015007019043 14.493504524231
39.464073181152 -58.585086822510 -128.455215454102 2.790166854858
30.900014877319 -56.953887939453 -111.187026977539 10.613164901733
42.820003509521 -58.391437530518 -130.561508178711 6.139947414398
-21.597637176514 -61.631103515625 -35.219993591309 14.480930328369
29.765726089478 -58.930625915527 -115.033866882324 8.468602180481
-24.082202911377 -61.906288146973 -39.128280639648 10.248291969299
34.659557342529 -59.655181884766 -128.790191650391 1.923719525337
27.468559265137 -57.568416595459 -115.967041015625 9.824892997742
-24.541810989380 -61.585403442383 -47.246841430664 3.309365034103
-78.782409667969 -62.525165557861 15.675395011902 59.162738800049
-75.009544372559 -66.011726379395 22.601192474365 66.079109191895
-29.389547348022 -63.406044006348 -45.074779510498 3.507179737091
16.925178527832 -62.543846130371 -107.307464599609 21.784017562866
-84.665039062500 -65.245384216309 9.711801528931 54.691486358643
30.666799545288 -59.092109680176 -131.752761840820 2.129061222076
25.343021392822 -57.561218261719 -116.335952758789 11.516603469849
-37.587966918945 -61.436958312988 -53.361763000488 6.754252910614
30.759109497070 -58.632106781006 -135.122451782227 0.961158514023
24.996520996094 -58.779415130615 -133.180557250977 2.283542633057
-88.720428466797 -65.394531250000 15.476372718811 61.083423614502
17.705110549927 -59.790393829346 -131.821624755859 7.474655628204
2.643594980240 -61.464435577393 -109.264091491699 33.144721984863
-32.802009582520 -63.971748352051 -53.251064300537 5.103271007538
27.713298797607 -59.478851318359 -137.270874023438 0.862471282482
-24.893512725830 -60.615398406982 -67.382987976074 2.388233661652
-40.692516326904 -64.341972351074 -53.904338836670 7.429930210114
-35.482460021973 -63.637489318848 -49.195526123047 2.303671836853
-28.393030166626 -61.406127929688 -70.850814819336 1.601790308952
8.969775199890 -61.421848297119 -117.959823608398 22.783887863159
-37.599525451660 -64.319686889648 -56.963920593262 8.728742599487
9.821519851685 -59.371574401855 -110.858863830566 26.475057601929
-24.353570938110 -60.543510437012 -74.434226989746 6.352380752563
-30.120468139648 -63.985599517822 -58.975440979004 8.406779289246
21.202154159546 -59.508056640625 -136.207046508789 3.047617912292
7.248713970184 -61.762390136719 -113.733230590820 26.853771209717
18.092525482178 -60.419910430908 -132.815093994141 6.563888549805
-32.278800964355 -65.271667480469 -69.171142578125 4.612569332123
-32.402843475342 -62.660007476807 -55.702308654785 7.651419162750
-27.758012771606 -64.010841369629 -80.543563842773 4.954576492310
-33.758998870850 -61.534408569336 -65.021728515625 5.888405799866
-48.037101745605 -64.072029113770 -60.776691436768 12.774677276611
1.167940020561 -58.987041473389 -122.663276672363 26.162729263306
-6.888731002808 -62.622699737549 -110.298782348633 39.250514984131
-1.449190020561 -60.730278015137 -114.880569458008 32.651241302490
-42.373939514160 -64.046737670898 -61.969741821289 12.843872070313
-5.038331031799 -62.401283264160 -123.833122253418 29.889690399170
-3.211725950241 -61.372776031494 -115.287185668945 33.786952972412
-43.291580200195 -65.830200195313 -70.997802734375 7.227757453918
-10.443359375000 -62.259529113770 -122.864738464355 34.660987854004
-51.840438842773 -64.941070556641 -66.079383850098 12.819692611694
-100.838798522949 -67.673812866211 4.184333801270 54.517543792725
-15.824024200439 -64.238243103027 -116.022476196289 37.374523162842
-100.859306335449 -69.799736022949 -4.715075969696 46.900917053223
-17.807024002075 -63.215679168701 -118.881141662598 34.514068603516
-19.426826477051 -62.590297698975 -123.429542541504 31.493057250977
-49.167121887207 -63.647716522217 -76.010078430176 4.823358535767
-105.603713989258 -69.165580749512 -14.237582206726 40.964401245117
-25.965633392334 -65.521331787109 -121.899467468262 25.601842880249
-14.765374183655 -63.174858093262 -117.326187133789 37.890090942383
-31.329076766968 -64.909042358398 -119.037178039551 22.624935150146
42.565502166748 -61.119400024414 -218.139984130859 26.982421875000
-53.268779754639 -65.507118225098 -84.050933837891 1.619062662125
-112.659179687500 -69.793197631836 -15.017164230347 44.244342803955
40.855979919434 -60.572319030762 -228.934707641602 19.679424285889
-34.202060699463 -62.412712097168 -123.682769775391 18.401384353638
16.364137649536 -63.955860137939 -197.816848754883 2.739564418793
24.648963928223 -64.032318115234 -211.294113159180 9.105794906616
11.745168685913 -63.935066223145 -193.600646972656 4.137292385101
10.561415672302 -64.413063049316 -195.895309448242 4.844178199768
-45.984573364258 -67.473884582520 -117.040901184082 11.035840988159
-65.611076354980 -65.075668334961 -88.030410766602 2.984664201736
-48.283054351807 -68.470283508301 -119.114547729492 8.666225433350
14.825044631958 -63.266590118408 -209.968032836914 4.704530715942
-48.273502349854 -69.426109313965 -128.546035766602 3.254705667496
20.613353729248 -62.530345916748 -215.476181030273 8.163142204285
-50.362560272217 -66.727020263672 -118.779106140137 6.343492031097
27.015825271606 -63.333770751953 -225.817413330078 13.276446342468
-117.690147399902 -71.497627258301 -38.172698974609 32.723144531250
42.226779937744 -62.940040588379 -239.984603881836 9.041977882385
-65.492774963379 -65.275581359863 -118.372695922852 1.391241192818
-70.240699768066 -69.583969116211 -103.386650085449 2.660621881485
-77.331069946289 -69.733627319336 -108.715965270996 0.830818772316
-120.359947204590 -72.748039245605 -53.203311920166 28.493694305420
-70.371818542480 -68.121566772461 -107.626472473145 2.220789670944
-77.945602416992 -70.078521728516 -104.911224365234 3.264462232590
-60.144596099854 -66.523246765137 -129.947998046875 1.618946313858
-16.492141723633 -66.711799621582 -190.007156372070 3.623404502869
-10.868883132935 -66.325347900391 -193.771606445313 6.091756820679
-71.831649780273 -70.977050781250 -123.276710510254 4.959591865540
24.517688751221 -64.231788635254 -253.771102905273 2.780662775040
-82.630783081055 -70.176925659180 -109.811691284180 3.202946662903
12.048830986023 -66.817672729492 -236.081420898438 2.971250295639
-82.983673095703 -69.429786682129 -111.301643371582 2.505992412567
3.921847105026 -65.502922058105 -230.769180297852 0.534653961658
-7.275143146515 -66.366989135742 -215.489242553711 2.662863492966
-84.075645446777 -68.768836975098 -107.889900207520 1.642725348473
-123.831413269043 -73.225677490234 -60.971675872803 29.513282775879
-79.739204406738 -71.503967285156 -115.829666137695 1.177873611450
-14.022910118103 -65.741714477539 -215.241302490234 2.518722534180
-124.518905639648 -71.908103942871 -63.009243011475 29.266157150269
-129.599105834961 -73.224617004395 -59.192012786865 35.081638336182
-7.126836776733 -67.993194580078 -224.500015258789 1.573389768600
-12.825410842896 -65.891143798828 -216.494995117188 2.294082641602
-74.958160400391 -71.944618225098 -134.097610473633 1.989835858345
-122.802246093750 -72.702705383301 -66.512046813965 27.248468399048
-123.705146789551 -71.332603454590 -77.059226989746 26.677291870117
-127.430442810059 -71.402679443359 -67.132553100586 31.082231521606
-4.136427879333 -67.196311950684 -233.826431274414 0.417839199305
-128.518005371094 -71.830581665039 -72.406700134277 31.745737075806
-126.443885803223 -73.034019470215 -74.766296386719 29.888717651367
20.041149139404 -63.300918579102 -256.651947021484 4.812127113342
-87.118431091309 -70.942474365234 -130.708877563477 0.804109692574
-101.094909667969 -70.366867065430 -117.763298034668 5.403011322021
-85.167854309082 -70.952529907227 -134.951065063477 2.641744852066
-95.915122985840 -71.159675598145 -119.987678527832 1.913200736046
-127.298263549805 -73.441055297852 -77.629402160645 30.760467529297
-97.231491088867 -70.218887329102 -122.901985168457 3.932679414749
-83.654754638672 -75.185798645020 -140.704269409180 7.056921958923
-89.187278747559 -72.769287109375 -130.309204101563 3.364076137543
-132.494018554688 -72.137962341309 -82.159378051758 35.036571502686
-93.806076049805 -70.020011901855 -127.178993225098 5.516894340515
-83.973297119141 -71.462921142578 -138.942932128906 4.920295238495
-99.728569030762 -71.054534912109 -123.101943969727 6.246168613434
12.861543655396 -66.724967956543 -265.788238525391 8.251117706299
-129.746963500977 -75.083274841309 -88.553421020508 33.343837738037
-127.045799255371 -74.291030883789 -93.310218811035 30.328805923462
-123.223854064941 -70.780616760254 -88.268768310547 25.808567047119
-89.583831787109 -70.209022521973 -145.774154663086 3.201329231262
-128.451217651367 -71.954757690430 -89.878425598145 31.094503402710
-52.238857269287 -69.868324279785 -192.495346069336 5.978358268738
-129.693344116211 -72.158927917480 -95.482238769531 32.132099151611
-42.420867919922 -67.872825622559 -210.927108764648 9.044471740723
-24.635848999023 -67.195022583008 -238.916168212891 5.785092830658
-19.362730026245 -68.655143737793 -243.991882324219 3.472551584244
-124.084632873535 -72.618888854980 -103.850418090820 27.097148895264
-18.174598693848 -67.265419006348 -249.225326538086 3.851274490356
-36.089263916016 -67.931663513184 -229.360046386719 12.914227485657
-32.890010833740 -71.142578125000 -231.793777465820 8.691945075989
-49.860343933105 -69.955657958984 -207.273300170898 10.676778793335
-36.142147064209 -69.091964721680 -232.560989379883 9.700966835022
-32.460193634033 -69.270881652832 -243.530578613281 5.448207855225
-21.021949768066 -70.958763122559 -263.353179931641 5.750869750977
-96.153785705566 -72.547386169434 -157.228988647461 4.318395614624
-6.436748981476 -68.049354553223 -278.793365478516 1.759700417519
-104.567428588867 -73.148536682129 -163.631317138672 4.623854160309
-14.264980316162 -69.300918579102 -273.705139160156 1.992331147194
-24.204290390015 -71.770393371582 -275.207580566406 10.686222076416
-16.235218048096 -70.123367309570 -287.370971679688 2.530895471573
-108.570068359375 -74.462165832520 -161.853286743164 8.167150497437
-43.728401184082 -70.068328857422 -265.176971435547 19.565269470215
-28.723402023315 -70.738037109375 -286.917572021484 2.031742572784
-33.673931121826 -71.742851257324 -274.152709960938 12.279418945313
-43.780158996582 -70.034202575684 -265.988006591797 20.326728820801
-118.743782043457 -77.852905273438 -165.474212646484 16.129470825195
-49.267410278320 -68.317893981934 -257.499572753906 12.130045890808
-37.863723754883 -68.627586364746 -271.275817871094 15.947596549988
-53.836471557617 -72.024024963379 -250.099517822266 3.764269113541
-78.933914184570 -73.329383850098 -220.054504394531 4.789107799530
-86.650238037109 -73.774604797363 -208.487457275391 4.496017932892
-123.591697692871 -77.136276245117 -164.514297485352 19.732814788818
-96.198966979980 -76.347259521484 -204.211380004883 11.226740837097
-92.076492309570 -75.184837341309 -206.844848632813 7.019979476929
-87.892379760742 -76.191383361816 -215.557250976563 1.657907128334
-78.831520080566 -72.771789550781 -230.366256713867 14.301993370056
-68.615097045898 -75.158569335938 -240.251342773438 5.823808670044
-30.932962417603 -72.707374572754 -289.945007324219 1.133894324303
-32.201381683350 -69.642127990723 -293.852111816406 4.817361354828
-54.685253143311 -72.367973327637 -265.354400634766 16.581453323364
-44.328311920166 -71.658294677734 -280.090118408203 6.522130012512
-43.870067596436 -69.862586975098 -290.874694824219 2.146409511566
-55.663013458252 -74.145256042480 -292.321990966797 1.957141757011
57.966514587402 -50.441162109375 40.529750823975 56.501136779785
67.942398071289 -49.466781616211 12.769888877869 36.940124511719
47.819988250732 -52.619411468506 27.545917510986 41.018020629883
57.223526000977 -52.496658325195 -37.810012817383 9.989178657532
0.808957993984 -56.482727050781 41.847629547119 61.664852142334
-3.971348047256 -57.503955841064 41.769001007080 63.971740722656
3.548331975937 -57.286422729492 34.758453369141 54.180278778076
2.620063066483 -56.062602996826 31.579065322876 51.789470672607
-11.983857154846 -54.768905639648 42.791389465332 68.809318542480
100.031845092773 -53.384555816650 -104.733993530273 2.253555774689
-2.835721969604 -54.389595031738 24.659637451172 48.642028808594
62.697303771973 -56.222896575928 -61.273796081543 5.131357192993
-28.228418350220 -59.105262756348 42.198574066162 78.515045166016
-5.560400009155 -57.879943847656 7.444469928741 38.035579681396
-37.997879028320 -58.582931518555 39.886199951172 83.780220031738
-39.034938812256 -61.642475128174 37.313983917236 81.351127624512
-19.480955123901 -58.932289123535 9.690988540649 50.381881713867
70.686569213867 -51.643177032471 -107.095840454102 1.893754243851
-12.786901473999 -57.587223052979 -4.737411975861 37.357860565186
-45.008800506592 -60.717205047607 34.424983978271 77.627647399902
-14.634123802185 -56.317016601563 -15.095273017883 35.353336334229
-30.904644012451 -61.150791168213 14.052991867065 60.257823944092
-8.272377967834 -60.244602203369 -17.977886199951 29.204332351685
-45.283477783203 -62.161865234375 36.003795623779 79.193656921387
-12.737409591675 -61.394496917725 -11.893036842346 34.976757049561
-53.132328033447 -61.229278564453 33.358329772949 75.967857360840
-55.402420043945 -61.984516143799 31.306684494019 73.787155151367
59.398811340332 -57.274040222168 -116.691703796387 8.307397842407
58.629035949707 -57.177387237549 -123.164123535156 12.472830772400
-20.378171920776 -58.607273101807 -24.637582778931 24.781370162964
-61.623191833496 -62.797321319580 32.612243652344 74.882102966309
-65.208114624023 -64.186996459961 30.168325424194 72.624435424805
51.638977050781 -57.401615142822 -131.238250732422 12.764011383057
-61.666431427002 -62.727725982666 24.724414825439 67.001487731934
32.179939270020 -57.594264984131 -112.621299743652 8.732442855835
54.507598876953 -57.491962432861 -131.843811035156 15.196578025818
45.659034729004 -59.268173217773 -123.196365356445 3.188078641891
34.731487274170 -60.730720520020 -108.184135437012 9.589455604553
-18.386558532715 -62.376243591309 -39.224311828613 11.293474197388
-26.954675674438 -61.202068328857 -35.993854522705 12.483986854553
37.634223937988 -59.215351104736 -128.564971923828 2.086036682129
-21.852552413940 -61.959304809570 -44.692493438721 5.683702945709
-76.791908264160 -64.433021545410 14.937082290649 58.424980163574
12.258280754089 -60.273979187012 -109.034759521484 25.785873413086
-30.152627944946 -66.182968139648 -54.281269073486 3.698892593384
-84.350791931152 -66.701782226563 18.108385086060 62.982658386230
-32.655139923096 -63.992614746094 -45.568744659424 2.603934526443
-77.385894775391 -66.132270812988 14.601518630981 58.391185760498
15.834944725037 -58.934215545654 -117.490661621094 17.634733200073
23.096651077271 -63.153533935547 -130.273468017578 4.191948413849
10.340574264526 -61.727539062500 -119.667190551758 20.635911941528
-2.838164091110 -62.147602081299 -119.284263610840 30.900455474854
-25.641784667969 -65.095138549805 -75.681007385254 3.225107669830
-89.370986938477 -66.737022399902 10.006414413452 56.094753265381
-89.455741882324 -67.011497497559 6.429770946503 52.725715637207
-29.263618469238 -65.575477600098 -75.173988342285 0.579960644245
-30.774621963501 -62.442100524902 -80.491203308105 4.613094806671
-31.404445648193 -63.598514556885 -68.531318664551 3.139913082123
-37.016445159912 -65.645912170410 -60.471614837646 9.750339508057
-96.542572021484 -69.003318786621 2.936764001846 52.063217163086
-95.558006286621 -66.189178466797 -1.953253030777 46.668437957764
-48.908622741699 -67.532577514648 -70.620193481445 10.475920677185
-40.916751861572 -65.601905822754 -61.457244873047 11.063883781433
-96.062248229980 -68.200057983398 6.449797153473 54.975822448730
-19.428281784058 -64.538162231445 -113.304847717285 35.653472900391
-99.088279724121 -69.103240966797 -0.550912976265 49.868801116943
-45.145355224609 -65.558349609375 -77.744216918945 2.961580514908
-42.671710968018 -64.898483276367 -67.873100280762 10.202861785889
-100.200386047363 -68.404861450195 -5.045649051666 46.058654785156
-49.367797851563 -66.800010681152 -68.730773925781 11.620047569275
-107.313186645508 -70.769042968750 -7.094870090485 48.095306396484
-12.124490737915 -64.870513916016 -122.839935302734 35.661502838135
-52.938796997070 -67.604675292969 -70.407730102539 9.926239967346
-106.952079772949 -70.522262573242 -11.980466842651 43.885799407959
-57.113578796387 -67.918342590332 -76.368721008301 6.716819763184
45.911991119385 -63.684295654297 -219.984268188477 23.807853698730
-29.696052551270 -68.340415954590 -123.253616333008 21.435642242432
-60.236370086670 -70.222427368164 -78.053421020508 8.795638084412
16.189353942871 -63.118423461914 -190.315704345703 3.662245273590
17.400167465210 -63.557418823242 -186.861816406250 3.695603847504
-60.736343383789 -69.538917541504 -81.898208618164 7.164555549622
-52.767028808594 -67.926338195801 -86.179992675781 1.825327038765
-31.282569885254 -65.358139038086 -122.325195312500 20.833992004395
-32.575176239014 -64.604087829590 -123.652214050293 19.228191375732
-29.189960479736 -65.875053405762 -121.384086608887 23.001258850098
-51.518714904785 -67.393165588379 -79.209808349609 4.894646167755
39.828056335449 -62.813453674316 -223.498870849609 24.160547256470
34.836082458496 -62.763706207275 -218.393188476563 19.423072814941
32.215698242188 -61.978187561035 -217.595932006836 17.335584640503
-37.194984436035 -67.075386047363 -117.982200622559 18.172407150269
-64.394470214844 -68.160362243652 -97.364112854004 1.818091988564
-112.355476379395 -71.595275878906 -24.061538696289 37.859813690186
12.732628822327 -63.753208160400 -194.795349121094 3.834462881088
-69.445686340332 -67.878547668457 -87.983200073242 6.531267166138
-43.362693786621 -66.348915100098 -117.131797790527 12.909107208252
-43.769878387451 -68.293060302734 -121.614189147949 10.891781806946
-114.678306579590 -71.596824645996 -27.031246185303 37.341106414795
-65.355522155762 -68.146858215332 -99.460380554199 2.134404897690
-40.047660827637 -67.399841308594 -121.153968811035 14.201234817505
16.326072692871 -64.705154418945 -205.679412841797 3.952622652054
20.632373809814 -64.719039916992 -215.722503662109 6.766646862030
9.556466102600 -64.026634216309 -198.392990112305 4.783704280853
24.590490341187 -63.836559295654 -222.368988037109 10.802581787109
-65.858032226563 -69.614921569824 -90.736763000488 2.354132413864
-119.058700561523 -71.431015014648 -35.116477966309 35.449485778809
41.644714355469 -65.579528808594 -241.092208862305 7.977448940277
-119.871971130371 -72.075622558594 -29.076501846313 39.991954803467
-51.189723968506 -68.736633300781 -126.234817504883 3.575905323029
-123.974800109863 -70.235946655273 -39.682209014893 36.548526763916
-121.630752563477 -73.236747741699 -46.004631042480 32.668022155762
-73.094337463379 -69.373321533203 -102.960891723633 2.173368930817
-77.245529174805 -69.273818969727 -98.815361022949 2.113379478455
-69.900726318359 -69.864112854004 -100.820289611816 0.573515415192
-65.792236328125 -69.053359985352 -127.572288513184 3.384588718414
-12.045443534851 -67.232955932617 -193.316680908203 5.113606452942
-63.245586395264 -67.909637451172 -120.646179199219 3.399864912033
-124.506080627441 -73.384460449219 -42.604198455811 36.604873657227
-16.150598526001 -66.858680725098 -191.689758300781 3.750277519226
-9.513120651245 -66.397018432617 -200.869750976563 4.965682983398
-18.026124954224 -64.638725280762 -191.637969970703 4.383330345154
-125.997940063477 -74.457000732422 -50.399784088135 34.915588378906
4.605535984039 -66.142311096191 -228.625427246094 1.718214988708
4.349069118500 -67.793571472168 -229.033142089844 1.783055424690
-4.088231086731 -66.752868652344 -215.448394775391 2.459785461426
-8.418410301208 -67.639877319336 -210.289703369141 1.535014390945
4.803219795227 -64.629173278809 -231.727951049805 1.412608146667
-11.200512886047 -64.743156433105 -211.594863891602 3.273655176163
-9.671190261841 -64.571914672852 -214.994796752930 2.271752595901
-73.010177612305 -69.877563476563 -127.719512939453 2.348926782608
-64.619895935059 -70.695220947266 -134.739288330078 3.646949529648
-81.253952026367 -71.563018798828 -126.920402526855 2.657632827759
-72.615036010742 -71.632362365723 -131.348571777344 1.744966864586
-92.867271423340 -70.585571289063 -114.283432006836 3.704068183899
-68.084320068359 -72.996574401855 -137.327575683594 3.708182811737
23.190248489380 -65.527839660645 -254.766448974609 2.230658531189
-82.245719909668 -71.959503173828 -127.663581848145 2.819644451141
-129.031356811523 -72.599197387695 -60.039127349854 34.168720245361
-89.829010009766 -70.995658874512 -119.661132812500 1.474854588509
-80.501533508301 -71.138992309570 -132.157791137695 1.781994938850
7.328074932098 -67.885841369629 -255.427673339844 7.862044811249
1.302664995193 -67.142463684082 -240.438430786133 1.645455241203
-123.751281738281 -73.915153503418 -77.011306762695 27.514598846436
-81.560508728027 -71.285278320313 -133.322433471680 2.167046785355
-86.454444885254 -71.995948791504 -122.639724731445 2.722515106201
-127.208465576172 -74.036613464355 -72.011283874512 31.211589813232
-131.796295166016 -71.724014282227 -65.794609069824 35.459693908691
-130.844146728516 -75.242324829102 -75.601997375488 34.687793731689
-85.603622436523 -71.030601501465 -131.819992065430 1.846961259842
-124.463737487793 -73.960136413574 -86.231063842773 27.854084014893
-76.019638061523 -71.255493164063 -146.144470214844 0.469289839268
-79.562423706055 -71.065284729004 -146.239089965820 3.291896581650
-94.616638183594 -74.234916687012 -124.714767456055 6.475278854370
-127.717407226563 -74.318321228027 -79.434646606445 31.499654769897
-125.407043457031 -73.779304504395 -80.974853515625 28.937330245972
-124.548568725586 -74.950798034668 -95.069641113281 28.105907440186
-126.401153564453 -73.441711425781 -85.194366455078 29.458538055420
-87.460601806641 -72.111999511719 -150.455413818359 7.654815673828
-47.480674743652 -71.575950622559 -204.225524902344 6.562645435333
-51.216812133789 -70.700706481934 -199.351303100586 7.094836711884
-121.213691711426 -73.679450988770 -102.098968505859 24.604816436768
-9.487838745117 -68.771415710449 -254.208175659180 3.096128702164
-123.395423889160 -74.259963989258 -109.702033996582 27.194360733032
-42.544132232666 -69.936515808105 -210.926879882813 7.750859260559
-7.494070053101 -70.341133117676 -263.495513916016 3.301429271698
-14.349368095398 -68.723953247070 -252.132919311523 1.001781344414
-127.495429992676 -74.938133239746 -100.634803771973 31.002088546753
