# This PCD file was generated using the MATLAB® pcwrite function
# from Computer Vision Toolbox®.
# .PCD v.7 - Point Cloud Data file format
VERSION .7
FIELDS x y z
SIZE 8 8 8
TYPE F F F
COUNT 1 1 1
WIDTH 791
HEIGHT 1
VIEWPOINT 0 0 0 1 0 0 0
POINTS 791
DATA ascii
-55.323554485237189 -158.555723947170890 -247.528470210918982
-4.384253504942742 -107.104684405683457 -246.596164278803883
11.025819651746630 -92.138893866084203 -247.312323221971013
64.791468602607139 -37.433938523450117 -246.139928370526718
-59.130179221858171 -160.513302373595309 -247.183464325812253
8.688882718866765 -94.060411151141537 -247.279118007361035
10.367945871417454 -93.895866081917831 -247.077906426746750
65.318381967947062 -37.885937109369387 -247.094347644777628
65.925115850337036 -37.561788291653059 -248.266289865386113
-64.612267316110035 -167.562704407702256 -247.827425159832842
-60.982889616668508 -164.505701793169834 -247.644618933109967
-55.045207538453781 -156.833410193486714 -247.532738696286032
-51.247913041179608 -155.069119957637042 -247.774245453630471
-9.449031515210400 -110.346565609182235 -248.743164316704224
7.251897930694678 -95.507318167107684 -249.105699025721918
6.966052611804284 -96.005035900665078 -248.578990390417601
-65.852004592337465 -169.562589533154011 -249.266153316747761
-59.875781081854065 -163.230458911907192 -248.757408467269784
67.166573975841445 -36.510685357309825 -249.561893182186537
-62.574739171515347 -165.093101567114331 -248.891402992361208
-61.857551334429864 -163.529708601162724 -249.364836387462958
-55.908310939892381 -157.827951102841155 -250.124336486628749
-55.751339878869807 -158.454130895221880 -248.518946496116570
-10.095714519880776 -112.962169186135142 -250.012435738663555
4.378655477708773 -99.295117274836400 -249.373704516688008
-12.581331131547403 -113.726987493531070 -249.688720858070326
2.731767763577766 -100.211938863773113 -250.540471928476279
3.263299175012129 -99.540304497247760 -249.539014541912508
-62.372821416062941 -165.572109634709705 -249.848183681308512
-60.889906829358175 -163.669224402346003 -250.635443711207273
-58.367103559752849 -161.802420101616434 -250.151071643914349
-50.937105567802114 -154.297939267830884 -250.148462281303807
0.836650978506595 -102.759145443992622 -251.233480016110747
-64.594345959647100 -168.395731500462119 -250.817014357949319
-55.655947897105051 -157.419474907458238 -250.239089176858272
-11.500255258345177 -114.676396790590530 -250.246162271720465
0.626523593883771 -103.615745065698917 -249.927159755829422
-62.439380764807090 -165.642699015289651 -251.137668033669200
-56.793282498627619 -159.660504855516706 -250.681747198842999
-14.126491955001351 -117.447234032941637 -251.522778052670418
-13.506654182725928 -116.204020394552757 -250.933616249007912
-60.742428888560411 -164.456973230824303 -250.849895010911382
-56.994546028377435 -159.874116705165449 -251.684929818275549
-55.191088407704669 -159.608161869441972 -251.370943432264170
-50.064872255826252 -153.721782220247661 -250.458085792865660
-2.316505872443581 -105.710816880851539 -251.069281744282534
42.965528696237328 -60.088273280243918 -250.346702377519108
-63.216241476554458 -167.116718634712072 -251.356522661998014
-2.885513926962080 -105.975211336029332 -251.497561576555142
-61.106039536231954 -165.004613575524161 -251.997142127359041
-57.560438436693651 -160.254258396861644 -252.412769760900318
-16.018327770887648 -118.172885794445691 -251.440602556168301
-14.088901278811806 -116.926357927722123 -252.751694059957174
-66.951011357732270 -169.243626581973245 -252.603173410267487
-58.236334877898329 -160.794520849069073 -252.450682947178848
-37.102253416898158 -139.317173181805458 -253.567954377057760
-15.220801078627019 -118.903202196895194 -252.424970331445166
-56.882458677072300 -159.757800391636323 -253.428671713861462
-42.867819968907561 -145.743328870266964 -252.298360543988196
-40.122529382802313 -143.040854185666575 -253.060791909633195
-38.695454433586768 -142.168813655074047 -253.772306900376066
-36.418769477800893 -140.324617673098800 -253.248297816448257
-35.851828121708650 -138.650157975427248 -253.431519505753556
-9.772104490602869 -113.335703823909029 -253.201410277717315
42.523353670610575 -61.091751926914888 -252.727572426086965
-65.346300144764342 -168.779232953565185 -252.894768159942743
-62.384000893000767 -165.622469559293251 -253.322939447842231
-58.167702405942620 -160.163825658181793 -253.761588460418949
-48.356149363721968 -153.148142192674669 -253.792350537430423
-32.120823808413178 -135.987376126032530 -253.457291987394456
-17.944954234471368 -120.231471934161178 -253.708503312292805
-9.589219683933331 -111.646036335302227 -252.983719282029057
-57.749449366819071 -161.031414867291772 -254.368908940112703
-48.504150332809374 -152.079114214274995 -253.695683963178624
-43.274452168355054 -145.683189534417977 -253.499986459935940
-30.639812710410467 -134.039020987627396 -253.550324074803257
-19.937286597100098 -121.607418529848431 -254.098772234003775
-18.361462099864223 -121.162053964569679 -253.495256168922623
-15.301172110426108 -117.835921919705044 -253.970861014564605
-8.858184635785666 -112.003618439460723 -254.265885817832043
42.281369443406220 -61.415724937235012 -253.425970788009835
-48.491003889132855 -151.136135975258043 -254.220956329502144
-43.499664466950421 -145.825099948122727 -254.509010563643415
-43.248983435661941 -147.042078766395576 -254.056210394927405
-13.488667251581175 -116.525172304699154 -253.977999604440299
-12.670907438316895 -115.575439452737342 -253.886296747217102
-10.751295277659285 -113.693906673511478 -254.819583408518042
-66.498399278068050 -168.557215106348707 -254.485742774989433
-43.991712531770638 -146.580294684473984 -254.629402772577976
-66.295168875407640 -168.513379962653687 -255.272517313954836
-64.839194294981638 -168.287081310386981 -255.501735837710442
-61.473758980845744 -164.054294643406109 -254.956009896968851
-58.225750269215951 -162.069198948331746 -255.661434814930487
-45.035011511621214 -147.602506775571612 -255.100005699020301
-34.700013700812541 -137.261907783549987 -255.060707916812589
-30.624480643191081 -132.913210996734904 -255.182416304519847
-22.414458025366777 -124.884226619807933 -255.152878552727145
-18.694351364472592 -121.944136075376534 -254.288655182623700
-16.895566386854416 -120.558698100179242 -253.846316199162686
-15.589249161709022 -116.744851196321918 -254.633439277292609
-13.044387411508730 -116.035151379455556 -254.713985765064649
68.118120862440165 -35.279247801066631 -255.238588797377304
-54.946478089773642 -157.747602408742040 -255.152606666943257
-52.893391728639727 -156.425368042509604 -255.597740275776914
-32.735327867518912 -135.986311986793339 -255.683301636374779
-30.421193859365840 -134.032864480638494 -255.036247793956647
-30.035754162756987 -133.705153369580245 -255.432718989932994
-22.154736670103080 -124.125300570450733 -255.348442451785445
-17.762996739371882 -120.811933384218548 -254.923211165623854
-14.846638922032394 -117.410389833970356 -254.849583204346004
-52.103785780294579 -155.568915196435455 -255.517487029391987
-19.539356423347638 -121.012535841754612 -255.609002182402548
-17.675885781365853 -120.194728344653299 -255.667795451263942
-58.391351393384006 -162.202458768362732 -256.010075478661236
-35.334562183927900 -138.576773834804783 -256.298856399366969
-31.409144384368577 -134.698693240953332 -256.694428517729534
-22.529176447463588 -124.982386272928693 -256.134910091502775
-20.017908561551533 -123.489645394775721 -255.403875771625678
-18.921144987812465 -122.059657799843549 -256.217029997858845
41.862507283669075 -61.830848356648175 -256.760818672507810
-62.643889935963458 -166.150146334954485 -256.504197845835392
-54.003598686635449 -157.660144291685612 -256.128265327521774
-54.352800291810077 -156.591400565204623 -255.943950216344774
-32.732187487813860 -136.021638339862079 -256.503336403735204
-31.928355782120310 -134.803014036509126 -256.781893067298483
-23.164294761678381 -126.100732129148284 -256.036907610049525
-61.534530630553235 -164.742320916739232 -256.829268223355314
-29.457376558743292 -131.790502778817995 -256.550008326873865
-28.247800781411467 -130.868047842198905 -256.971804819897272
-26.390153737267497 -129.411827569674784 -256.732667830141111
-24.843400144950408 -128.302479036763287 -256.655404067200720
-22.506080335448811 -124.382419617886441 -257.231913004079445
-54.036728943682192 -157.485929460155091 -257.061813644317169
-25.576694390804544 -129.115747981703407 -257.972424478084861
-24.084035160740140 -126.632480667478887 -257.348372662722284
-65.754523589237465 -168.731949563486211 -257.407066584284792
-58.765342796347852 -161.619840267997603 -256.516501663659767
-57.427120215161310 -161.436918864868574 -257.890790471594755
-53.021672634821208 -156.788479261613418 -258.158765142889138
-53.819982852297997 -156.095362195890374 -258.123928814459930
-53.025012084539036 -155.481015766522461 -257.268693560821021
-31.708969196760705 -135.973877627012911 -256.755286481963935
-27.711135282888037 -131.195951953056465 -256.490804147719359
-26.313635588916462 -130.069099828305696 -258.526394469687375
-60.914749569097879 -164.298225663452769 -258.638335261199927
-59.448321007868316 -161.801378552254931 -258.519152021609216
-52.894800713570241 -156.976760958071452 -257.937190203502439
-36.073194428413139 -138.652610730511725 -258.563359012627359
-32.772491921455220 -135.423397166541520 -258.778057065281814
-29.269920882977502 -132.562226924683415 -258.371283159614393
-28.842537415686341 -131.469924608205446 -258.539026081426243
42.342036588033622 -61.110863519767257 -258.770699464355118
-44.898243373269871 -147.942400852698881 -259.998478614564419
-35.650693444126318 -138.319494113305922 -258.454607071634655
-65.014262671828888 -167.975248479427933 -260.063014771956489
-47.660302137454117 -152.106861253240311 -259.330653235589352
-35.309094496530186 -138.255376379868437 -259.678919418884163
-29.996211440568700 -133.475886840002460 -259.203884613509786
-29.691647491732027 -133.048739799586770 -259.492278358005819
-47.269425155187520 -151.273754173859317 -260.461581696455539
-45.936866584720903 -149.683342024547557 -259.794875181518933
-57.856308392036610 -161.043466063227669 -260.350814342566821
-47.707771326664776 -152.470873380271144 -259.620511052644133
42.334103952928928 -62.375014053873073 -260.326993393970668
-42.422654723947815 -146.115502416778469 -260.403019150322507
-59.882901718330714 -162.367519208114373 -260.867224860709030
-57.529759378941428 -160.090847484328464 -260.849230286909631
-49.160413081168720 -153.221798921947908 -262.082579808876460
42.006706672500677 -61.838599964676789 -261.788596075571661
-49.813548734380483 -153.099472427658441 -262.470149883763497
-56.484552471549947 -160.165948418981628 -262.776245580108423
-50.782965947036658 -153.974184248875872 -262.553767372521918
-51.424579259007537 -153.654357543231185 -264.720260433445219
42.184973700093728 -61.011472892382891 -263.074824486005127
-66.199860622573865 -168.349604764947600 -264.478142039445174
67.793973205704305 -35.253002201895960 -264.485171102673348
68.158459397472427 -35.981080347061358 -264.739183463449649
42.834922185289642 -61.951140971234558 -265.717344847636980
68.470495902876650 -35.561695701514964 -267.021158150304586
-51.485923727818054 -154.209042931294420 -268.813886774727848
43.437786030758033 -60.734831340647354 -268.024048167407500
-65.840209750104890 -169.381863384171851 -268.846712677287428
42.911198007308251 -60.790178053683164 -269.954872119176571
-50.696470258416348 -154.620777620747560 -271.429242551512402
44.255071853198963 -59.898000240693335 -271.090555961067139
66.665997805299298 -35.657009019970850 -271.801568070099108
66.304558476737228 -36.587202932575231 -271.802565995336693
-66.719138344150380 -169.283616961607066 -273.107180524874309
43.490223555956575 -59.245666383919506 -273.937743378550749
43.964331823029227 -59.524460369586130 -272.779302923772207
45.529855698014956 -58.860000372594307 -272.249858288221333
65.653962543610390 -36.712695111619013 -273.802158537675382
44.727848924607834 -59.025920543440570 -274.888892003475689
-50.158903490278178 -155.183984938989369 -274.837198222453424
-66.368940431310136 -169.447374366318911 -276.134718774494729
45.826594198164109 -57.420943245392671 -275.922500594587291
-66.141742263106451 -169.502516020943574 -275.692411648917982
46.248854579161261 -58.101485914226458 -277.442420603589881
-50.551043999661921 -154.153631160994280 -279.160404922989585
47.898189832234031 -56.662680171941204 -279.741050097360812
-66.284203203873645 -169.725346459525213 -279.848944188862674
-50.138632883882437 -154.386689512155357 -281.385661052256353
-42.248179082491582 -145.677700287532872 -282.053930518502682
-39.091490389083091 -142.094985188086326 -281.833450319708504
-49.417933554451032 -153.146321962657822 -282.744618118870676
-43.557637504219961 -147.075414603670737 -282.775136007999208
-49.334921504858755 -152.931761255237348 -283.465066795039718
-49.012337865911633 -151.417840241809898 -283.240804794537212
-36.366607637997660 -140.107033052268093 -283.784077681058477
30.367265558056861 -73.068778215994683 -282.969072956488446
31.144536409459867 -72.334830856577213 -282.770490900026630
32.916202314033349 -70.936971387623302 -283.716368368335679
-67.287882698661363 -169.284736754743903 -284.097323813121420
-48.062403396297519 -151.358524707962175 -283.895270084398874
-44.712949947873021 -147.197227068620748 -283.837917170937317
6.621437784908084 -96.635211656789892 -283.534098005113890
9.284481953744903 -93.881691066399469 -284.070950025298032
16.178808677466687 -87.199149030520218 -283.376946125408267
21.597834056396398 -82.830357813857887 -283.904165912544897
-36.846916336540914 -139.214955945545199 -282.941673199347861
-3.390422421107100 -105.842046477491110 -284.352870573291113
1.375332660450565 -103.658105130369933 -284.380178963898175
24.229856104624830 -79.212351149464467 -283.660878820263520
28.881838828593491 -75.208369284761403 -284.029875900999286
34.138556903172436 -70.602549085547778 -283.877821209233332
-35.339289477908856 -138.587710746646593 -284.673178873401696
-34.414051422542478 -136.646415663243971 -284.625834491464047
-12.337330605906558 -115.052872136571239 -284.410988784712856
-8.331285079484822 -111.652636969852082 -284.536208744787530
22.876360094918713 -78.884495942994889 -284.406190706818450
26.382232737141155 -75.799529843207154 -284.205567456639244
29.947751352455317 -73.669060712032859 -284.071570071569681
34.747094866085519 -69.386806684520479 -284.421713241573229
36.951276058535889 -68.242549242101688 -284.387364420880033
42.900756644557589 -59.821235157507637 -284.573286930032850
44.598475107001335 -58.670680236958489 -285.490570211676527
59.799217456918775 -43.802371522298294 -283.771336853910441
-32.446273297427716 -134.851342814712154 -284.768135921679857
-30.365436920441095 -131.857207619101814 -284.342611224317920
-16.197310779572955 -118.906145243166605 -284.823132317720933
36.328819642536544 -66.809762147370321 -284.989106639806607
40.666661552617065 -62.751009646318060 -285.137299837442299
45.783017533898096 -57.624020125962666 -285.012616091836207
48.003468762653291 -55.446935377020367 -285.994752324176659
48.468784352514639 -53.964196514584899 -284.707444980622824
-24.191154862239152 -126.609307253272902 -285.448118219267656
-21.665547328405765 -124.173087012760661 -284.669574856564964
-26.115895883480306 -130.615840831499980 -285.658609336886229
58.930785003160032 -45.261783521424178 -286.277491856542440
-64.872309274258583 -169.192706358134984 -286.277188290175502
58.675865274406398 -44.594299012010957 -287.161982666427832
61.088195398394461 -41.322875953547552 -287.030628927296959
60.479509558303668 -41.448358275424347 -286.980696150659412
63.425008495310053 -40.132031588802043 -287.663541037804862
-63.575479170498724 -167.916863701705239 -287.566669380054236
-65.774221775282115 -168.311407943111760 -287.501613831153747
62.692574950345801 -39.864594412186577 -287.633150956334248
63.713846685795893 -39.720118322510210 -288.700883681612368
-29.315385624632842 -133.152258742638026 -287.879626314014843
-27.925599239237048 -130.125963477338701 -289.257968600592903
19.351697046322588 -83.631969281798391 -288.930798352454474
-63.709735144240042 -166.643803270329045 -289.459381125664663
-34.159802176180669 -137.582926420176591 -289.525116889542460
-24.427934430514167 -127.321966945298868 -288.451361532829594
-19.702024837198334 -123.197720212868504 -289.529538982107567
-10.168698389337075 -113.453917458917189 -289.748360339614408
-6.438185602599157 -110.285550932082259 -288.352525308275517
-1.544454349378283 -105.453477544430484 -289.516475614367835
4.608833874621180 -98.334982321310420 -289.325818662463689
22.750443189897116 -80.906588007864471 -289.048425748253067
26.816618557425954 -77.616872549901217 -288.095670231541362
-30.689235911493093 -134.317825634869223 -289.925971604876338
-16.969134933969929 -120.648879766697235 -289.816842505569753
-13.289717066407421 -116.673818661075558 -289.853774041428210
-9.549229885566888 -112.125776829427821 -288.565096839576825
29.853339871262655 -74.447153445981073 -288.722116110452248
30.232560881088325 -72.864610259026776 -288.625291422486043
34.764359761656664 -68.488810455119705 -290.458020336876302
-34.113595459622687 -136.879033966111820 -289.838579044847449
-29.606746151291311 -132.773392211581779 -290.001192285079185
-28.337093443707989 -131.398185555187894 -289.458176899512523
-27.892167989373071 -129.876142296669656 -289.904514546003611
-22.433529347229182 -126.711462994663933 -289.146193075141014
-19.906816682273501 -121.928119863476638 -290.926070336059638
-16.141849575629653 -119.019468063774738 -290.721265062975817
39.066344046214461 -63.411130342925105 -289.544596887849593
40.643802189050341 -64.189466457522570 -289.106350242887231
41.048056907196099 -61.371712362931810 -289.243992739126782
42.649508235982552 -60.590618304671082 -289.939010228129689
42.329773413428619 -60.544460044336546 -289.728841247999355
46.875121765864336 -56.098133217516434 -289.363763100836479
63.790528322929639 -39.001282442343587 -290.225841798593990
-43.775126914149872 -147.828945028293361 -290.437333005816754
-34.833475295826076 -137.955065381902557 -289.738360826840733
-33.660837799690810 -136.079391819463126 -290.068885853338770
-31.279256153409555 -132.559529110601943 -289.878540516526641
48.834200381496743 -55.210577657681078 -290.604312098841888
48.744926824314888 -54.259438981101624 -290.279567982072649
52.235038614270074 -50.912863120942440 -289.650256262358994
54.266908221866096 -49.601335970569245 -290.751202326260795
55.474043925980837 -47.443444803439448 -290.705243310473350
56.817582979186120 -47.354483365606761 -290.973993073674194
57.245449488344661 -44.180850126820992 -291.732659402885190
64.015784173341956 -40.258724748879878 -291.589770532314731
62.865006125105161 -39.658615108925680 -291.373617203672893
-43.432109371343948 -146.189751930139323 -290.665243249130356
-35.832608888933123 -139.884788324947067 -290.926656938743065
59.905258027687644 -43.928909677844864 -291.422482397950205
60.107072380477369 -42.813344423289898 -291.857435337621894
61.359939086053579 -40.941081200887275 -291.115315338331243
-43.086908022236159 -145.882807369373069 -292.202737407367863
-40.106819149005801 -143.547879553161351 -291.878467291585878
-50.796276459383655 -154.592230915346164 -292.271367472995507
-37.288478306494611 -142.158924889223556 -293.323804012845983
-37.117281560359324 -140.164141989512189 -291.725251150391273
-59.435254864750988 -162.355607453622099 -293.278185600906681
-37.651132356458888 -140.396820103885688 -292.310093277906674
-56.606962532004040 -159.490193440705298 -295.226527286713065
-51.090064618191505 -153.596838719593194 -297.608220858322170
-50.613675432546081 -153.575578133144603 -297.352428537479454
-57.687263478175026 -161.344496759141862 -300.120923231760685
-58.162892236915091 -160.854444561627133 -301.839164094742102
-58.345734004086538 -161.367195191341494 -304.732894691434865
-58.358994721807932 -160.866455721726766 -305.711697934052495
-58.172967476496780 -161.175921406452716 -308.724585146294714
-50.381317818907185 -153.277807332681732 -309.174165537562203
-57.633002908416842 -160.401415537825045 -309.109006491759203
-54.382608727703335 -157.523172542119227 -309.706497623164353
-55.620364838905473 -160.115233725500758 -311.020312201109391
-53.820989732140070 -157.665837498277256 -310.134569625524591
-52.303150667723195 -155.174890612509756 -310.489288978796310
73.237250407189478 -29.105085548541403 -12.934236075298433
74.871871622835670 -26.539831927140522 -12.548156323788248
70.853189047056446 -30.336279165288882 -12.682045825752173
68.803906808658425 -30.819851208181422 -13.983641356008349
70.110704750002142 -29.932146921039543 -13.615314621016827
72.527207814797194 -28.478754873014609 -13.263542421698677
73.762076781587126 -28.509048067457215 -13.790367696591211
69.887039942350484 -33.033603003504162 -15.577487855749698
72.747310932868658 -28.637310477054942 -14.949817840166066
72.928695275579813 -27.859133403907094 -15.690008678390878
69.877123610968141 -32.173635532795572 -15.146502989562823
72.695990931026984 -28.926479915381531 -15.438115304848012
67.573047806487637 -32.976578533695694 -15.446810419482727
68.809952137803407 -32.815588707654079 -16.507869208955199
71.485810964103464 -30.716711709821833 -16.251755198003153
66.882584660089449 -33.168737508343099 -18.101711186028488
67.956272398159484 -33.439808726143148 -16.692420607122749
71.091347917929767 -30.323608247251670 -17.782650550196916
69.440472343429633 -31.315091292291378 -18.391012427769049
67.739770472682210 -34.441519142831858 -19.033391056901092
69.810835943390288 -31.461285914265247 -18.400494886614993
69.174766581094502 -32.274216112423254 -18.680450064188143
66.357279981557298 -34.786216172529187 -19.222766267356278
67.777204353634787 -34.274021847806580 -20.619084820809565
69.104695134549701 -31.720331858403036 -20.493360361371746
69.970332052423402 -31.984944928402733 -21.302537142310328
69.015788627824136 -30.911036477998202 -22.228920801930158
66.919176994040740 -35.145157808827904 -22.540691394579635
68.261448895735825 -34.078109345759351 -24.000126860162108
66.224928268975560 -35.703650803801338 -23.216174321298816
68.939527346889562 -32.447769724066838 -25.253950613466934
65.306773504429685 -35.307167438506127 -26.179487779330636
66.896699471892831 -34.494788027980789 -26.420994857512518
68.490791558026288 -33.140503854825248 -27.022094563649464
66.951881081654847 -34.703171127005810 -26.686163167680917
68.777538030052156 -32.726270594184605 -27.817563993328271
68.807470932749737 -32.240221584535867 -28.852034211244352
67.293537331041478 -34.520980186337070 -27.629461442881087
66.833211219205580 -34.475839584857361 -30.675718434297366
69.493660928567735 -33.292739317233249 -30.403931318716317
67.966258382914205 -34.071288075783677 -32.002686028852814
70.512269348129990 -31.966817361030394 -31.552208240845694
71.368018904141493 -31.279250178778739 -31.519027218358453
66.739259876831596 -33.732902085000738 -31.907666660187793
71.126111170741837 -29.804826298158346 -32.615937711002971
68.591773605405024 -33.306767609743702 -33.038976547392608
68.459914673990767 -33.200898721991564 -32.483533451765808
71.642004698042925 -31.061358773031309 -33.408094086745692
71.571877693734606 -28.535279254192133 -34.157831871897223
70.720898344585223 -31.406215247571062 -33.688519942964113
71.765825752024071 -29.317680524713673 -33.825408750426661
80.517817592502183 -20.141673979333774 -33.641200772165050
68.743065772450080 -33.129757655866321 -34.034907341834362
69.430562878698709 -31.964142904634663 -33.150423517117190
71.919196877882371 -30.221553467979277 -34.632457882652353
74.068754691946467 -28.267918468997117 -34.352980427660931
73.596244450078743 -27.267082025427889 -33.279182805396196
78.362233372516329 -23.144659688012073 -34.803350713120750
68.932484587620010 -32.175689844233766 -34.424363647031583
70.999787847147687 -30.001392380525434 -34.328785663089256
78.724655970681596 -22.653673344406531 -35.130959563794661
80.621347826086932 -20.564002827908826 -34.648912044166252
69.911403574852827 -33.355149219019886 -34.938273694714184
78.387510226837819 -22.914091672321515 -35.621076541013935
74.201391712296825 -27.239952687342672 -35.948188188252779
77.308431135956639 -23.780777342534208 -35.557001183986955
70.317740132939576 -30.616620069460733 -36.901928550567114
70.655762784366075 -30.193813026979186 -36.806982458889941
73.849486693487847 -27.661769475612513 -36.831852521756758
78.271692895349688 -22.842878203574152 -36.872176894715651
72.427109167945133 -29.246441678629299 -37.070716807425740
72.801569372970860 -28.474383493904639 -38.024768827873793
77.665513327101735 -24.516053601680245 -38.028312222984560
78.644032330398488 -22.278997088035062 -37.920457066035198
74.393787452864643 -27.389260440184398 -37.223173040956382
77.489895612699556 -23.345918939956960 -38.461761775277587
5.692857872417666 -95.133329480625804 -47.891984511079102
7.568168333961101 -94.094706939810933 -47.792602500250858
10.169145452078057 -90.493415135993786 -48.504175419318614
8.229051452426456 -93.181345515740261 -47.818096569033749
12.516458819461421 -87.276629300450281 -48.195220909080021
16.245314670938242 -84.736000513978908 -48.190113412579251
1.527099223799524 -99.546390141146261 -49.043658944960825
3.667110987987756 -98.021408901938528 -49.739061808393160
4.906443714037335 -97.392150616023926 -48.880293940957863
6.407252107000947 -94.621395448472441 -49.410852437585810
9.056302790535147 -92.966545298317584 -49.575517633259061
14.381624378186746 -87.261690679096844 -49.563994708948847
16.316873676836213 -84.750432962011544 -49.146517863215351
19.450168702992823 -82.037290993241569 -48.422875601851388
5.237192392002245 -96.645101728102901 -49.025718088149397
18.736865427907862 -82.763482306503960 -49.211876423915221
20.745737784379141 -81.656755291799612 -49.861851640377914
-1.278115720989267 -101.825239073624573 -49.609505217705376
0.455912879496600 -100.737671601529783 -49.360893030718849
1.219595461426416 -100.211007640914431 -51.143983633541957
22.366536243789298 -80.147875269096545 -50.615300543559862
22.873045860993940 -78.216409773573943 -50.131897865166621
0.844450984084975 -101.480601256781242 -50.444255001452497
-0.032921451371153 -102.978131626424116 -51.286447700929180
26.907960519018047 -75.206231773777461 -51.808401749200172
-4.561342999424470 -105.073209746235179 -53.115544444335406
-0.272929331346748 -103.370904476548162 -53.644907735110635
27.755298169425195 -74.845302342592191 -52.649828378486013
27.470754136377856 -73.116516301044811 -53.014702821541853
-2.851255490374196 -105.230934514255608 -52.773765785800322
-3.282526322306686 -104.141953394515141 -53.097632673023959
-4.635360882253796 -105.839113237236063 -53.717463403191545
29.055176157062785 -72.465104667836002 -54.559478368439301
29.304448300283511 -71.017793272226612 -53.734079176186185
29.762531364426984 -72.038414254291709 -55.120040919967295
32.131779990023297 -67.905873401792007 -56.335964001478757
-7.485900691459583 -108.315336717551787 -56.883281666955867
34.062318273434670 -66.253264363513338 -56.535983459934165
35.151483498340582 -66.381013099008001 -57.741406284061874
-6.173912006914814 -109.093047314240792 -58.095370742639957
-7.316834629035167 -108.964747298868744 -59.154683004983198
-9.666118564350359 -110.946173681987247 -59.390527839428529
34.997445397969777 -66.929977608164961 -58.357880202382695
36.384747508786852 -64.773503625097277 -59.197201104511976
-9.257791419955995 -110.330657505698142 -58.747077122136218
-9.400951768947374 -109.791191383466582 -60.442511839033131
38.003773982984825 -64.150126302986465 -60.899781941255455
-9.227312301283890 -111.211859888941078 -61.339590661608376
38.017408306297305 -63.498650794830738 -62.054199658479007
-10.237746431186151 -112.065648714939272 -61.457254822289599
37.446826180289655 -63.497163153728678 -61.621754806364997
-10.233968581724755 -111.464320243695326 -63.655728221334186
-11.117537792460089 -112.298851835466039 -64.870215903249346
39.696563319253464 -62.180260338569191 -64.073137593355241
-11.951182389024860 -112.985579319900765 -65.887644337226888
39.358950346451294 -62.628424753215235 -66.474730220257996
108.722013846709388 7.161916242614707 -66.336628276157356
107.324649652194481 6.072505800307521 -66.881797748105043
113.098613584342658 10.920888205171270 -67.183503752948141
113.742607932617915 12.317853979165188 -68.093864669154385
107.981152998579248 5.686581930466462 -67.389042479234547
-13.286432605219487 -114.103035216263535 -67.552739055837293
39.152691960485377 -62.918569756325333 -66.438332680306473
105.659856850153474 4.619492689897072 -67.624578340623813
116.392539865276291 14.977436267823345 -68.748563759072468
104.521522504056691 4.421677104252307 -68.339222718515998
111.677190033483470 9.295425985786537 -68.477004021869959
112.743935357355440 11.153141155856295 -68.218831435658799
114.985117144241201 11.239108730319526 -68.603207571128593
112.045101474788410 9.632176820783956 -68.663764823621477
39.001688523418942 -63.961355483997266 -70.047108504884534
116.001013328027852 15.017249625380806 -68.367489206323981
104.560165449663387 3.146706543079032 -70.081636266323727
-13.603434090620940 -114.226241979549968 -70.013661315490907
-13.160492974043505 -114.805141113192349 -70.448433333895082
39.111535239408830 -63.589051759331397 -69.737678747743772
117.013852697911744 15.406575152111477 -70.705002591669071
102.983473648494567 1.885434100648404 -70.694430500539227
102.751024737873038 1.836387999327137 -71.896139228159782
119.012255569196540 17.042199015244972 -72.172744029734787
36.745543252803444 -66.870807673735143 -72.773597447535749
102.000749231460759 0.882081795170322 -71.774418483523135
-14.536812866354719 -115.144000017279055 -74.529443028534160
102.690836245876838 1.399457105971364 -73.717044761627676
-13.985011110673540 -116.004268245933901 -73.431713951730572
101.659786493207946 0.227874776898711 -73.908315812494720
-13.462924451022298 -115.317312934315623 -74.703499964615261
27.256916551588386 -74.859486862867357 -74.921834052233919
34.369845766756420 -68.067877573346522 -76.067800281437442
100.923049842821214 0.149240780668939 -74.904550107417307
29.800917477191692 -71.506292741527744 -75.804407056491655
31.075183083363697 -71.095592022515902 -75.588226295785077
101.109315481939205 -0.397647125415649 -76.023940129672440
-13.522675994279945 -115.478676507268673 -77.103968400496697
120.789661949122674 18.661106304930687 -77.087216025795414
100.475270732351220 -0.563275291244133 -77.565650582794589
101.865472119000785 0.365521655370622 -78.003415429627111
121.296524598775420 19.519057828302344 -78.372351109144077
19.965326095065482 -81.666041894471647 -80.409756076339036
-14.669013620868736 -116.975917362609025 -81.911697753872261
100.990048151665107 -2.409551815533620 -82.019254889202585
17.169968020204468 -84.792823876119996 -81.989285766979521
18.984567194572609 -83.366570242710083 -83.534977255910718
121.355261751122484 17.722152951303467 -83.913603169701176
16.525921492132163 -85.094118744022509 -83.254925743032288
15.858299378007219 -85.822676205899100 -84.266147448580938
15.976280416266135 -85.764882271710277 -84.359799319397524
120.937077799176265 19.047113904517349 -85.107305045448626
-15.971706726958953 -115.440653380374215 -85.562803240764921
-14.742064880090849 -116.046865313718641 -87.035575625148468
15.066327393344290 -87.104198848647258 -86.622667615617303
90.752412442080271 -10.945885134614759 -86.863992959872689
92.313506136202008 -9.234065458502551 -87.024467130202538
93.762534656030354 -7.421207905739204 -86.290454757016505
121.645809322315102 19.246939431602250 -86.642745768049423
89.387625493233898 -10.979734568648992 -87.659876794850220
91.418321034230701 -11.025556953417015 -87.515022706244579
94.641295466485218 -8.305174560189597 -87.931857697227557
120.843199477985891 19.592112419643176 -87.416801603823075
12.062824124379862 -89.727979728601767 -87.632628898297270
11.106172870501785 -89.232332198817616 -87.385126831550508
88.245849812922941 -13.285350982267568 -89.024095080309991
121.794122537119847 18.408723399878507 -88.971931622527677
94.132653920167485 -6.571779574267198 -88.595360102247184
100.115641066386743 -0.030406584546428 -89.446947095438830
100.420297406875036 0.019435154205381 -90.101399081182706
90.580250785589200 -10.529793655348445 -90.091957899849859
7.099399773767933 -93.813657845809587 -90.909156908733664
-15.056032595567274 -117.099143841455302 -90.554348937967518
85.282859079685238 -16.966732249121822 -92.496376018691066
92.982127599847772 -7.740108147613606 -92.576642190555049
121.089694154751697 20.090002963870408 -92.086097131276233
87.436139474146543 -14.126595972199262 -92.829239354312719
93.364271027658020 -7.940974778973283 -93.648639264712173
6.350669956420577 -97.239092803778576 -93.696937198734346
120.696684989857999 19.554666816921507 -93.169279971023172
86.587817518411100 -15.246147319285964 -93.690389809315704
93.377054384951080 -9.170769544865673 -94.376500941921947
-14.652858744265021 -116.524129405624976 -94.262273799580356
120.078294774333315 16.559314786854955 -95.350826135121352
124.975883545746257 23.411892673546994 -94.785586685535563
125.599510501325383 24.007133561973884 -95.166557786165782
91.055424230415014 -9.827606378256545 -95.884918697848590
84.699033934509387 -17.138567164604520 -94.717253903866947
3.745888864687019 -97.054293438128326 -96.541940745186821
90.168387878580702 -10.837570108254043 -96.043508471157352
118.665371403553863 16.217761924405746 -95.883120194199762
118.613785484820312 17.741676618961179 -95.803702808038182
90.889000102329220 -10.928626010027992 -96.551301550690653
103.739738166494718 1.619751543560474 -95.627787157570594
-3.442134530188325 -105.572767155099484 -97.672407047970111
119.639788316354839 16.932259828589622 -96.868830067769139
-4.999886751946045 -106.536469703364887 -97.739353417263743
-2.759066702133138 -105.095220444349692 -98.133485384838693
2.708140512119467 -98.775248980720036 -98.099113494221839
92.584884546777445 -9.249590215521907 -97.885467762191524
118.324313727853735 16.717750147851255 -97.979711605678631
109.553875653379890 6.607978785812976 -98.211493096439085
110.503044921650798 8.791040247323377 -99.162551490772515
112.753711664936461 8.802104671617322 -99.286974687632764
3.267169272422424 -99.366044059285215 -98.326646033879740
124.696072866111294 22.298844224375348 -99.433288978134385
-1.465553113932131 -103.860487655956547 -99.239657418489685
82.175198790745810 -20.254729699933964 -99.428768136041342
110.929464770460314 9.690840801572895 -98.304002617924567
117.458887137117401 15.604630660188073 -98.080768356263036
-1.224457747435057 -103.456573481848395 -99.581734262495871
0.029553072165708 -102.646122083214308 -99.681723859317870
90.397287480270208 -10.085949086190228 -100.027050016699206
105.180826618109748 3.364839790909187 -99.480421053869293
90.290278228764606 -12.589985221266291 -99.701368622692911
113.349261063789712 11.467394535020906 -99.599246258113254
116.090248712037805 15.128253910480280 -99.779330774795909
107.075900495835285 5.583979983902028 -100.512310546175428
115.847153577763706 15.113316216549116 -100.161444003814864
-6.730645888055449 -108.601107154954335 -100.244299551373700
81.903641861130325 -20.473912658905817 -100.861818131371891
115.383838529182739 13.892164599373890 -101.375974584757486
128.599367087497825 26.880925576941827 -101.213908567783008
80.670585493419210 -21.796483171717924 -100.892816115939453
89.642598708818014 -13.655700427139985 -101.640240911765162
82.446468345280962 -19.608480289615084 -101.947878505501691
129.482425275830877 26.638255499774864 -101.876041734500802
80.042621651599333 -21.499193878537508 -101.888779536588274
-6.905000455056048 -110.578463499115855 -102.347621036883183
87.292569167282991 -14.862675705731760 -104.218695194199640
-14.920378753149539 -117.308935352362880 -103.658320463281257
124.942929040834642 23.164916474290496 -104.809827888560079
78.761882895180221 -22.647494304096814 -105.607428019050630
80.094660799609883 -20.940632130029897 -104.484697521477557
87.071904358404495 -14.645781978095991 -105.618155973084214
127.725008449079567 26.361656887176018 -105.243142340827021
128.929562128379018 27.970421163717894 -105.669761558941715
-8.131126131779185 -110.350230339694562 -105.512927548616446
78.556574353047651 -23.570043322246928 -106.211874342304313
125.617409796799862 23.659288521414258 -106.533780561120935
130.287220271083129 27.500636233714513 -106.945094217501918
79.232226115281875 -21.755395060083316 -106.836096188541518
88.613744366934682 -12.628234654568558 -107.537251728828394
129.587851510206235 29.376964762697490 -108.189996676834141
126.966412006225951 27.257259766593307 -108.014974832757019
77.470577171747379 -23.840690428496249 -108.553700938795444
79.446412526384748 -23.460235359930191 -108.864240187244462
88.413707440416687 -14.467453924059011 -108.818214763440309
127.778744341748620 26.040498584176159 -109.815977221199290
130.514034825963307 28.233576808895421 -108.389904192969880
126.512093562413853 24.259988732651507 -110.210581914106214
86.853913613266997 -15.067083583703226 -110.786642957119639
128.103125789863753 27.116058382060121 -109.973082847042932
131.083766113068350 28.436712080274880 -110.374984750912390
76.216230792922190 -24.778482859064852 -110.451450278431295
128.130643458452141 27.106755977238663 -110.271193480254681
-11.232003857395460 -111.811631570218594 -110.538235573780810
78.757680614091655 -23.242873156526940 -111.267876273958848
126.887531800046901 23.760757907592868 -111.739230211143607
85.878010798746004 -16.342294434897504 -111.510519065397929
130.613031606828770 28.493223032116781 -111.574465313187929
77.161778151900307 -25.929398355531895 -112.373269814643820
-14.707851572907350 -116.510144813973184 -112.587691020678264
127.051036480588095 26.572352070257271 -113.098043174715755
128.503201677675975 27.902308757863249 -111.658912900684484
84.365934442234760 -15.557738992194402 -112.852605290844011
125.736008779983948 24.766006355152168 -112.998209534912206
131.901397560061270 28.689763998293884 -112.584600763675752
-10.104606499879567 -112.451314552177124 -113.490597135850464
77.325559085840865 -23.551783886815272 -112.929635588275914
127.783929097154001 28.532590756156463 -112.839139110053608
-10.920145365254106 -113.183682186922837 -114.227682153409461
128.128723536271764 26.631136172881266 -114.121989957486790
75.407871855205116 -26.274871879610139 -114.595338395189401
-14.219444801631232 -116.736046771095474 -115.366468665831505
131.541242500381458 29.535962492332530 -114.385555698598580
82.140096460156670 -19.262247273549722 -115.758032359691740
126.489581922391608 25.054319077165790 -115.872331411186963
74.666873359798331 -27.695989489399441 -116.446451314833254
76.750917373283116 -25.388364059997350 -115.992484103503372
76.175309799137594 -23.822412274508064 -115.518147170883864
129.857295072977251 27.381821287052716 -115.766944032909933
-14.952701900867384 -116.889717226377229 -116.489545683197647
82.040528239035538 -20.668703436763870 -116.500828560830527
84.398239024805761 -17.472870978707594 -116.460912323358116
128.444011182906820 26.947978968485131 -115.852145054933615
-14.369217163986882 -115.823957558916121 -117.006409627751935
-13.200540018974346 -114.617601901657721 -116.101970472101101
76.385258949893057 -26.853589121293759 -117.543198552212473
132.664503687268251 30.098940018331742 -118.022380999551785
128.021708386061789 27.635899012070379 -118.524561288317486
129.464648665879309 27.705039820252015 -117.802564077262716
130.122458534927347 29.361485629660912 -118.023511462410440
127.492193163237985 24.853282555685922 -118.251463708417646
74.691619263461789 -28.696622087164489 -118.848268401639146
130.544571935487483 27.956070799484465 -118.826693838509570
82.161994156473384 -19.122513195321797 -119.528547780023985
82.626967979670070 -18.615651769056203 -119.629843577170632
75.808553133793112 -26.230166106229060 -120.144544156227994
72.669442845255318 -28.746071757086710 -121.369856763536347
82.169968914608233 -19.568659763298733 -120.969441681321669
128.412672168006310 25.649310088146198 -122.559102397619583
132.819417889287109 30.266227652292745 -122.324157304344553
80.567979514136127 -22.864716865431578 -122.679086458978034
127.189092147917577 27.221920901480537 -122.479399015630747
128.805945927379668 27.570013828102063 -122.259830349401639
130.999295980144723 28.124079829243264 -122.377550793784323
130.510053507200183 28.985345099987590 -122.156260892459443
74.987907516024293 -27.510811228702114 -123.152099223708248
81.090721418694770 -19.850741060818688 -123.283282795144657
79.354384302707643 -21.970476940966773 -123.978847382263709
128.098904232441981 26.245738927460192 -124.259097685129703
131.463232705228137 28.701737400428762 -123.383107562344179
130.475048544612292 27.535348678516659 -124.029090990027711
78.670544232640012 -21.849885276866985 -125.458896655119119
79.510382270616972 -23.378935160204321 -126.115795272746993
133.034957497710337 30.316195075498182 -125.593080535718357
127.691054466957155 26.318866688279030 -125.937385600339098
131.138340438220382 30.318155815935924 -127.228719724476804
81.387671377285187 -21.101138031828715 -127.433503152029544
133.146754093802627 32.517136128922985 -127.046644686206747
73.199687132649586 -28.976358426555304 -126.825849217257513
129.651659156722701 28.075052347829967 -128.217708804403713
12.028704844131033 -89.213490986713865 -128.424949177244912
79.491955691276246 -22.935389357785411 -127.658414816372414
11.194987997782949 -88.803383536193962 -128.949920038295886
72.576871691257296 -30.680837244370817 -128.223675728734520
13.704710558857249 -87.099041444915883 -129.145002970516543
129.163706262206148 25.597818964837906 -129.528980563273421
11.520579851108780 -89.258830316277425 -130.166087197416317
13.689347009528687 -88.757245425262369 -129.081757165356493
72.914214125211984 -29.257242146247172 -130.810636086800400
10.161827669031483 -90.937036532739228 -129.920946604813054
-2.997009778404818 -104.029712418948208 -130.373768300467447
78.212286792194163 -23.225330324734319 -130.087374816398864
80.078193389073249 -21.775877737213168 -130.380260781508184
131.327111590462209 29.859330592455532 -130.897590215646488
134.219603718132731 31.434398253210020 -129.814380779211717
8.743622160368055 -92.359926008017766 -131.314798413772650
16.311244976304106 -85.341744795434579 -131.334627014345813
130.667024095659912 27.577039655222659 -131.847025301932433
-2.375889285335975 -104.214164448300508 -132.455148669574527
-1.411627791128347 -102.841345794127292 -131.778510969853414
9.374414353460153 -92.079836956819534 -132.158499710679820
-2.886596831528792 -105.540862045575935 -132.929612880548547
12.987211563720169 -87.090385996771261 -132.696335898220099
-2.309969071908668 -103.026942309351753 -132.956707450307903
72.512502300146792 -30.053489641097528 -132.103763140365771
77.659498008309043 -24.309489384698800 -131.740555719208345
78.930624468126524 -23.787063816671967 -133.060972348703871
134.133517854442857 32.027825783162982 -132.694939213007387
0.153716400759395 -102.252621060968082 -133.347257652183458
72.292010441277057 -28.843292986038517 -132.984736308086582
9.502635582010464 -92.898534114761375 -133.558708289262881
11.204104789039532 -88.865959231878023 -133.439846720238364
12.677112491652119 -89.188848087272902 -133.595297992308616
18.175996129990455 -85.370300674924067 -133.456157800528956
17.737716171094771 -84.106545547957836 -134.379709434131200
130.633136262141960 28.747171917080205 -133.565644667273574
-3.505019258405788 -105.413205525515863 -134.272640084394880
70.211937113131526 -31.410159918677586 -134.149208291137285
128.594801672177113 26.934699880889653 -134.791393441529578
-1.536350254764929 -104.689986610691676 -135.648265973363095
18.158550830601758 -83.466266507239666 -135.018742101798750
71.250506077914338 -30.976620769644228 -135.266729472588111
132.169252691973554 28.617684522478019 -136.260308792323457
17.160570869719088 -85.044840296726662 -135.499153890104139
77.232418852313543 -25.068964413684732 -134.799507715873148
134.688246878206627 31.279020603140982 -136.552871161454505
17.155748936709738 -84.977736200961886 -138.252859265321462
70.529683762174002 -31.860193516409950 -138.301363892945659
78.174814635363589 -24.812853723144134 -137.699284769176018
128.269193284900922 26.778707025165684 -137.515279533890606
132.083927501641597 29.691111825240043 -137.069815204608545
12.002215037627751 -89.770881181853468 -136.954968546766167
19.373115766219371 -82.818544687382200 -137.316654192077863
10.792013833895890 -91.208852871399884 -138.144503863975984
129.010911630992041 26.654699773813320 -138.631184599609753
11.242525675105700 -90.448337271939792 -138.826159567483899
70.220872134336332 -29.872388966672187 -139.001600701141939
2.749148003062693 -100.049363716863667 -140.781662432639820
20.971304757111206 -81.645983328648271 -139.819811688646723
76.676284620141075 -25.259528324924862 -139.594290862668657
130.509917524785550 28.855033725474829 -139.444362761161244
76.593167799044892 -23.949432035355542 -139.676131929108834
0.513221776786411 -100.970022029425323 -140.060521685384685
10.237160664571267 -90.130816709839394 -139.896180692235987
12.372959536083760 -91.270243016640038 -140.056626602306807
20.677013713216965 -81.979486217400478 -140.048235507083916
129.622131417151309 27.345743877153243 -140.824824224428397
131.421202923966433 30.329312421929664 -140.313023353142739
75.905078986850640 -26.527741825581288 -139.831702872764112
77.097557374168403 -24.495024329560504 -140.827990652809973
-0.968934164257994 -101.775306453707032 -141.066780713782919
2.857822685669591 -99.477814450560771 -141.506869208498813
20.645983837017603 -80.570976755392451 -141.061436016255300
70.525626966799493 -31.477122475916389 -140.265053676803632
-1.912992135225378 -104.616356502781585 -141.965878095350831
130.373975014241211 29.798242455146717 -141.293723575814340
131.616356227568190 30.290496373259636 -141.586122197578504
134.037969199395121 31.340154921025590 -140.564141495760197
-1.938502850505824 -102.843126997263923 -142.267758118073203
-0.044397865862475 -101.692611584965448 -141.757172518154135
11.291738632578143 -91.557280141716703 -142.502467442881624
68.261642712096020 -33.754526677333722 -142.220527342636785
130.214871650964994 28.491062621434367 -142.046929912050473
19.547760262977349 -82.706541013428691 -142.939076914773437
76.999974289319127 -25.331780079278928 -142.327285195295559
-0.381710740591876 -101.137665269823572 -141.814260712639395
12.830773287645568 -89.655289493451065 -143.329437242011323
130.978618561088211 29.063384208855219 -142.835934471354534
132.333970430800946 30.011104830578969 -143.673334840894000
1.025609608889496 -99.887258744997624 -142.942401846124028
11.103865441967910 -91.205548899617739 -143.263093756927049
-1.470310842248391 -104.312818881914509 -143.371375314416440
-0.261002467825462 -101.752778285946718 -143.818665153514047
4.386658418734964 -97.938474766551352 -143.727572145784819
69.632405456333302 -32.705510944817078 -143.563667289416713
129.132857126130887 27.306293039344197 -143.052936181554600
0.118457043799962 -100.769475256623721 -145.233690222637364
11.339514552777628 -89.808404096721546 -145.152099471232106
12.921975442440909 -88.914124137633706 -143.631873586891970
1.712118415558068 -101.020599997725014 -143.935726209929499
75.244670248811602 -26.833345564958201 -144.708000820392130
-1.469685906877262 -103.278328018406697 -144.691237216263687
-0.554307446885979 -100.631838251911148 -144.374406650377892
19.867379883812880 -82.175339081091323 -144.584390686545248
130.246916514346424 29.883515419171278 -144.985419478435688
