# This PCD file was generated using the MATLAB® pcwrite function
# from Computer Vision Toolbox®.
# .PCD v.7 - Point Cloud Data file format
VERSION .7
FIELDS x y z
SIZE 8 8 8
TYPE F F F
COUNT 1 1 1
WIDTH 793
HEIGHT 1
VIEWPOINT 0 0 0 1 0 0 0
POINTS 793
DATA ascii
-46.491298225235639 -157.184567152198611 -218.208002695632501
48.743813314958238 -66.802465182421102 -219.889450397520903
-49.687385838345413 -161.706269449158242 -219.440497330987398
45.410011205366381 -64.394215547518115 -216.437017040770854
37.213222730047420 -70.042032780800113 -216.129068171604644
48.441353939773556 -61.588029081012735 -217.621856792565495
52.241959355464331 -56.221690163016625 -218.675157210259528
68.388171010213853 -45.163112593629108 -219.444048579362885
-50.770278207382802 -160.768909457881563 -218.201670319822256
-50.975493530986931 -154.531516703934130 -216.513036999464390
43.970637051103729 -65.972604224327227 -221.955337100808777
49.014717818568428 -61.044522088671592 -218.580480961259099
65.442692897441404 -40.752925712739476 -217.502224841772772
-49.207755830976971 -155.446866693058610 -220.055451684343353
38.196971124443365 -70.355733172463204 -220.089638694809594
54.598392215219192 -52.750598739858852 -221.002434149805140
-53.954315506312007 -160.792561465554968 -219.375573593193621
-47.840981976764382 -153.538198087716722 -220.418056805526192
39.241773330301591 -67.989924897813239 -221.290935975973468
42.517753721236318 -66.267236281777230 -219.701065733834980
42.218335680461756 -66.507982117112604 -221.830680318433053
59.263967077411372 -49.881666356516426 -219.705771296216795
-54.557295665058525 -162.131045235879952 -220.761235461374412
61.690670122788646 -44.921226058827898 -219.471123321438370
-53.369082777577155 -163.327370356564302 -220.428836716184406
-48.914025063159770 -154.359478432264638 -226.145170102908054
39.150506559519251 -67.814829585355625 -221.831539438895447
42.478472396308966 -65.653287745902901 -222.133011209916930
41.467400384537910 -64.700229234330536 -222.257101771153344
43.057071000517794 -63.800845578069044 -221.211559324483687
39.670939630885727 -71.298469792657286 -223.107444213893046
45.945232495429181 -57.625438362874419 -222.200554680679460
54.193825264056024 -50.571563270996677 -223.512396706501505
67.944471857211099 -41.831155584436523 -222.163813647827425
-53.483294213290911 -161.421256028742789 -223.566841403732298
-45.168401200587681 -152.425291893157464 -222.054930719707556
53.779810852892986 -55.743228899961487 -223.224088156663839
66.875721403377639 -42.854888874243940 -223.295585315119695
40.606747108587150 -66.646003508703501 -225.268164829725748
-46.526127727257027 -152.894541497741756 -222.028185235298878
58.194876787901237 -43.455874061775035 -224.640595948487828
-45.280032793929117 -154.427438836565841 -225.167284307696832
58.568127408892423 -52.531172272401029 -222.219921830019530
-55.370223294179816 -164.694056565127482 -224.552407212846049
-44.846559123646919 -153.356743184710979 -226.271820241184685
44.793274740994789 -66.360873881420943 -223.208984993100785
43.959555823431991 -63.066229853918955 -223.063608066952924
42.799534280701344 -60.504619512419829 -225.567318764233164
50.736306383450788 -56.412738208313684 -226.387899587556063
65.582528086071861 -42.818785843040466 -226.746741526565870
-51.655479370345070 -157.851458573680389 -224.404180382897238
-41.049274672261227 -149.709378251539476 -225.866157277116457
41.278022575249260 -66.233526380334496 -226.041196538336578
-41.040751730025448 -150.994661915051807 -225.738284854005627
55.893221980597708 -50.092881146370487 -224.798696355194977
61.992486420190005 -46.924648670115566 -226.087728510029905
-39.530285518920870 -148.819744997066323 -227.819324458927326
56.104668193376291 -53.619301999341779 -226.473443068557458
54.838653807664706 -53.160354205641816 -227.466308784234286
59.547033753916921 -51.887704925736088 -230.661645852178850
-40.005013708837119 -149.871796725579060 -225.774697230558019
58.860800039555762 -46.190966063788402 -226.282361124953724
61.106059429749742 -47.428272889205324 -227.230384776396278
66.320438042588947 -40.969497060987813 -227.607089925453977
66.723032566898539 -41.378503573967897 -226.155425338527635
56.108722680404313 -50.163497312193101 -226.064135034096665
58.205871828593288 -54.131020632209037 -227.648593848753308
-49.592414176761764 -162.728113390287490 -228.890547280884050
-44.307749367052971 -148.148562238990507 -229.634620284377490
53.021758816688823 -57.795973719841570 -228.939151781885414
55.651999833070917 -53.361870362333093 -228.571558775202419
-44.180994686590950 -154.610188200654221 -229.092440951425573
-43.604125431611372 -155.581007842760556 -226.543961041795683
-42.543255647595544 -149.902765587593365 -228.813718831115779
55.832209790710237 -50.462342867643819 -228.788144451649202
-53.026327441088895 -160.679561963586650 -227.677083234323220
-53.801439700389082 -160.835863740305570 -231.511731546005052
56.559054118448287 -54.245905380617749 -229.794835089490391
51.703561684858450 -54.609989629567416 -230.615132946452604
61.483950415385323 -47.853012472792557 -230.878131497424647
66.435837285019687 -42.633034651505909 -228.876391931263754
60.363841736017456 -50.708757304830364 -231.190177004174529
-52.723669038468671 -160.303408297754572 -230.719874183549109
-46.744744026543970 -153.039386418929723 -232.208167527491867
53.628846295088060 -52.531300482446362 -229.016757279317773
55.727729943920096 -51.366756171326017 -231.642672171641863
58.485724098549554 -50.301775744766800 -230.926522610621817
58.032760738971746 -45.304448594805358 -230.893879587195812
68.043143288033022 -40.286587609023002 -233.998945182584720
-47.155444864647698 -157.464827093716110 -229.334833073968383
54.582740007387741 -50.358256094970670 -230.676307406796809
-53.083219345829804 -158.886870168989418 -234.307351112604550
54.889961425748055 -51.243843416847149 -231.664511666794169
69.479039429608505 -40.449243726708289 -232.856385625649608
59.724660873298575 -46.521071669430043 -236.270704750588379
-49.135745880000947 -154.773098542755264 -233.624980427685045
56.807156907575688 -51.729928044878143 -233.555343369157669
59.245232646021492 -48.750238287316101 -234.774494018989344
-52.100319665191606 -162.019128512672211 -236.774305230370459
61.148684046569393 -51.326000914769814 -234.664702872726167
67.653958812334835 -41.794748748229672 -236.552986031150084
71.577624729989523 -38.702271515656435 -237.803025061737458
-47.401432317772027 -155.659638342734070 -234.846535197979335
56.045575325336245 -51.886130087270459 -233.796681147530848
32.546521092761346 -73.040394782066130 -236.110476620688075
36.371786714602386 -74.866599746954677 -237.240641658750718
37.000057114504656 -70.193170519903148 -234.501279205997577
39.982311462482713 -69.255991327367624 -237.877938709161555
42.491412075916237 -68.983413771628292 -235.130391946784158
53.463836710857350 -57.056737887662401 -238.252494677158325
-50.817642741486694 -158.277188700621878 -236.879414439903542
30.987179434980334 -77.744623308527821 -234.373992861247530
56.994001696173918 -49.470897049162616 -236.272478035779073
31.105090704049466 -80.761923730842270 -236.400811881429803
63.153361134285547 -49.541376105777402 -237.364758894850155
62.616689767445521 -47.805240921587107 -238.246566714912262
27.221965779343858 -83.245868922002401 -238.426612653567560
38.950681434988468 -66.350527256816136 -239.400679068565466
58.010141544686846 -51.869499291606878 -238.550744022836653
-51.290130095991444 -159.374107664092293 -237.922690756796271
58.007733033680161 -50.313219642149626 -239.348372376762370
24.683586898501279 -84.919418963212536 -239.088098433812348
40.017558836931727 -65.489899911837483 -238.193353269696672
67.335588247376819 -41.146748676070182 -237.950552208971686
69.387303538764456 -40.206588178597436 -237.909345612863490
-51.131420718701968 -157.124271111405051 -239.707702462195130
21.970763949712325 -87.714437615020643 -237.649790364324843
59.674925641455268 -47.911578392965019 -240.495152203845350
-50.613129921776419 -158.534886899472212 -236.227481749793355
-45.963755874316242 -159.045241849025928 -238.509775581291763
-46.717982379283669 -157.916338991040448 -239.480127258905668
19.667539829172345 -89.171181241839875 -241.645618131697745
-52.562913574683691 -158.335638704709822 -240.905023678171801
38.116003390282081 -66.986043080650873 -242.412805716441824
68.967485540577016 -40.566359655456701 -239.127648916441672
35.826723746348186 -73.017351134733175 -241.367810310305543
56.706650740879923 -51.526619979923566 -240.578173226037279
67.449772751922197 -40.925656925534035 -240.018398929068553
-48.260528630813958 -160.765437109550135 -243.974754538059358
59.626978812456585 -47.943733262600112 -237.854233939055689
58.028170214567993 -48.619037611788457 -241.067935775097283
35.613705285910413 -72.860972682894072 -244.548263816115480
58.664088714004414 -49.274226149502269 -242.780907929028672
15.223897025877653 -93.358467918240962 -241.037032525136652
31.691487805745595 -78.729465470141747 -241.881555692973109
-53.006106527406494 -154.864924328184202 -243.726982962920403
13.780815108275013 -96.549485848253809 -246.920326070255953
28.509977782294737 -78.560323232100629 -240.183140857024370
58.677296428963473 -47.550842144414460 -241.421793360456263
70.779018135886332 -40.894513184716033 -243.305108597233129
10.828102288610044 -98.878584644203130 -243.148101842057798
26.842226072738367 -83.327981319932121 -243.083374260796973
60.821467022831023 -47.745766395172126 -243.708003418574208
65.083345629217362 -44.445180857005141 -244.069738969882422
70.958076911531194 -36.622166338140119 -243.877395419480223
-51.874102433212357 -161.430480124798805 -242.752722014261764
13.505020244618466 -97.560865041774264 -242.573322911169299
26.571828551908254 -84.366758135881199 -244.197194629494874
-50.481496445062149 -154.899587185796776 -243.352748404469878
8.856793648465045 -98.861428011632725 -244.560445148383820
22.389528343668175 -85.448531041045172 -247.009329396343105
61.213531814665139 -46.709264276507980 -245.245146746188937
-47.524696790028791 -158.958904941070557 -244.133916554702580
12.226467221931062 -99.371885374459794 -242.832608360014518
10.900316527057969 -97.651317666941054 -246.882723494597400
20.932951375926386 -87.528277531276586 -244.330882753162825
54.029438182703984 -52.390887440749921 -245.254650620113438
61.959575189310470 -45.629886282573729 -247.103660679401372
8.629044393658249 -98.237122271222717 -244.873796229128715
8.512800658799032 -99.896356023156329 -243.108297774345800
20.296629951069391 -89.850876813530235 -246.450219072369237
64.366022933143810 -44.086369015268843 -245.650053326795614
68.348826488330843 -38.928564180673014 -246.990837952852615
-48.937952537760410 -161.779693481638247 -246.136674175294985
6.671140034198230 -100.610055799048780 -244.210103528565014
14.574432225632551 -91.984781510308181 -244.697013457878114
51.720113961850132 -56.840770074251672 -243.644792298382299
-48.203137703037889 -158.065175368980107 -245.538233146954070
51.809936366532597 -58.156179216697602 -246.094908625269994
63.840317817991114 -43.497969963741696 -244.884714480828961
70.553474843124874 -36.329129088112943 -243.974390576520591
11.899790266590481 -96.296731373240206 -247.225928631797274
14.948252393378000 -94.068842632340406 -246.634060412254343
70.077757033243429 -39.553788129181974 -246.118507289204530
4.638652594733559 -101.719524377900711 -244.389691585803888
8.338420105273613 -99.849229384600818 -247.549258440561232
15.331162540061117 -95.667019725675360 -245.042776306810907
9.557431602672390 -98.709032022341560 -250.372300662854997
11.751405461447794 -95.726710992571583 -246.156543586213331
67.422519656180512 -43.346524119458891 -248.590435584607320
3.229793029546812 -101.952239360304745 -245.978087037042741
8.584783867848401 -99.565938860857926 -246.603866789935950
8.806388279744727 -98.905775592147350 -246.457999451500484
-52.926222500417431 -156.361513163698589 -246.721491420599932
66.512857518946404 -41.454019248777882 -248.314678568081348
-49.972677036269964 -158.528541508566775 -250.197455332408026
49.711996803266580 -60.035691235182590 -248.090398415383476
66.000592315568511 -41.465236410439097 -249.555990671682366
-48.349900524666978 -155.681550328107733 -250.113617165176208
-48.173679413721935 -158.597405309992155 -248.489361940211808
67.732511235022116 -40.364953084922732 -250.028937865448597
-49.418889531636879 -157.265912522970837 -250.765664877315373
-51.337799023319945 -161.543543574768307 -250.331388939552454
45.627810316496166 -62.020921009453076 -250.492848173877093
-49.886411741940698 -158.373192501639750 -251.346924719241400
66.536708402692824 -40.281516990662773 -252.050831105067999
-52.241114238833774 -160.145040511981904 -252.017910979889251
-47.870422735417108 -153.085281631134933 -253.829292563322156
-43.886185355903223 -153.928895024381433 -256.110804149268802
68.897482374917800 -42.290449231755900 -252.194108300843340
-56.099431011719645 -164.452530496948782 -254.300349076954831
-50.166783885086929 -160.158440439748375 -253.713998087443457
-50.111709465615746 -159.090670259318699 -257.937888059011584
-46.639261661772586 -153.428123346019561 -254.626241717217283
45.124728291891849 -64.945818958421484 -252.892120572728999
-41.783391598740629 -153.614086186310971 -257.299730419709874
-42.950387294701777 -148.664791886015649 -254.221962569064772
70.618365320736217 -38.284702600227789 -254.842649511671823
-48.882175811714816 -159.965256973806618 -254.241192669449219
-41.165163605033229 -151.136656085770539 -256.880427968726622
-41.634579612884053 -153.215912269963553 -258.373093574692803
46.037882168329844 -65.313388245705895 -256.309085918591450
-46.664033652805585 -154.475582397387655 -254.516569787153628
-48.907216680837408 -158.471094641280871 -257.377655461980510
-41.221891910666820 -151.326322952030296 -255.564681033412967
48.052356163165413 -62.689722049982983 -255.454358019331039
69.610457224214585 -37.570361034099719 -259.173366582746780
-53.485886361077341 -158.702137322348676 -258.510549735149482
-42.781186616339440 -154.291254789231374 -256.105296760638964
-41.390233061992710 -148.688720541338142 -257.709315756732167
-50.937861473045835 -162.602175781431640 -259.885328447210497
-40.120777709491470 -153.318105481417291 -259.635798129151681
70.503662724483377 -40.043310967218105 -259.426299095882769
-54.617369108981933 -159.166981966414681 -260.524009142269904
-53.202160164378235 -161.625712030425063 -261.141324002951137
45.714704745248753 -62.133407162458624 -259.527077894524666
71.941520952031681 -38.621193818885502 -262.541452716978313
-52.341384631915730 -157.506423346724574 -264.496331865685931
-48.420278839253434 -156.831298676085083 -260.607700816890770
-47.296989693809124 -156.950605958626227 -266.098467318343978
44.528177857178065 -64.679213890482345 -265.467213393154623
46.823261097148212 -63.135607749462068 -263.522649911222061
-52.475801726243773 -157.804384975852145 -264.902480621163875
-52.717102310470111 -159.395546698584411 -266.480711087182044
-47.492762116194150 -156.652103253306962 -265.784904805060194
44.624356751131785 -64.590766781405463 -264.512219267901571
-51.594721865296130 -157.291222986033944 -266.510823393301337
-50.805672019674418 -157.848300996186111 -268.969857282810608
70.458332687736728 -38.574846423520107 -266.661020875809868
-51.188758676634841 -159.412212387621253 -269.736142584963488
47.564406137400404 -63.583612467501155 -269.900654616193094
69.015487380111551 -37.942406795682182 -267.568617112589322
-48.463762244248493 -158.719814749714033 -271.552805348469178
-51.435654078291471 -160.340926072585631 -266.477755743928071
66.016258293455138 -42.212746524302389 -273.591242912545511
-50.530188754682243 -156.728107444671366 -272.742223144472007
49.423890451830538 -60.318983965972599 -271.052384341931031
-51.927701290730063 -161.685867178102342 -276.674240243314046
-52.282242909695128 -159.818653886881322 -274.766355672060229
-51.516961322623231 -158.602673919553041 -273.865833067921585
48.941640416146114 -59.438644421355576 -273.485551734108753
-52.090750130534552 -161.779680608449468 -276.314268337668580
-47.641114185342616 -159.618369042118672 -275.922062181835429
51.420035307373716 -57.692128955663520 -276.497331938038599
53.379949020291946 -56.521238899743118 -277.675748795621132
65.158409935676616 -42.464255482707046 -274.433408791501620
50.809508215215466 -56.158970516382631 -277.854244730140294
62.612050508284277 -42.214062745304652 -278.130327330444175
-50.190296862000729 -162.662635589232337 -279.126836038591193
50.189228127269416 -56.245101922332069 -279.980347111534400
53.208942485489153 -55.503104151072648 -280.234524963723118
50.883085277675676 -55.588035489061568 -280.954751829119118
57.023385527419101 -54.126486804145031 -281.040711018981654
63.178770649848339 -47.899500656376219 -283.701340386026686
53.950162801837578 -53.816002587268635 -280.041377715918600
61.303218118890307 -50.136755160484320 -282.329627815400954
58.334929343447619 -50.080854484549441 -282.505625766056767
62.600944697779717 -50.284412964796729 -282.865324405770082
56.045301474326244 -52.372390578978951 -285.115326064926705
52.812380262695697 -52.955386374566459 -280.977114221696354
56.280292816402024 -51.166908320430920 -284.674016559771587
-44.927202566792658 -153.751603954665313 -283.422182217461454
31.709631401163676 -75.196149331635340 -283.161084687468531
-55.622135243693585 -165.090091155500772 -283.702611195054146
20.189699364402131 -84.428239850131590 -286.578411977068299
25.462852249908181 -80.852090384685653 -286.387915805358261
29.290622990578214 -81.280545322157764 -283.776856413722101
31.684993359698215 -75.511339204656679 -284.397674350713771
29.315173690245604 -76.081018077764156 -288.210657244863967
37.237925081135089 -72.790565741729694 -284.340210727582701
37.931164453317336 -71.654004440554928 -285.851220302392449
-50.224238988094484 -162.318401442032410 -283.769568261933841
17.388851353017319 -90.314467439058362 -286.420672279731207
22.360550309259789 -85.931753785285679 -285.280604059741393
28.147951451356246 -80.195305621272098 -286.064311049126616
31.490990976596152 -74.984340287788783 -286.497740300534531
35.842246901001779 -75.148711287147947 -282.339291226151886
38.429561097163607 -71.311929529563656 -283.881574685208591
43.122245497921789 -67.689816016474950 -284.269847819017230
48.706252882771558 -61.706040368982656 -287.891220442731083
-37.688076505667127 -147.090815863556173 -286.843407287963771
-35.892678694836654 -143.668847059406176 -285.335862731793782
28.749874875287940 -80.420280664350713 -285.910121651768407
38.535185361610672 -69.508635666459867 -286.157566770594315
41.628184340067868 -66.454633626944556 -283.667862644170555
43.313092112393633 -58.952843735265070 -284.598103483673810
49.932822653919928 -60.117952911100872 -284.538689498713154
47.138388623068700 -58.704003904590543 -285.865583867718783
-55.854307683950111 -163.617100868502490 -284.451455119311504
-39.855635062739282 -149.881527642262910 -286.365862195566137
-38.241222384358942 -143.605042327822844 -284.934049831377422
-34.174916640242223 -141.919468090605761 -290.084471615118218
-34.157696801989907 -142.124729150071602 -286.146567675608935
15.102987487876083 -91.053560463415593 -284.796185482240276
18.562663350096461 -90.502503987576901 -285.574879964584341
30.146148061888024 -76.569011632859869 -287.637820656559200
35.008159521462318 -76.215306607417332 -285.621407651965228
40.004989600872968 -67.653508098733568 -285.478486908246737
49.304021274091198 -58.305840789308540 -286.582074997486757
51.329930395846603 -53.360938526167892 -285.477417823303199
-39.281234810843934 -147.384422895780489 -290.049027912821373
-34.833973692469904 -145.796231358402196 -285.722798680252254
-34.134459273384309 -141.136938188351166 -286.131901446299935
15.029196525424661 -90.007974747580121 -288.270055265849237
15.180327058847235 -91.574691110945864 -286.115573080410002
21.088021046679241 -88.372006426496100 -285.346463021904583
27.257597392357216 -82.496805569876841 -285.104726111934610
46.645807516893520 -60.859777399249225 -286.062633380856482
48.741268756679034 -59.676964156049351 -288.832542193559050
51.649233048910233 -58.899460748629600 -285.581067502603048
56.584389690535211 -53.143091963021504 -284.504782201647174
58.167009729623686 -49.723811598577171 -286.561327189765450
-50.659294180493085 -158.529122999195977 -286.579462745709918
-45.402985592533014 -152.636682993850854 -285.778062792516778
-36.133581115241121 -144.924147219419041 -288.462393870403730
-33.408574681136066 -143.008858735718917 -285.670254000350837
-33.563532730287562 -137.043149520674319 -285.574646090569786
55.761158867326913 -55.895209485947241 -286.792988671393687
60.087139080963155 -47.702679703471013 -287.268034686413898
59.405344624288297 -44.685432203050581 -285.839240591690213
62.821669954802921 -42.404326092802791 -287.561120752784859
-40.313049737571376 -149.775577560232534 -287.697667861317257
-35.066169822110709 -139.939154475487101 -286.843572741490561
16.870563551455330 -89.650258298500447 -287.159125081353181
20.785007248758181 -89.968919890050032 -287.315627588332006
21.972527547097258 -87.973773775985634 -286.194835335144148
25.402052516108807 -81.909197496315215 -285.251971540511136
55.979322412176039 -52.032640330077200 -289.572734188409072
65.733732725367645 -43.664305017529621 -288.347993017502347
65.763851083022686 -41.909270698391879 -289.058800430265705
-37.449210081435474 -145.027756030184975 -286.923931604666052
-33.184897143476235 -141.776391306562743 -291.619797471845345
-35.328851286339628 -142.442326961766469 -289.555700658776061
-32.147830141762547 -137.840761751207339 -288.085790153892731
15.294114010759834 -89.020934727119496 -285.450494794284339
21.264451314003928 -85.395121037072585 -289.334068246093125
31.490177553661209 -79.906670009640223 -288.036102840000183
42.665091397562350 -66.577395123753334 -284.736719538563136
51.404443107305937 -57.893879676117805 -288.679834744784046
59.230550337945729 -51.433091326176836 -288.754321576340601
63.693962033546960 -45.120377009402439 -290.404674964782203
63.954483911948380 -44.302858360065429 -288.925279018953233
-38.839555634578922 -149.273040094792634 -289.255730221291401
-39.268783847959632 -147.155429675155005 -287.921913016192605
-35.061795428404835 -142.466735590714649 -288.138055003723082
25.512249901364072 -85.037338789949487 -287.427294423472006
23.219300711663081 -78.863397266880625 -289.112440720223447
34.961843900554172 -76.617567251116483 -286.325554396475354
35.773639512562255 -73.241161474720741 -289.432776248791015
40.295841473361449 -66.613266483344233 -290.182645749153437
66.981892057301806 -42.273167095071479 -287.617642345044771
-47.282082443762157 -156.363424107508905 -287.087808385255926
-41.347348055707421 -148.291650178248887 -286.876401328433815
-35.906903119181152 -143.842957571761076 -291.383226236403345
-33.233302684459986 -141.614817644978046 -288.434335128139423
22.357384150901183 -81.323889391800350 -288.446014769825297
26.277758686437664 -80.543678751819385 -288.856331116588763
33.233281042468121 -74.335215344888312 -289.482199245591289
38.470645087173985 -71.281272736757458 -289.626160436012640
43.992813580717431 -63.798511222458146 -287.497335935511160
51.261660914008338 -58.327560091576238 -287.276507833646974
52.260797598495259 -52.911987994872177 -286.272075508510227
57.378046524591554 -55.227536714051844 -288.275507046562609
57.562934497900336 -47.581387737246040 -289.404491992532598
-53.444048055097525 -161.326615698017946 -287.910336815301946
-35.130623381689006 -143.895782580432893 -288.321162242852040
31.541921128680791 -78.597961108386514 -288.945222496619920
36.476273189937402 -74.943169477020035 -289.565649872093957
37.746487030048755 -70.852106245339471 -288.296508502057520
45.809990712211388 -62.845528817181474 -290.869339373478851
51.530065397759536 -58.623273955694906 -287.029275173707276
58.647553665490527 -48.889254462686907 -287.971652862660051
65.721728972238637 -43.959762288372112 -290.212449595664623
48.038105466658749 -58.878632309682501 -287.552122220380909
51.536697536794470 -55.375869903752843 -286.947631537405812
55.399133786177785 -50.898859591306589 -287.998703708079347
59.735317825574420 -49.878439192950083 -290.468463387135841
61.408165144070949 -45.488753574153336 -289.465060629187292
58.631470287892881 -47.177598967946651 -290.364857212326456
66.836130357966283 -44.732810655847231 -291.700041493024912
62.154704281729607 -44.716887131795815 -289.506825762786377
65.965879325152713 -43.447751584654583 -289.797779337346810
-45.224808844731555 -156.007007907923281 -292.353526474519867
62.548766128819800 -45.287625170100632 -291.347743521780671
63.485441053198528 -46.441485331305088 -292.077530043877687
-47.941061354670360 -157.054075909428036 -290.763240587153234
-52.146452603017373 -160.541064899250131 -292.540334375922100
-46.833976806226858 -157.557703322943382 -292.783827003092938
-50.722055574153558 -157.260810737727383 -290.166372733510514
-52.334688149103243 -157.594325604572049 -292.258114527568750
-51.408367847655157 -158.693817784294254 -293.246916789389957
-49.489813869168351 -158.017688755023386 -294.363058813625571
-51.867348291772267 -159.347074402440114 -298.091418746621059
-55.003123348993313 -160.553085017369852 -298.152028292549119
-49.394581415516846 -155.752374213086426 -298.280077443726896
-53.923403007438942 -163.925031827070285 -298.279331145396156
-50.418908545360708 -155.001369483731139 -303.949985043512584
-54.247450465260663 -160.793502716280443 -300.448491349050641
-48.776823075479051 -155.057548845286931 -300.988955438271489
-54.435113877316645 -165.251072147631675 -302.615523726318088
-53.638756599598487 -162.985657705451075 -303.831318629248187
-46.265964263893302 -160.628575090053403 -299.663363944017135
-55.169757520121571 -160.464767993667124 -303.323961652896855
-47.343673466606397 -157.763476920711213 -303.661606182806167
-51.719690468880671 -160.513303374058552 -303.511567836096219
-48.335289094631960 -155.000439586421521 -303.610900246449319
-52.534325671768414 -156.369917314325193 -306.500483717449470
-55.306345626003818 -160.821346205701872 -310.755394450123561
-52.735381208628652 -162.373373209866173 -310.906336626985194
-48.805625097831893 -160.686267782105006 -309.133215591114606
-52.382658157571008 -160.310080978318723 -309.854377670422593
11.349340271989691 -95.147193170536070 -54.357490510558577
14.292334525526517 -90.574065948644702 -53.839210933540855
7.852194045301282 -99.572871679018974 -54.830518781808614
14.679174632187811 -91.290360668647253 -52.464730078169417
18.858305000932614 -88.847535850978844 -52.242564861903062
5.759008701783739 -98.896450324587164 -53.183324212674137
9.946692616212074 -98.913509687553216 -56.032739495323156
15.283548189615875 -90.049900575666570 -52.233259094171004
8.936686970082238 -96.425425756909121 -58.316699509971890
14.184199582605084 -91.040409806957655 -56.293309280914272
18.745992510527824 -91.458946369827359 -54.926907255751324
22.223983657142639 -84.303487884120372 -55.985172750914444
21.872216442616271 -82.168454957874900 -52.408990270618240
5.055306438636930 -102.774334911615867 -55.068727660297391
18.459721002704224 -88.304030157538747 -56.011939530492896
23.566704570335961 -83.725531751495055 -57.155349281930782
4.986855723586115 -103.543213340393848 -56.649593530088914
10.352161786623331 -97.228977966906371 -57.468644139598759
4.897132400313319 -101.060746006598663 -55.413905037691357
25.771080977698407 -80.882018504845945 -56.519731177375128
4.157286231066479 -104.623962073902391 -56.865803294883129
27.240948856615365 -80.582139885588234 -57.791365491420201
3.636268977387665 -104.271859090613191 -58.745294303493985
3.499671899913274 -104.066111641572903 -55.650747064222045
0.053543440493770 -103.328316617103695 -56.940806020545288
3.695262893602256 -100.358165577250290 -57.514189928410858
24.453567416510232 -82.861354340307329 -58.342669241259316
30.442883217756528 -77.895319881407914 -57.369470290780278
2.265444168004838 -104.287587485503636 -58.199292472533635
28.783668154764666 -78.996321235301323 -58.019759242962813
0.608387815701818 -104.721352392002416 -58.242660274295282
28.116973331065459 -76.437453787462445 -59.036748936690309
0.492549360290068 -107.350708719939107 -58.724964736931092
-1.781620402221247 -108.316065060867828 -59.633657733028144
30.816047834953459 -77.397938911750813 -61.643029854696337
35.434880568993954 -74.620523400717659 -58.651924358653623
1.673013816390592 -106.998830913065532 -61.209837761350897
-2.508041671584104 -108.236640127890880 -59.620435134803238
31.434653711709441 -74.902984884444336 -59.408007599008229
31.802178452955019 -73.580320440546942 -60.325557791980209
-2.640563971688225 -108.771232046577524 -61.746609310785111
-2.396480243495428 -112.448802776517994 -61.611395780098235
32.450777639787162 -75.524220431574378 -61.833124326320480
34.431903799252559 -73.333889943287048 -59.446623049870681
-4.405367776661496 -113.594379089890339 -60.254571458696120
-3.711526086403425 -110.699798981232846 -63.145356045029075
35.978634053883397 -70.430861744792722 -64.672465294265635
35.500962645634651 -71.485012912773897 -64.381358216063333
35.034764735504446 -74.029187363073675 -63.928230630367239
33.927604711367010 -72.617755923578429 -64.819638265654717
-4.245546074874009 -113.904935962761812 -65.560210438507056
-3.126793107620449 -111.053332923418026 -65.305081995350037
37.081000133280284 -72.554694169711894 -66.893975082539271
35.946073325362349 -72.282430272955722 -68.069990374895141
38.695907758561418 -66.349030533939086 -67.055723711417116
-7.820684995647314 -115.088727212525228 -66.811204054488655
-4.457720179914436 -110.958511896511425 -72.378578058525861
-7.809129844376187 -113.666692268413556 -66.288658504719464
36.956099779758553 -66.603564476492508 -70.304000370281003
-5.854079235573182 -114.207145046417125 -68.152636262835600
38.319116084562388 -69.146978728088996 -65.497579487159683
40.563739015401687 -67.549519218222983 -67.396789237280586
36.179324065042167 -67.102439112555317 -72.767666658724437
-7.224556566488020 -113.071179160047109 -69.434274301225742
38.006192981601814 -71.250009171044425 -72.113570097195222
36.401374675011901 -72.798985824781127 -72.752015153219062
33.996975331158467 -73.722855055155620 -75.558409068785537
108.028494752186020 3.609797807088334 -74.191376930603468
110.505743747156771 2.946605772683192 -76.478720685542854
111.015717445001499 7.036527289084610 -75.042988703895901
113.997052779545044 9.540871803494916 -77.457938050177191
116.041236718382009 7.809970449200287 -76.038247247873954
116.363957146424070 9.120423556337434 -76.032042591645833
109.279470272601756 1.402980557686701 -74.525648237900299
-5.152031152518667 -117.548411828081456 -73.671942918521580
35.877022727767489 -73.141607490526525 -77.502198219313243
108.332778430297935 3.717317965314677 -73.088629617942885
113.822841825168140 9.358169125406258 -78.071874503071797
29.950754578565881 -76.258444316067781 -78.227661711618424
112.617728949231960 8.308089035257733 -78.234558344519797
27.152089817277620 -76.784120523250436 -76.973651563534617
107.601249122186388 -0.692842770240199 -75.759279436565393
115.638885080262568 5.810371811943513 -76.625540044089107
118.370889841152305 10.143695137664087 -79.465693404632759
30.307852370996677 -79.289560398840962 -79.745850324773315
27.612517456346453 -80.005313310127988 -78.223013079070370
28.349847468847120 -78.293961830705143 -77.961381893494050
110.571197365370367 1.385882012284343 -78.602354454041816
116.132384858284652 8.100595862441917 -78.430450269196129
-7.815093929829382 -116.250073021725711 -79.118341673227988
106.629864941586504 -0.770800410067971 -79.980415457952049
106.958403186757494 -0.359286850810413 -80.113580652712585
116.925618419758223 11.182419241861281 -79.177814631493334
111.014002344134070 2.268552282786052 -78.380150358309095
-10.107577134272045 -118.899934330030618 -80.803165984501234
23.038020309721514 -79.297960033644756 -79.408249644819890
107.313198488172659 -1.684900616108515 -81.480460123159432
108.057167088656868 -0.795519985128685 -80.257573170739747
118.068294638817221 8.855134872876919 -78.581616875435088
119.312829656989010 13.192174887354849 -83.351730797639803
118.677532974518797 13.479013338425418 -80.777392693581746
118.666721968990643 10.465085555655374 -80.285719220634974
26.597548256672997 -83.582083786627422 -83.460310123358425
106.400476638809224 2.117212249257035 -82.094595938888020
105.675053398518259 -0.155387778923618 -83.408367250530816
27.526185841877407 -82.151021276446329 -82.777435111929023
22.893867453278368 -81.409323771910152 -80.108279784920796
109.226114793415888 1.432893085049113 -83.997638601439547
118.323331506099052 9.503033062389076 -83.395434331439660
20.107179949143770 -85.456505248780502 -81.384968823074075
-10.347371081939755 -117.107576173983375 -85.563705574649347
21.883413288150695 -88.708882780119907 -82.453025437886964
106.727434247702959 1.251018779838798 -83.281750711270959
119.787511696950574 13.492330789378995 -82.851533664952157
107.538196206181226 1.067240058267259 -87.628678842950620
116.909968330138724 12.911584158819270 -81.788570663807775
21.637869514529495 -88.646638998801109 -86.941318027318786
106.568037370641179 -0.484435298741647 -87.134907549779058
118.139945834655705 13.696311330038291 -84.716010925098388
108.482778153185691 -0.567987807917026 -84.879280566225773
121.685632144889695 9.982028067846819 -87.913336746222768
108.640501545717299 -0.587284065494765 -86.370405834319712
-11.013610277157918 -116.871014782587309 -87.460269777061853
107.318265339030901 2.981332700676219 -88.355918016300706
107.974258007087315 0.128331553035262 -86.292568659805212
120.534167089803148 13.468737752544666 -90.461688959547303
17.356100741389330 -89.565680507211212 -89.025288523225129
109.879295259858083 0.261327041416880 -88.621358643878850
110.530634610846249 1.347108737407404 -89.364021668301291
119.049313975277769 15.173250068791770 -88.116544197527972
107.054876652543044 -0.260988294026617 -88.191331713584802
114.935319125778634 7.397285169930832 -90.811027970811750
109.703924389621591 -0.230687800068268 -92.078300202176862
-9.068801732459599 -119.397806415947358 -90.516171265088090
112.043930374033792 3.672504854649294 -91.603538276874147
119.373386927155622 13.905262365850939 -91.742337655794699
111.251186069235160 2.691588627590547 -90.223522898067159
118.284154175408744 13.747607723234458 -91.021694259572357
13.950122793754531 -98.684785523724514 -94.024008297700533
113.644263322701335 5.543051348148634 -92.706743724354013
111.185266777089268 2.784981930049485 -90.337828584743590
110.007886683498938 4.254638082044234 -91.320094026958159
-10.498048782996831 -115.952156183149398 -95.190154294980204
110.573151847510758 5.356710429748106 -94.998229040998893
114.202101418303940 10.466147623420033 -93.262000807428251
90.968251055316273 -15.763701452781309 -90.405880320049903
94.511239563185541 -15.507365748473347 -92.559025589150579
90.172149374348450 -12.215598960997113 -91.981669601133106
110.570884745074366 3.814454067892813 -92.241647878318389
115.420903883527899 5.953979937604967 -93.094486533028899
117.065557947889360 10.137397395507847 -92.916999841662715
117.553401157687276 10.683663143171477 -95.402802552924072
117.770554061206496 11.769788676419806 -95.469107181190424
86.571734156102920 -15.288844756522646 -94.792518847938226
89.747747740930834 -20.042141521328656 -93.518114290759982
109.703673937489086 5.007783934835723 -92.116373076027216
111.643081971718729 5.560228897349478 -93.633018587586122
116.071540225943124 8.326600402689060 -93.140524981801633
3.679325590064251 -96.852444959070937 -93.458007807514079
5.418512156488990 -99.058204195623318 -93.129039443600220
114.673506327806564 9.356131498466992 -92.204051209394876
88.612455681089472 -18.794030995164626 -94.475224865713713
91.621787043611093 -16.003635785483880 -97.445072003248782
91.629789694713494 -19.399505315095844 -94.304991719056488
89.492976248516413 -15.878212320576480 -96.136332594835878
93.390515692373157 -13.495851359714448 -94.592566457025143
85.828483461599816 -20.155331313771356 -96.108263672895788
5.325334972554945 -99.791490852842671 -99.789387889244040
-0.739878038666415 -105.722039982688841 -97.712850346232898
91.632158101654170 -12.536827665600018 -98.977056752435516
2.196283212445874 -107.801406907195272 -101.690574499332797
5.727619609057214 -101.637082565769163 -103.443443335181314
85.462607880261885 -18.444810869318747 -98.262732770365531
89.420469509762867 -20.158190004085252 -99.006317260503806
84.747530146033029 -22.248073978038899 -100.782220593047484
-1.647680540608028 -110.096914095775048 -100.201602306035952
85.614705043636263 -18.892719162046969 -101.523004869513258
87.852145745098809 -24.430246857232149 -99.537510651616401
-5.168255702028014 -107.756634029736716 -100.828156759467021
88.027757256185126 -17.128469636847729 -102.838915146257548
90.185326117270421 -16.999547043054921 -101.320380749905354
83.704169793242599 -22.718044908202682 -103.632585542751727
88.875193940670101 -18.056513969643525 -102.204126701332200
-3.196813320839545 -109.720749368584677 -104.340500130002468
-9.635658362302452 -117.800687936997861 -103.746200013141006
84.430783553023190 -20.924132837926233 -104.428749853499127
91.352273028890849 -18.107135797006929 -101.191252076017278
-11.265064998898675 -117.938897930132356 -103.267025077052097
82.767984445002355 -23.463679475236056 -102.620459821051341
84.805721662152862 -22.244008613685565 -103.768782503753343
-4.115280572658843 -111.549833791828348 -105.481401933541434
91.507204272176693 -18.420360624329231 -105.671773113027442
-10.342291765031407 -120.919132230639647 -105.540372283684079
83.447698311203027 -25.496596519115812 -108.404598656385957
82.406137001763014 -26.330829094304228 -108.804160052681283
-3.148527304790398 -111.858110810804874 -110.615979192251359
90.001751898667393 -17.742602941340124 -108.798977317219041
82.656934922190743 -23.134820329095586 -107.863418982232218
-4.320021734917219 -112.497733444031766 -111.591527045673786
87.312883104541726 -19.885356601064373 -108.464307562458274
-7.503023275134033 -114.417507893399332 -110.917957671909491
79.220184977489993 -28.193482808207701 -110.607781198949795
80.570026530416840 -26.704115640286801 -113.785499299991258
88.255701311435374 -18.913795625850046 -112.182108396634348
80.481094925354313 -26.786519683515660 -109.910569227766885
-9.276079546966368 -117.315806002370337 -110.621960736829024
-8.190391209568517 -116.426831930053254 -113.663515956090876
78.722660493571794 -23.931451895681395 -113.022155749986510
-10.862171598373230 -115.043469409270031 -111.721262044841694
84.334202907322222 -20.354247712211244 -112.417935756803672
80.546291369136739 -28.962355603122408 -114.312823380283930
86.681371444529802 -19.695265971887675 -111.777310889453418
78.655783061700532 -30.482132578163981 -115.792987675743419
88.298677141065482 -21.005438692810518 -115.493704380845301
84.547430624057213 -19.961255085284431 -117.749341165713233
80.454564394928525 -27.258627306645401 -115.871176307750289
76.698557362651457 -28.065686274343424 -114.411395994933955
84.616607057150489 -21.548358161055710 -120.755625677042417
76.591318347464068 -26.729918719747246 -117.885702131526330
85.962948036854073 -23.941080963108430 -123.356903633751912
76.895990315230122 -28.784474459947191 -122.926513945947335
82.266987404510175 -23.132858092748332 -120.842574834710362
82.796310270214803 -20.964669447949497 -121.659930291729395
74.012269747246847 -30.272071106533087 -123.692329319198222
81.291566053541075 -28.271609758928911 -122.996988750472269
82.545233601086622 -21.191697263317565 -124.125603865816444
76.570573727799612 -30.785900106482320 -123.542341798508730
87.146023865136513 -23.925267231429572 -123.575053397839071
78.028113420318022 -27.576692287431069 -125.925097216032796
83.628979915922358 -24.427866728802051 -126.114580450622071
135.255176673805494 23.271894416120968 -125.988283918979022
133.581471101738913 25.973267676855254 -125.159044789647481
73.467898151216403 -31.531291349556724 -126.964102209994309
75.423997863058560 -29.181483302264237 -126.325147584831200
84.699760202100364 -21.947568138277017 -129.604550457928610
133.745945444935074 26.134588464209838 -128.482288765108052
134.151383979275039 27.820802526782703 -129.977968520959763
71.462836173421238 -35.234455473864806 -131.017248095831263
76.584727267247501 -33.112165218249956 -129.429570780870108
82.221913240794578 -27.800551837919851 -127.873286609109272
81.892124932603480 -24.378036251323064 -129.090438241200786
132.226308358249725 26.200573954981362 -131.968285614569652
73.575663966828401 -35.499014391554304 -133.643914235291817
79.403514582669203 -26.308363291884508 -132.968345429300854
77.671257509694740 -34.737700120992990 -131.880090296855144
82.785013527474177 -25.681735138156423 -131.459654426208175
136.427017549882379 28.486893552681092 -131.908399131277008
133.157407752457090 25.575968139475879 -133.250685409849581
81.268875287727383 -24.736389439366597 -134.840662390089591
133.695181661955331 23.987685531475911 -133.723642288581175
72.892888266154301 -35.570896363753718 -134.433373920055715
80.317453928856750 -25.639184914935267 -134.561855711579852
71.595430881618711 -35.704631716967604 -135.185525920461487
133.491880347219649 26.300624849799600 -137.445922645144208
133.678043575077709 26.098016603091565 -136.927527091084130
73.190934195957652 -34.179810459081992 -134.997139144142466
80.134491518754814 -27.178692042714570 -133.974509629226759
84.910170884818342 -25.803804086018566 -134.393088609499955
18.140286673460913 -88.643725147455186 -136.482706316450560
71.323647691014372 -34.648103274007781 -136.662195128975867
15.528178039759736 -92.662804311434016 -139.135328918329066
19.530864741293012 -87.665467748912604 -137.189232459384414
16.879355088470845 -86.969334727384776 -138.666713885524189
71.617977179871104 -35.083672377234578 -137.803782755637400
132.006152563962047 26.708054220184582 -136.024462716034179
18.724492578313569 -87.208480431521863 -137.750436275013982
83.369024261196699 -27.622432810972281 -135.469220407911536
131.080641164337095 27.578915505990807 -135.688341542771099
15.588767555888490 -93.342038954925783 -137.143629493014572
16.768978901851693 -87.127328753519762 -139.514630088166200
134.056456061404816 25.658834253951238 -138.875697938778416
134.523604835797641 28.737688456854372 -141.329463613409558
74.690982282386514 -33.891466358708932 -137.486086381788056
77.941633437316526 -27.630359076557532 -139.506105374495661
81.270395748665948 -27.581705205159917 -138.210017067482994
138.234301783833416 27.059917244423286 -137.309819933666262
17.027365191279255 -91.512994858621497 -137.287296022374079
72.032669601319711 -31.998116621864440 -140.210109056537988
18.614542671895837 -87.717673500026976 -141.880544521151393
17.812403871598452 -86.850134454952666 -140.372302940435219
71.174457211399201 -35.748140862305561 -138.935378376034322
133.916681243499880 26.314862295223254 -140.105251016393680
79.983692276386734 -26.723320103620072 -144.245721020895473
137.838454139022360 27.881270440710360 -142.866805627786448
17.935990000941786 -88.524470438233607 -144.258580681336554
18.841844906386804 -88.325667506453343 -143.792166259979240
20.382062588977757 -86.896462138861068 -143.794431357655242
21.928185492621886 -83.313535896563451 -145.117217246018726
72.885096730475610 -36.317135214477425 -143.328310231684327
134.191644849754823 28.362265687579864 -142.234467777287136
130.843551177203636 25.043618602413133 -145.826219002733581
133.262402234570629 28.721811636150711 -145.302885238904651
23.265514995989072 -86.524805577708278 -142.038268590286805
69.559713744706229 -34.991999552983366 -143.954681617502047
71.660902006268401 -32.375397671434868 -144.445326299385528
134.630706809170931 27.674002116337537 -144.104050088461747
18.535762974932236 -88.237582815647571 -144.075240956251662
23.339592198685786 -82.519178956262294 -145.001285707183087
79.593978287793419 -28.297815243069262 -147.259923777640722
134.885359196666059 25.985753296799224 -144.246834417728394
23.286328609491800 -82.678759644559676 -143.569013156282892
68.625744636933234 -35.814425428466279 -146.942214489869315
72.278006873498811 -33.436360164575710 -146.578275493248526
77.352229484499901 -27.938485175079890 -147.096113785870244
134.578452732945465 30.044567411533986 -143.766776473739611
24.713544215467131 -81.919922423958283 -145.124617583300250
2.325219725503471 -104.763419217023412 -147.787189414126772
1.664161662390313 -103.551712188579486 -143.724879664839506
3.695975383069745 -102.950374829060934 -145.868117055920038
79.116087792092841 -28.516356656144453 -146.311826647731408
135.979928855484332 27.774656043764846 -147.303982807383505
72.678753784864796 -34.883216068419600 -148.317601199769598
71.943561132232134 -34.211448290210178 -146.580371460316542
1.621124282788721 -104.201265444635482 -149.187307036998391
76.940078912539676 -30.168068611918756 -143.734323142942117
7.116651100503334 -101.314418099018383 -149.537496365093659
24.380039008795499 -82.576071639898771 -148.517726562047756
3.864516069486998 -103.414718979289503 -147.763107509733260
77.145425782148749 -29.819847348200092 -148.765261406695288
7.709589324619472 -101.212269601616768 -147.760504486042493
23.995628443062095 -80.738777089833633 -150.136148857082077
79.395200993554042 -31.468037998163176 -149.498218115062599
131.901124969664693 26.528581433122973 -146.503376259987306
130.621901955610554 22.370267320585839 -149.740968503414734
5.073893586812598 -100.635443478390513 -149.561998534976652
19.476873270694270 -90.691993325675995 -149.773142525772812
132.122118567145378 24.866816382867505 -150.241348170751763
3.076368276928925 -103.806546602977363 -153.071033538136533
8.275347847181282 -103.090606013406813 -148.162124404837101
134.961184844340835 29.988647248859952 -152.790936072099129
16.984586933535301 -88.292310640726939 -150.861818631389440
24.539239778633348 -83.309974242230098 -150.987018963287369
25.573584292520245 -83.748687682890335 -149.768553173567028
66.807667984510871 -38.453302844087688 -148.855255249505149
77.128308436546078 -27.642472989686837 -151.627937485303761
19.021496033119828 -90.786329619295515 -151.632001461648400
5.691635535606232 -100.243321107642444 -152.589920276490432
133.966868580724309 28.966652673732931 -149.993977433672114
20.388290397508349 -86.860425094984336 -149.582557111353111
28.491754668827632 -81.534140567755244 -153.576611548359693
75.837299195638209 -32.882427396987012 -151.686134470672982
78.173388255835334 -29.682596879990140 -153.143359388430952
6.591804016875906 -100.823226200016677 -152.621594297451821
70.449971294530783 -39.682346068874686 -154.261928188853915
135.142413818327299 29.463873988834212 -154.294477567214841
19.803428987054534 -88.266336040587134 -155.183529454732394
25.483257016518564 -82.684210599694396 -153.547701423067167
131.533685001120546 25.565808802955786 -152.418203770470114
136.658527732282067 27.513294072396256 -153.078617853073951
8.831588589474679 -98.210276433222916 -156.473798499258038
21.283916928633545 -86.045408992207243 -155.437346250213579
76.115968534203674 -32.903763596580589 -156.630044308360738
67.945922426940442 -37.075476531641435 -156.260428828409175
72.984247378117544 -34.690329057308730 -155.435934131794312
3.900279708439592 -99.455580208705499 -156.702897898976659
80.416022947591685 -29.919481248718064 -156.534231977700784
28.979970777331616 -75.968856916076660 -156.660977774478226
60.424348203570936 -48.079870128398454 -156.564656146174372
11.023567851760928 -97.297171943725914 -154.611654542092822
27.709037780258083 -79.768129876590208 -155.795288835256969
8.932943455739421 -98.472598720244264 -155.059038659771431
55.934528789966699 -50.719076994188349 -157.726631284443357
