# This PCD file was generated using the MATLAB® pcwrite function
# from Computer Vision Toolbox®.
# .PCD v.7 - Point Cloud Data file format
VERSION .7
FIELDS x y z
SIZE 8 8 8
TYPE F F F
COUNT 1 1 1
WIDTH 787
HEIGHT 1
VIEWPOINT 0 0 0 1 0 0 0
POINTS 787
DATA ascii
-24.889925458405404 -113.120043313996277 -159.780761425500771
-24.513965374576237 -114.037437576925868 -159.963808368489339
-29.095636180567489 -117.857408518922483 -159.643238150641366
-24.480956010862837 -113.449998622427174 -161.748568320665299
-25.070515832457822 -114.696354852524948 -162.337872300917837
-29.313880828806688 -118.689970716400964 -162.909508391750904
-25.715285885552877 -115.878451314261170 -162.476169777233366
-29.537444682248143 -119.702896313070752 -163.499686568858579
-26.404661339770602 -115.577089636353833 -165.019286024320138
-29.966394163224880 -119.461605006506645 -165.601834440682438
-26.107944142078821 -116.717881214564130 -166.745565584302568
-29.730242649536176 -119.564106255513423 -167.757974881151625
-30.105857747365860 -121.240165495700083 -168.414518311095634
-26.817706217577321 -117.068402052118600 -169.506864397666789
-30.832965815745638 -121.533644009812349 -170.498843740278517
-28.957936489983112 -116.913184324081328 -170.845331291228064
-27.628616253091081 -118.334249530321586 -172.439133283055156
-31.786603465965694 -121.302640569062433 -172.499530402234228
-28.675468976812912 -117.728270451954131 -171.676440880036608
-57.454482543344831 -146.437046845004460 -173.429190473272627
-31.634680449550622 -120.436443763202888 -173.965533749155128
-61.592725964140122 -150.111214842354883 -173.165426223592704
-63.015377394421847 -152.503423432071060 -173.617652076135784
-56.532974190645831 -145.358324938193050 -173.960608024609456
-27.712149370134998 -118.944948185574006 -174.087795877301915
-28.177148009582282 -117.183594485288566 -174.527536879833661
-31.626677172945357 -122.408897771930327 -174.813920862920384
-32.582182839077639 -121.801554781000448 -176.352601012345644
-29.335344342293425 -119.802936853217076 -176.522225151774109
-62.654313743284732 -152.109908431412464 -176.739077227350748
-63.141180265264460 -152.052369774791174 -176.332039747665476
-33.143526972217430 -121.297752047272596 -177.150635778295140
-32.898001139844759 -121.267220385732585 -176.919008886242182
-30.638230647367507 -119.116061460733619 -177.736584076662069
-28.833008742285486 -118.597988756840053 -177.563792242520407
-61.650879344210836 -152.368756357647726 -179.674630025732739
-32.681262072582946 -122.302884444476504 -178.323808118620576
-33.123095206879114 -123.087119079871698 -179.134288542055373
-32.906997981172658 -121.461733858456327 -179.759154209096721
-31.936173484553724 -120.150510946869119 -179.912573471055993
-29.758221513041441 -118.988153381399002 -180.333162974477943
-56.257534838619875 -145.375284101362666 -179.627220315275423
-32.845627769038970 -122.917163403936968 -180.353378212695674
-32.675091095260576 -121.707211072138975 -180.458491489420794
-29.961526693529912 -119.447611196424631 -180.638946032028343
-61.601173976104128 -150.864213243520226 -179.998219616906368
-54.888307306947340 -145.206453711989383 -180.450154644077145
-31.353257542867379 -120.051022851142989 -180.591133286023080
-33.526425390132978 -122.605030598917295 -180.482091629461223
-61.990047526345109 -152.740594869968561 -181.703603346293875
-32.283288150250527 -121.153956791302178 -182.074522726668192
-31.323794044659948 -120.688112411066996 -182.925360462891661
-62.410196785227619 -152.156864477190055 -182.283296654378631
-61.895366476980747 -152.391586725946496 -183.002999677751347
-54.676148048893999 -145.010584336033617 -184.190557772211832
-55.674124932422252 -144.872337775775065 -183.044303250014593
-30.762950228178049 -120.417645285175112 -183.434881430179331
-32.077820170215425 -120.319870173582586 -183.454129068465392
-61.646908735307100 -150.849184482805924 -184.269388884748196
-62.316956537014917 -151.658263012058796 -184.378186043922028
-55.860133413395218 -145.115444652396633 -185.200961922076459
-62.128253694990640 -151.362109837956382 -185.271509301918343
-32.951032283758607 -122.364323102371500 -184.725117743003693
-55.518169934476845 -144.652627881016940 -185.457367572380008
-32.430680778022975 -121.401892847922852 -185.644072917606991
-59.440028962367542 -149.182622088520134 -186.170918346323589
-58.280144714592126 -147.827454146271293 -185.948496207862888
-57.521149148575510 -145.781193060739866 -185.999512637750115
-59.474988484380681 -149.626033851991792 -186.404197567523568
-58.574666907043337 -148.179999727136732 -186.649541375119412
-58.181925715305660 -148.064385250207067 -186.037767944227795
-31.574132354296335 -120.641777134376582 -186.432790318301272
-34.157594207721345 -123.778510767180393 -187.635290219851754
-59.184375247002457 -148.130270793604780 -188.209807326201826
-58.234338214438836 -147.275549552859729 -188.325118188969185
-33.337412092538941 -122.477497021332056 -188.746253029710971
-58.947019011655890 -148.559589922449192 -190.762965130926091
-58.544535004495771 -148.271533889151584 -190.246718266887996
-60.955179414151630 -151.062593501959896 -191.187084054089752
-55.589449293106441 -146.068042872466350 -192.049860189533604
-33.060558915252777 -122.367585145825288 -192.357183787426550
-33.115080153972528 -122.541985223073993 -192.311818886980660
-33.165971125962535 -123.266496794800574 -193.349080194728828
-54.781632892089817 -145.433463273462309 -193.677683169911518
-48.452755565556117 -138.761405396162360 -194.920282671287225
-47.998941239181157 -137.300381345746558 -194.232436556101817
-45.978678533041290 -134.113050352467837 -194.205693786400957
-43.863895454493921 -132.604838225394843 -195.271260026831271
-43.154064444684430 -132.717590314054945 -194.084450728162210
-41.921064302197308 -132.596685416227075 -194.505784904971449
-54.481733948553611 -143.766510111743287 -195.510458583290813
-48.735640745573413 -137.533303018279327 -195.189230790420481
-48.515380296354692 -137.047428352451817 -195.459843659988195
-46.430403226707170 -135.562602821451435 -194.927456330523285
-34.103056715096038 -122.283642169180993 -194.597432007497844
-34.200862789480276 -124.742147968406968 -194.606718765938894
-59.056083205668202 -148.744159077916350 -196.341470929367858
-34.425769883919699 -123.385107202812691 -195.959153166602448
-33.997263431860702 -123.025082800674255 -195.718219119612570
-59.711925192355686 -149.534779340636504 -197.576300553933180
-34.420996343125850 -124.179168010212663 -195.623391658363431
-32.833716517496242 -123.401773278755343 -196.237624897065871
-34.978496380832723 -124.753978616499836 -197.109494368447628
-52.010221205115151 -141.698550889452861 -197.585845370010475
-49.845666390375001 -139.937175254718426 -197.117952327358068
-49.080939841501248 -138.072580759176191 -197.750962090877096
-37.716409072853992 -127.785958558176333 -196.637498236382697
-42.285158557465067 -131.212954523575917 -197.647057379822826
-34.694566769452628 -122.612733501562047 -197.254590450522414
-59.693620559551064 -149.564543415462566 -197.854194081336544
-52.644762121513480 -143.506613812274253 -197.876348889248021
-40.936897481380655 -130.485053205818986 -198.195114181414169
-37.709181009558193 -127.016117698013971 -197.778011298981880
-33.513049688589710 -123.229656449667672 -197.722462584543536
-57.680951891246110 -148.393657337759635 -198.468481615543453
-39.055945373278348 -129.292616751570193 -198.926649021941017
-34.392275186451393 -124.542101831848484 -198.279579445978015
-53.346132835354005 -143.748147450345130 -197.778993771617394
-52.810604982195208 -142.780778543009831 -198.286262163450601
-49.684113878892113 -140.312479949882714 -198.770198369622420
-49.552093317885614 -138.058984873458087 -199.398231968629432
-42.278247117904826 -131.183415095298074 -199.359378323327036
-40.787996592837594 -130.861580495924471 -198.813129189975086
-41.256303949096093 -130.797981171147086 -199.109693661015740
-35.834037685318357 -125.495776436876540 -198.411743022558852
-57.051798936081163 -148.437074066958985 -199.627675800692032
-49.853609073358299 -138.808630482268995 -199.135214099237970
-36.173529362015010 -125.731470860530379 -197.792236154754221
-34.662312146734649 -124.988850930800950 -199.086645129400523
-53.520445284642946 -143.346461797402327 -199.072441206291359
-36.809052289714380 -126.835226871716998 -198.857116519558531
-34.987053819756802 -124.795460296027912 -199.206903477042488
-35.062159291011234 -124.935939547433492 -199.358465279189545
-54.334857171683247 -143.727365305384154 -199.711947701885123
-48.627410980465086 -137.141853721516497 -200.440522829369058
-37.272015615838640 -127.773219489305092 -200.957984824538698
-36.111551534675165 -125.993297489903028 -201.276897417842548
-47.665062814124617 -138.556442638665402 -201.605486165566958
-48.515004068884750 -136.494322018744413 -201.383612525474348
-45.741905102240651 -134.965093353119897 -202.043554009705900
-43.874531818769377 -131.832169943898236 -201.970357261379348
-41.409925217202073 -130.468096663667239 -201.908690876562929
-62.757461754679831 -152.457764219583567 -201.154952780940675
-44.873219799638868 -134.477657826143712 -202.083067098833737
-41.692627616864868 -130.717270095346862 -201.744598244385344
-36.477998405552313 -126.737942869081095 -201.804714198326508
-43.722580918262437 -131.945770456602901 -202.036051735245252
-40.946745805660512 -131.301965993094967 -201.664178515717566
-37.997359620978770 -127.310892406444822 -201.937137244318905
-62.349718251777709 -151.751645253704737 -202.702179416965237
-56.516977196246444 -147.364862348407399 -204.329227827219682
-57.322606769286644 -147.021388526812814 -205.344648921697029
-60.542952834376081 -150.244587802898565 -204.856919911934654
-59.673052940317461 -149.644866845417198 -206.506117296470393
-56.594346885049909 -147.878172140647450 -206.354790087178202
-57.133621712805528 -146.683181069002302 -209.275440989070091
-58.081414442964821 -147.897460953357978 -221.468968922478638
-61.625810524875241 -151.814153829670602 -221.835247994144737
-56.354543089464826 -146.701463191224008 -222.176303871234467
-62.802964225032426 -153.897619860435469 -223.366781481222318
-48.719771675942852 -138.567142190653954 -225.593399371114430
-45.521775636823961 -135.464752904315134 -225.020604680716133
-43.514370712466970 -133.229197675857790 -225.387739017361127
-44.015266178945055 -132.501972037235106 -225.453513639862479
-49.260389056851537 -138.038715659040889 -226.252546825105128
-45.992738820294605 -135.517719303546670 -225.254830156386021
-49.114758770678492 -137.553383654823364 -227.513031317189359
-49.853473625272919 -137.361813658681939 -226.248209035471859
-47.953080909141178 -136.267202584020254 -227.416121684073033
-43.549445880602377 -132.189345694808338 -226.582059364303234
-49.511211210378477 -138.360081418538471 -227.174439139172165
-48.666525671491016 -137.372113295943194 -227.762820679937590
-42.669388257762321 -132.192871579589792 -228.306119837477809
-47.069074772456048 -135.764051826185835 -228.641903951219916
-44.313184651633705 -132.897613721010572 -228.471049651907606
-63.971759803521671 -154.185684765771640 -229.879422597535864
-48.785914156205408 -137.349216572674237 -229.800481770878491
-45.046419432211408 -134.095029984292694 -229.523207668029386
-44.784301663608893 -133.381164948494359 -230.094071992991871
-46.471774605450904 -136.129546583054463 -230.057737287048070
42.338547693605030 -47.667297190547906 -235.392791726333627
46.957983720946800 -42.898201954604609 -237.250999825176393
47.856613736285993 -41.153392010477681 -236.827518296221712
49.461146871486314 -40.930412514545985 -236.574253283424071
50.543470027986061 -39.899456495739628 -237.396080019923346
-57.605532322273028 -148.250603226061884 -237.658889632143314
40.346841236680056 -49.208691418644179 -236.944065464431219
50.876577956575211 -39.767145533867847 -237.381182273124324
-57.836148928643290 -147.681681047912235 -239.338414705139797
-57.820820641305907 -148.229004666697961 -239.556237554130917
51.142059196615165 -38.659744216942471 -239.453858888214484
41.477814775247715 -48.171487308426094 -239.955700357202034
54.741441019789356 -34.526521779771350 -240.096432828073290
42.531963017498462 -47.449013667227980 -240.292747446748194
57.960822994906700 -32.995313354006122 -240.391226475936037
43.591716583316142 -46.178678783804074 -240.749334360051790
51.192573628347333 -38.358300157790225 -240.273955530761441
53.900096650126628 -36.016106253916334 -241.823671654659762
52.617068194643188 -36.880862661086574 -240.959798256568405
43.096736622980075 -47.195152798413439 -241.840252256299550
40.142553494520023 -50.899832410361014 -243.232618423595540
43.077868867971610 -46.093511936105017 -242.638999657244767
60.121868042919736 -30.023156567144493 -244.349445409482342
41.043334337894784 -48.065177839575675 -244.306582686655503
60.060642419910529 -29.742738780785867 -243.683780855186200
38.854296403861532 -51.097050524389367 -244.652448782533043
-61.795374745497092 -151.078609291366945 -244.524405433449488
-62.239152204898673 -150.661272005300987 -244.519834319907915
38.887357843647884 -50.729432412915365 -244.734463017719833
39.271962387728131 -51.133660870300197 -246.398402882878344
58.454472478436401 -29.897770159229008 -245.451697794737754
59.979715620018169 -29.715804153890634 -247.575090125268559
-58.291802500459674 -148.599634743960166 -247.063737397487444
-61.308739941252874 -150.775041744446128 -246.515605341518238
59.796907172769643 -29.537045755939285 -247.738389208302408
39.776868316691655 -49.285838751767038 -247.434263984625602
40.951064664808094 -48.646016607526121 -247.048609591959291
-58.362751992442696 -149.290816417166837 -248.308522817004160
60.931897498103588 -29.584850704042669 -248.019416428302407
42.090260891343171 -47.868671321628796 -248.981136571172726
76.461717997146678 -13.130055956955289 -248.910365174668243
-60.354290180411454 -152.278528955214000 -248.806939612035023
62.119914052719167 -28.424266376850884 -249.044792720533565
-58.191282701455549 -147.974218305326588 -249.381710957697067
76.482936874812978 -14.008737349259826 -249.897472381302123
77.634297833902423 -12.073997530956856 -249.925221470532705
42.438410921363513 -46.692272214304673 -250.175901633350065
74.810263150666486 -14.696381586089558 -250.265044337972654
-58.396876302256366 -148.613871519485514 -250.751460637700234
71.975744206351678 -17.699950526193554 -250.061252237577662
-61.550646404755035 -151.061760651413522 -250.615828878660523
73.239737274307501 -16.846506494941121 -251.743538473209327
75.181507475934168 -14.955956451977592 -250.862717494470019
74.592380788583867 -13.141071324428673 -250.949908924090920
-58.119691091421380 -147.184549089529412 -251.502514028620396
43.198383671457115 -45.195964094164331 -251.711126568494024
62.086936167611391 -26.830965049068787 -250.633929389772959
-56.871565636541135 -146.590888858659213 -251.689807924775408
75.827342953314670 -14.110926278505957 -251.398012244938059
-56.710488704525226 -146.810755290468791 -251.543955354318769
70.873133458215662 -19.253394792602553 -252.303845437962167
72.425122484293979 -16.128590214148048 -251.748775385509106
74.863194626806944 -15.168638482202113 -251.788469205659766
75.226832246876569 -14.366829876245317 -252.467565100514861
-63.279619149395799 -152.835352040609820 -252.228523217808004
-56.248516925117173 -147.510378241444045 -252.252592229367707
70.936716302827591 -18.649691230168866 -253.378146532177993
-59.750618125047588 -148.440357518914055 -253.344149461788959
-59.438001060585151 -148.344916740418228 -252.330696867344699
70.868696674092973 -17.280907043702690 -253.425307289593036
73.638147195325047 -15.591423760476886 -253.409652732552701
-55.666556784340159 -144.886840762131300 -254.481864848013345
68.444576095987173 -20.729441923606956 -252.965461560072015
74.004679661901420 -15.686586062190255 -253.766568384147405
-64.734989020098155 -154.482422757685811 -254.752833843568453
72.125941982897473 -16.758487090308279 -253.884982009080630
-60.282795580982821 -149.799996749217399 -255.192830291697078
-60.242677087708948 -149.318467872920820 -255.618538648484787
-55.740879420992968 -143.995454359316540 -254.909132606089941
45.714462734745702 -44.297344874534261 -255.824762853857976
45.450476437001861 -43.657035395802517 -255.204179165951132
63.575951746939381 -26.757434578015424 -255.784791750138027
65.445364750340104 -23.939621116307737 -255.296718858451300
-64.770455994896892 -153.956274352900721 -255.108098959223923
70.522103517770191 -19.367293526970382 -255.930936125896835
45.251210082088711 -45.517733528092414 -255.742969295972216
63.340455092480745 -25.302249126767112 -256.969805516863460
70.972259191569719 -17.851480299949962 -256.369312633507491
-59.203795998846878 -148.910225583834062 -256.776139377327922
-54.678846096821054 -145.158363240906880 -257.489941533573131
46.424116125743794 -42.282905611052954 -258.089319128460886
44.748272617124869 -43.034640891551206 -257.243444930765577
70.351678396669499 -18.857019583680511 -257.863185578266041
-64.507914736521499 -151.167082026234283 -258.314917211683962
-61.886714670208775 -151.075270129272866 -257.526798909385150
69.657305677914252 -19.472858398957744 -257.863002206773899
-64.445333575593779 -155.005647132337515 -258.462271086563760
45.731550296508665 -44.457591464280547 -259.687253548403021
-61.542775473671796 -149.755172187233057 -259.272487137439157
-59.965857337649886 -148.967877355631913 -259.022958728077128
67.778750583046829 -20.371836544826230 -259.618220302724751
-64.094095615283791 -153.933407996467082 -259.396990395902719
-55.675071220541952 -144.176601110106816 -259.208427344067900
-56.222664075662365 -145.268780666573974 -260.857387565047986
-62.927838429390782 -151.527510297235352 -260.993211669297068
-57.886083339804010 -145.947771299240344 -260.148066346641087
-64.169979562020771 -154.145089917076120 -261.860695036690629
-56.089531544062133 -145.246921060688663 -260.646689119243547
64.282743195402986 -25.452927163708015 -260.581918700978633
-64.248584808676526 -152.849555635231610 -261.323026207930241
-61.764109913043434 -151.958389846353384 -261.389218290861493
66.852385879455284 -22.849847731185676 -260.675405163307403
-62.678407828745279 -150.389388342426429 -260.769939840757729
-58.702641866916061 -148.500389593798957 -261.174557235840894
-56.540419899061540 -146.020755384457203 -261.675082007326978
47.232538501133313 -42.820389481865824 -261.849082187222280
46.695205708561005 -41.954851957549508 -262.065466840146030
64.076910349487619 -26.475479125633068 -261.028380227259163
64.420964414637709 -25.396334687330690 -262.700961754298532
64.556215673021100 -23.559462216468265 -261.395523569775207
-63.399545972843427 -153.513015901269085 -261.563667247211242
-60.318698770212684 -149.497951296829257 -261.188264754749525
-57.327055038780038 -147.911097365190301 -261.979478524628234
-63.069275597198974 -151.876537348083588 -263.347865856656938
-57.181599388776164 -147.273480421917128 -263.697497801795805
47.159935992162985 -41.108646437703406 -263.641717015157553
-61.278216010725835 -150.268022469723462 -263.587314599309252
46.429880100594218 -42.501395371611729 -263.623909212045646
47.863866758315538 -43.273887022054616 -263.703051022469708
-61.638586054581410 -151.706004007502344 -265.146912447564659
-58.419734279400359 -148.270297062481376 -265.710719966515455
48.150571297993451 -41.698790318667662 -265.190539353850966
63.757186612222149 -26.087905274118295 -264.800355192718598
63.842748572087601 -25.901706876635981 -265.179310757311043
-61.451041905917016 -151.591899195435644 -266.528245584587864
-60.825555175305858 -150.995005845230821 -267.407354199326505
-58.945613601029770 -148.192947132858535 -269.135792073228288
46.190323119587056 -43.467616483044232 -269.434929001664102
-61.764581661051650 -151.404795967774220 -270.894339574480398
-57.321892405373475 -149.182539875455433 -272.392603360404280
45.412005140492958 -44.188201278633763 -272.233266423233147
62.516418547751968 -28.348728681751485 -273.208483136793006
-61.811258859268527 -152.303484336448861 -274.213940678989445
46.532413741976058 -43.264466675890596 -274.005965796601686
45.660414288153937 -44.115975222898946 -274.666936193364904
60.965122319644060 -28.253116468453022 -275.324394148220733
-58.775168627184399 -148.553767796827344 -276.593142203620175
45.866707128818412 -43.289658563193939 -278.200200495790000
-61.084716452342313 -151.453003714567359 -277.259864779853785
59.966234540964372 -30.040481282925452 -279.055014916410130
-59.824181492827449 -148.904079416827329 -278.771316188966694
58.692429270090535 -30.552015318799754 -279.826979006928070
-61.136721409564302 -152.697301412744594 -280.509133092935599
-59.128511259030603 -147.960495885085891 -280.341492895134877
44.987304238604622 -43.951663625265816 -280.443336416745240
-62.932186187762127 -152.337667751214298 -280.464162493921947
-58.453226561782245 -148.649793190770509 -281.248022586165234
-63.389919611550759 -152.500755397691847 -283.130429280942508
-63.100624028176419 -153.910927949436370 -282.327191312305956
-60.736198162460781 -149.262916583136359 -282.384291416353051
-59.801876368059389 -147.981320471452165 -281.641371993535984
-58.079977531158391 -147.241397760948900 -283.143427595641299
-63.745256320441115 -150.941347851249134 -282.402033914272010
-59.543098634210025 -149.343865852184791 -282.269217513893523
-56.250108410545288 -146.095023452848778 -283.522680362482220
-58.895760857764337 -148.413637616552023 -282.908106274714044
-58.715377597481869 -147.346182034760460 -282.517326457033107
45.109206429991694 -45.050341206272307 -283.598587533035015
-64.210956271536446 -152.806855934157170 -282.785039748095926
-63.873028260561199 -152.309631824148596 -283.282201190362571
-61.137093510825025 -150.128689691858511 -283.525755010739942
-59.773847739199901 -149.264959980499810 -282.620071273447820
-57.226406382164988 -148.213140044638806 -283.784713618093065
-56.203027433471227 -146.593452637305546 -283.386492226997291
57.170816285777107 -32.266537054102969 -283.096942226593967
-58.964332370375928 -147.270630392482474 -283.141207568574259
-63.454935757007902 -152.800271869850974 -284.289076664335880
-60.046169073893267 -149.257603963572393 -284.341287332828813
-56.310745093964890 -145.749939567273998 -283.326487027330984
57.658359885188020 -33.195171089942335 -284.515440290746028
-64.423761806057314 -155.028114834047898 -284.851051614946925
-65.814059003337448 -154.027523781847719 -285.205715704525460
-64.176059783192116 -152.027196868597514 -283.936127962589978
-61.252311621566832 -149.828418753600772 -284.861986425733448
-59.930306131042620 -149.009129114393573 -284.230399274441879
-62.420471786602420 -151.043487587859659 -284.753587434969006
-59.759784852233508 -149.573585507797532 -284.967031224331890
-59.009343736735275 -146.662772882447712 -285.071539221481999
-58.213036763205750 -147.366378093546899 -285.429096969566444
-55.851072394070627 -145.844656171214837 -285.669916029685226
-56.093526271233962 -145.494159133551591 -284.132800575665385
45.225378069130819 -44.345073153138536 -285.237879940067785
-64.743525885269705 -153.494059332601154 -285.496896079404792
-63.609465669065997 -152.758163326638794 -286.130820481716285
-62.576557529956510 -152.046298733466443 -285.608294245805553
-61.821923946010806 -151.412297781762589 -286.444569074310323
-56.668418993390581 -145.567871962192527 -285.149358933233486
-63.725061244521413 -153.512233272582307 -287.026132864693011
-59.107065405298108 -149.215410628340749 -286.016488410240527
-59.752421823129581 -147.512361803990558 -285.778721023855951
44.061809033588482 -45.990265389787766 -286.380091824875649
55.450537941564718 -33.477505215640896 -286.479469634123745
-62.866045427185419 -151.810023051198698 -286.615402630856352
-58.099982206313371 -145.410349876661741 -287.057789392898258
-64.706320491259504 -154.215382976379857 -286.597550416026650
-60.384704723030069 -148.600945091660009 -287.060935867630519
-58.125735698279833 -146.304053159178238 -286.870407421356560
-55.195180836558841 -145.563010960162217 -286.643110226244175
-65.588420533886591 -154.528227171713411 -288.007540091803151
-63.597778720842882 -153.712702061343151 -286.483139079855391
44.379404959881235 -45.139463059783331 -287.123864971785054
-64.358396970901822 -153.578126027932655 -287.325029510961826
-61.688209266778962 -150.717710460949064 -287.626905489315106
54.966022625735654 -35.509502415139075 -288.639992321576642
-63.542381411717493 -151.692658430781620 -288.736784420370100
-58.902592193294566 -148.009304533614056 -288.788947872020060
-57.769977714488185 -147.558277452486180 -287.984204957683289
-57.309389526783448 -145.275857449981743 -288.344370899883472
44.456047966566928 -44.933050932411469 -287.896500762142978
-57.433218810505267 -147.382637413631528 -288.957185856289357
-65.097352217813494 -155.413975320919491 -289.700322250709632
-65.651813320653218 -153.397798639138813 -288.984587907491743
-62.682315937090685 -153.804954795458031 -288.324376863851171
-59.006642809040684 -149.260660287833105 -288.950642764262909
-59.373060636484070 -148.134469905374090 -288.641015490882012
-57.915935070353257 -145.998288688047865 -289.467509187267297
53.810708080691768 -37.264152008571209 -287.945739838696056
-61.654832758381808 -151.250897985992822 -288.673355717917502
-57.671987808465154 -146.710787045153353 -289.044939941190137
-56.673488116128972 -144.724410050020225 -289.116413952716755
-62.153904963496295 -150.050400371303994 -290.903760715826138
-60.791709547124626 -150.014782658499485 -289.551308216983045
-60.458516954203752 -149.247192068251991 -289.553965500601521
-58.619473850078599 -147.924147993838545 -289.463465956366463
-57.685324344419051 -146.430592011302167 -289.594574267527889
-65.035631738126654 -154.142040402584030 -289.582676554705301
-64.294528873938873 -153.228341243210451 -290.439486178032894
-64.817433770586447 -154.359485211495695 -291.039432619924582
50.623315772297119 -38.613030208949631 -290.483225009903208
-63.622637408933294 -153.079709405745632 -290.439143445043157
-60.244875663512033 -150.165835638184291 -290.409480406289731
-57.507334839456945 -146.804008598826471 -290.170363275607770
-56.958813582888489 -146.371399815189363 -290.088719888927983
-56.990626195369671 -146.030248890606771 -291.256740484664249
46.258576144310702 -42.330673961586939 -290.118336023299889
47.433415773965635 -42.421913970572511 -290.726261639793222
-63.821858439946880 -151.224135465671168 -290.736097314433493
-63.885672190568563 -153.432917224416599 -292.458808209653512
-59.686806155884703 -149.499531945873770 -291.258127683743282
-58.475164432901515 -147.819609071793593 -291.595295168183895
-57.877394630401810 -147.763723274890168 -290.830532607007171
-62.342147158579806 -152.303858313544566 -292.153501008417834
-61.700947735214399 -151.491227919653056 -291.653145568204877
-61.174645000780330 -149.337782291473758 -292.619187324006361
-58.269993349777394 -148.007092407597355 -292.721725106021154
-62.472344092001222 -151.665979130721752 -293.294839520948869
-61.733932284065688 -149.409897001717525 -293.163033309720788
-60.138010608488045 -149.260808971537216 -292.871798033499203
62.761159415101204 -25.884855494907271 -13.786952044024215
75.871680036779111 -13.569580225876987 -12.618239810333247
69.765050911999040 -19.275652326521119 -15.200957950733699
69.048198985325243 -18.957966720260547 -15.489775870276439
71.277447091075771 -16.467298137755343 -16.087198436956935
77.584991093673906 -11.044453952706860 -14.781661139148852
61.455694163654037 -27.590197466878120 -15.035772955319430
66.996489170659643 -20.953803179529011 -15.285728219678255
73.980799392890404 -15.506714416114061 -17.500149379740687
78.886554748475291 -10.261960019245345 -17.229900253133682
59.953004494775108 -27.522649357220860 -18.612799218357292
59.564568603962094 -28.272489654196018 -19.024279519920238
64.648043966338363 -23.902872946434570 -19.462968081883005
73.220142662405436 -14.665436558783416 -18.428290111332995
79.534885216886025 -8.615710365382359 -18.411467112554870
79.334679281435996 -9.241002832563023 -19.194416906406090
74.652315873353146 -13.118328359102270 -21.724470311854127
80.181086820944472 -8.380811160274062 -22.176340886970110
63.247411093706120 -25.509644778969406 -23.351663693603310
75.053818102273439 -12.365397059066968 -22.735145461293026
63.785720881885894 -26.124573345010237 -26.562683549483033
63.222722182465908 -25.400660540547097 -26.864500921581111
75.254837994184825 -13.480593716088823 -26.329857473375764
79.170759646968406 -8.239812845034388 -26.598022118812086
75.352071062615678 -12.037657258158116 -28.295202245840709
75.115170003588190 -13.519600924964479 -28.585351686309068
79.489268111275791 -8.401037642130811 -28.874633919507104
75.167206239111323 -14.009295071578798 -30.248796968900145
64.832100107899450 -24.346837215237933 -30.028579386710206
65.454391243702659 -23.909295391337110 -31.534203193488786
60.348113221727516 -28.405343674734088 -32.762856115715117
62.764183936467013 -27.278093727381822 -35.364566981196518
75.910969043788441 -12.468374469735885 -36.719096229225350
75.180626213428596 -13.789638753133380 -37.577741601871089
69.420583646950746 -19.154749635785599 -37.604126625256782
63.439989076192397 -24.519565343946919 -36.863848531877188
68.520629067852681 -19.987159589510131 -38.169953846659780
71.918454345174737 -16.982148011488871 -39.032570867228785
4.236787988142193 -84.025738515875830 -41.512369211353175
0.329220575066399 -88.556402780462363 -41.264229669267969
6.612502591124720 -81.799070317860625 -41.036458057975977
9.281506410413103 -79.874565798641697 -41.507085522034380
-5.494556975283207 -94.488229894035655 -42.411359589417614
-10.290331816142407 -98.156612355787686 -43.170232469460316
13.527630969389634 -75.080994852491244 -44.042225599338273
-12.036736566222158 -100.779941751552130 -44.998946285514180
19.746471304091834 -69.067448136386048 -44.136154328490029
-13.053968760510394 -100.865786803463095 -45.764551228511770
22.701159740094106 -65.466722577007616 -45.098317931592533
24.138930687113735 -64.627477610862229 -46.436988932720141
-14.921811019062940 -103.138583584089105 -47.663141716068736
26.763590521663932 -62.594837066970008 -47.002685692867175
-14.996033800699816 -102.745921677361977 -47.331254915337638
28.007838210297532 -60.744506785988570 -48.138898955671962
-15.430354942943172 -104.068330992415639 -48.285261852597415
30.128328741450431 -57.374301741118671 -49.035235268726652
-16.691350166462719 -105.244718498146128 -50.226426462405442
33.081314462158630 -55.022031909908421 -50.007746328544663
-18.436421292221443 -106.371673165849600 -51.074607876888734
-18.612299991658773 -106.082388205050847 -52.925625485979438
-18.472459046147058 -106.908927146334037 -52.737532015954571
35.884646679528238 -52.809843048642833 -53.842436583821758
-20.318338862498056 -108.670925070641104 -54.839093062613728
36.276783278019529 -51.850223290462210 -56.135755159445203
-21.663435365933580 -108.371782732420371 -56.868670961770931
96.880615803924385 9.672834421136791 -59.412631417703750
106.417032030204552 17.911741940126557 -59.626439756547505
-21.547983297545052 -109.724579388784534 -59.358476485722193
37.815589163894643 -50.537961064629698 -58.783646292938492
95.838774618365278 7.273657070666315 -59.674478679348752
96.720036644848847 7.411764253323813 -60.298665060287938
111.025682056262895 22.711728365155839 -60.759355605614708
110.518026176953057 22.805234129949124 -60.391664969550831
36.881122409135642 -50.969778685874616 -60.783429918943980
94.306274469708271 7.626298718296780 -61.115246604248128
94.800853620955451 7.113171092087934 -61.505660462635646
36.796899192832804 -51.712119316504968 -61.847122627036413
-22.389372706566128 -112.069473774395561 -63.176941404489270
36.580095152428648 -52.488778163190744 -63.859772654539213
93.555565205980329 5.474842980664826 -63.471667852000536
34.321423171895091 -52.431121011624732 -63.760037562000832
114.784078168275656 26.317297952226177 -64.084370409779112
32.947158891449270 -55.273049596574126 -64.838940196739642
93.409228738039872 4.236349459173569 -64.091461018079670
29.089771129816643 -58.567395679766754 -65.219141928703010
115.925537581335618 26.097770225823709 -64.996849345075304
-24.273449021001831 -112.834918882203226 -66.246359770240346
27.238453321992107 -60.492138239523314 -65.577135175859254
26.777884777933689 -62.160776374496379 -67.094284609389064
91.231270141920731 3.684593910320727 -66.685698365942045
116.847795033319997 25.974920655837494 -67.171313094054213
91.923763154857753 4.204855644243914 -66.425597896854384
-24.221490102928335 -112.739075659256031 -67.500925454190877
25.931842010420414 -63.096770846708012 -67.312713646082457
92.138139246664352 3.103211049591546 -68.302589242148215
23.734437295384318 -65.062484326417788 -69.506641856831820
-25.513871138693172 -113.349901332081231 -68.868955914416929
90.986584476386355 1.960863658840317 -70.914026225875944
22.795861686970778 -65.875049874027710 -70.432633465000819
22.564482247503442 -65.733858420726293 -71.020445878996199
89.799840431789832 1.892497055986474 -71.011634989066820
117.371485792468974 29.567005997160116 -72.345137421655892
118.714397118360949 29.661401332398146 -73.106250199958609
-25.099707773801860 -112.439195732502384 -72.953905925646453
22.640458562022292 -65.735488334236535 -73.926672251918575
20.735732868325204 -66.098570702075051 -75.169116421214511
90.455282596644579 1.594788899614782 -74.986614487568630
118.882149414609387 30.098208355650041 -76.694379375123731
14.018446004447901 -74.710751264727477 -77.742388709401922
5.253167510374077 -82.370958249069645 -78.661893937611666
7.623963316772749 -80.676531671827675 -78.289663078007365
7.898454965655027 -80.053685574533574 -77.899969173800145
4.125008922207206 -84.044338772105249 -78.616501443007991
89.630431974140336 0.869228665217467 -78.784535307911653
90.503698421404565 1.696044250350490 -79.403114090052014
3.050378938324350 -84.138509360306585 -78.383264352357841
3.556242707097216 -84.026947815199620 -80.490264297915445
86.596308597548841 -0.489275107831285 -79.888570968570377
3.422237362576582 -84.908254890848241 -79.499785586611921
6.641655298754705 -82.304202463830265 -79.886331732732330
91.085178391349572 2.011220908924168 -80.580995136811609
90.062200269013729 0.536865668167468 -80.358347224959900
118.728359968473598 29.773215782649373 -80.205208033587681
3.375352195654246 -84.763175139947492 -81.105115154805901
6.444973416405686 -82.013132054894456 -81.643833789971026
8.694475356431260 -78.331142315471709 -81.003573491237859
88.781025774605581 0.206097837661400 -80.655604645151712
2.557505630869219 -85.939095639066153 -81.519070400244672
86.909805584924001 -1.892957470542212 -82.122630113228723
117.970381150010340 29.268050086164166 -82.468184355442247
90.688019961007598 1.550569227826541 -82.467519441919393
-24.112838587498523 -113.016858458759273 -82.726076319480669
84.581681343838213 -4.561581126714737 -83.112625888188717
2.785659279966049 -86.791014404802581 -83.187717969554782
90.268474822842279 2.057534403156119 -84.883197886312615
119.496665568649590 30.438391102422095 -83.889999113437511
-24.439582460462347 -112.715174384805692 -84.801808099496654
2.145785135537051 -87.094371690296171 -84.602221512944368
83.440235231479676 -4.252191066871042 -84.711804201797037
85.368875039335293 -3.436765975504103 -84.976633417678570
-25.435164871339200 -113.309787798499940 -85.379028651051328
119.931796356880398 31.353778822995810 -85.366305971501788
1.190718482299642 -87.730299515804461 -85.809594087728073
-0.058553991206171 -87.131825902002234 -85.278467738480572
91.006520623902404 2.305680400646048 -84.363383239845248
-0.478374246258102 -88.519978354272197 -86.156892766793902
118.959086277875898 29.930603413939455 -86.932079377872924
-0.017871303810744 -89.120013451561306 -86.948579036884965
-1.072340616057637 -89.103519887396317 -87.858731005311370
81.122623581798493 -7.568924626680648 -88.150645060449250
84.089668840995429 -4.388766094582006 -87.912191482166648
88.913433341209782 -0.178001460472524 -89.470356874554852
83.632113151317597 -4.626128380360123 -89.913191214467588
-25.393666082784115 -113.725853827807569 -90.604062626662795
88.045732575873473 -0.370131677797439 -89.288478452974530
91.040030800269165 3.015712267911571 -91.565614186280669
-1.463358878949177 -90.098028710040268 -90.314651652909276
80.845822931107534 -7.977958202488214 -90.128294169009223
82.723430010967959 -5.229071955287250 -91.175025788309114
84.145041528041105 -4.181656489424082 -90.706184060607484
89.571024117737366 0.724255874789260 -91.026972929244224
-1.704632069097807 -90.728444917727998 -90.700981972642396
86.373847424840491 -2.375907409615912 -90.585573603652321
88.431807211560198 0.303469332367629 -91.716039344681334
91.343302095636844 3.434716236035317 -92.712527440845818
-1.783290816425267 -90.246313133527138 -91.823313538340400
81.191947923416748 -7.009846421832323 -93.244373902734338
87.298879125139337 -1.540705461874411 -92.653127321349444
-0.996519575998808 -90.344120824324833 -93.398133421799258
-2.623887622354041 -89.887569532366101 -93.729334160922988
87.138431513125809 -1.276914280565222 -92.422603005733606
117.926226143754064 30.729702503576416 -92.185898696987977
-24.591975703785476 -114.550314823820443 -93.282719430981487
81.970322710142980 -5.798004431493149 -93.452720923561614
85.320615514057394 -3.362258314769248 -93.015602043483938
85.996916917886480 -1.565197296399721 -94.166046499602146
-1.925156578342821 -90.156194499116040 -93.310101112222384
82.185127716275630 -4.684297970048360 -94.613948035650651
85.118944788641969 -2.301061410868300 -93.959277117615883
117.557840456107058 29.843317234973977 -95.444404918428276
81.818335180129864 -7.575070560569245 -94.700833591308282
80.711466900359937 -7.060833555543510 -95.563484402123649
81.813572974663373 -6.099900149344494 -94.475340070247071
83.522298003691262 -5.279768932672571 -95.907170626919950
91.402099961337939 2.861311471174669 -95.551073426104054
-25.761640708992676 -113.490809164747347 -95.810654924773260
117.236683772839370 28.598278502736854 -95.226278885334082
-1.193350430314233 -89.985296595219637 -96.069059066931374
117.362273207087270 29.305641162324694 -95.908180399983024
-25.121462334995428 -114.023201216823551 -97.563606793009171
92.606469270616060 5.283557323752882 -97.872744270176682
92.820536594265008 4.073725365693836 -98.851280418521810
116.392802016027730 27.904221852401182 -99.467541921809215
-24.602389498902649 -114.503414648470780 -99.668997978090587
115.940724370449175 27.510069086073052 -99.200780233285130
-9.890065338242865 -97.291887385406824 -101.236698333686817
-3.947806060746882 -92.949990102239610 -101.111457966160273
115.448732149729679 27.628135454627873 -101.329836592120472
-8.555618342173412 -97.817942627658724 -100.793508188236729
-9.314052314397371 -96.126477419326662 -101.124395844865674
-10.137430259077682 -100.057518059224449 -102.949529035934589
95.892629788099569 7.365236608777312 -101.771692331409525
-24.640216072590725 -112.911076457843095 -103.719796744534079
114.364231465483940 25.244143652982594 -103.275935683067843
-12.004317591248713 -99.931708219056773 -104.121385744786366
-8.596583311912983 -96.032496971747932 -103.086827865125684
-12.024007775087114 -98.643380898835460 -104.295520895581319
-5.302214305015502 -94.277876245017538 -104.114484562153407
-6.197001868708118 -94.118374928791184 -103.966795026619721
-9.241819964121254 -97.996696530389627 -104.517587089296597
-9.042216782488717 -96.012961155005399 -104.769343319009408
96.365856452489524 8.068943524166901 -105.029477976947234
103.833767072566943 15.752353331356188 -104.569474094617377
110.421991724846592 22.158386391973945 -105.256924271082710
-14.069494332910079 -101.646882444154201 -105.939792468287123
-10.002535037915832 -97.430158458114320 -105.939485005333367
-9.092237508178197 -96.311860730797264 -105.571975206899126
-7.201606070976889 -96.100705927067622 -104.966838825876650
97.646052892392433 9.029913759685906 -105.907236263602329
102.780445959846361 14.088402438649009 -105.785867780425946
105.929009509130537 16.942217865826116 -105.534124831351335
102.171722030790221 14.031703548435681 -106.238256146544984
98.949294101215287 10.641089378677936 -106.327256741005499
99.815686269988916 10.336625854873651 -106.688228098810896
101.495999574488010 13.205265618478848 -106.795814165950745
110.118702182868944 21.654251433539212 -106.466852522986215
-14.008711743242060 -103.481417284110904 -107.481360896109152
-9.761027458653620 -96.893413316145995 -107.588010412831110
108.350258287700754 19.720264614760779 -107.541988179350327
-15.727802553423890 -104.208555351658532 -108.571528687651295
-12.425960489236108 -101.072123596886314 -109.783030536899261
-1.962268369451910 -89.147259897179666 -109.371246422883701
-15.859129233034770 -104.343463934596315 -108.951702319337656
-13.691434306259891 -102.583214902417168 -109.561560524376674
-11.896791419697905 -101.332431996918501 -109.451044716025294
-14.665265648801439 -103.515833513824049 -110.202535290183960
-14.519686013933688 -102.214767759958889 -109.530999178439586
-10.488140509174061 -100.420349275699735 -109.704872407808750
-3.284152328540073 -91.654989800810654 -109.685268584629640
-0.570768786986474 -89.491442636349859 -111.084832089543866
-15.923703541224443 -105.936604134411553 -110.708027413045272
-14.737387797162825 -103.152041720430304 -111.221609445995568
-10.708792574920176 -98.981448582296125 -111.682340654404683
-3.390878541288258 -91.135380037036654 -111.189681627005996
0.384204193679916 -87.022863034034486 -111.224463524674434
1.511749612565360 -86.451351781637896 -111.591870201222719
-10.779142854937785 -97.815077034922851 -113.112194075934426
-25.019774982030416 -112.697439459682073 -112.719347539097498
-14.756835475552323 -103.059826159106507 -112.403059394821270
-17.601787830495056 -105.703364002174979 -112.931175433863402
-12.834760109753779 -101.098019808428660 -112.965447009854230
-17.522855473141330 -106.189870464019634 -113.619233394937140
-3.328780045083591 -91.379651515131627 -113.715636556725670
-12.944462547517103 -100.359029603029555 -113.558134543473557
-1.359608435685998 -88.749185633346158 -114.484418885671815
3.697228229175808 -85.381447505009149 -115.352098585617341
-15.286199837372919 -102.644450275670835 -115.522845163326750
-12.521877609050513 -101.219049362410630 -114.153491361113993
-3.268743738172309 -90.578426885348094 -114.880233500697429
0.936253058609813 -86.682284140661736 -115.536269385485738
1.606416458773432 -85.650332084141795 -115.684398006731598
4.483306014139823 -84.371245943432086 -116.062521058646752
-11.634053627045736 -100.619676656878610 -115.480581451546129
-1.515826157551544 -88.651157434975303 -116.258494377474292
0.118849196455669 -88.237275351776717 -115.317876607253297
1.151720544501847 -86.887208334934257 -116.721798902451027
-23.597109499127605 -112.151704380314825 -117.343223913857926
-18.991721066055909 -107.486456592835836 -116.391647799319230
-13.077455509998085 -101.494496398155675 -116.979321282951702
4.560777318003848 -82.907589534668077 -117.502428517409996
-14.771843006980125 -104.196793493076683 -117.112320049832178
-13.034011491935088 -100.721551677633158 -117.377133428678050
-1.246377586022163 -88.297260886724743 -117.541616528848422
-23.861719042413966 -111.835082463234059 -118.181996507800250
-11.371074299183842 -99.209936416090699 -118.716843779317628
2.591271045761192 -84.612427114311132 -117.460966407995656
5.425185387720189 -83.106863010126389 -117.577915171058336
-23.454562164988516 -111.895924846555189 -119.078073126275314
-8.506346609743021 -97.647554936105735 -118.695583641078997
-11.621115721305486 -99.635526117975559 -120.365424052243213
3.604235102567895 -85.365262133584864 -118.885816906174654
-14.374102156263399 -103.195129166232263 -119.570453762002884
-12.026350055637927 -100.237966028715505 -119.697656871011887
3.991022967416733 -84.484972066575622 -120.693904509296942
3.912705188712132 -83.676093874932945 -120.186827161300712
-20.626250613472322 -110.032118554242246 -121.497763304255756
-20.571494488785451 -108.528760387716019 -121.076730280479339
-9.160377052564735 -96.743708790009464 -120.757907940556819
-0.452744570719512 -88.867639154451638 -120.589801878079143
-14.591201102653921 -102.336994292925809 -120.998485597140814
-1.524020371907221 -90.575534009444652 -120.371859014909219
6.634077450682575 -82.066261832110726 -121.055745689231003
-0.243970668528286 -89.446264782333571 -121.237863430846630
6.863123630945467 -81.360447851514309 -121.782276301086981
-14.673528037322155 -102.540896406270278 -121.711649854692254
-0.850202591461241 -88.859973236214103 -122.579350738127872
-8.775232093446878 -98.424461729897644 -123.728060010402544
-9.784850724997810 -96.586864004636425 -122.634444217086184
6.653938260222306 -80.013187025024934 -124.620964490827745
-9.119191834684438 -96.685192194860818 -125.028202853585668
5.298277210463094 -82.923616525225214 -124.099024831482282
-13.574517917910189 -100.923780925149316 -125.360172059167510
-1.555076409007722 -90.151424466189724 -126.058807139075299
-0.759059320315040 -89.409253911528296 -125.683435133236642
67.309864944714462 -20.325474885657378 -125.400152749164349
-12.204228223849482 -99.731402794995546 -127.254975542642939
-12.580273380157353 -100.052004947387388 -127.618249990434521
-10.723352780080370 -97.591485658699654 -127.854023703471626
7.217909697389287 -80.003460592939277 -126.872568418337494
68.061135865700308 -19.722597071144207 -126.840625012598508
-10.810241911049344 -98.792977712712243 -128.109316177240373
6.749008363100095 -82.095105138139488 -128.457755627395102
65.445850438290137 -21.645087828225730 -127.830232306950762
-10.597083459181167 -97.569619455819080 -128.685342979850134
65.060084545412934 -22.482444239586609 -128.964032430377443
-10.342424971798877 -99.073118537021017 -128.867168149811334
0.127004842914891 -88.841486335060608 -129.466311186306143
68.354870442825060 -20.087280655017118 -129.061002361829793
66.065408397488994 -21.751792217049996 -130.224682164245991
67.559145886963208 -21.124830612467928 -128.854481669118314
5.699167892956421 -81.162407893652244 -130.172918394109161
2.318730023076807 -86.579208334277581 -129.512647317144939
67.233575652538747 -21.705569782587808 -129.682968341445871
67.459866448833353 -19.961022856351175 -129.318711742535868
1.547118549525487 -86.819163079509607 -129.591741251589923
63.935568578431734 -24.425443602996936 -129.791961957524677
67.257213320708317 -19.953749439730942 -130.929304756667790
2.987849563871397 -86.676417967347916 -131.292766782642673
5.982048430948688 -82.692434928802115 -131.719329574698719
9.164498891468622 -80.142327483973972 -130.415023770113208
0.872859941536068 -88.458470509663371 -130.734358602000015
1.899760234735705 -85.198493236725739 -131.754301840192568
9.094764042668958 -80.507461083280944 -132.553999129718250
7.190919496669682 -79.452031184776274 -132.385580389847860
1.981319039375836 -87.486361249428128 -133.327918815615078
7.203208681634295 -79.638448647777793 -134.273319271758481
2.828126315262755 -84.157588868847284 -133.962221367596811
61.086800064398368 -26.975231265902767 -134.043435165051875
66.281294710258265 -22.578186473562468 -134.316718936159901
-19.485252618518032 -107.716810210077142 -135.940289859015166
1.965653143518667 -86.762363247905597 -134.754527895422996
8.156465551757158 -80.142647251563247 -134.868343772080578
7.418853003123414 -80.381185073444541 -134.503810339555116
65.294913576041367 -22.285639797721124 -134.196593860378357
-18.701523787883659 -107.651137875577945 -135.231995479922006
2.526539496350587 -84.989053749999186 -135.264447735976205
-20.451952050919754 -108.134182429421600 -135.800687236477643
3.956039674070466 -84.911776490916466 -135.565791977447390
6.938618495977801 -80.556440319246221 -137.130984155375586
