# This PCD file was generated using the MATLAB® pcwrite function
# from Computer Vision Toolbox®.
# .PCD v.7 - Point Cloud Data file format
VERSION .7
FIELDS x y z
SIZE 8 8 8
TYPE F F F
COUNT 1 1 1
WIDTH 803
HEIGHT 1
VIEWPOINT 0 0 0 1 0 0 0
POINTS 803
DATA ascii
-33.054360039291765 -106.568503551425536 -64.407928495360395
-8.280470838638029 -80.839333978249257 -65.748201305824153
-7.027104460322551 -79.897224244292488 -65.859435149401719
-8.040458627150722 -81.819387580219512 -65.251000816546266
-8.851461935351114 -79.399262544644984 -64.477133451922711
11.855689068961979 -60.443322080600758 -65.529615750809469
83.447669289194437 10.972171078833481 -64.924308899336637
-5.135396369610709 -79.381239119934847 -64.913121255586177
109.924180248025465 36.291138824393826 -65.512101364117044
-34.652150352699699 -106.374841669442702 -64.811556953604196
9.866709660755784 -60.912837444306106 -65.678253936688293
81.639058731393035 12.613805483388159 -68.228796307943824
83.044094280588169 10.563151978408996 -66.555485615025233
82.177289444701103 10.872247141222736 -68.569808846249131
110.393178277038970 38.316183647637608 -69.157256263096073
83.427622424632574 11.757900488344388 -69.137103739343644
90.498230676226072 18.267415199411513 -69.588245291224368
-32.768490323120538 -105.483534225516834 -69.782905940988968
81.731412524014459 10.960857662796236 -69.405024255590916
87.472006500865021 16.469029891238506 -70.291857032002596
83.662192037452314 14.660027249571185 -71.477542342587370
86.097178540001636 14.397975667778484 -70.407867564275364
91.234017260579009 17.421461866319952 -70.489617544192242
90.250262231975867 20.133953141541870 -71.723521845102354
92.467033041826127 21.010713587651516 -71.334660208190641
93.963372574284477 21.613387091586571 -69.803261194153464
110.760498297279455 38.152398441629153 -70.974493971210279
84.665979866148248 14.365946508508731 -72.525298110565529
96.348345213750534 23.838405438146470 -71.988738493160454
97.767920511543664 27.443285921240964 -71.386750714742448
109.745059802600608 37.131876909429906 -71.669096314486112
84.870432009718741 11.384439673926806 -72.916749340322824
83.235431730625535 11.963185631407146 -71.580587658943770
85.771354478395935 14.322414398161571 -74.316606413212710
108.968374933651688 37.135377662751743 -73.435870782584544
-36.171600283297607 -103.611047862633114 -72.933152916160537
9.186319252861018 -61.383142857873750 -72.107998344430939
83.434876526650910 11.260349495981528 -72.850547305853070
100.714920911761169 26.715675942988625 -73.830208618431541
102.060956317230364 31.197201796258781 -72.714344913698454
9.644969642347867 -63.216515384789048 -74.098349435201598
110.221395714868393 36.238025428304226 -73.831106672612975
100.121670012877857 27.599144810670580 -75.103370622389619
-33.967559445169748 -105.148811659582861 -76.257283071582293
108.279848382143371 37.022861261382523 -75.146033193776105
81.354321890782472 8.302750288288017 -75.117784729221057
101.987514351307539 29.818597958874310 -76.306053706358384
102.756819701800254 30.740707496461148 -75.530622071024538
109.223890479486201 38.111953132101348 -77.423994067214792
-34.409264984157787 -105.721503732015378 -76.531200202732506
105.813031270962881 33.408355118037107 -74.876980641341177
103.692244445759968 32.780712113878835 -78.020924761921265
-35.589035649180666 -106.713202743518025 -76.737096739765590
6.400274407072746 -66.000152968449100 -78.286084516129151
79.518707711030743 7.919891753249317 -77.415692111313973
104.734259271034773 32.148104864617402 -76.027417657445838
108.931759994945637 35.037015397142589 -76.036525324172999
4.409963998939644 -67.726691412381058 -78.325279839143846
107.009142681063437 34.615126186655004 -78.520689816588373
3.227240418843387 -68.609784763450889 -78.797445815805219
105.466484717881158 34.348510802491447 -76.894725128033414
108.329046729758758 37.007702487393679 -80.142237409808246
80.375228183220869 8.805656894436215 -80.688369716687248
79.226363288365789 8.768860917505627 -79.363534920660229
106.037332779776520 34.969860214583967 -80.342011803533907
108.904232601329042 37.062003327395097 -79.271755548843544
108.444366563120383 36.887356837894295 -79.875377798701095
105.693230225415661 33.080957291733988 -81.328058129826616
109.505996510007520 36.745602209716857 -81.943291770006439
80.926430181264251 7.981979176989986 -81.842714735569530
107.312209161975360 35.021048041333451 -84.535396987998595
110.586095877092859 38.056475766029344 -83.597907348215642
105.641295090130725 33.624247979620691 -84.639649844412176
109.648510451958956 38.686224680291950 -83.120840087624444
-7.641078556745645 -76.200642606039935 -83.303197285584616
111.571971627967102 36.262480688698503 -84.926156885316459
-7.984440787716884 -78.846756111571295 -85.533058872844691
109.268813776401828 37.018975058051367 -85.299545158818901
-7.026330542888171 -79.380738422543573 -86.988251964697483
80.743906258909618 9.659167464423939 -86.499861353075261
82.890649181085962 7.575701257326585 -86.846404540512410
110.187811758376355 37.018007996451210 -86.654711837491476
-9.462437187762397 -79.165412586480358 -88.224279355337984
79.622788773786581 9.666081757020400 -88.648972616995337
-35.413171071916850 -106.399333458764403 -88.487695745404949
81.415667467892561 7.598391392348579 -88.284202049256621
81.547701320091747 10.601136563088769 -87.714933372277429
110.860155431050771 37.126364559431160 -88.513513166236052
-11.141858260481298 -83.322330103856658 -89.707991374385529
106.865213903980901 34.575783814973725 -90.635016360266164
109.493893049237457 37.460859304791072 -90.421201885125015
109.980234494915308 35.999670446104439 -90.980197800581266
81.396707759769896 10.480006493554471 -92.542630665921919
80.864332041047930 7.571477667278479 -91.843077246926740
106.773783192149040 34.416646310229893 -93.041787710784888
108.585680330525577 35.209649788113978 -91.449812812000815
-33.078080108201569 -104.632983207573417 -93.632812715170644
108.483085766377812 36.009319312848049 -93.939951024820957
-11.737529603820176 -85.006053842337593 -92.971088122759141
-12.915843171009463 -84.890503517127129 -93.973355059499397
80.899148709215581 7.579718310146083 -94.865503637301316
83.070026776334203 11.296857159460600 -95.347969319406673
-13.464024413279436 -85.768959395205002 -96.935253998917943
80.794786990413130 10.278015076690272 -96.309322836763428
82.070582749667082 11.214923493594942 -98.096306267057969
83.499434210132989 14.227512773063230 -96.460318681197052
-34.317833825692027 -107.072197434634390 -98.558958521970780
80.939194301653544 9.937389166832334 -100.448356417246558
83.425170252846669 10.778274918910233 -98.731796225377565
85.137761002604279 10.229365867698387 -99.217634509173635
80.385880688054897 10.278816750166277 -98.819752685516733
84.520501590647754 12.197757893730559 -99.137220719498018
-33.878311586325601 -105.972431438714707 -102.140468784045964
83.762884040866624 11.396496659449559 -101.636039418031984
-13.471407929820195 -87.820064342246312 -102.576350247298734
-33.451175280455381 -105.779441625617480 -103.586403592745640
85.372871160345838 13.626042787423518 -104.212964206190605
-9.215101468565630 -83.181122263392595 -105.725424961511621
-9.057337535113968 -79.951059526727747 -104.526462194862390
-7.092730244322106 -79.818809514063744 -105.637005542212663
-16.971241770509906 -87.905127982425441 -104.468313225786787
-12.136474675371437 -85.115478670605327 -106.375811234861843
-9.814511941931828 -80.953362947808742 -106.249766352172671
-32.521256981426674 -104.074991166868642 -106.298536299089108
-12.635056458994086 -85.338466916093864 -106.324543886803539
-9.168096477393370 -81.735349173559882 -104.565111239704066
-17.036237654334169 -91.623736759299078 -105.758064734268984
-14.603818043862930 -84.486320062289494 -107.714761074654390
-33.293670400466183 -105.078380078394289 -105.571765634713529
-18.670703348742578 -91.207943341163144 -106.764145225794337
-11.670711179909826 -81.271685625501547 -108.395346996588799
-8.302886728624568 -81.493144652788772 -108.668124797028639
-17.643356575561128 -92.622073106797416 -108.644964783179162
-14.144348280145257 -84.224630605808841 -108.378700697633775
-12.675235106439940 -82.328607207301218 -107.752308590162258
-9.407661700317801 -82.254990634565061 -108.371874202535281
-12.282953759870503 -85.792561592849438 -109.655085549202710
-9.062936952279822 -80.818295846644276 -109.387175666646172
-32.548037280135198 -103.143685701109021 -109.553006551249581
-9.092614735448336 -80.398647927537468 -110.375044440589335
-11.934520581341982 -82.074833064591658 -111.247579860082510
-11.487657902861061 -82.623393478376443 -112.777245324905124
-8.756189200918477 -79.128821273623387 -110.241331874025306
-31.630145049120294 -105.556823235676745 -112.523441545778084
-9.719771208284460 -83.532922494386938 -111.830882164789259
-32.508859414442476 -105.543629995058623 -111.777696863660097
-32.697144978993478 -103.404824956410238 -112.785529259659654
-23.299540947748376 -93.467112752414934 -112.492940549015529
-9.692887666543882 -79.388842705593561 -114.996858633844880
-10.271991674991751 -79.994534859816284 -114.204615026713000
-31.952522292441568 -104.480372308087652 -115.427679894483418
-25.289200302879014 -96.866926010655035 -116.229802692061796
-32.889212400995959 -102.676666741646585 -117.428484292748195
-29.715206842344084 -101.124786981514461 -117.760450300118336
-26.140926406527733 -98.370869134794816 -117.049931657006894
-31.178254055622915 -101.270081555544834 -119.374952001276128
-27.697834094412165 -101.931865236579284 -120.196490650797273
38.499210975351993 -33.969149902011502 -232.741946180539543
34.245947762118888 -36.545854157854222 -234.751992585013681
38.292469233145063 -33.305986340768925 -235.823657609151752
42.434796422854930 -31.199545562880388 -234.582509981171256
33.148587426620118 -36.658523053401062 -235.136004089575891
35.509307113594978 -36.677077211548628 -232.673751148704696
39.010646640560680 -33.621964127953206 -235.139906033672531
41.097404663722337 -32.283846882940473 -236.176677102739291
43.770082461715035 -26.871811662656398 -234.980114653303986
46.844050548797988 -28.369080906819633 -235.269504910791511
47.890677932972856 -24.164130912510377 -234.707631497585766
34.943238279310478 -40.083679370259780 -236.058039256538336
35.009249872273053 -36.375483228614371 -234.119927981090115
35.882133634945390 -33.370253963599566 -235.274104295147595
43.885407610928482 -28.258881150998810 -235.871343498633081
32.860286964836462 -39.163706310589518 -235.920284927869034
36.896392011875662 -34.226172628439969 -236.265267294839845
40.549332606594085 -30.999236402392761 -235.591208258333296
41.784270761756680 -30.473737346837257 -236.636920997099708
41.010811067124656 -30.005482639551531 -234.841766253623746
47.913799223370944 -24.639372300068850 -235.463226043649200
37.810816864998387 -32.368663722101850 -235.222859056797148
38.894187700154198 -32.700706231136238 -236.903992590571818
37.286300348108313 -30.741914076121052 -236.907598319908828
40.027751815044915 -31.492621273823595 -235.553807747224198
41.449513937524173 -30.096710262565733 -235.666069980430080
46.270144822361047 -24.515819415658960 -236.331315769721414
38.946978748242323 -30.203692759465021 -236.559632992987474
39.811019493479272 -30.721986432636399 -237.191999877192018
39.071131270615759 -32.651961284406873 -237.884390955894958
42.476772633928697 -31.487117860388018 -237.476386763261246
39.631763082268208 -34.448237938150818 -237.133604850138283
51.815325984484041 -21.760974861239443 -238.334415889355625
46.838918671274598 -24.776606939330762 -237.835640693447772
36.723736797682783 -35.722041715867348 -238.649288613694665
37.687369084517840 -35.118710497664310 -239.157929727803349
38.068690955850911 -34.918695060764833 -239.627626089485091
32.929630879358491 -39.094869105982482 -237.742485874000181
43.026533582237548 -29.696002049013334 -239.985312740900440
45.962466742037627 -27.812387013917327 -239.600161038993633
48.148439288497393 -24.121023491818203 -239.513293160754472
49.700479249073680 -22.004584676529280 -238.661303553614516
52.150344588322156 -21.104503885793200 -240.491088346381872
38.145698379879114 -35.673086054329296 -241.745563621194691
46.548561256419099 -23.977820624716223 -239.413916753084038
46.626449129374627 -23.598120810205426 -241.595037779968834
53.915973379294918 -19.485029828906701 -239.859188223517151
30.782822093349473 -41.809315592618468 -240.159744351774918
37.455079351316073 -34.627858923507560 -240.917803758014941
39.832015429699290 -32.417432155619629 -239.726825833996088
25.853576445949543 -45.680643583125430 -240.955166600223436
38.585950046772332 -31.798695762061222 -242.032163645496951
42.164083820637735 -27.766256515286681 -241.012573238209143
49.226660346579678 -21.351028108630370 -241.422941299820053
31.095586086211025 -42.302851381919638 -240.446693290178132
42.282378322685254 -29.128373609126612 -239.503299960813791
52.423906597296266 -19.879578519049897 -241.409494122001547
54.162305528758715 -18.190928860553846 -241.310343175916529
49.732422895034695 -22.766668024648428 -239.696109011967252
49.557436631572607 -22.118409182102710 -241.915133765835890
50.330390187447406 -21.667905248008193 -243.099965517859658
42.061730345185197 -31.000894048632745 -243.069361089848400
48.156889441296507 -25.470677858369704 -241.830523453196378
53.587476275205269 -20.152392256668382 -240.265821339496000
29.193966556613198 -45.318831179661998 -241.952969619823762
49.443875758871641 -25.097557305834155 -244.107122269745759
51.812946275165025 -20.485749570565140 -242.109111123106487
47.721467541718702 -26.557394845075944 -244.096333030742585
26.379403610531838 -44.654822101862941 -245.236561561031692
52.899171383779830 -18.819824343132780 -241.282720535315747
54.860925917835921 -16.909992012167770 -241.382583240316933
47.349352372320276 -25.355376598937255 -243.273949966714326
53.132734879474782 -18.149433297903347 -243.407094264713834
53.984251238695478 -15.221997263040873 -243.843138104928727
53.849303273321873 -15.635096805489191 -244.863516630649883
28.231841897469749 -43.255376621785992 -244.051555733606961
52.766184430836127 -21.325315744280680 -245.538576268256293
29.808276189819008 -42.399793575347616 -244.482028164910730
56.539952773840987 -14.779500392485490 -245.889495608665385
45.538929768189789 -26.570425535276495 -245.003135606057413
50.820261749786013 -20.942732094868468 -245.761004335678109
54.428696221728678 -17.687692463474338 -246.446520118019095
27.941401288779780 -44.643871167040444 -245.742655658675289
46.881258762088848 -25.901425922065545 -246.101902617028969
55.143514590611510 -15.945872454016904 -244.916126289187872
59.556904636291719 -13.993614464714197 -247.846733107108662
56.927188955417932 -14.916990232591960 -248.118621922425518
28.248410341174989 -45.544294602007120 -248.053349003820472
27.598057865427791 -43.423174093074309 -246.728871473885107
27.224217353375199 -44.587279407804722 -248.039860125728211
27.984732641801482 -45.131459735091795 -248.768532265133871
54.023692961299453 -17.607669079686683 -246.943869816941117
57.194396157828940 -14.319261096520908 -247.321897371049431
28.201585435131335 -43.666780710682197 -249.388073428589706
28.994421083034421 -44.676186438643207 -249.329920158856936
46.256531595094280 -24.650038847884552 -249.789506894197842
58.266853951510718 -16.175832764989380 -247.822795032922699
26.622816674396493 -44.968135827441650 -248.229483761219257
28.360952503743082 -44.235497839323003 -249.756457166513911
28.219390333783181 -45.100698186098654 -248.711843793151985
27.310096380142884 -43.472635714849119 -248.305745280990237
43.584083240219279 -29.142741564512225 -250.323398173984856
56.003669980135840 -15.900758787629467 -250.576257132466424
28.019360424089921 -44.661871360224495 -249.188531036081542
26.101431143604682 -43.340662630862020 -249.099461561162542
28.805769523734526 -43.854366691226069 -248.041498582355928
39.672649675752361 -30.360039622220881 -252.317516544470948
41.486391866565960 -28.825725903407530 -250.229391570028241
44.202302562605482 -27.926944090505771 -248.241007685074067
60.091056796699888 -14.079928388244976 -250.492053309696274
26.655776717022459 -46.597706142349807 -250.590615972451701
27.167318769997912 -44.655672025293924 -252.594373575734267
55.340967316084104 -18.864743075109804 -251.138040937091120
58.922794756890355 -16.553827211256248 -250.562778382662827
28.062412514130937 -42.692121937511743 -250.866202572987561
40.727424387104328 -31.306480256711261 -250.732884275647621
43.795729676971263 -26.658452766267761 -252.242915347564377
28.680079418286812 -45.103199354341903 -252.544065821603169
27.104846889988281 -45.673347656075606 -252.569896918745428
27.406818781554676 -45.957332396400830 -249.024956433943203
27.042945097403699 -42.700803649297747 -250.194933994579969
28.692971018011544 -42.221105017395757 -251.893162701644968
49.379633041642123 -25.117859588463631 -251.133283599695886
26.019503735040466 -45.078397228910703 -253.226972886515824
41.490344520074366 -30.748490074071238 -252.810170345813930
42.723798767197358 -25.946093691397323 -251.925978311224384
45.246368428289799 -24.794682369017742 -252.202019164933802
47.988786004564666 -25.005619312634028 -250.898153483085537
55.052851854129493 -17.677194910247682 -252.328296087989287
41.983769098954618 -30.779016351872929 -252.548327300029115
28.067729322102995 -46.257472443767064 -252.869422547783728
39.676521074071935 -27.886942857291903 -253.437749114409741
56.833186980926222 -14.496642709971189 -253.153611282684381
58.208312982225159 -13.939601159474597 -253.419806186164266
30.773630656345237 -41.405205307130537 -254.064082514732490
40.101458584019625 -30.655333622825619 -252.584946147829271
44.510685003458960 -26.151538764133381 -254.602505015373083
46.257823163499374 -23.595076523212171 -252.300260448208917
42.907695559035858 -30.314777318085333 -251.999919464257204
45.446190210248140 -25.202859593103920 -253.026907695745905
47.707562435716767 -23.780552557096112 -253.341729489766493
48.305587543064107 -23.367796232678689 -255.232450368766251
49.103615647180412 -24.030843041733757 -254.529155444008609
57.136721668079048 -14.906310829844969 -253.209527922240483
28.840582796637069 -43.933115454101738 -253.263882218505529
26.384222320172714 -44.824584906121508 -251.965109380213590
41.520337511837035 -28.857159107064220 -254.483506509409779
44.037911574294675 -26.624496908585581 -253.512907716763635
55.518323347692252 -17.941136319608578 -253.458133841370142
55.087626226982493 -16.917267135810096 -256.163441595851054
30.032583973881930 -45.343192208612507 -254.968963697220829
30.464892275489888 -42.483544266315711 -254.822965947995328
50.161277846887550 -23.973446091816633 -255.001356306121920
28.672533229244589 -43.837567658775008 -255.574874358629359
44.426502910296513 -25.893063851150512 -255.594614614412080
27.744488900574677 -41.620055561980557 -256.199441634743607
48.813152617064709 -22.815864334792622 -255.908243367825719
30.494869616152457 -39.136029224900383 -255.061979745076826
41.882283293993446 -29.753559158886279 -255.490419160114755
43.854401304474010 -26.130621364902463 -255.525559428226984
45.183185866493254 -24.876553838759733 -255.704509352841853
54.621872142069691 -16.727777481758267 -256.846944287019028
57.827199337375596 -16.292365164905895 -257.208407190164792
26.701741592804254 -45.165096709246676 -256.244302865732777
26.869332738260312 -43.576817936951372 -258.711772471934694
30.663395112164221 -43.740867229037235 -256.782769695382456
41.921497440608668 -28.097717500536223 -256.868186368542467
55.074985570221173 -17.440532080663562 -256.957024059494643
29.243766733060195 -42.029479033318474 -256.934890220194234
40.436879588010747 -32.542296415221152 -256.517903766003883
42.388466217160975 -30.731492366856315 -258.624872586252536
44.601525916465619 -25.711162843561738 -257.369766645362347
57.754651325932535 -15.170227753509383 -258.859789234629716
57.617176006987833 -14.538294142353482 -257.749447532932436
33.520591827295092 -39.801331899124229 -259.497112870401907
40.867102835252602 -31.394982952479928 -256.399453841862623
43.375642316508795 -27.971916830865887 -259.383288153185845
49.506256511459902 -23.026100242241277 -258.926617811643155
27.487392423305437 -43.711784324277197 -259.296933946180502
30.022845964756129 -41.910632936048835 -258.827863860872014
48.491147894341864 -24.623895532015265 -258.970425684895474
32.358086367686035 -40.033096837186299 -258.963783105314405
33.058083253745892 -40.368586576739354 -260.633976564731825
42.739972166467204 -31.014711957596631 -259.377485557152227
48.873798009550733 -24.706797129161778 -257.971129691271528
41.474748948511568 -31.455355279710211 -259.689996840487481
44.504321561051633 -28.205667127760641 -261.190115347446806
46.464904890806821 -24.909855914425485 -260.001495540030533
48.511311445464436 -23.212519429120729 -259.672796813019829
55.425768236855255 -18.508259776565499 -258.650386031076266
29.456847694729500 -44.291625293822037 -261.660183414198229
56.523821517927779 -15.401626189597472 -260.227446585721566
56.471605998862856 -14.603383292044198 -260.492372817105945
32.054480463432803 -38.715519636735912 -260.307225343720802
40.569505567958252 -32.697910170572818 -259.702558664149365
44.538742258042596 -26.452301744441218 -260.325340945838093
47.205027664873839 -25.144122884405423 -260.227575753044164
29.943008528857938 -40.851190873769369 -261.543674864992568
32.871604812408464 -39.388182726722235 -261.259156282038191
35.768000711964994 -35.965910076325684 -263.095589413173400
38.734293166853760 -33.920892173069319 -261.582372497166432
39.788801440295757 -33.472476788276190 -261.974466201746338
44.932962566404164 -28.190736302301200 -261.381481472155599
56.640809042902589 -16.083828347305538 -262.305940111560346
28.500858332341700 -43.940684438210063 -261.818094312027938
32.153516720135016 -39.845104715074214 -261.780631775658264
33.296394081686636 -38.208078313518037 -261.188352045867532
35.222884014889729 -36.436168576003134 -261.710844080443565
36.578669435759018 -35.002529517904996 -262.618235195208626
39.562852600158678 -30.600484386126102 -261.706087691216851
56.092232292650841 -14.946185879916133 -260.726476766425492
41.820523835940328 -29.416460808624862 -262.841450879459501
47.131167408273825 -26.163323176969371 -263.020163734222308
57.724407000344044 -14.279941131379807 -261.011990484468924
55.904177335036515 -15.355995774785054 -263.284608540627858
35.418605663590270 -35.404510472750957 -263.983851137451552
49.471510963615785 -24.756813974097057 -261.961931323808244
56.719405476405583 -14.791636593652591 -261.624094022144106
33.492632364482802 -38.365594008956442 -261.966383659148619
35.440894392964509 -32.922360565416540 -262.716835211698196
41.362043783888637 -29.016134572931339 -263.237140454115149
44.323798464224545 -27.283534833117074 -263.270121995306511
47.558585796096374 -23.527367978437926 -263.827163619509520
50.016494014451581 -24.058013149277592 -260.948874163170728
28.907870883925359 -41.725184754996718 -264.879408548347328
30.896896609242706 -41.345782295853112 -264.615479825007242
39.859158351821648 -30.067103611117382 -262.858061747417594
37.141429199696240 -34.926990373530181 -264.490804166942382
44.707984345384993 -25.144772226100269 -264.255631884591708
56.507012193816784 -15.992237846027852 -267.004818207461824
32.174364122112763 -40.002348538614235 -265.923417192740430
56.007883091960259 -15.494407666897796 -264.422462418646546
35.041767551417301 -37.963703576897409 -265.124861256968813
36.433635340135943 -35.151913640197378 -265.155261772106940
38.720163492864721 -32.860594023523262 -266.115573981698617
31.087298889925009 -43.221298818410929 -265.760055353759867
45.252849794472766 -28.013071114513732 -263.214976391331277
55.471739603995651 -18.017926275673123 -265.702103808060372
43.085950261219160 -28.546232168238863 -266.539057950294989
31.771284782738967 -41.271164441353051 -267.225054944114902
32.426374628779080 -38.735810058302569 -265.503776926355670
37.794884522121620 -31.464282264345037 -267.287769347082701
44.577029897643762 -26.283815382506685 -267.891452669321723
47.624067118544922 -24.145400348726461 -268.377290614942297
48.081891529359190 -22.700811131095374 -267.336065810371906
55.118688943960180 -15.173460491812889 -267.689384159433132
48.630099210832256 -22.189487618967821 -267.150356194852918
56.440205676815076 -16.938152241359639 -267.514872706016149
29.454711333604713 -42.352867084563201 -267.374010562725346
34.485569882737870 -36.723655612271244 -267.286905752190762
37.234295974809179 -34.625681772054712 -267.556574913385475
42.318086394039938 -28.909195266826700 -269.355518898912067
56.922689983842638 -17.776259227088424 -266.516976273936848
33.670145377306987 -35.862014306680791 -267.213649520350600
36.632370559930628 -33.601050033216922 -268.153817269145520
45.744375560882311 -24.801530594065841 -267.552184644774684
55.083320941892438 -15.105992805956241 -267.422025204395425
31.677122741338820 -39.688840373725760 -268.989271382321988
35.227533182537876 -36.539137233889058 -268.118272094967040
38.497586396552137 -32.816102974929855 -267.881350313358553
42.538552688356411 -28.142859892810449 -270.095602932460508
44.216472292482813 -24.869355677165821 -269.948361271830322
47.286631711605075 -23.539850249907051 -267.162250774754796
31.901796577718468 -39.683932295151379 -269.830205904075456
36.860460931981542 -33.721156437116456 -268.943885351532003
47.615790425607848 -24.546882234393095 -270.288777022283682
57.346053767560129 -17.483125219283586 -268.885451515430020
46.167310452633664 -25.315843198609514 -267.029619006214261
49.154419521762513 -22.820333053542569 -270.482339947615799
52.701468777115878 -17.458637515681563 -269.450533731916721
55.598823809513803 -16.207408778776664 -270.610259230972758
30.940875034335992 -40.701082523578570 -270.148194287607566
33.610864512127058 -36.337970772061404 -269.836973655243185
40.635089039013785 -33.569070403381197 -269.340441773846180
41.324993805449267 -29.222825585565392 -271.924243401091758
33.701937206542937 -38.716784349455345 -272.316888114582071
44.833992452403940 -28.211867940693040 -271.891980348042864
48.896550982060404 -23.830377161749531 -269.499980255287596
53.440864766339743 -19.323357281996714 -272.117525142991951
55.416279080534117 -17.939754461849525 -269.895869068810725
56.076704622138465 -16.744318400647824 -269.842995339515426
56.815349657931300 -15.745335703044507 -273.172891497321189
32.028150508909221 -41.078393768310818 -270.485707303376614
35.782996839826311 -35.261546728978338 -270.494867144313162
39.228243195474718 -36.473963662479349 -272.266335769603643
38.725703914426560 -33.279729574069073 -270.704195719067400
41.525203679751570 -30.340031007864113 -271.021966726760525
47.181427896379361 -26.185009320929787 -273.004688236700247
48.840256991372478 -24.312807993470003 -271.524929772226528
56.167567345143361 -17.170300771152281 -271.838726012158872
56.720155923764295 -17.255332678521217 -272.417824455120410
36.954050962113058 -33.865473095146847 -271.166665821545166
40.148508396094883 -31.155634207431731 -272.656876355996189
42.562024295152575 -27.905587398927473 -271.802877068592068
51.483921690744815 -21.738128053820681 -274.929929320242479
51.599064139990880 -19.701934475041664 -274.104745424987073
53.880903676188851 -18.664529521417609 -270.831803355816646
55.642690089153234 -17.505994819938685 -270.780208338290834
55.451911223419849 -17.220579284396358 -270.966457100896776
32.406047272685406 -39.929583218962371 -273.537704720735348
33.374072428890187 -36.738928417553282 -271.741188826566997
36.937776831093494 -32.233968080029570 -273.952408734527353
55.381363282208916 -17.054112655514672 -272.458623516783405
33.937207125221626 -39.595636303395501 -274.196198096681997
51.608490801177410 -21.980660752951454 -272.831400669226866
32.176103242841421 -38.322440421497966 -274.019191308853010
42.227173668604308 -27.898958659189692 -274.672969628084843
48.604026191164493 -24.861063348353444 -273.852651281310102
38.507094097367343 -32.205699266431438 -274.249175994409256
48.071970662068964 -22.928524183321937 -274.434927272841207
41.230167631670575 -30.858199965281379 -274.056419433317387
44.444485191276478 -27.998002205875395 -274.429243100053782
48.672269625381816 -25.562689820582918 -274.497567654789464
34.158788480132749 -38.066164734335715 -274.769906307792098
44.661209756796723 -27.025379377891440 -274.729317147321410
53.240431201034241 -18.466786921288751 -277.279036300420501
40.270286229072674 -32.794220908901657 -275.098586956990403
44.762976751849706 -26.420034602035162 -276.549652752149484
47.901936195846744 -24.289723016298574 -275.807705957055930
50.346927517381005 -22.581661117061120 -274.709327939502998
54.539640066362594 -17.406709761301148 -274.893612864161980
53.885851220709760 -18.798175603379022 -274.372744115978662
55.974956490926679 -16.086999412658830 -276.376788512694134
39.090081436951230 -31.214748369618903 -276.287213228444102
52.845164268768919 -19.588202741514543 -275.084765428208584
51.623960756171677 -18.997449886439131 -274.984496562578499
36.802991575443386 -34.096148258697262 -277.561454563525103
46.478580072715957 -25.137602449064129 -276.652236463486247
48.448855164360673 -24.816722308373802 -275.931427223731589
49.109640331442726 -22.002196948554321 -275.080111060127592
34.012971986462063 -37.417335006406702 -276.289619462834480
42.709839652052423 -29.164297088014976 -276.109710529858376
44.520516638019309 -28.686446575300931 -276.501559227408961
49.723195957797202 -23.158280561663545 -277.650886021801796
52.617792358174398 -20.187740605547120 -276.723574682652099
55.588540551560740 -17.700148809510679 -276.805168139340708
41.562065767007553 -30.220310013785106 -278.331467737153844
43.474776111778070 -27.538990363439027 -278.581054686592836
46.556802601401735 -23.919133324922530 -278.026572315494093
42.582261600363957 -27.771611225858575 -277.923940527158607
48.442472778983372 -25.169994028041774 -278.679546441143714
53.624164047924438 -19.057300177041483 -279.578468575448596
54.955401008858928 -16.574805452592305 -278.299948746308758
56.189373139541843 -16.506579523616278 -275.980839804851712
45.000063749479601 -25.675718258195644 -275.971936484165383
45.091702116300567 -25.634295502407252 -279.600274713147428
54.023898191891924 -17.323120468167136 -277.124300899942909
55.168006193668347 -18.149006891757374 -278.466591556144010
37.071835884003342 -34.731938973104143 -279.206033589497963
47.619883483412174 -25.311968253346102 -279.830132290125050
51.612775032416586 -21.613804498458812 -279.025518934583033
34.221781103077213 -36.784269146295699 -280.293203126044830
34.613890050133314 -38.266661469576107 -279.662412606264013
43.605570700855935 -27.536596786939750 -281.090350432769128
45.743186523541830 -24.521921682233600 -280.406884886600096
50.938101656471467 -22.394654267571436 -280.326271840443042
37.023519354285952 -37.818958559465841 -280.451698281562983
51.183637243413763 -21.061087114420619 -280.745472173498342
37.903967664552226 -33.531661444340351 -284.970026584370657
36.470609762345006 -37.456342838598985 -280.690369668263429
36.967101064409505 -33.782925401748400 -280.990236491001383
36.854794891562797 -32.567961379749505 -282.760518085088563
51.561517467215111 -19.104326541591405 -281.913207966535140
50.554574539823875 -21.408191226388382 -282.476599192163690
54.035096039612725 -19.403355207303086 -281.171023308900828
37.059574109939760 -33.665761023279074 -283.107465043713773
41.611694911564399 -31.907842058479133 -282.313247426096211
51.092713126023604 -22.232042407695413 -283.279335653281919
38.180256125428009 -33.816533063995685 -282.681446833395569
50.467175737859812 -21.730075976413005 -283.620722510164398
52.688013347991003 -21.135704725417508 -282.543981156532880
35.563991320140850 -35.831609814902201 -283.839277876133792
39.131971299060538 -32.309398150342233 -284.891061330764103
40.341831967504611 -31.130168211731615 -283.338038181118804
49.883025838434627 -23.468785215322459 -285.195833951996235
37.882246939744839 -34.157170543022012 -283.729194451293154
37.639753529956820 -33.045379300062010 -283.703001364339627
39.395605789446577 -31.302712928017989 -284.696149017626965
47.320946336107788 -25.060435681281962 -283.817864792057151
41.728810457168514 -31.500642215046902 -285.927308088047823
52.412848926524688 -20.141740752353730 -284.855044373448550
45.194123201277868 -25.334803727821967 -285.438579872615378
45.932511955163513 -24.414214307692575 -285.253469170047310
49.451992352678083 -25.357600072282718 -286.935487414894226
49.034900789480872 -22.300968481821407 -285.417042314621256
38.018523799697711 -31.765070581765215 -285.762980058027324
41.782609657022554 -30.269934246138160 -285.279707620895408
44.525921274500583 -27.656477217678280 -285.716308852814734
51.644240704796388 -19.513897953253931 -287.455785832474078
37.444426631094935 -34.082761377821392 -284.915956800703270
47.728147173913904 -25.394022939857546 -287.539302894604191
44.902816169632814 -27.697102802989612 -285.610090500989827
45.405706214730316 -25.903948908001805 -286.483925420283924
49.591134769938513 -25.214426679839811 -286.914828100755642
42.404757948182400 -29.212421934258280 -289.275362009116236
38.523583314187000 -32.267811699997189 -289.415925812165369
41.514669367682906 -27.758925292379125 -286.990748034564206
50.386110434665035 -21.343107840410145 -287.827244266875539
44.483076669062207 -26.578616557788518 -287.146915212837314
45.381971264641876 -25.012177751799150 -286.665693517575733
39.880971047053045 -33.749270676029894 -288.542121672750909
43.129264696887020 -28.502900913289949 -288.398308439566222
47.824068284922440 -23.192287636405233 -290.389972256243709
47.744524147176158 -23.187623255659858 -289.373157697995055
41.570168651678379 -31.261964808745546 -290.379991155708353
42.381515830992875 -29.648382184773613 -290.056349555758175
45.218354994830875 -24.491176184541732 -291.997373902197694
45.328460820644885 -26.521658631626678 -289.996384864968036
42.269106730109037 -27.403085083092090 -293.146253864184644
40.527232707269718 -30.853155272205314 -293.476866559378550
41.851048344183631 -33.032073241218214 -293.268152523872857
41.037699150084293 -32.013539905307667 -293.552324194197070
38.546764425471025 -31.517096887831634 -294.663920656823109
40.514603550129223 -30.443260269998277 -294.754712395365459
40.887618476945200 -31.899785520462636 -294.071232886368762
39.723452789694015 -31.299341508483387 -293.553110009752061
41.357618250521156 -33.481161722676859 -293.468875485169804
41.633745004749571 -29.517176884316850 -292.907997372982322
60.198916343353176 -9.528587682976294 -10.428377359631854
60.332195626162971 -11.961536729083429 -11.954167207924087
59.752881561782033 -8.752691251858852 -11.132941002769144
57.886847653496538 -11.864689368944028 -9.620344340301148
62.694060514429090 -8.696155195210821 -11.318979941836036
64.327214238788528 -4.882398823056756 -12.090794573800178
57.018665070820589 -14.048076040188191 -12.854775110543514
56.920596953702500 -13.339331938722939 -12.620673415756730
59.326377210025164 -10.588566200295556 -12.572642210348322
64.332854288573330 -7.361290174620935 -11.994865508084612
57.051176842730683 -15.249677161186074 -14.508944365064160
61.276354309015005 -7.076946383879617 -13.161169683878528
63.777274167626722 -4.123547852616650 -14.210355045522697
67.209872335909537 -3.562032786834743 -12.410962704833114
54.060639379243817 -16.216708666539539 -14.556182938344605
56.155006563407369 -16.242565793488676 -14.074770389245732
59.921648988065549 -10.220348439454828 -13.788603379142247
62.046029210571156 -8.460070851086748 -14.841298416045628
65.684961883639929 -5.402615004517750 -13.573644921697271
65.237805715024905 -4.807059244146829 -13.098234042836165
54.757877009996285 -16.421269059007972 -13.837582566283009
58.762049808817309 -12.549665162243826 -15.991069269862734
58.016934270291067 -9.946037778276196 -12.245626970616065
60.174124967434111 -9.331121832436187 -13.944053768523737
62.774195432656100 -8.600575413121028 -13.326144938215268
63.450293057765954 -6.500712062684865 -14.013643556404887
67.096508312557305 -2.666885545971142 -14.242448107098351
56.374577571404863 -14.092681210694504 -14.721829811183945
62.988012896035805 -8.349192008844739 -13.446487055155455
62.824616565724234 -7.280006095624865 -15.562309442349431
66.739836289620442 -3.974835292509789 -15.162644704531893
55.982900661726802 -15.030740924611397 -13.730998283746816
55.754898970936885 -15.692559163608507 -13.698777324879702
65.035738408983903 -7.604185615583759 -14.793030311061361
65.326954803597445 -4.615604987700602 -14.131319236399275
68.019767204701580 -2.454718927984649 -15.610331548045330
67.254168235653452 -1.863943476010576 -15.975578787352802
69.125876996971456 -3.037646774261851 -16.507444838106284
55.355248180871804 -14.630385609169487 -14.582922484373047
64.757048460979505 -7.170796993245487 -16.311277817605777
71.030575791719102 -2.674799746594771 -15.525738820832355
54.913441630713017 -16.404942768120588 -15.385768149378247
65.364457677404900 -6.561555513980167 -16.465597553675966
65.273091989188472 -4.323902299252516 -18.384591187094866
54.114203537584125 -15.839925327700779 -18.402031724463402
65.521164262851627 -5.091539176825645 -18.181815257462738
67.144145106532889 -3.550106064236729 -16.655820052952539
68.895012756539444 -2.183952590657297 -17.030178646129677
52.015466058670619 -18.920379013724173 -18.549213899071141
68.880876352460575 -2.662948813950775 -19.554745428241986
70.342950079236871 -1.044108107412695 -18.458608187914663
65.759069680181412 -5.443928572363225 -19.474018518444971
64.977456037283829 -3.649444096236134 -19.653799254504296
67.820616089168212 -1.897851821400679 -18.954804163859535
69.145512278138554 -0.615552481762069 -19.587620712776264
68.456926179353019 -4.188977671435175 -20.349369286754943
68.679259092613307 -3.500793574401861 -18.651864215512305
69.874716177658755 -0.493654764123273 -19.242915629362347
67.108218221181517 -0.576897874743026 -21.557394275669960
67.482363633937396 -4.096110958500287 -20.407982039973472
68.261342253514087 -2.708037356230689 -22.096162205250966
68.876823610568024 -2.258449143140133 -21.846336658576178
69.779509600554292 -0.206696577112856 -21.164990429942737
69.029787388934025 -0.675041179794304 -23.020538500821345
70.146998819252630 0.428364110040339 -22.701764694099296
66.571602877116788 -2.595539353821224 -22.660771439842716
68.330506522371380 -3.755144874318161 -23.231575462448390
70.008471714221514 0.034421227398492 -25.146858296490059
66.906136972734842 -3.005792316056127 -25.768557935141200
67.625108846801595 0.522096671553688 -24.373989872855702
70.689235112093328 0.856317576366922 -25.330621557968151
67.737252038014901 -3.714769503884056 -28.439573251661532
67.951058070217144 -1.611770090281318 -27.304444914533114
70.821306608104337 1.422413893190474 -28.175695959387539
69.829886008936953 -0.227424056619764 -29.959520580561964
66.565900200896820 -3.640320595945212 -27.925218919756833
66.394240107791745 -2.140945424565025 -29.869687243828828
67.384010680071981 -2.462494902545578 -28.075695054155325
68.826985265892461 0.676726586919443 -32.825821350213587
65.342890126186163 -5.004845450769189 -30.565801048474533
68.250069595241882 -0.618125090090110 -31.651246598135529
67.710480953933939 -0.033310927848587 -30.549349797091132
67.021653080133717 -1.048891953498924 -31.517988984268101
66.604107403380681 -2.666752865253095 -32.260786423903724
69.422778309197412 -1.615261374847589 -32.585842676893002
66.295916471437096 -4.215404447061363 -33.900591095683573
67.667856931403634 -2.809923953126058 -33.965515567539313
65.603024527993583 -6.666264588145789 -33.163090398750604
55.658034647348842 -17.116136609322851 -33.529076905097263
64.496791253781723 -6.883628851306384 -32.714695198124041
67.095440182944870 -2.414305199878532 -32.802681155643057
69.721556307765709 -3.378584307640499 -33.107827381347178
64.177758963407413 -6.079614064524808 -35.139812908983899
66.952456297954683 -3.016175501800187 -33.698665825694377
56.687712475449061 -13.298138461367627 -35.662275600113709
62.752946685401682 -8.432643736633437 -35.358142851621857
65.561202517985080 -3.191542339204253 -37.048840704328043
67.286433485704649 -3.128048638157315 -35.456239407959735
63.285483554457457 -7.083551103103789 -34.538387568871570
67.092404500028053 -3.872362583038861 -34.564600722462288
61.234234409538992 -9.490909967922448 -35.126828462484518
56.008753207966386 -15.420639972340638 -35.473806325740178
57.571671972030892 -11.448045776993606 -36.967986302534484
57.663483431380570 -12.086551263826403 -36.758764415307070
64.486498916221436 -7.093606081481610 -36.142249675827152
63.877262663634625 -6.861594038691305 -35.509455817347224
56.284811628661252 -13.265892281444199 -35.880150263150448
63.483724169736696 -5.062128521119310 -37.312630695305316
63.351299798885890 -6.256886129628848 -37.414437115730045
60.549174785302000 -9.123241412144960 -36.967469077198594
62.544033857743081 -11.980541650538283 -39.074995444053918
-15.136880635058947 -85.036531957778323 -40.664067261681083
-5.292398340139335 -75.757148489964521 -43.718797653595061
-23.685504040811679 -93.726790111713072 -45.466745679956517
0.143894631756741 -70.221210775971201 -44.643020150641497
2.788203158951520 -68.269296667833714 -45.788563196732724
6.411363048161346 -64.274957769470461 -47.316996302951459
5.962479812902815 -64.422596018712440 -48.696730729435522
8.805553277057092 -64.059051493455144 -48.591509184741788
7.417389873917996 -62.500886846559851 -48.345080730054441
12.822737618161373 -58.910257907731662 -48.684503644299021
14.824718527894381 -58.192152468181973 -48.862857362022062
23.731269583170477 -47.363235397423246 -49.374853863749884
15.597983092619886 -53.468863516247765 -50.325930680923911
27.351129644694570 -44.076063117927994 -48.736686594739361
21.108634511672729 -47.728127002987542 -49.621142373012674
-29.047551871066560 -99.475173154788209 -51.218771457757995
31.087067630781810 -42.359959068363857 -50.451633433515674
28.546597476773904 -40.294432149566475 -51.716862937292390
-30.168254145673430 -102.815177091456732 -53.420577014293436
-9.704146704014462 -78.598916100241610 -53.485490960910766
-32.528362377677510 -102.831131289622249 -55.443974967728735
-7.569133944988798 -79.687872736986407 -53.114350607826061
-8.866931879749146 -77.894682019413125 -55.635269772428288
-7.144254312992430 -78.258245594547432 -55.599421541492426
-31.778271942552351 -103.833792086256281 -53.550753658690240
-32.110872166033509 -104.725626622504393 -56.508857801904952
-9.845682155032996 -79.363488648657977 -56.117105431821798
89.951277403387422 16.688209850558930 -54.792325516156218
89.674685736054442 20.339433039124899 -57.051256490307161
90.969411183339190 19.570572516231220 -56.137822750308054
-7.290499680752561 -78.192026037637689 -56.760004967273780
-31.667776653480534 -103.142857292493332 -57.191535196181313
28.734147490822220 -41.193664268300289 -56.972037703446318
87.482966637546383 14.928572796426087 -53.906103620534047
98.191799338876180 28.340445520990585 -56.434032560253506
98.659274723467576 28.665411117921142 -55.102842899621344
94.661606284004634 21.735754877258561 -56.575412308956842
100.484457558230190 30.733940035639964 -57.246384109001276
-8.222852255497322 -77.886744207829167 -57.315183244252971
28.697801214068804 -42.163248407594978 -58.436839079259379
87.296240580315981 14.095698625705976 -56.916006628031361
94.861573450577339 23.565466965045651 -57.452126568240629
96.454360875468737 25.792795621729830 -56.996601255606471
22.206519797234744 -49.072434219972827 -56.811827392823005
-33.341861417344369 -105.069261266313177 -58.445210472855088
-9.943955753060781 -81.537093509588971 -58.140731852166631
-8.919646052924007 -80.279199543255288 -59.690833655260469
-5.971176529593603 -79.817353814133966 -56.155110192225081
20.265382104069772 -50.848092168686890 -58.677080296349331
18.300474603410525 -52.166342056772770 -59.597851700988933
84.661118059297863 14.483313858832959 -58.247481894341831
-10.590271483725077 -80.046481686337842 -59.018241067539989
-33.280182915391897 -103.835389910721133 -60.249929377548419
105.561719232951845 32.929761540046457 -62.216434934913821
-32.419796858634399 -104.021828226368854 -60.167527964843806
83.326949210481516 11.808650736084836 -59.882950676345224
13.978969299398200 -57.327865711071233 -61.950567115384047
-8.953450962062625 -79.387678732937175 -60.348356209416011
105.441340217628820 33.868597611818011 -60.551199095203629
13.715425715226594 -57.787432661146887 -61.321569871522293
82.890060467286531 11.303549029030911 -60.637145537470253
-7.657036595533024 -77.773489657502779 -63.019078338169564
82.339133591626180 13.393318030342719 -62.425655700307146
10.851168223841794 -59.412229366904718 -65.295631461253521
105.272169231364586 35.404090263726992 -64.529825106384891
-9.939909619351244 -79.223969671783379 -64.304182450413222
12.066337970088467 -59.739435553302386 -65.566859555955546
84.484195035004291 12.457440517481004 -65.227986744912045
-34.197443473559261 -104.073594814187047 -65.194175087480261
107.136542299591170 35.070231013488929 -64.668401329398620
81.233086075243691 10.822507352536094 -65.986459916585076
84.464699098598615 17.359922775383374 -66.620771673693696
108.194565461549274 36.619995120391785 -65.541197259731149
9.765182758979423 -60.750190353470330 -66.979129638235534
80.835224557089006 11.694624510234560 -65.179523426448910
83.367946696159862 10.524590477987614 -66.879176233201562
84.340658859166894 12.436329241831467 -66.970894052754772
85.845068588378567 15.611358281463085 -68.670529834074514
86.113338066503900 19.570213278756654 -66.383312072733162
91.003147198540020 21.263301466343808 -67.440200845779884
80.542226413756097 8.969125486901842 -67.687925915604623
81.164193045444108 12.603449071862347 -67.112014314838589
90.230042227913941 18.412866707455869 -66.474357251976386
82.632768539756384 12.190939908493860 -68.955179432825034
81.546126677131411 11.501812270604530 -68.622160674453653
86.143466826300156 14.186500873577037 -67.140766182759222
90.026019478922819 16.245908481280175 -66.860281718549246
89.363901402764981 19.427470505844511 -70.044782040757184
91.451945296897875 20.068459026096644 -67.398869621636265
93.840501958575416 23.733767650227641 -67.875482189614829
10.045799126994840 -62.781256783512141 -70.358236699242269
94.725497933167375 27.552269572515602 -67.450335214961584
94.380894019827139 24.690139451808996 -71.239094141073863
96.666060163038836 26.902776856591800 -69.584607633127320
95.884003363518914 24.999685739714810 -70.054115812822758
110.349858537037250 36.876590477341537 -71.728840889929572
6.446909574589728 -61.245739960400506 -70.167799369323831
80.071594424748284 8.907195019534363 -69.638067276057029
80.226830490106437 12.012868301735647 -70.196650728964372
99.830654407919042 28.655378128342782 -72.024483222984529
96.762667298576815 29.873224276519174 -70.321585326928798
81.801287416711148 11.435496212179590 -70.831479769317738
81.445709080685020 12.339823979508575 -70.532587983392688
109.523850774215845 36.570122468479738 -71.230056339215096
8.658991530673832 -60.196714643220290 -72.354794475284919
80.209664954930076 9.496900939774831 -72.084087514782581
99.723607879015219 29.999193021791964 -71.877664334805999
107.706204319705336 42.096808877618216 -70.472147530931437
-34.646071403571689 -106.327481410307811 -72.263419250460657
101.428298690194836 30.148171876163691 -72.721661848638661
82.935087782481915 9.816477681455643 -72.704443208609305
79.284985877398043 8.759446554320460 -74.295960549108059
81.748072307631702 11.191985400135215 -72.590366637235533
105.938332195850279 36.338209161373328 -72.897332075897893
107.643452808251169 35.666120286511472 -73.567130882560988
102.654300512694903 31.589903026708051 -74.184790773982144
102.853948068394274 34.085788271879267 -76.601550221156472
