# This PCD file was generated using the MATLAB® pcwrite function
# from Computer Vision Toolbox®.
# .PCD v.7 - Point Cloud Data file format
VERSION .7
FIELDS x y z
SIZE 8 8 8
TYPE F F F
COUNT 1 1 1
WIDTH 793
HEIGHT 1
VIEWPOINT 0 0 0 1 0 0 0
POINTS 793
DATA ascii
51.761562782080659 -56.940227981891177 -219.887531153510480
69.356996026179687 -42.664312294868203 -219.820077413270923
-51.705939229602365 -159.598535822760653 -221.957534959938158
39.505938015275348 -69.468750465918120 -222.815676390159808
49.649794628542821 -56.553652502095154 -219.933635299414362
53.175548398831594 -56.496777441727112 -221.246782180097085
53.368234747088088 -57.045688920504404 -221.754217923559480
52.360945743298011 -55.970269899991251 -222.141297230519598
56.483891816017056 -54.027127815917844 -222.097580551477392
-52.420043465704836 -162.162227289511463 -222.487768931161867
-52.673322900771495 -161.181652660715230 -220.585963751428523
-45.453137841187811 -156.202126658462731 -222.242757680048101
51.081358372524626 -57.567760599211553 -223.224188425540689
-52.372332284182974 -163.101847843623972 -223.025476850163074
-44.713547658557594 -156.164381474435686 -221.547097441844187
66.522505717024956 -42.549534155019231 -222.773186476608828
51.607840269135430 -57.093194673553242 -222.879581062780233
-42.595443132410672 -154.782379889795266 -225.648055030468640
-41.006910927846491 -153.492351018374563 -225.912188801135841
54.294953957270096 -54.416392162501843 -222.671233814191226
54.040637544878287 -54.808147082533289 -223.534600567937929
64.538472120617669 -43.025008190216163 -223.264732509320709
60.867963300612935 -50.239379819106588 -222.998040011813316
-53.389708855808649 -164.729943157235482 -225.540404478880021
-48.715734535536356 -158.301149221936925 -226.321747984743666
61.675543914627440 -46.683674745115766 -227.092589739969497
69.491419916014436 -41.821236735021081 -226.774176220748757
-39.547992231823535 -149.844468382099507 -225.842827943511821
57.992930888453124 -52.582920809879809 -225.849634322321862
67.956962619700363 -44.237087775904278 -226.402882981502245
-48.504906932188739 -158.788171540405926 -225.163335213498215
-40.796775013011604 -150.129794274993372 -224.875780332515802
-53.417085131413266 -163.611823083004253 -226.406286220264690
53.627658713738668 -55.026692591654438 -224.419487562957244
52.818932809291184 -55.947617361638237 -226.388278051034803
61.889498514066965 -46.341639529915554 -226.584797171572490
66.184250574842238 -41.730351956625469 -225.811873024397102
-47.892035623339645 -156.887615210924679 -225.640910504002875
-40.577373037546849 -149.686943812993263 -227.135841862392340
52.966591544382361 -58.120103476283958 -226.469245191205829
-54.332345449926812 -163.838937448866261 -227.290594181491230
-47.840076350342081 -158.202742688154984 -229.048699189865772
-39.921738017788009 -150.413937799901731 -228.296626968900910
66.820600189610388 -42.020931148697734 -227.803993114057135
-49.036068940521034 -159.844232575508244 -227.678861362911960
59.094546317876826 -48.949122932848738 -227.893225636872131
62.152839752441665 -48.190830514974799 -228.024449817710121
-39.962083891647197 -150.254987413457570 -228.659149299526604
-51.955534257283652 -163.755594910679065 -231.028662695123785
-48.653478456082517 -159.437252779565767 -228.936836439784429
-45.428611164931510 -154.608162665051537 -229.246919107350863
-42.049540010029887 -150.814169792397649 -228.511418869527830
54.281819776197409 -55.310507735826690 -227.875686208170094
54.034730425187938 -55.048525991317049 -228.086721772662827
55.753339731863427 -51.103019663580461 -228.025170950608924
66.626849915761824 -41.875346421522529 -228.538471875988847
-45.563840597235107 -155.717273972289917 -229.489462763904186
-44.454883641106356 -153.926073474092448 -230.664781394099748
67.071152425293633 -43.430935886391147 -230.001977358616898
-46.444641314650127 -155.095642461857040 -228.293199014372817
60.551386483226935 -49.317282985698839 -229.736422151558401
61.744269555996155 -48.000121110516744 -231.564574593829406
-51.948368676204588 -162.056909971056086 -229.579208449651077
67.340664217140869 -42.477208077784475 -230.452112562750926
69.219809866666694 -41.723841577367359 -230.000638320028088
61.069857175100736 -49.415988884506142 -231.657880780006963
53.107224987137329 -56.742026348034393 -232.744058121417879
-52.196478245466942 -161.618750677762449 -232.986286427321147
-46.279150877949533 -156.456147084142486 -232.712328855464108
-51.399932447488219 -161.497428125211968 -231.938416512097490
63.524913602402350 -46.641621871820739 -232.409880812501598
54.560772768914731 -56.113037711589307 -232.845717586578871
61.089566061129190 -49.010275168866372 -232.576936231839881
60.504121766116285 -49.568851452366168 -233.391768456283614
-51.135750932677254 -161.026515075556432 -234.310839644192043
-47.507136934978604 -155.583827415189205 -234.757826731231177
67.279518628412589 -40.331977907956073 -234.381779354970519
69.207613247605764 -40.997585173883024 -234.738866530567492
54.630575888116319 -54.483172241831006 -233.740371039420040
64.426815862362545 -46.305947897327570 -234.868289234682180
70.183959430306984 -41.334728811534397 -234.453649393425223
55.796150331386571 -54.539842228858284 -235.060942239789171
57.262960532469336 -50.203695614273691 -236.255341920504691
-45.074329802059850 -155.987522851419897 -234.443312863418441
-50.254520706112658 -162.669231192998353 -235.892364483131615
37.863788231701776 -72.681211255806943 -234.743277501204005
68.231499925150686 -41.874697168177114 -237.717819598489967
36.595299050045284 -73.221468225188374 -236.447602365369846
39.441214790346876 -73.028235509553397 -237.531686751447921
38.253914809532894 -70.564417506388097 -237.622886505634114
56.210853403881458 -52.454584804881975 -235.219495292413228
59.130922592396722 -51.317518877133047 -235.495993241099683
58.788818850618810 -50.158767615619688 -236.497211156171062
31.691057210455973 -78.853519613740701 -237.433973593509620
37.401586019819923 -72.729526318208841 -238.973567799769654
63.280238003823115 -49.271967836291282 -234.849545119843668
69.008118321749549 -39.675804264411859 -236.022557778649684
29.053702856541186 -81.884502458291919 -238.385987453616991
27.026650520340336 -80.689527424009214 -238.053828070228320
38.017701160109738 -70.550630760357592 -237.700391619836097
41.614202734875093 -67.356223288774501 -237.986684528447626
-50.637274277319115 -160.415930919185797 -237.073788384246853
40.929593476047224 -71.237170674681821 -239.075914535104090
-50.925854535955580 -161.616919899176082 -238.333555067680294
-46.871586741825482 -158.768826946002491 -239.401115510396210
60.063934775721513 -48.353728760454828 -239.248470494078276
68.142534800091553 -43.072467498066040 -238.167056072267059
41.223249793582646 -67.838660053374909 -237.636911319301646
-52.175658607153153 -158.613526122850971 -238.320375309332178
38.866215595140176 -72.136465229070495 -240.125066206351079
38.508530054454518 -68.781900899316810 -239.646097114545938
62.393983258716545 -48.526921023438291 -240.306320831246495
18.836953070389786 -90.033313520434334 -241.170549992234157
37.770980317426606 -72.610994387417378 -239.198244877439606
37.756356046826710 -70.040506474222639 -239.725509416184309
62.420957300360378 -45.041819653575146 -239.947598956219508
68.359512581964424 -41.460954352804059 -240.255873501264176
20.453381925570618 -92.755255980563732 -240.493855832816052
15.612798976287770 -92.270967765493481 -240.922398319610124
14.350126348685228 -94.871537010647401 -244.313729251556964
30.392814747659912 -80.152101793810218 -242.119131666731221
15.940237008975860 -94.677823332328217 -244.069205704876424
71.151745081730937 -41.202575086545025 -243.653272167627762
29.125558786066488 -83.149685709073268 -242.274324038447702
14.428322125770563 -95.144072311822526 -242.396293529181065
63.433278246743043 -46.250022049558382 -244.748561486325173
-50.580257120087822 -160.489808676486376 -242.981618392116189
13.479379452572397 -96.980985663121714 -243.297240084142715
14.126115743571903 -94.584054990515313 -243.938294018618194
15.323811230688653 -95.078626610531060 -242.507533290156971
58.604659484758535 -49.722661974506750 -243.736743182497179
60.973905023018546 -52.139521940643093 -244.099881692902272
62.246780664890878 -47.358624719811793 -243.983077140273082
69.186522230413615 -41.620368826506486 -244.090476390523207
-49.616551074282647 -161.102665977892030 -243.664931420283239
-46.831644686652012 -156.850039659235108 -242.922918645512368
20.599503136662296 -91.063463919831065 -243.171266670574084
57.145104544409442 -52.499816246545137 -243.835920777063990
58.153216713593359 -51.660973825303721 -242.156146450194996
61.387269148939055 -47.817348757102323 -242.982951265859015
63.520169756947091 -47.509486253261791 -243.339090873246647
63.054166358710027 -48.186822750327025 -242.646221715564792
72.401555824408035 -38.837048483052953 -244.161761168965484
-46.861414719443935 -157.046615114631408 -244.896077389745045
17.223040155500453 -91.499501566812555 -245.703166775368686
19.979877859652252 -90.440647324653071 -245.056742493152399
61.887319611223660 -48.938776902089117 -244.446364513937908
11.739501233981409 -97.538618403431187 -244.344446915648888
13.212872963660574 -96.012174498565699 -243.996761283810145
15.149214993777949 -94.024581719540166 -243.789308215397028
19.148648435278844 -90.142199278562487 -244.972786901171020
53.323471785691858 -53.942033865389668 -245.052285875786765
55.369207412000108 -55.032513051638780 -245.487892795881237
63.122537428794843 -45.119614381092482 -244.988276382190151
-49.369686098977965 -163.108329159507036 -245.615873830907759
14.728544638914464 -96.770949357260093 -246.285716858591258
17.281598553046429 -90.673592207367236 -244.447255836897028
13.278882766796334 -98.369380539460778 -246.453223996861226
14.087575692266975 -93.792667537730225 -246.159878557405932
52.719115670702607 -57.416324818171020 -244.484003283361119
63.692246041448307 -47.611566022686958 -246.441423448693001
70.666288677794029 -39.233732884187170 -245.837039828621783
11.249752720772040 -97.291983395699447 -246.189481820515937
13.992928125231575 -95.722347106019285 -247.808251679596623
13.648072266785212 -95.307479782816031 -247.178429499326967
66.015426485740562 -43.474756253224825 -247.621242197877223
-50.589053778835130 -159.048485172686640 -247.498967809771443
-47.487349399859397 -157.227557945577473 -246.757241333443005
64.296266798389127 -44.623240551750932 -246.107424089144700
65.236529019948051 -43.384251004774939 -247.955739229099805
49.827158717241112 -59.867232932747413 -249.143044611673417
65.567026221361374 -42.877721129921149 -248.701769178755058
49.259791843849861 -59.599983868954602 -248.548108893417123
66.723603070039189 -42.368703697050670 -249.934371543470547
-51.300849191757294 -162.122241918616453 -251.469235355911508
48.094101698882447 -63.109037242545128 -249.105228763896179
-51.565263945936977 -161.131281120008111 -250.926418499364473
-46.508405766459887 -156.379887093772140 -253.300781081589236
-51.895860849431280 -163.068542628541394 -252.081734514521742
50.151298182924570 -62.042279356573871 -250.369847174020236
67.825275689638687 -40.353149495518117 -252.563001995830973
-53.780910285810940 -162.887801639000088 -252.203406052688308
48.313997736221495 -60.962776317675399 -254.711189242891294
47.862085795924209 -62.682335623322231 -252.876764179176945
69.851421746265359 -41.313602571017817 -253.932134310029397
-45.591717836066771 -153.052140623511207 -253.645180525594384
-43.220381198957604 -151.136797049340686 -254.237299246318798
-40.249885034163562 -151.302127612276678 -254.148603070074387
-40.244404541419570 -150.357772090485327 -256.643561928373288
-39.873835738507310 -149.685727930628701 -258.565336680137364
-49.980182296769335 -160.471461489034652 -257.207159028727915
-49.461934004056538 -157.521605673897227 -256.870861906642233
47.365585354961652 -63.494718604640596 -258.357893515655235
-40.044736703151898 -152.462444446802465 -259.166819375867419
-54.360706099270757 -163.547423431911966 -258.760961536083755
-44.723692374113824 -154.218027054585662 -260.892315524347396
-45.353014542686431 -154.359066635003529 -259.407870543552121
-40.574682105437958 -152.128698709323487 -260.395231431329705
-41.892463250589742 -152.568172101222245 -259.407436660652138
-53.304035877347211 -164.014628290661733 -260.986277288814733
47.266556511482563 -62.969526592800790 -261.348655570721405
-51.227793553271475 -162.353471633878229 -261.363523569606286
70.367024236197992 -41.083675312504575 -260.931384582639851
-52.333641534925064 -160.418519140603593 -262.503062523944266
68.525109109806237 -41.478122029163274 -264.164330607440434
-48.037304716316903 -159.169684738890965 -262.400942050188121
47.640334773164291 -64.745965451511395 -262.992972912517359
68.795359781195842 -40.274409839628554 -263.003860149267382
47.490558673178256 -62.342849715891980 -263.732395453491563
70.293151579191886 -40.455825144061407 -263.671764546765530
-52.693595675171089 -161.976768273404929 -265.232004770591914
48.220463901948548 -63.561187510546816 -265.222915642903615
69.615698181732924 -42.729559217236485 -265.623599136020005
69.957784819546248 -42.385956484360328 -266.806448725918074
-48.028221708025647 -158.304287096170157 -270.455974387271510
49.993666200721222 -61.769734244574110 -268.253940274793422
-49.732660682585554 -160.222528692984667 -268.569045232573501
-49.055600308927502 -159.265791668866399 -269.872585202539312
-49.167192464273697 -161.125334578520153 -269.209146910710331
-50.401718147014542 -158.605427550671408 -271.293247297993844
69.558271259558779 -41.208249642721654 -272.422857487810177
-48.800560901046687 -159.663035145744999 -273.387534935417648
-49.146659051873215 -159.677540454031799 -272.866952245672508
-49.036587142626203 -160.075941420867764 -273.223791908301621
-49.189848956776693 -159.041485023949718 -272.693582843383297
65.562491335025115 -45.717853467970869 -276.114644163241280
67.377624937989680 -43.602360834927680 -274.021295041884400
-47.313282381721784 -159.733187164497593 -273.871540886797106
-49.295825300851568 -160.631999410410742 -274.224850586353796
-49.323215175240456 -159.640445154035007 -274.003502843790955
51.970433277447931 -57.173626461723778 -275.739583943806224
-48.767590604932288 -159.134602754196806 -276.907176029497521
65.959711470833469 -42.410101964354538 -273.934742587161054
-47.137260240642320 -158.192037186273154 -277.119453754996016
64.726169663900066 -44.335863479128065 -277.513681693469948
-49.867884232842471 -161.418948566334507 -275.511252737836116
-49.707296827466813 -158.362203039979249 -276.722152515505343
63.341211777023197 -44.578605760373875 -277.933787160745624
63.001603915216954 -45.051636810958087 -277.884201752104786
54.555888247590573 -55.182123758456768 -279.095706824754018
55.809199793413086 -55.207560357700615 -276.468026989342320
57.809090789779155 -51.809673410975329 -279.329979445152333
-49.200425463328969 -158.753497336943838 -279.141802770274410
53.389638985519305 -55.541236351987195 -281.238664332451492
63.769036322883004 -49.160297769873438 -279.715013042256714
61.802956745858445 -47.350230591138995 -279.735962232117288
-51.006034034597320 -160.288956680246798 -279.574828153238684
56.908287917115040 -52.905636256580600 -280.992880922598204
-53.917672413422444 -163.864918739184816 -280.372231990572743
-47.194293382283639 -158.894719385415954 -281.897834306901018
56.468852111448882 -53.317732855869281 -279.514532931933616
58.989218367979809 -48.467346016370797 -280.215556290656821
-46.936649373556030 -157.639160326547284 -279.663219067714692
59.570358581316576 -51.797421735301654 -282.074247337756333
58.580241868952704 -52.157656859143309 -280.419286155542864
-54.330330374980058 -163.811387536665961 -285.028138801981186
-45.569059361817473 -157.298769662504952 -282.197863446118163
60.933553346772001 -49.300113908412726 -281.997706124754359
-53.599004892491763 -164.549004685698833 -282.884900299620483
57.185021811120080 -52.300534400174854 -280.778421736558073
-54.156616985815596 -164.840255995165506 -284.625361114882026
-46.755220762336791 -156.768304955196044 -283.530313081160614
-50.773272880132502 -159.398484586476172 -285.532757450064707
-43.695697424568188 -154.463973427327716 -285.049499439442116
-43.370749580499357 -154.160414147226476 -283.992587270285640
-41.602761854373163 -152.646361880710373 -286.729579345423133
34.483220319231073 -76.793277648931522 -285.137953746945300
30.140047423679178 -80.821636543200498 -287.207073549105189
32.285426935041876 -77.143643477920548 -284.859440652200306
38.430115412001491 -70.923600724999687 -286.895195451796951
40.612136766570437 -65.862324082258084 -287.737512827959904
-45.619273926840734 -154.155608999951284 -286.610188564219982
-43.507751324760719 -154.077648278970088 -288.052648325700147
-42.218366024063364 -151.809586314468731 -287.982689693035354
27.878408394359180 -81.806007782568813 -286.174728656514162
31.495973505819826 -79.313496214569597 -285.074509002245179
36.153668783006360 -73.818831999473176 -287.848038602188296
40.162807233511529 -70.544364608415975 -287.635643228351967
44.564342492513070 -67.328262019075865 -288.192915058262372
-50.415719429371023 -160.948217759916474 -287.547450962063522
-42.160388829581883 -154.200638228163371 -287.020529628912016
28.724646416559203 -79.948900309293663 -287.568332094609389
32.325129616729853 -76.872785509012417 -288.308731193911854
-55.032556345589136 -164.036978138935638 -287.086546334751517
-49.314667470462751 -159.544101650998272 -288.155853783474413
-41.915930155143961 -151.908249176940643 -287.376852623343268
31.326099941284159 -78.200136466659885 -288.313948835428846
37.002881888224017 -70.025346805219243 -287.246419021619033
41.464159351409677 -66.869870730384719 -288.821315874778691
44.572280488860152 -66.038800040192285 -286.409016672739767
46.258962535216142 -61.919349855901189 -287.614401454698168
-50.851740281319920 -161.211889286196651 -288.453579247256926
-49.851454363455822 -159.458366766395812 -289.268377195293397
-44.234006579282514 -154.179990694772016 -288.168198434295618
-43.049924582926501 -154.935832133100234 -286.982326164380424
35.156862172196945 -76.671331131571975 -288.832505860472111
63.265972854036747 -46.485461220498671 -288.089837377818981
65.126551802176436 -45.019853297948302 -288.539844495866362
-45.594693166182878 -155.308697863004340 -288.559837612371439
61.840650489161938 -45.806884380389548 -290.396104019309291
63.196797431190674 -47.774987834946124 -289.755689405671944
67.503382688929690 -44.982215421619017 -288.590261930058603
64.980081382496721 -44.274985602881898 -289.315152767456482
65.822364606993489 -45.460975219043746 -291.724715208873192
-53.879594657983908 -162.205787157106414 -290.679734668400442
-51.771157951115889 -162.830800460176931 -293.868030098180611
-52.024931973057264 -163.497324859320827 -293.724457123880484
-50.443075728520135 -159.755351424810215 -294.045427880783791
-49.876929792128514 -158.173548419935628 -293.029801122163292
-49.184612978365827 -158.188031160097609 -293.338523739416814
-51.443742923435693 -160.726723488069894 -298.258035212741220
-49.609934327348078 -161.173566217868711 -298.832077686378511
-52.053775669399691 -163.492202517848483 -298.906646281413487
-49.991536317895779 -160.665105476892137 -301.018921616959972
-48.816695363973409 -158.764336232533282 -300.123195127747238
-48.869679526356812 -156.639688772931180 -301.438533405988323
-52.002876247254861 -162.520934078854253 -303.863241541121226
-50.547271347775791 -159.204171150189808 -299.957942089548567
-51.428804771761477 -160.950602904761951 -302.817508083865107
-50.416587124142225 -158.192647070899284 -302.594005983790453
-50.029137080740661 -158.298155640817527 -301.828338553272033
-52.304487740829892 -162.675705531033884 -302.804050764244835
-51.317060557862987 -161.299662919732441 -305.259582898838289
-50.737395006930939 -159.165783905435006 -303.517732142676607
-50.629956590952808 -161.069268389513951 -304.627267880598993
-48.516424033536708 -158.134987985644187 -303.983851577424332
-53.255490634445714 -161.938527719698072 -305.066192707443975
-49.373119751913869 -157.289706326291139 -305.725341426153591
-49.282894906655400 -159.341687101749301 -306.607370871909723
-48.946878746698808 -158.782735982344605 -306.029199084762297
-53.331029204649319 -162.476252861627245 -307.385009594419955
-52.991033137915188 -161.562195835663971 -306.906681651979966
-50.613557824666970 -161.081975078176669 -307.529772558106515
-47.747853611100169 -157.596931428244460 -310.301427138703957
-51.562102150617946 -163.684283454666314 -307.346489681509297
-49.447272880639986 -162.052683063946688 -309.141976650733966
-48.825257708272602 -157.911296096087483 -309.702378526995517
-51.835495362668595 -162.300380575014231 -309.254793699223853
-50.334779369947405 -159.066900251124366 -309.243486861158487
-49.463330628490027 -159.891737582921905 -307.155200177467805
14.976078010880167 -94.488408929260686 -52.957123962265996
12.971863629975799 -93.916984695460016 -54.490553559751383
18.900760298039497 -89.868509720782924 -55.701496611435921
9.956318466741880 -97.890317325645100 -55.056580536012738
13.462489693179196 -95.902317582896657 -57.152708715258726
15.732481004473545 -91.768944869887633 -57.208455860274377
18.154139501931365 -88.650985188168420 -57.660639109193227
10.250130274365882 -99.859415398303440 -56.645642088254114
12.291300061311599 -95.379627146351652 -56.970326205082586
15.495749121123167 -92.822196948030580 -57.030972919593204
18.564984144004992 -89.299028542556073 -55.739062727012389
24.181522784429401 -85.265883799871887 -56.368729203138280
22.870604920946469 -84.640511276135598 -55.567266030986652
7.618277914601481 -97.382550435963054 -56.440563492547248
14.032987599344667 -94.210385135543262 -57.598713531443153
15.038200680830981 -93.112040923072499 -56.978663329693028
19.377008837101627 -89.345687044107351 -56.606538497671529
23.129454187919407 -86.522556488695386 -58.712342200551944
25.551758338213336 -85.111500749604957 -58.953963571001253
6.827829667825799 -102.731027242038166 -58.332574052576277
10.156032688514072 -99.264073147456614 -58.128409691298650
21.287878145246701 -87.255360561682480 -58.380626846518943
23.833828097631827 -85.441997136071905 -58.313831344795297
25.453432405484882 -81.119652118288968 -56.789206806418434
5.087357575430311 -102.940996803774809 -59.443275322304089
25.293613139311944 -84.225798743715146 -56.247783558700668
2.632413737814652 -105.089338913463195 -60.932916030752409
24.901868607624738 -83.920958151961415 -59.293412424708819
28.608194548419700 -79.910368742618758 -58.571418034723052
5.508096237257389 -103.903343519860385 -60.299613857896759
25.671591948147633 -80.210020192307127 -61.252241160409234
29.318246733379301 -80.681571123624465 -59.684023640900193
2.523888963717301 -106.619871673194922 -58.649026238965291
2.803863999344185 -105.159157132015110 -60.414337724318514
25.603259784846440 -82.853371288226583 -61.085805467386606
29.805942524915171 -77.602681614744355 -59.876773849439225
2.588346180114304 -108.513423683985494 -62.825112817183452
0.621168439746869 -105.906345263176675 -62.324190674475730
-0.321459123845840 -109.524856914781722 -63.472802010911209
1.897251494428426 -108.152324118694210 -63.454804716900270
29.784754837899886 -78.647840750245194 -62.515572478304179
-2.592069950556390 -109.677768480916001 -62.962637621897031
31.811351387594385 -72.174355609523303 -62.012170441196687
0.661379681044053 -109.774505691113049 -63.482093948265344
32.108731561576413 -76.350781299929338 -63.471811166241821
36.292651338970003 -74.288887753460600 -65.305744151445182
35.138111535236987 -73.977693169115284 -64.021213812297532
32.991967076350655 -75.093636077751981 -64.220571951453636
-2.874354013158035 -111.234627090862872 -67.170579976390798
0.335488113277510 -111.859142930360690 -66.939422660019531
36.332624831292890 -74.658699502164893 -67.639395808590521
34.795274117101194 -72.190324581919612 -64.452986293867397
-2.696691384304738 -111.592752432914111 -65.618807568104444
-4.122608679643744 -111.657658926402192 -68.024790127777152
35.562544522460662 -73.732226216647049 -69.646992242180914
37.171281115666794 -70.707615595430894 -65.932728364420129
37.501910777880497 -69.878098265761835 -66.753971809805705
-3.286190180963591 -111.439214640252743 -68.346159922286716
37.555138588954037 -70.799567263237208 -68.136562129656824
-4.244440823581657 -113.941840408837919 -70.442963269653006
35.671844255914891 -70.699929273312350 -70.253863606568061
37.508442951321307 -71.071605557487018 -68.393156499319332
-6.907567060874557 -113.773233845712966 -71.572267391773110
37.699871333677187 -71.226391463933311 -72.059495787140875
-5.433898878797958 -113.991266601305867 -71.455549580395882
38.301914005088051 -70.058901492747708 -72.537172490548912
-7.453727372861212 -112.537890020856111 -72.273626933186193
36.737602843921422 -72.402116326697950 -72.405383947897874
36.459763979814625 -70.835820527385025 -73.125566560530785
-6.106880949411537 -114.162808282346759 -74.342445280742382
35.571744811603374 -74.612917272247088 -73.218480354923415
-7.465307197990813 -115.223769678776904 -76.763255662677821
36.759328942588539 -74.506471808635297 -75.438566139252458
113.948808936303635 3.192473180106876 -77.616941441070594
-5.448771242560055 -114.953201530053605 -77.002494180004845
32.575449440219039 -75.405833051909667 -77.616006997349956
111.615399221245369 6.538277208148096 -78.488773540700080
115.709847493585769 7.316071006504997 -76.744750749894564
29.607137955287921 -76.136868615895068 -77.991701705366481
30.470443027795998 -76.674616498426630 -79.295227033394625
111.848138427329758 5.831802829633089 -79.125830759539156
29.191675578647249 -78.317547700104782 -77.930622562945985
115.103395924718612 8.684522195103224 -78.819932470297175
109.334095561016298 2.749894521876144 -81.665937831823641
112.445081420926584 2.609461367833362 -79.553640945859698
115.035574452402940 3.819711370199897 -79.875881001888843
115.064734069019323 5.471857396744399 -80.435273875819277
114.795437367775889 5.806982942667495 -80.941928454841943
115.112997093400224 6.991491208122421 -79.879382931427372
116.719655221219824 6.965188989468630 -79.567609322903522
27.059159849807557 -80.565206169051777 -80.936997849252052
118.052213155018734 6.889155616875173 -82.303259572329083
110.226639495134819 1.583004280747675 -79.430623284149974
28.878540058004575 -82.894379010281497 -81.163735983967896
113.027971530096394 3.369696948736918 -81.846196544644982
116.246903868823011 6.705843376472013 -82.216379438184390
24.367896712132790 -85.432846851537263 -82.372447229297279
112.205015982011815 3.131763283648223 -82.293636048882874
118.746842791790556 9.577775625003023 -84.023976858739204
-7.908816347812301 -116.522981825754385 -81.094993337792971
110.977027964623346 2.685346251208374 -84.311748633109261
114.626359708540662 5.571643482347255 -83.651537255538727
115.609731876277635 5.960454703349294 -83.168643930895243
112.850044290226165 6.838860559478134 -84.984650774598876
19.599084716467470 -88.628869513666473 -85.072214521329656
109.732572128248975 0.945541479641597 -83.341792535855177
117.691852757627331 9.583712906431048 -84.528057216698798
111.745454235803933 3.909833680678519 -84.498362525353727
-10.378093403569716 -115.525507896669367 -84.385145309301308
114.208777348267546 2.996204466818368 -85.538564085773118
114.196691496771507 6.644505508199154 -85.875497254885914
116.437492747665189 7.525171674350988 -87.224478354421151
107.790661662824618 1.353843844442015 -86.162664476846885
110.589362118068848 1.848512320069537 -84.532265796912881
118.401053989477163 10.237400904046666 -87.549270656892787
118.742819393130574 10.246073266389780 -85.273425529214961
109.201202444399556 0.095845698299693 -85.802034847092955
115.747085501004207 6.819996295114453 -88.482508372901052
116.400951321149847 5.825892517059030 -86.321758782906443
116.618659850799986 8.695849450544822 -87.081488070205140
19.802185566425454 -87.368514610549795 -86.744291039205365
110.808889329267046 1.404886087265011 -87.469304318595434
116.642957549546608 5.586006365308998 -87.794680082551594
115.026328467226278 5.356190959969379 -86.210358273189016
116.875156460169350 9.812304864534999 -88.340386793497785
118.690425626382890 12.082050719465526 -86.865936365443943
18.363916465638674 -88.915578955165401 -89.557312578082275
109.162448648293349 4.259101172765178 -87.988895868754355
113.805415270997244 2.589378180837432 -87.337688586501585
115.102036519138707 5.737387622853261 -89.212998478327307
117.177474645321567 7.146199526818417 -87.601146216257547
118.655221690889775 8.830147112220608 -88.827223803249396
115.033206814957083 4.634560604116039 -90.509773122319785
17.014703870357341 -92.211634501731339 -90.385153975206919
118.410824757884754 12.367007673649002 -88.537802689434216
15.136642775592374 -92.085093776189808 -89.741191955003984
112.363210750798231 2.784182141171755 -89.943678594315500
114.200616897935419 3.663335632229640 -90.351632624636366
111.687576101370880 5.055007794370420 -89.650759461252434
118.206061116809636 6.697778547565976 -89.383030024253245
118.505167770615103 11.249488435385020 -88.825567677125235
16.155629552773682 -94.318406033156236 -89.465342071889651
114.412680458482896 4.611285045400958 -90.347264652189594
114.374546007256271 7.287195551506710 -91.548298735903231
10.357665966058708 -97.484958396338342 -92.998435703114325
11.328426252915840 -97.226750276630412 -92.447625757302461
115.762112469877010 8.901090342505384 -91.339823586340003
8.843763436808704 -98.627949461616382 -96.343617882894819
90.942862931448417 -15.241072496677308 -95.094654960223437
7.854327139744606 -99.942433405700271 -97.520373846177819
89.588897575772933 -18.853649547283915 -97.526483016046186
89.857303639424956 -16.722927508155305 -96.203685320505116
87.283294013858821 -17.951500715683231 -96.410446735920644
90.746456268967790 -15.951767030965637 -96.643278567855347
5.863987853465929 -102.265724962536623 -97.687355767710073
-11.235429448843853 -119.955032115853427 -99.139063344129283
-1.004537944423994 -108.754107351696661 -98.247256924717448
86.997402979941796 -22.628916841250039 -99.937592561325815
92.905370001205227 -17.108523249906167 -99.985302824014042
0.661594475013464 -105.653270745746468 -99.594752191671333
2.908638562131638 -106.173121490355541 -99.197735874555562
-9.732504121155197 -119.308314717907876 -102.126685871999300
-2.857233527180057 -109.034509612361333 -101.856713343995963
84.053193130177050 -23.504441787975086 -101.262146147331833
91.014192825511600 -17.349770133259042 -101.717361940295518
88.721113069597010 -19.062853651028487 -100.900242399303096
83.413507685192556 -24.449422014309214 -102.812751348300893
85.999040769754032 -21.501610593249943 -102.920589985155502
-9.163436291029205 -118.343311314367199 -104.516905610676034
83.663488268239249 -23.520412186570326 -102.126954266833977
85.516821714468193 -22.331848427061335 -104.199885528636727
87.571159563173694 -20.253200570304042 -103.029237989674414
87.223359959168675 -19.107301653057444 -103.056994957493302
89.422925481204587 -20.042602878183619 -105.947949601315429
-7.316221460933535 -117.700767093816353 -102.484101047861728
89.481693987998398 -19.643859783563542 -105.149704872301498
88.084998069834541 -19.624876189297783 -105.419884560192116
-3.516011364000883 -113.046605392749711 -106.521393389151939
-9.308307771259454 -117.982639633961455 -105.332311022932828
82.844567351344892 -24.803815499029454 -107.149521469557683
-8.874383285934822 -117.181764181806983 -106.652045917089836
90.167985425029670 -19.278407644773488 -106.447834516403560
-3.213601302069886 -111.225038928878632 -110.163493658671555
87.759385932477599 -19.501836059012152 -107.169171566662072
-5.193688611807022 -114.865036639796756 -107.993140647629957
83.199381553498455 -25.523758996450848 -109.586029953299175
88.396114759212693 -20.608108641118228 -110.177704696353047
-4.323551525756445 -113.908320586595053 -110.881174892598892
81.222490252846299 -28.073380221901736 -108.986469081242987
-8.980152713137947 -116.213021776423602 -111.091935279763490
-7.865964145251271 -116.340976307461872 -111.464822293625829
87.268593572755080 -20.275273729785393 -111.582649289893027
-10.887278676353569 -117.566532263400546 -111.533754972642484
-9.034892505688836 -117.617561159449707 -109.920228788153494
-6.179195909533243 -115.280843710036521 -112.382616719779008
88.762776619220602 -20.335911706243532 -111.392975880035280
79.812963893250839 -28.333308941628690 -112.084890119199471
87.663775537995775 -19.919653293982464 -114.718656275118661
80.086685098997435 -26.500457796481466 -114.363174862337161
88.991765110308236 -20.234877018651165 -113.681353192114940
77.511212389043720 -28.374583282652107 -115.508902852861496
79.057469567203569 -30.127920488518136 -116.709500227984762
85.873600870132080 -21.710997054346059 -118.450548487112101
79.038542661936873 -31.219605374828767 -119.631053880715598
77.666015215838868 -30.438881149681421 -119.637642734493895
78.941842217064845 -28.615989155786139 -119.333910681190162
77.935724682939849 -31.831201759933613 -122.263234268958101
82.945798316801586 -25.389324224146613 -120.882202534751144
86.199490112019518 -23.142651985375661 -122.541702788855076
85.077932924518535 -23.770159022726116 -122.628728807616469
77.138927393388443 -30.852736418501635 -124.422998928143500
83.919372477446046 -24.790665530508985 -125.176402745065786
78.361494262886694 -31.512649362175040 -125.435330169203198
83.266854532267303 -24.264606318989927 -126.183507154452656
84.709635833979746 -24.804149523134466 -126.650041548302994
76.172053774635017 -33.062737924383114 -126.290060499226684
77.209398945201826 -30.857219053029166 -128.823679896044212
80.668678362934614 -25.094132689539787 -128.994623235854874
83.234699343039836 -25.080591517502164 -126.332698598935792
73.962410993664363 -32.643406461461097 -129.664272687140169
74.425121444983134 -32.458898735447860 -128.816014710279489
82.513307991617992 -25.707719744506967 -132.298681276540719
80.632363544405251 -27.886978368595599 -132.028431907440222
81.829229491539166 -27.638753902536422 -132.497795207909007
74.587340068319520 -33.332938872687876 -134.276349971993710
73.555136904094297 -33.483995757468428 -135.044929941861625
80.642691663050400 -28.538710787590862 -137.662650759878517
79.352566107393443 -28.903348517910818 -138.458190174677270
15.670776530408880 -90.541396398351011 -139.426171603846115
17.927374880292103 -89.099491818253171 -138.306965227243552
79.707640395847974 -26.627922063756426 -140.502277065050748
20.458651313286261 -87.398396372852460 -138.977623540916142
21.436971036415009 -88.262827748491191 -139.198913332883365
17.432848502380875 -88.625307607142389 -139.159705575933771
20.224257321256221 -89.419376382919296 -142.101937624510924
73.976008181015033 -36.140751715643141 -139.739216434194958
18.817739733041559 -91.387970597310584 -142.270511622619466
22.066350173902762 -87.781400146156443 -140.319742685014774
18.368266191887926 -93.486353718441734 -138.626214132471176
21.784517542484963 -85.071051818950124 -140.852924164581111
79.097355809426816 -29.490983526415800 -143.189497639925094
80.147299219551130 -29.397346279241606 -141.085652894406735
76.954144356788845 -29.629792147886782 -143.037560571226464
17.033719648910417 -91.534251494007918 -143.058084299302379
80.372319521462870 -29.703884530983636 -144.832318512696617
20.539965193663544 -88.969297413584073 -143.739216828632124
19.014439312386997 -89.084652700758568 -143.741729984971045
15.886450082664858 -91.866763019763042 -145.526933943546965
20.719056877021860 -89.212893926163858 -144.184284820460988
26.415518842422532 -84.481068307250609 -146.622510708221455
73.011098201582826 -36.793992215410064 -145.109592944499951
22.142194676733965 -86.561239630331087 -144.500509807333003
21.888029633839935 -85.382960247569827 -144.746362812159958
18.395332131735874 -87.846943984658552 -148.552578435066948
22.679959761345732 -84.097638947229044 -144.330244847860229
71.485047712927596 -39.192733198881541 -145.051670432671273
135.434434376311430 27.276218065884063 -147.266189107628861
20.980838371192661 -87.905336549997813 -147.119259803419254
22.187037322598691 -85.073428858739646 -147.409107606357708
77.375325978320078 -31.479507937594818 -146.641956793870833
78.482883184409900 -28.726500455559020 -146.237302811882643
17.291920550936403 -90.251703972743812 -146.407528480889511
19.833523796292948 -89.056767214040178 -148.445253366644380
133.415920463745266 26.449880615552480 -147.378482540848637
24.425239651794307 -87.232792984788190 -147.853261387222489
25.678465626749379 -82.553169182190558 -147.138719043994655
25.814443337607894 -84.361711322766197 -149.621590329530505
27.903533924034207 -81.419095114027712 -149.745713654237022
20.094309768130024 -87.940564318588358 -147.643582335182430
24.279572469665787 -82.239530855007970 -150.489878885389061
71.740564423929484 -37.381974970357334 -150.678821718849775
70.908996047663649 -34.377883220513063 -149.058375273505362
134.305893084980539 26.937492982719061 -148.519459228370096
7.306924579653202 -100.732015128399638 -147.939856641595270
19.532550566831407 -87.591784912350946 -150.012081040374397
71.091926201466393 -37.634885686717645 -152.809738649583636
73.313433873172968 -35.248333887549371 -151.069472924475662
4.435414397768880 -102.392650327124201 -151.014645705663696
26.069275549444910 -82.617211472475560 -152.029016349832460
7.106748729728835 -101.776756676167793 -151.890587062587059
27.189672850282108 -82.522630890882297 -150.320613019661693
76.848210465329259 -30.752067821471876 -150.515444493655792
3.840472408578200 -103.024921407940369 -153.590792696178909
28.875142902303391 -80.754801237989199 -151.332297408216192
71.437507311420134 -36.694443871651949 -153.183200170212018
75.864556552861870 -32.668671112408489 -151.437683480850751
132.107529579065215 24.710374596934606 -151.064039336077201
133.378510915434219 26.497738937008407 -152.144666874196247
8.144598856410191 -99.806516318206775 -151.778384554122255
71.151943619080271 -36.938158465576464 -152.005351924612967
27.373379003182542 -80.537207510298842 -153.347764208091547
3.908086870117620 -102.532102615014949 -152.728300412710553
19.716367216281327 -90.272260490189382 -156.676874816763842
76.845528545566566 -31.005366287950821 -154.156698759265169
135.758219726471424 27.263528910796136 -155.192740292842075
30.348395712683988 -80.822183149234917 -155.060894849212389
133.674606776862021 24.871320106462541 -155.377915275813024
29.090566629642812 -81.394059006591917 -156.031077173802856
73.245119793793549 -35.643865684146483 -154.670257294621877
26.432378220188223 -79.804915025452445 -157.219341739320043
22.537533499574863 -84.505456080126848 -155.474766715037532
76.796494228986248 -32.743646428506352 -157.203207313595101
28.569239334873295 -79.414569856746027 -157.543669444229721
78.188895744782187 -32.224098036448105 -156.723732752166654
22.051220084918793 -87.312346259475561 -159.060009341040939
69.743383535666624 -38.133722279778382 -159.256204004019054
131.952586408173744 24.348007697946173 -158.317730703041832
133.409657110795791 25.579780773190599 -158.896947276375812
135.228278555581596 26.714939755262105 -157.292176162223797
31.088343079914740 -79.407644911744995 -160.013067190823790
23.841760531578316 -84.408642326109259 -157.663337232765372
5.485276821302349 -100.239038048176326 -158.687355689334112
57.396881439316289 -51.274021448350766 -159.464436487809138
58.664568073549091 -51.138308955995939 -157.874858523584692
72.051116630059838 -37.293006697161424 -158.638344935421486
135.371591989071362 28.065672132873914 -157.900473422051903
31.065928295483943 -77.107915815579418 -158.362262250472867
54.259308117212846 -51.861866871577853 -159.375771878751635
21.766890007802392 -85.551266229082742 -160.309860375677914
29.113952372131394 -79.391738226986277 -158.599821818886454
54.597099131196615 -52.208092393147780 -159.609912954412806
56.858836034855194 -50.611834763220358 -160.115325271586670
57.491864808184161 -50.383678988270177 -161.247599197362092
134.682049609867448 24.862997994254638 -160.006163874539510
12.095139763569239 -96.930043266349543 -159.441390491096314
31.222902199597996 -75.908862030395213 -161.468561568596954
52.945211201964177 -52.315607921691694 -159.952699881290130
55.902018010832528 -53.274878235541308 -159.890648413342944
75.391267774543763 -32.124678936712499 -158.679925538037480
30.045293408831494 -79.674797494787470 -162.356635251848246
133.364825372257769 25.135071182137771 -159.911873536637984
31.124816188512849 -77.122324573675527 -161.635012126818481
9.490651305134495 -99.041168572983693 -162.836595236693569
22.430405902530531 -84.688077278380462 -163.475469073392645
56.242316953759740 -50.629709468623041 -161.676739807289863
132.859260240467790 25.895650937564678 -159.530434976456576
8.221089716111893 -102.305614104815390 -162.202502892392403
23.022414440728173 -84.876899039220277 -163.342495415777705
33.177049931360543 -75.698272888718265 -163.056163603376291
70.719363963523975 -37.678431472557740 -162.725844055057962
73.478643003209086 -36.817058070534308 -161.839857483789046
9.587982208963446 -98.349653938556628 -163.303073458704773
50.398925977667183 -56.043282144736118 -161.353113617591504
70.161903388068069 -39.525082322327862 -161.334238054136307
74.939393067621097 -32.590967909607052 -163.119212056288347
13.653240670951188 -94.745937782396709 -163.314056929100246
133.328521266059141 23.507690174206303 -160.868525179042535
52.045364868489898 -57.866715468074403 -162.424989181018589
70.499571541561309 -35.847926814962491 -164.202455537746062
31.079468994109092 -79.033379041367880 -161.349289508515483
6.806115126077182 -100.665096184602305 -163.708245134384271
22.634727294582540 -85.219813092355906 -163.488373428294238
31.383534313925143 -78.721258724442194 -164.502623868331085
76.799106084760169 -31.631499179012579 -164.879223528535590
134.021007181014710 25.333924915850972 -164.640811799080012
14.235195856902029 -94.818660287671349 -167.041013801311976
11.633509697304651 -98.283295678524183 -165.821586704543421
31.491924272635252 -77.165967161856472 -165.155593263711751
132.938503074289713 25.394112314268128 -166.937643785868460
133.937385592815019 25.328894688557945 -166.009501360595380
7.674935283498582 -100.548525591402424 -163.552344738382288
12.407736646620677 -93.932484202145162 -165.172254736444984
33.409560210640464 -74.922779407706841 -166.210441825029108
70.032286069816124 -37.190727760927601 -165.815162985095014
47.515300544745948 -59.849527098466012 -165.380003503393567
133.418814193482717 24.826559249679118 -168.181071135385650
8.948018479368905 -97.612024997468851 -166.140705491727601
14.603111916578436 -94.484141087913954 -166.358337664606807
67.641497307413232 -39.034338575973564 -166.140726142771371
71.994500442189619 -37.470010501865289 -165.336812317011805
73.927493957257454 -34.395912746086807 -165.824666467322089
132.254950595826983 24.368826548243270 -165.680436109483054
34.438278351590718 -75.954613580709008 -166.837828130199284
55.579288911901969 -54.099958651948981 -166.046913534622149
70.654248723129911 -37.399397764764636 -165.437444461367306
131.326626677066201 23.582076064782367 -165.736518074011258
10.010465483292888 -99.038944528243420 -167.447340389274018
13.381481319016151 -97.591960233429958 -166.289214050724922
46.810385051310107 -60.847224852691298 -167.493044796564959
134.127681115936895 26.025665176675027 -167.959386780205449
8.686294328509115 -101.065721482045959 -167.395152701507129
11.565959470506126 -97.505206063927432 -169.817310808334923
73.725929916396254 -34.883533721985515 -168.588250631163874
73.328010082688522 -33.132765650499849 -169.903345258256564
32.791512138765157 -74.677723010020088 -167.606173053533041
33.411156323221618 -73.755128683857777 -168.444811733081139
46.821000541760746 -60.206130531390713 -167.448336814673070
11.670844237322573 -97.845087451833535 -169.466610290796297
12.442074200916380 -94.719313102330773 -168.494983532542904
15.890669893827258 -94.758547196801160 -170.391001358967458
130.046386749570530 24.634935402696684 -169.135564313678003
37.115011630485675 -72.372827179103851 -168.567351396035406
54.019952859278128 -55.508633050910255 -168.769322296976497
44.553108407700527 -62.924611028861278 -169.749028350317360
8.194518593743831 -98.003140138518461 -170.661077184686661
13.205142685868701 -96.063836066111264 -169.961786235922290
16.775782256698758 -93.961690574567371 -170.510222441097994
46.392042069494444 -63.754997930710672 -170.444517379184731
50.194365735131498 -57.000211777841884 -168.883041179606835
71.591540403332203 -35.581604156295128 -170.320012821864907
130.484135223473174 22.745265975797452 -170.916302399208575
15.223967309448881 -93.679490376152117 -172.686780706508245
29.591985056337897 -79.317475117226493 -172.537806724376082
68.366641050843640 -38.968789314847562 -171.656256956905537
133.432853241800871 25.701725064496532 -171.678910304174110
132.515682816823897 26.464282699216053 -170.869819400303612
10.887531255943362 -98.781095561990369 -170.442032696591667
35.091837580197804 -71.811123118206481 -171.778160620527558
68.923509430889254 -38.799456968447089 -170.231487821517391
130.939475591027218 23.540016055300228 -169.169767277598396
131.777061048963361 23.851890632170402 -171.941839379050094
34.579248291617510 -76.987967754548592 -171.725275734143622
73.181720461880204 -35.347031382621118 -171.922227197275816
45.180016927105640 -63.124931754798666 -171.529378461934101
50.824701939521667 -59.523035043449440 -171.213076802737731
134.603713301084809 24.806243053655166 -171.609063257914585
26.695766014134058 -81.147356553850770 -173.418778524619057
67.464049527734190 -39.441306468817480 -172.316699627716019
130.545647782965546 24.105430488353335 -173.563769783191361
11.915347919992753 -97.987477386353802 -173.399213183948348
69.873896171064274 -37.584810048347443 -174.842489175381985
16.893980579938624 -93.247291048439365 -175.044641223751000
31.263038017641438 -77.732007779189502 -173.180800712472518
43.484774033555425 -64.776359903468034 -173.225564779083214
134.139185380733977 24.131400857479711 -172.749993569633574
12.675204038682798 -95.124717033366181 -175.114165480637496
12.992600469520058 -91.893774087527063 -174.001457579973987
36.111579082421791 -73.739780249804028 -174.420249574144464
47.909042986718070 -60.501053545212230 -174.946448406296383
14.680719374321511 -97.208283778972344 -174.295882591462572
36.559643220957774 -70.740517696903453 -171.986480187148203
50.339501167840041 -61.738248999646387 -174.909396363439726
71.815703368414262 -35.482836403549115 -172.420165901339061
73.861812358825389 -34.939165932540618 -173.374211431506382
128.429457702289398 21.528009710828520 -175.253400597098988
41.378444786477061 -65.436554219011100 -174.166176545292700
42.947992490556082 -64.484447655512795 -175.909203486568515
70.941765528497100 -35.902942914563567 -175.214526475362220
131.494797952920663 21.710698352489921 -175.398439764896324
130.876123922888922 22.317256709346637 -175.728510544068115
18.734015720644887 -91.409200421711688 -175.137109792889561
71.397919280016936 -37.560879668418082 -173.987916867229131
15.763289065464086 -95.176518703848373 -174.795587475620835
16.757274879861725 -94.313598384655776 -175.223201992515499
28.898186758599849 -78.683497950303206 -175.195131929795679
45.051064724264869 -63.830720079798880 -173.620729713779099
44.764228207805488 -61.374416867750902 -173.365404518996769
132.263408102615728 23.943706522863891 -175.779274576098743
132.812568696792454 24.735371965690401 -175.137369434852303
43.695661491318880 -65.364877375300608 -174.800489748317091
130.555532748458830 21.774479110538913 -175.251632511114536
44.946808201034912 -62.915833573458350 -176.443807790010993
71.016582258303728 -39.442256406187887 -175.650359502291934
