-146.779525756836 -74.924552917480 -275.329925537109 1.917525172234
80.392074584961 -74.127685546875 -229.974685668945 2.031566381454
-83.417289733887 -74.896644592285 -64.855255126953 3.523372173309
-131.519439697266 -77.207839965820 -288.998138427734 0.215575709939
70.004890441895 -64.351173400879 -102.849380493164 1.685053229332
116.028419494629 -72.135993957520 -159.573944091797 2.385390520096
-9.752377510071 -75.266242980957 -286.831481933594 0.731150686741
-3.996009826660 -77.227714538574 -288.782562255859 1.031115770340
24.814750671387 -61.734844207764 -270.779083251953 1.197476506233
25.752038955688 -60.002437591553 -268.969665527344 1.125085949898
-66.007820129395 -72.950759887695 -51.626369476318 1.620761394501
94.367691040039 -71.125045776367 -213.599914550781 0.902044892311
-56.772167205811 -76.863708496094 -288.744903564453 2.372620105743
-145.656005859375 -74.836990356445 -198.540481567383 0.363805621862
-109.872215270996 -66.052169799805 -226.137878417969 0.966770768166
8.639924049377 -76.430465698242 -288.494842529297 0.484211206436
-86.303649902344 -77.505393981934 -78.164260864258 2.956860065460
-111.282371520996 -71.019584655762 -292.268432617188 2.808603763580
86.464927673340 -72.115661621094 -217.802108764648 0.667243540287
-124.690650939941 -74.278106689453 -286.725128173828 0.154630050063
-146.156799316406 -74.136398315430 -274.605743408203 0.801577329636
-128.009201049805 -77.282981872559 -288.978302001953 1.744766592979
-85.359405517578 -76.536163330078 -212.323303222656 1.523390650749
-142.164978027344 -64.688072204590 -257.567138671875 1.742913007736
-76.179649353027 -75.987419128418 -60.604381561279 2.239685773849
84.929634094238 -76.350379943848 -221.726699829102 0.402257293463
-57.623279571533 -66.037132263184 -88.102569580078 1.852347970009
15.557106971741 -75.045356750488 -289.124053955078 0.897705674171
-81.559677124023 -76.747436523438 -66.892425537109 1.564975857735
-88.965728759766 -76.520683288574 -81.535522460938 1.284678816795
29.151796340942 -66.913528442383 -258.622009277344 1.369627356529
46.096908569336 -70.189826965332 -110.534225463867 2.124644041061
62.022811889648 -71.078933715820 -92.764938354492 1.431045174599
86.496276855469 -75.741569519043 -215.458694458008 1.862847328186
24.970876693726 -59.342479705811 -257.210021972656 1.390504598618
-36.361949920654 -59.571868896484 -47.041042327881 1.346568584442
-74.795677185059 -71.342063903809 -51.996543884277 1.296399593353
16.283943176270 -59.272754669189 -285.376647949219 1.803584218025
75.204399108887 -76.112800598145 -90.777236938477 1.598283410072
18.310153961182 -77.134788513184 -272.482543945313 1.988741874695
-90.634468078613 -76.830490112305 -90.811218261719 0.996416628361
38.563854217529 -72.039100646973 -112.528121948242 2.133292198181
50.653354644775 -70.406845092773 -90.692764282227 0.490602910519
55.297760009766 -72.903854370117 -93.653091430664 0.871873319149
24.607835769653 -72.611198425293 -150.095809936523 2.641390800476
-140.503479003906 -71.868522644043 -255.590637207031 0.725310862064
-151.394805908203 -74.588134765625 -273.234527587891 1.160129785538
-150.344909667969 -77.176101684570 -267.366729736328 2.257628679276
77.554672241211 -76.232162475586 -92.586242675781 1.201392650604
-155.974975585938 -70.477111816406 -272.551818847656 2.864392995834
-143.170440673828 -66.997070312500 -255.400634765625 1.839355230331
-109.793853759766 -69.782760620117 -287.096527099609 2.605188846588
27.422430038452 -67.575370788574 -154.317550659180 1.749916553497
-110.929183959961 -68.135574340820 -290.798828125000 1.607208013535
-50.969394683838 -62.692024230957 -81.226104736328 1.843679666519
-148.878295898438 -62.909191131592 -254.650360107422 1.028297662735
76.130836486816 -70.946876525879 -234.863708496094 0.170273318887
-73.206481933594 -72.811027526855 -53.367988586426 1.314098834991
-77.347488403320 -69.850387573242 -99.529907226563 1.942542791367
-84.887084960938 -70.886550903320 -107.943695068359 1.797989964485
111.412757873535 -75.696739196777 -132.606918334961 1.258943080902
113.633911132813 -76.057434082031 -135.686660766602 0.912157416344
10.094949722290 -74.389213562012 -197.051910400391 0.644275903702
-50.987964630127 -76.200538635254 -139.006652832031 1.596098065376
-77.742973327637 -73.958969116211 -209.437255859375 0.959175169468
112.833206176758 -75.827819824219 -131.423767089844 0.973447859287
112.126426696777 -76.036399841309 -138.310241699219 0.544174194336
-50.537597656250 -75.776588439941 -143.084991455078 1.329466462135
117.024917602539 -73.245422363281 -145.719970703125 2.620132923126
113.771690368652 -76.361923217773 -144.575012207031 1.750580430031
-54.836784362793 -75.861709594727 -141.728851318359 1.475244522095
-62.486164093018 -74.904914855957 -250.235717773438 0.699955403805
-42.011299133301 -75.999046325684 -147.271163940430 1.970226526260
110.936882019043 -75.450012207031 -144.230484008789 0.604412317276
109.849212646484 -74.950256347656 -153.367553710938 2.668275833130
69.656013488770 -62.453426361084 -64.745376586914 2.413641929626
26.505294799805 -61.141960144043 -261.449645996094 1.881883025169
109.139717102051 -75.742652893066 -162.265548706055 2.466988801956
1.579599142075 -75.982666015625 -167.421295166016 2.005491018295
-42.940788269043 -69.189559936523 -79.708068847656 1.042526841164
-98.844955444336 -71.988548278809 -223.616867065430 0.853425681591
113.842636108398 -75.658973693848 -166.651824951172 0.606942713261
47.777469635010 -67.392532348633 -94.184738159180 2.296468734741
52.548851013184 -66.096893310547 -98.516815185547 2.027612447739
-84.001754760742 -62.876987457275 -112.641479492188 1.329403758049
-51.410423278809 -61.803085327148 -79.479705810547 1.009154915810
104.680168151855 -75.842369079590 -180.010025024414 1.481679320335
105.019371032715 -76.798355102539 -182.742736816406 0.702965497971
103.648979187012 -76.415725708008 -185.302658081055 1.898027896881
107.831169128418 -76.340339660645 -186.916427612305 2.168195247650
102.791671752930 -76.702766418457 -188.159057617188 1.431769609451
-153.472015380859 -72.867401123047 -236.868621826172 2.735619783401
15.563591003418 -75.841735839844 -190.562301635742 1.024999618530
-146.510406494141 -63.679832458496 -237.451995849609 1.522192955017
-142.261398315430 -76.149055480957 -203.863479614258 0.744461417198
-60.897480010986 -75.395362854004 -286.376647949219 1.580670952797
-32.986171722412 -64.342315673828 -78.155242919922 2.435373783112
105.044044494629 -75.664276123047 -195.106948852539 1.922623634338
-156.567153930664 -71.784095764160 -203.620559692383 3.693605899811
-29.134408950806 -71.933227539063 -77.966018676758 1.245998501778
-151.858489990234 -75.525444030762 -203.556732177734 1.671572804451
-32.436191558838 -67.312141418457 -78.173614501953 0.718998610973
-79.690681457520 -69.894760131836 -129.173782348633 1.800072908401
-79.522850036621 -61.433803558350 -126.671752929688 1.048904657364
-59.686885833740 -76.494087219238 -289.279998779297 0.492131531239
-144.643280029297 -76.871757507324 -205.579116821289 0.835597157478
112.026557922363 -72.699371337891 -136.865844726563 1.112895488739
116.185829162598 -70.763023376465 -133.039886474609 0.983097076416
-74.975326538086 -76.114356994629 -209.431640625000 1.097986340523
98.020927429199 -74.920799255371 -208.564544677734 2.495480298996
18.027061462402 -63.580898284912 -149.033966064453 0.757565617561
-51.588382720947 -73.277740478516 -88.489837646484 1.554419398308
-74.692268371582 -75.623908996582 -212.904739379883 1.015882492065
-128.404388427734 -74.467811584473 -231.613571166992 1.713008522987
-68.782470703125 -75.448059082031 -290.482452392578 1.326926231384
-145.836914062500 -75.678665161133 -215.200744628906 1.873095750809
-153.658050537109 -66.163696289063 -195.988464355469 1.056626319885
-140.891296386719 -63.065841674805 -197.419967651367 1.896111130714
-145.286819458008 -59.746063232422 -194.592880249023 0.340714305639
-8.755899429321 -59.618824005127 -60.249324798584 1.929487586021
16.284206390381 -75.796813964844 -218.364334106445 1.378698468208
-73.487144470215 -75.182266235352 -57.390171051025 1.946028351784
89.740867614746 -76.532600402832 -216.539703369141 1.673258543015
-18.202108383179 -76.075576782227 -218.584899902344 1.881803393364
-13.400796890259 -76.257957458496 -228.422393798828 1.862274408340
49.530391693115 -69.222267150879 -31.532161712646 0.715650975704
16.681289672852 -77.008872985840 -229.819732666016 2.082092523575
-137.319824218750 -76.087463378906 -229.054779052734 1.783993721008
-8.050415992737 -70.716796875000 -230.882202148438 2.048595190048
-150.907714843750 -72.192939758301 -216.818130493164 0.926155865192
-4.941324234009 -68.358139038086 -232.109817504883 2.109186649323
-154.525375366211 -68.439651489258 -217.340316772461 3.969981431961
-89.434844970703 -75.238624572754 -288.076995849609 2.077932119370
-144.799591064453 -76.613182067871 -234.677673339844 1.689384698868
-94.836311340332 -75.159355163574 -288.717742919922 0.881003022194
-146.109802246094 -75.628890991211 -238.072586059570 2.402057886124
-60.319828033447 -76.052619934082 -244.451400756836 0.821109294891
-42.349197387695 -76.931579589844 -245.930389404297 0.677784383297
-49.643177032471 -71.418334960938 -85.761077880859 1.230473756790
-79.741523742676 -74.343536376953 -214.967681884766 0.413560956717
-46.967525482178 -76.324241638184 -246.771850585938 0.787991404533
-5.265370368958 -66.580169677734 -262.809753417969 2.246762990952
-11.634631156921 -76.042160034180 -253.596466064453 1.841895699501
-12.501133918762 -76.812149047852 -257.122344970703 1.160308361053
113.443229675293 -68.938888549805 -118.704254150391 1.871445894241
26.817335128784 -66.444824218750 -31.222110748291 1.671702504158
-145.398696899414 -73.013885498047 -266.108489990234 0.782518386841
-140.708801269531 -69.104629516602 -262.566711425781 1.438036918640
-82.358253479004 -66.810615539551 -51.635219573975 1.563083052635
-11.332205772400 -74.658226013184 -273.113128662109 2.190148115158
25.792156219482 -64.482269287109 -27.889453887939 2.318518400192
-136.249923706055 -75.643341064453 -288.264434814453 0.932429552078
-146.213714599609 -75.955131530762 -282.792663574219 1.123840808868
30.016193389893 -67.555870056152 -12.899936676025 2.593101024628
23.865547180176 -66.146911621094 -17.045242309570 1.096433043480
4.961379051208 -78.005905151367 -284.177551269531 1.148839712143
-111.796051025391 -71.772842407227 -227.806396484375 1.817310214043
-79.495796203613 -72.160728454590 -254.477416992188 0.537349343300
-141.014434814453 -76.281532287598 -201.988113403320 0.649478197098
-54.163200378418 -76.053329467773 -286.461547851563 0.963573276997
-125.197143554688 -74.653198242188 -228.715972900391 0.909156799316
-153.851669311523 -71.689414978027 -196.539642333984 1.007599949837
-69.113861083984 -75.723281860352 -287.282806396484 0.321987330914
-9.879136085510 -63.310211181641 -60.282939910889 1.733843803406
-122.347404479980 -72.545082092285 -255.244140625000 1.470415711403
-143.887939453125 -71.993545532227 -301.373199462891 0.928566515446
-146.491958618164 -75.318145751953 -296.905670166016 2.228271722794
-150.021087646484 -76.933540344238 -287.184539794922 2.314869642258
-126.973907470703 -65.872215270996 -255.619201660156 0.559231817722
-155.382843017578 -66.090881347656 -285.433898925781 0.917895257473
95.664222717285 -67.709732055664 -67.835113525391 1.928905487061
-0.612180531025 -74.613319396973 -292.519409179688 1.717166900635
73.303489685059 -69.209877014160 -102.705093383789 0.606203079224
78.412963867188 -67.447280883789 -106.297531127930 0.918192088604
-145.243316650391 -76.348510742188 -310.411804199219 2.109460115433
67.502593994141 -63.983257293701 -69.362487792969 1.110007643700
-4.765346527100 -74.176269531250 -169.051361083984 1.982894301414
-153.361145019531 -75.549606323242 -312.237915039063 1.816228508949
-155.452301025391 -71.412567138672 -311.440795898438 1.076603531837
88.492843627930 -75.253829956055 -211.750030517578 1.218886256218
-69.456703186035 -76.092727661133 -57.536312103271 1.253510713577
-1.006302833557 -70.908401489258 -237.812225341797 0.180077657104
-35.753444671631 -74.362236022949 -56.451412200928 1.990471482277
-88.998611450195 -74.680389404297 -73.675674438477 1.418655276299
71.632736206055 -72.721420288086 -93.579177856445 2.331341743469
-132.785995483398 -74.178619384766 -255.497344970703 0.806603848934
-36.897735595703 -75.360916137695 -79.660537719727 1.566633582115
25.730703353882 -72.322372436523 -17.830112457275 1.305335760117
28.865503311157 -72.179542541504 -15.788591384888 1.489910721779
74.004745483398 -75.473388671875 -84.920654296875 1.252561569214
66.036537170410 -64.982116699219 -72.929824829102 0.808535695076
-1.614613652229 -65.098457336426 -277.448577880859 2.451885938644
90.153205871582 -63.717048645020 -61.461078643799 0.745198249817
-76.239913940430 -77.294631958008 -101.184906005859 1.020531892776
18.128545761108 -66.623550415039 -143.084152221680 1.853586196899
-92.903930664063 -75.061820983887 -106.531936645508 2.926169872284
-81.910621643066 -75.685073852539 -105.955734252930 2.646983146667
106.197837829590 -72.463630676270 -171.769042968750 1.727397799492
-92.667251586914 -75.134986877441 -112.014099121094 0.869825839996
-93.740737915039 -73.126350402832 -116.237625122070 1.052190184593
12.707596778870 -71.242225646973 -187.694747924805 2.222717523575
109.388977050781 -74.573829650879 -112.644882202148 0.457273036242
110.923652648926 -75.154876708984 -119.268936157227 1.125149250031
-15.084399223328 -70.004554748535 -252.132293701172 1.310008645058
-98.771545410156 -59.903827667236 -72.380950927734 2.134814977646
114.456336975098 -74.837242126465 -128.397232055664 0.551389455795
10.939851760864 -72.343429565430 -201.880294799805 0.965670645237
-54.101490020752 -71.962898254395 -134.065155029297 1.414173483849
-48.236995697021 -74.607551574707 -137.703598022461 0.284537106752
111.133720397949 -75.535949707031 -140.947189331055 1.309293150902
-54.745937347412 -75.658073425293 -145.869064331055 1.061599612236
0.137405753136 -63.775722503662 -282.885833740234 1.998805522919
-16.785860061646 -71.785881042480 -288.149780273438 1.760667800903
22.522239685059 -71.372489929199 -251.983062744141 0.771500825882
-98.139083862305 -61.740161895752 -108.727218627930 1.785341262817
-14.578441619873 -72.860931396484 -287.169555664063 0.938765764236
116.246276855469 -74.405563354492 -155.089111328125 2.131025314331
18.216926574707 -71.022514343262 -167.810852050781 2.333964586258
94.458328247070 -71.859672546387 -201.627609252930 1.670470356941
-119.797012329102 -74.301521301270 -256.628967285156 1.626372218132
-48.109607696533 -75.432662963867 -184.704040527344 0.354151189327
105.233520507813 -72.749336242676 -188.433898925781 1.940937519073
-43.711730957031 -70.191703796387 -154.469299316406 1.597985029221
-16.718030929565 -72.007553100586 -196.556793212891 1.701717019081
-42.891937255859 -69.319160461426 -148.559844970703 1.802907347679
4.616606235504 -60.050533294678 -244.240783691406 1.307464480400
100.689590454102 -74.611816406250 -196.076904296875 1.403679251671
-81.079605102539 -59.975296020508 -122.476196289063 0.542677521706
-67.137657165527 -73.359169006348 -291.047637939453 1.569939970970
-145.108551025391 -72.339370727539 -214.094573974609 3.582767248154
-148.296203613281 -75.226890563965 -198.071640014648 2.308553934097
-156.082595825195 -66.411697387695 -196.549362182617 1.919046998024
-148.403732299805 -60.563758850098 -214.213027954102 2.290739774704
-136.195144653320 -76.068008422852 -201.232955932617 1.016782879829
103.483192443848 -74.454010009766 -199.264129638672 1.771725177765
-12.459075927734 -74.646415710449 -221.096221923828 1.823650360107
-44.067016601563 -71.766784667969 -161.858169555664 1.071722865105
-49.547725677490 -71.930206298828 -153.748687744141 1.702771186829
-17.874956130981 -71.824142456055 -189.298599243164 2.228117227554
-83.738449096680 -69.906539916992 -118.324264526367 0.760027408600
-49.807472229004 -67.157470703125 -148.924575805664 1.378507494926
-76.108650207520 -71.107666015625 -129.502838134766 0.897832751274
-87.912590026855 -74.454032897949 -254.469421386719 1.350932836533
17.107206344604 -71.633033752441 -221.224563598633 1.645134925842
-9.662464141846 -73.323348999023 -222.006515502930 1.876379251480
-74.505958557129 -69.256706237793 -147.700103759766 1.275902628899
-3.950940847397 -66.558059692383 -223.152069091797 1.510547876358
-52.473415374756 -70.103492736816 -129.674102783203 1.800048828125
-59.150989532471 -71.101921081543 -129.407974243164 0.670245468616
17.110454559326 -70.162094116211 -204.998336791992 1.812686800957
-159.508850097656 -72.994453430176 -226.734985351563 0.633408010006
-153.460754394531 -75.590644836426 -225.466156005859 2.893266916275
-161.450073242188 -74.226921081543 -248.564880371094 0.994326710701
-84.479949951172 -75.544647216797 -289.211700439453 2.247719526291
-146.430938720703 -76.842643737793 -229.249053955078 0.667813837528
-123.524467468262 -64.914146423340 -196.137985229492 1.600955367088
-10.182279586792 -72.770141601563 -234.385742187500 1.718073964119
-4.535571098328 -69.349914550781 -235.418670654297 1.867628812790
4.790276050568 -72.376243591309 -230.296737670898 0.365924894810
-34.282894134521 -64.154624938965 -47.292789459229 0.445803910494
-60.363647460938 -68.596801757813 -124.207778930664 1.368894219398
-16.911809921265 -72.047050476074 -237.298034667969 0.921691238880
-38.358371734619 -75.982215881348 -240.046585083008 2.016320228577
-18.921012878418 -74.948295593262 -242.416534423828 1.182263970375
-13.094588279724 -74.671783447266 -267.748260498047 1.421770572662
-78.265670776367 -74.072471618652 -286.572509765625 1.515515923500
-118.280479431152 -70.804931640625 -202.046432495117 3.550130605698
-154.887268066406 -72.837493896484 -235.199539184570 2.323518037796
-150.601821899414 -66.502838134766 -236.111373901367 0.538862526417
-144.477859497070 -64.160354614258 -234.799026489258 1.708186864853
-71.988265991211 -75.341102600098 -286.991302490234 1.739091157913
-3.105005502701 -73.423324584961 -231.390228271484 2.033349752426
-154.380981445313 -72.251220703125 -217.429092407227 1.360581517220
-150.827316284180 -67.033264160156 -217.976806640625 3.467136383057
-145.928100585938 -63.550304412842 -216.540832519531 2.669428825378
-88.874259948730 -74.666183471680 -287.371002197266 1.262936592102
-61.074584960938 -61.111663818359 -130.675262451172 0.878380596638
-146.646179199219 -74.270393371582 -227.785354614258 1.427528142929
-81.252403259277 -75.588638305664 -288.753173828125 2.103799581528
-108.972496032715 -67.355659484863 -198.842575073242 1.278118491173
93.426406860352 -71.926521301270 -203.339859008789 0.062046058476
-60.251380920410 -72.568702697754 -50.704280853271 2.814743518829
22.890533447266 -61.843284606934 -252.013549804688 1.624069094658
22.814670562744 -73.800003051758 -259.163635253906 1.607809305191
-41.368862152100 -71.011528015137 -50.318054199219 1.507916688919
-43.840763092041 -74.997909545898 -55.006702423096 1.670319080353
84.902450561523 -73.601371765137 -72.356872558594 1.609892249107
56.084186553955 -68.573547363281 -101.447021484375 2.196332454681
-77.339614868164 -64.792938232422 -102.289871215820 1.381188035011
73.391212463379 -74.027549743652 -78.237564086914 1.701196312904
98.429893493652 -72.788719177246 -87.004653930664 0.305617213249
-80.557594299316 -60.484786987305 -46.114723205566 1.650564074516
98.653465270996 -72.843269348145 -89.010467529297 1.792481184006
71.170509338379 -71.043533325195 -97.921325683594 0.349847793579
75.719535827637 -74.365135192871 -96.831497192383 1.036668419838
66.233222961426 -68.024749755859 -81.958602905273 0.684259712696
8.990509033203 -66.284255981445 -291.828643798828 0.687268674374
65.619003295898 -66.106575012207 -77.960433959961 1.451834082603
10.173896789551 -61.575645446777 -291.368072509766 1.456608295441
69.490364074707 -70.635192871094 -94.714233398438 0.926276326180
27.437696456909 -71.647407531738 -169.529281616211 1.187373161316
-164.546997070313 -74.629913330078 -272.506195068359 2.474235296249
8.831324577332 -73.019500732422 -153.897216796875 1.019449830055
-67.448158264160 -74.624656677246 -99.433639526367 1.461144685745
24.676107406616 -67.076141357422 -167.784896850586 0.523015141487
-160.945083618164 -74.623596191406 -276.782470703125 2.895928382874
70.114097595215 -74.630218505859 -236.046707153320 1.382955312729
70.292793273926 -72.163009643555 -80.556396484375 0.898285210133
89.433502197266 -73.747840881348 -100.927536010742 0.945243299007
40.984382629395 -71.203079223633 -40.043312072754 0.929884016514
107.068016052246 -73.483589172363 -102.247940063477 1.034129977226
110.763839721680 -74.715538024902 -115.416793823242 2.733938694000
27.528553009033 -69.259933471680 -21.710903167725 1.649244785309
-56.956542968750 -70.292358398438 -141.575790405273 1.161903262138
114.054008483887 -72.410606384277 -141.877716064453 0.785725653172
-13.678031921387 -71.166213989258 -242.193588256836 2.048820495605
-99.072425842285 -67.307540893555 -163.835861206055 2.114724397659
-47.541156768799 -73.687225341797 -140.873916625977 1.647656917572
-97.004676818848 -72.862380981445 -286.798675537109 1.450320482254
-97.181808471680 -68.366012573242 -289.439575195313 1.355959653854
-147.937042236328 -61.784713745117 -243.248703002930 1.850351810455
-42.192619323730 -71.418663024902 -146.693695068359 1.673014163971
109.816413879395 -71.515243530273 -148.714843750000 2.098320484161
-55.410556793213 -72.366905212402 -144.146499633789 2.136856079102
107.393913269043 -66.829452514648 -99.721221923828 0.737574398518
45.133552551270 -66.890579223633 -37.741920471191 1.736414909363
109.561691284180 -72.824356079102 -145.965515136719 2.009688138962
32.939113616943 -73.715576171875 -157.478317260742 2.143974304199
4.028926849365 -71.254669189453 -241.956039428711 1.574276328087
-31.756216049194 -73.028678894043 -209.494949340820 0.972326159477
-48.658920288086 -71.908821105957 -158.932281494141 1.129307746887
108.197952270508 -74.645996093750 -163.255294799805 1.583247065544
-39.032623291016 -71.857749938965 -157.417648315430 2.097375392914
-58.736434936523 -73.563125610352 -176.483261108398 0.965087950230
-66.043548583984 -72.379287719727 -164.657669067383 1.629968762398
113.088317871094 -75.024436950684 -173.265853881836 1.717746973038
-29.076198577881 -71.478744506836 -169.897171020508 1.944179415703
-34.519485473633 -71.025611877441 -167.097885131836 2.428483247757
-25.492557525635 -72.879676818848 -174.778030395508 2.324256420135
-25.849586486816 -69.311721801758 -178.878753662109 2.612196683884
-36.091968536377 -68.374015808105 -172.237106323242 1.842754364014
104.194679260254 -73.930610656738 -179.376220703125 2.191679239273
-84.722190856934 -61.941158294678 -115.316146850586 1.194690704346
49.728477478027 -64.778808593750 -250.855865478516 1.179191589355
-37.395927429199 -71.724670410156 -289.690429687500 1.572156786919
-145.455230712891 -74.007270812988 -182.993896484375 1.186393618584
-141.138702392578 -67.249404907227 -185.424499511719 2.338083505630
-152.108673095703 -65.218986511230 -184.376022338867 2.769654989243
28.650682449341 -63.932830810547 -257.070068359375 2.820804595947
23.856502532959 -71.429450988770 -258.575531005859 1.832731008530
-52.141841888428 -73.916397094727 -183.316543579102 1.925548076630
-146.127548217773 -74.115005493164 -249.368286132813 2.541338443756
-115.417320251465 -70.789848327637 -197.915191650391 1.408603191376
25.671922683716 -71.003547668457 -185.162918090820 2.299500942230
-30.273258209229 -70.748382568359 -188.732894897461 0.999796867371
-12.331928253174 -71.703300476074 -224.383987426758 0.921823263168
21.855531692505 -71.855064392090 -192.941741943359 1.713871121407
63.704547882080 -60.228000640869 -86.450454711914 2.196364641190
-46.314571380615 -69.800880432129 -48.368465423584 0.457103818655
24.140790939331 -71.290924072266 -264.467254638672 1.330283880234
98.855110168457 -73.733108520508 -192.596221923828 0.946097671986
-54.794174194336 -72.042427062988 -286.241271972656 1.322334408760
-140.213760375977 -73.678771972656 -199.041519165039 1.200379490852
-148.834121704102 -64.336975097656 -200.531478881836 2.020412206650
-152.337966918945 -60.508819580078 -199.863952636719 1.655590176582
-95.047073364258 -71.765075683594 -215.822006225586 1.349545478821
-36.610656738281 -73.873733520508 -203.017623901367 1.382064819336
-63.323486328125 -72.377311706543 -50.572052001953 1.090879559517
93.985206604004 -72.507003784180 -209.028472900391 1.043181061745
-29.068668365479 -72.511398315430 -212.949295043945 1.502915859222
-59.949542999268 -72.919006347656 -167.579269409180 1.099502086639
-19.977396011353 -73.001770019531 -204.860549926758 1.408193826675
12.163341522217 -73.386421203613 -240.090637207031 1.329254865646
65.525497436523 -72.068344116211 -242.630294799805 1.572524070740
98.186614990234 -72.041931152344 -208.573730468750 2.854524850845
9.111483573914 -73.235984802246 -210.118286132813 1.341981887817
-58.385902404785 -73.039474487305 -172.922241210938 2.016103982925
-33.333255767822 -73.892372131348 -212.100006103516 0.515373110771
-21.192285537720 -69.549255371094 -206.025939941406 1.689130544662
11.164192199707 -67.936088562012 -239.851379394531 0.101294644177
54.913028717041 -72.399307250977 -244.302429199219 1.346363186836
-40.781742095947 -62.497524261475 -79.380203247070 1.154764175415
17.275306701660 -73.484222412109 -280.227294921875 1.432770371437
20.121385574341 -71.058059692383 -278.422821044922 0.768945276737
88.802276611328 -71.818626403809 -210.267013549805 0.440675407648
57.249050140381 -71.720184326172 -247.424987792969 0.617010354996
90.836746215820 -72.257308959961 -212.678070068359 2.298853158951
21.270481109619 -68.637832641602 -184.493194580078 0.585137069225
-15.517580986023 -73.286636352539 -217.098983764648 1.397493481636
-28.223039627075 -73.019523620605 -217.401214599609 1.815816164017
-151.068435668945 -73.224311828613 -223.140594482422 0.981291949749
-151.871170043945 -68.103668212891 -223.668106079102 0.671987771988
81.694313049316 -73.010330200195 -223.092300415039 1.578964710236
97.967811584473 -59.251235961914 -106.307464599609 2.759554386139
72.972511291504 -70.673774719238 -231.679977416992 1.798689365387
-72.857643127441 -68.782661437988 -149.586318969727 0.290121883154
-146.991867065430 -73.540534973145 -229.868911743164 1.337654829025
-10.484633445740 -69.624313354492 -218.443679809570 0.901628553867
-155.112213134766 -65.882171630859 -229.414367675781 2.588458776474
-4.311222553253 -67.651428222656 -218.936859130859 2.327293634415
-141.270233154297 -64.497406005859 -228.767776489258 0.855677187443
-13.234601974487 -72.298072814941 -229.404449462891 0.713578820229
50.283367156982 -68.188171386719 -28.288764953613 2.106037139893
-111.222862243652 -70.817382812500 -196.128631591797 2.206027507782
-140.670120239258 -66.387817382813 -231.869522094727 0.386537224054
-153.685775756836 -61.954486846924 -231.154937744141 1.000116109848
-9.434062004089 -74.332313537598 -233.288589477539 1.398474812508
-12.615405082703 -71.177307128906 -204.761611938477 1.492818951607
-16.532625198364 -66.451766967773 -205.223785400391 2.003602981567
19.348709106445 -73.741508483887 -237.193023681641 1.889001488686
-51.186836242676 -63.450511932373 -133.445327758789 1.865448474884
-32.012863159180 -74.872909545898 -239.437210083008 1.355538010597
66.031929016113 -74.121215820313 -239.394058227539 2.017568111420
3.081329107285 -66.466217041016 -292.837371826172 1.045286059380
3.518557310104 -61.064575195313 -290.046539306641 1.228119730949
-105.395584106445 -64.801971435547 -180.046447753906 1.319228172302
-57.743007659912 -73.407142639160 -244.430374145508 1.373661279678
-55.517181396484 -69.069190979004 -47.118133544922 1.438239932060
-80.037597656250 -73.785598754883 -249.231201171875 1.919668912888
-104.185325622559 -70.684173583984 -227.132263183594 1.025200963020
-11.963882446289 -73.647438049316 -252.566894531250 0.938448607922
-94.743431091309 -73.567222595215 -257.038665771484 0.726605296135
-14.119706153870 -74.297378540039 -258.308074951172 2.747489929199
-124.350273132324 -73.143142700195 -262.465911865234 0.546624779701
-127.229667663574 -67.461151123047 -264.453735351563 1.188412547112
-132.656417846680 -71.299812316895 -264.529266357422 1.596290707588
23.316453933716 -72.681442260742 -265.225585937500 0.543650567532
-13.945512771606 -72.951667785645 -269.060852050781 0.886353552341
-11.458007812500 -69.024925231934 -272.897949218750 1.831754326820
26.310487747192 -60.062801361084 -30.371562957764 2.680203914642
-165.404357910156 -74.948753356934 -281.955169677734 1.814292788506
66.366653442383 -70.830360412598 -242.582489013672 1.770235180855
-167.573425292969 -70.663360595703 -282.030120849609 2.223112106323
-153.633804321289 -70.687988281250 -280.140899658203 0.685124874115
-159.477081298828 -74.699531555176 -281.629364013672 3.628740310669
-147.040634155273 -68.027473449707 -281.174682617188 1.378435611725
0.109764665365 -73.078086853027 -161.873870849609 1.833312988281
-157.677429199219 -72.085037231445 -212.569473266602 0.571018934250
-139.507003784180 -70.924003601074 -196.436660766602 1.312422990799
-51.113250732422 -73.716896057129 -285.816192626953 2.123429298401
32.935195922852 -68.373703002930 -135.491943359375 1.231723785400
-52.757511138916 -69.422424316406 -289.508758544922 0.753694415092
-111.421630859375 -66.750396728516 -230.674407958984 1.259968400002
-147.720962524414 -63.711997985840 -197.825576782227 1.936782598495
-152.133026123047 -60.071525573730 -196.359313964844 1.996119022369
-85.789909362793 -72.732742309570 -111.253387451172 2.163066148758
-24.231027603149 -71.896423339844 -287.931396484375 1.818706631660
-21.490421295166 -73.406860351563 -286.770599365234 3.207183837891
-100.818702697754 -74.079856872559 -287.518096923828 1.699330568314
-114.374031066895 -68.583183288574 -196.343734741211 0.844497203827
84.227439880371 -71.596412658691 -222.244247436523 1.176236510277
16.475044250488 -73.863105773926 -290.247100830078 0.616216897964
17.222072601318 -67.982925415039 -283.810119628906 0.567306339741
-144.118530273438 -73.265151977539 -205.056106567383 1.718593835831
-58.176883697510 -71.670829772949 -290.713623046875 0.899391114712
-141.045898437500 -68.944412231445 -204.355361938477 0.537560760975
-152.231643676758 -65.382606506348 -204.173706054688 2.056261301041
-149.693191528320 -61.045730590820 -205.442276000977 0.585537910461
-144.892745971680 -71.940216064453 -241.839447021484 0.836882352829
-98.412994384766 -74.018508911133 -291.090942382813 1.422978878021
-97.813407897949 -69.220840454102 -287.403625488281 1.707332968712
-44.186019897461 -69.351364135742 -144.665771484375 1.958509325981
108.065971374512 -72.639122009277 -178.663146972656 0.610236585140
-19.840450286865 -74.127052307129 -291.800781250000 0.300206393003
4.589012622833 -73.926338195801 -292.737243652344 1.429984569550
67.620124816895 -66.761962890625 -236.913085937500 0.474353969097
28.909591674805 -60.948936462402 -13.384887695313 3.293512105942
24.166780471802 -59.845645904541 -16.475938796997 2.418252229691
-29.599842071533 -72.083839416504 -55.781414031982 1.645509243011
-132.313491821289 -73.408348083496 -226.012954711914 0.275341182947
-17.566345214844 -72.790405273438 -65.068252563477 0.380378603935
80.560493469238 -72.610916137695 -69.443649291992 0.619044601917
77.136184692383 -69.826477050781 -66.193893432617 0.532782137394
72.019866943359 -72.238189697266 -234.824935913086 0.529429793358
-90.479042053223 -72.954780578613 -71.569198608398 1.698109388351
64.421585083008 -69.843231201172 -89.293472290039 0.949239790440
80.174690246582 -73.669151306152 -72.107055664063 1.701280355453
75.987960815430 -73.567153930664 -74.192184448242 0.683528006077
72.101737976074 -70.475143432617 -71.355468750000 2.108450651169
39.978828430176 -73.670509338379 -105.252090454102 0.991599738598
98.574363708496 -71.347785949707 -77.203292846680 1.223158836365
26.899917602539 -61.937393188477 -132.156051635742 0.584948897362
29.416654586792 -62.082187652588 -137.702087402344 1.222778677940
-133.130310058594 -73.824447631836 -255.284271240234 0.535075306892
-40.090217590332 -72.274734497070 -78.301910400391 0.831677198410
-62.847106933594 -67.807510375977 -90.998855590820 1.540005326271
-64.514038085938 -70.158073425293 -93.144088745117 1.119702100754
55.005031585693 -71.802673339844 -100.476974487305 0.717549443245
87.877372741699 -70.542869567871 -66.739624023438 1.480583429337
97.401603698730 -70.447090148926 -72.920791625977 2.504669666290
25.960927963257 -72.833656311035 -144.849960327148 0.746803820133
69.732368469238 -69.447570800781 -231.387237548828 1.272291898727
9.993327140808 -65.892791748047 -291.263336181641 1.417287230492
64.294265747070 -62.641353607178 -78.504577636719 0.569697856903
8.514119148254 -61.467063903809 -291.836090087891 1.292564272881
92.261985778809 -73.464309692383 -99.092224121094 0.266021519899
-93.987014770508 -73.631561279297 -103.490890502930 0.624219596386
8.829648971558 -59.446430206299 -263.824981689453 3.140362977982
58.168888092041 -71.255958557129 -99.363388061523 0.728192210197
-61.727279663086 -59.869403839111 -85.054809570313 1.671191811562
88.015502929688 -71.605606079102 -103.556243896484 0.808463275433
43.188289642334 -71.789146423340 -36.863052368164 2.123109340668
109.377624511719 -72.391860961914 -103.887664794922 1.994654655457
50.078720092773 -69.094848632813 -23.312767028809 0.703564345837
-15.906781196594 -73.172180175781 -230.402832031250 2.536831855774
24.695858001709 -71.328506469727 -189.552368164063 2.103303194046
-95.263488769531 -71.506179809570 -107.001617431641 2.779477834702
39.971969604492 -71.894599914551 -36.826995849609 1.041301250458
110.925460815430 -72.384666442871 -108.012649536133 0.795554518700
-59.015586853027 -68.682037353516 -137.391876220703 0.499154269695
105.298995971680 -72.710975646973 -111.214859008789 1.392186284065
30.445861816406 -72.357986450195 -39.576595306396 1.488817095757
106.172157287598 -71.930793762207 -116.075836181641 1.640713095665
-56.170230865479 -67.825759887695 -88.643997192383 0.206376314163
107.415031433105 -72.554588317871 -121.719940185547 1.852051615715
107.726654052734 -70.394226074219 -124.055572509766 0.402147322893
108.505577087402 -72.514183044434 -128.828536987305 1.415220141411
115.672660827637 -70.408660888672 -129.123855590820 2.500471353531
-21.673751831055 -72.214614868164 -74.537017822266 2.574870347977
38.234279632568 -70.348770141602 -133.129104614258 1.477344393730
-26.538887023926 -67.134140014648 -73.428680419922 0.732342183590
-77.889808654785 -59.554756164551 -114.209304809570 0.772433042526
37.644214630127 -70.648422241211 -135.758605957031 1.706795454025
-164.948379516602 -72.366752624512 -218.075592041016 1.379237771034
10.040206909180 -73.157508850098 -196.610321044922 1.602679848671
-51.316448211670 -73.185569763184 -136.925994873047 1.130002737045
10.415034294128 -70.827362060547 -222.162017822266 1.761546373367
-78.306915283203 -71.124412536621 -137.063400268555 1.478537559509
-45.792568206787 -70.195541381836 -146.691650390625 1.439432978630
9.453484535217 -70.334259033203 -231.715927124023 1.289978623390
-26.280336380005 -70.977058410645 -196.779357910156 0.348207086325
33.963211059570 -70.329071044922 -257.198669433594 2.413703203201
-21.355686187744 -66.826950073242 -196.724197387695 2.469434261322
-75.907485961914 -70.683761596680 -146.193740844727 0.629710257053
1.286272287369 -69.726905822754 -223.187271118164 2.121152400970
29.900802612305 -71.335205078125 -156.562667846680 0.864713132381
22.940128326416 -70.851898193359 -149.429534912109 1.219003677368
29.150409698486 -68.819747924805 -160.875320434570 2.389697074890
-9.061100006104 -73.145706176758 -209.625137329102 0.744249999523
-64.913803100586 -73.243766784668 -153.145614624023 2.818120479584
-35.075710296631 -72.169029235840 -158.803070068359 2.451276063919
111.500633239746 -72.653396606445 -158.291000366211 1.053566694260
-47.808223724365 -71.124816894531 -155.302337646484 1.279843568802
-46.675987243652 -67.574218750000 -149.260284423828 1.948418617249
-82.458366394043 -68.243972778320 -114.216110229492 1.011015295982
19.518253326416 -71.567649841309 -249.082550048828 1.459034442902
102.748558044434 -72.603958129883 -192.642852783203 0.560355305672
-18.012262344360 -69.507003784180 -211.562149047852 2.193347930908
110.031227111816 -72.718597412109 -184.595840454102 1.267532825470
-68.420829772949 -71.400588989258 -159.568679809570 1.044565439224
-14.438984870911 -69.934844970703 -213.392150878906 1.283311724663
33.085041046143 -72.013839721680 -153.689880371094 2.115106821060
20.526121139526 -71.798889160156 -167.538955688477 1.299068927765
13.495612144470 -70.828262329102 -157.625381469727 0.606952726841
-60.693077087402 -73.501091003418 -163.721298217773 1.671501040459
-67.908065795898 -71.922195434570 -161.287765502930 1.628661274910
-15.765961647034 -71.647865295410 -212.427536010742 0.627796471119
19.492315292358 -66.751861572266 -247.361877441406 0.529417634010
-37.135520935059 -71.103286743164 -162.741104125977 2.477349042892
21.593795776367 -66.509567260742 -176.042434692383 1.748649001122
3.233054876328 -72.007888793945 -163.918701171875 0.558258771896
-25.273485183716 -73.276344299316 -179.197875976563 1.686153054237
-30.798498153687 -71.181495666504 -167.176742553711 1.454906821251
-33.249290466309 -70.669044494629 -170.362854003906 1.844404935837
-34.555725097656 -68.397026062012 -167.899429321289 3.702843189240
17.160646438599 -70.322669982910 -148.984664916992 1.144117116928
-0.214648395777 -72.855316162109 -165.807785034180 0.454485356808
16.623146057129 -67.237846374512 -152.697631835938 1.043568611145
113.751586914063 -72.425430297852 -171.828460693359 1.696353912354
111.850326538086 -69.778991699219 -170.707077026367 0.839570224285
111.861557006836 -69.381896972656 -167.550872802734 0.877017498016
47.011249542236 -67.656707763672 -251.950347900391 1.197016835213
14.597463607788 -68.432983398438 -216.437850952148 0.492499083281
-25.336416244507 -71.004272460938 -182.312026977539 1.740834951401
-38.185070037842 -73.088500976563 -172.989883422852 0.836230039597
-23.387701034546 -69.543914794922 -182.063125610352 0.999598085880
-37.417308807373 -68.164260864258 -167.118331909180 2.466002702713
20.140470504761 -70.196456909180 -171.787353515625 2.298344135284
20.763864517212 -68.054244995117 -166.737594604492 1.265972852707
110.190971374512 -73.333648681641 -174.643585205078 0.711913526058
-34.415477752686 -72.682319641113 -183.471862792969 1.945955395699
-37.769107818604 -72.780662536621 -177.684158325195 2.380606174469
-37.679149627686 -69.376419067383 -173.702102661133 1.935137867928
-71.123321533203 -67.798233032227 -141.151016235352 0.248290136456
-30.534055709839 -68.658866882324 -183.234970092773 1.431595206261
-33.684154510498 -71.894905090332 -287.951080322266 2.519074440002
-29.034057617188 -73.542160034180 -285.650451660156 0.887997090816
-144.494400024414 -73.248733520508 -178.816375732422 2.124979972839
-141.120117187500 -67.038681030273 -179.374404907227 2.556196212769
-146.198364257813 -66.158935546875 -175.391677856445 0.560195326805
-151.770690917969 -63.994037628174 -181.103149414063 1.185762047768
-82.309356689453 -64.212509155273 -106.222564697266 1.234037637711
-150.213989257813 -64.870735168457 -175.582443237305 2.269146442413
3.159005403519 -62.583530426025 -259.489868164063 2.209373712540
-20.026081085205 -72.128555297852 -184.604598999023 1.704590201378
-38.196495056152 -70.540878295898 -166.035980224609 1.309205770493
-24.372589111328 -68.729438781738 -182.766067504883 1.632673382759
45.315086364746 -71.488616943359 -252.212432861328 0.959516227245
14.006437301636 -70.753890991211 -218.268066406250 2.001512765884
-73.029304504395 -71.403755187988 -134.251083374023 1.502166509628
-74.153701782227 -71.350791931152 -140.970153808594 1.379087448120
-30.228092193604 -72.245231628418 -185.737899780273 1.215084433556
-37.044414520264 -70.620353698730 -177.061004638672 1.249825716019
-150.235946655273 -72.932746887207 -182.457763671875 1.008284568787
-152.790283203125 -68.528160095215 -184.685638427734 2.598419189453
-142.063568115234 -64.771949768066 -182.942153930664 1.798190593719
-19.622329711914 -61.580589294434 -65.601486206055 1.211635351181
52.982177734375 -68.678146362305 -250.923767089844 0.604645907879
-32.114173889160 -72.748672485352 -187.317276000977 1.355401515961
-29.206428527832 -69.535125732422 -188.443069458008 1.961971640587
101.101020812988 -71.934570312500 -188.176513671875 3.031464815140
-52.228015899658 -71.542053222656 -134.158294677734 0.908679664135
12.721818923950 -72.550918579102 -194.910385131836 0.891123414040
24.509307861328 -73.215621948242 -190.560531616211 1.645554661751
102.376335144043 -69.910354614258 -196.446990966797 3.047891139984
-130.613998413086 -73.578208923340 -198.940017700195 1.923820853233
-124.195892333984 -73.775535583496 -199.864166259766 0.590265750885
-153.589996337891 -66.180160522461 -225.421600341797 2.015082120895
-108.501190185547 -64.793556213379 -191.512268066406 2.904620885849
-20.338314056396 -72.260971069336 -208.405136108398 0.968038260937
-63.613914489746 -72.437950134277 -167.806442260742 2.406479835510
12.260294914246 -71.496292114258 -243.223083496094 1.591642737389
101.580253601074 -72.071449279785 -202.869857788086 2.127709388733
-64.691886901855 -70.704017639160 -290.427032470703 1.713993072510
-145.332687377930 -73.127937316895 -210.094116210938 0.280313163996
-147.261398315430 -60.424247741699 -208.951522827148 2.975021839142
17.411981582642 -73.511817932129 -209.172790527344 1.112302184105
91.029190063477 -72.485725402832 -218.971542358398 0.558814823627
16.253787994385 -72.272697448730 -213.963287353516 1.929522156715
105.226325988770 -59.684673309326 -85.239440917969 1.328302621841
-70.639541625977 -71.975517272949 -157.330062866211 2.432074785233
-12.841900825500 -72.211250305176 -217.282150268555 2.728072404861
-98.392662048340 -71.374214172363 -217.228073120117 0.285588651896
-137.278274536133 -70.097404479980 -255.527404785156 2.106863975525
-77.207290649414 -71.617378234863 -141.177139282227 1.669216990471
2.665426492691 -73.637016296387 -223.419540405273 0.676592886448
-23.813932418823 -72.133003234863 -221.935562133789 1.177499175072
-117.229576110840 -72.965225219727 -292.317138671875 1.013035178185
-152.858764648438 -67.414077758789 -264.374450683594 1.736962795258
84.962646484375 -71.201400756836 -225.851379394531 2.820953845978
-17.805175781250 -70.812606811523 -222.180938720703 1.390119194984
15.228474617004 -71.603446960449 -186.509307861328 1.192738771439
-120.439331054688 -64.993347167969 -197.841003417969 2.391328573227
-5.842805862427 -72.241264343262 -227.156326293945 0.726154625416
-7.320875167847 -67.323898315430 -224.322235107422 2.002735614777
80.826644897461 -72.226753234863 -227.105758666992 1.212169289589
-135.446075439453 -73.018753051758 -231.336471557617 0.978149056435
7.478241443634 -72.818260192871 -238.281494140625 0.345330208540
16.164628982544 -70.834251403809 -230.587799072266 1.781986355782
-73.470191955566 -71.211242675781 -286.620056152344 2.119233369827
-144.868499755859 -66.939178466797 -216.845855712891 1.749254345894
-150.001663208008 -62.488578796387 -217.299713134766 2.995398759842
-157.421234130859 -72.868576049805 -234.345794677734 2.123827219009
47.943702697754 -66.799224853516 -18.905023574829 2.778448820114
-145.088272094727 -72.455238342285 -238.231292724609 2.515951156616
-13.228590011597 -70.585655212402 -237.042617797852 1.236585259438
-165.068496704102 -72.942985534668 -232.824905395508 1.007243871689
8.787737846375 -73.335456848145 -212.561309814453 1.345519781113
-94.204963684082 -72.248977661133 -291.945404052734 0.854947268963
-150.581436157227 -73.549751281738 -239.225280761719 2.613001823425
-155.166793823242 -69.326690673828 -240.171417236328 2.042246103287
47.455524444580 -64.340370178223 -18.533979415894 0.807620584965
22.020786285400 -60.778545379639 -139.558349609375 0.558097422123
59.366008758545 -72.952857971191 -244.324783325195 1.818992257118
11.326246261597 -67.886131286621 -203.940963745117 2.353339195251
-60.023212432861 -67.628089904785 -133.989013671875 2.094416618347
-24.312997817993 -73.176002502441 -239.370239257813 0.610060930252
24.623191833496 -64.242294311523 -16.327014923096 1.167034387589
27.749353408813 -63.446735382080 -13.958349227905 1.546900272369
-93.317398071289 -71.489578247070 -76.981552124023 1.835348010063
69.297752380371 -72.737556457520 -239.744155883789 1.923409461975
-156.345046997070 -73.330429077148 -244.227569580078 1.349788665771
-6.175939083099 -71.405494689941 -238.330139160156 1.364981889725
-10.215804100037 -66.025314331055 -239.755966186523 2.660695791245
-21.918407440186 -73.584678649902 -242.338287353516 0.905769348145
-132.053649902344 -70.551322937012 -204.137649536133 0.969384491444
-166.519897460938 -72.023323059082 -238.509170532227 1.522024512291
-162.151199340820 -73.600952148438 -243.704605102539 3.881253242493
9.122462272644 -72.973800659180 -242.542846679688 1.472014904022
-167.259780883789 -70.224678039551 -243.122146606445 0.730972051620
-42.644683837891 -71.813545227051 -287.228149414063 0.668320298195
-143.067169189453 -68.641288757324 -189.386505126953 2.065226793289
-148.917388916016 -62.351985931396 -186.984512329102 0.121650300920
0.030630353838 -73.346611022949 -242.833999633789 1.204501509666
17.691480636597 -71.763977050781 -243.477340698242 1.465708851814
-3.976850986481 -73.280441284180 -243.645339965820 2.076121807098
-97.014770507813 -68.725204467773 -152.429748535156 0.176818326116
-9.899360656738 -68.270294189453 -242.327362060547 0.599808990955
-137.030319213867 -65.072311401367 -197.204605102539 3.549574851990
-153.330459594727 -73.231277465820 -244.964111328125 1.824828267097
-150.559463500977 -65.505783081055 -244.104827880859 1.774113893509
-146.611221313477 -64.033943176270 -240.934036254883 0.921718537807
-157.139007568359 -73.416732788086 -245.367416381836 0.342967361212
-76.061119079590 -74.317558288574 -248.169158935547 1.125615835190
-58.510135650635 -72.046768188477 -246.423828125000 0.702718734741
-94.490173339844 -72.481636047363 -215.409179687500 0.404503375292
-98.495399475098 -73.511566162109 -255.951324462891 1.135284543037
-14.563198089600 -73.010360717773 -258.509368896484 3.417537927628
-60.402603149414 -70.556121826172 -287.341400146484 1.114410519600
-141.402114868164 -70.112968444824 -203.944778442383 1.160434722900
-142.980438232422 -69.325469970703 -206.057113647461 1.047290444374
-149.648117065430 -64.428657531738 -206.487411499023 0.309913009405
-92.818260192871 -71.040374755859 -252.174224853516 1.283998847008
-80.540145874023 -73.452018737793 -286.488983154297 0.972325086594
-148.730026245117 -62.819095611572 -227.404235839844 0.846994817257
-124.984207153320 -62.306491851807 -201.249694824219 0.681708455086
-93.498580932617 -72.343307495117 -286.632476806641 2.656115770340
-92.392593383789 -69.304199218750 -290.626342773438 2.405882358551
-144.850387573242 -68.708358764648 -240.061614990234 1.900691509247
-115.014793395996 -64.371826171875 -202.930755615234 0.307895123959
-150.467712402344 -64.313552856445 -238.274383544922 2.495029687881
46.383125305176 -70.968116760254 -17.581077575684 1.220933675766
12.548262596130 -70.865516662598 -286.944274902344 0.931344807148
-105.383171081543 -69.002304077148 -171.872024536133 1.652719616890
14.586753845215 -67.072875976563 -287.642791748047 0.925938487053
-81.306465148926 -73.302139282227 -291.288757324219 2.318462133408
-108.003112792969 -69.113021850586 -193.677200317383 0.943273305893
-141.130508422852 -67.897994995117 -225.925491333008 0.881300866604
-152.591537475586 -62.054252624512 -224.948287963867 0.926297307014
