# This PCD file was generated using the MATLAB® pcwrite function
# from Computer Vision Toolbox®.
# .PCD v.7 - Point Cloud Data file format
VERSION .7
FIELDS x y z
SIZE 8 8 8
TYPE F F F
COUNT 1 1 1
WIDTH 799
HEIGHT 1
VIEWPOINT 0 0 0 1 0 0 0
POINTS 799
DATA ascii
20.968799591064453 -51.163200378417969 -25.350000381469727
44.001701354980469 -51.940601348876953 -26.549999237060547
19.823299407958984 -51.940601348876953 -26.950000762939453
24.781200408935547 -51.715198516845703 -26.950000762939453
43.843799591064453 -51.940601348876953 -28.875000000000000
20.152999877929688 -51.940601348876953 -29.750000000000000
23.828100204467773 -51.005599975585938 -30.149999618530273
49.308300018310547 -51.940601348876953 -30.549999237060547
25.798599243164063 -51.940601348876953 -30.950000762939453
42.997398376464844 -51.940601348876953 -31.350000381469727
21.921899795532227 -51.147399902343750 -32.150001525878906
27.107799530029297 -51.940601348876953 -32.950000762939453
21.295000076293945 -51.940601348876953 -33.349998474121094
26.687500000000000 -51.127101898193359 -33.750000000000000
47.678699493408203 -51.940601348876953 -34.150001525878906
40.101100921630859 -51.940601348876953 -34.950000762939453
46.703098297119141 -51.940601348876953 -35.592899322509766
30.091499328613281 -51.940601348876953 -35.750000000000000
37.878200531005859 -51.940601348876953 -36.150001525878906
46.433399200439453 -51.940601348876953 -36.150001525878906
32.144798278808594 -51.940601348876953 -36.549999237060547
25.734399795532227 -50.992000579833984 -36.950000762939453
24.134199142456055 -51.940601348876953 -37.349998474121094
33.044399261474609 -51.940601348876953 -37.349998474121094
45.325000762939453 -51.940601348876953 -37.349998474121094
32.406200408935547 -51.133899688720703 -37.750000000000000
34.706600189208984 -51.940601348876953 -37.750000000000000
44.450901031494141 -51.940601348876953 -38.150001525878906
28.593799591064453 -51.080898284912109 -39.750000000000000
33.112098693847656 -51.940601348876953 -40.150001525878906
31.453100204467773 -51.366798400878906 -40.950000762939453
38.125000000000000 -51.236900329589844 -40.950000762939453
-68.625000000000000 -51.940601348876953 -42.985599517822266
-65.765602111816406 -51.198200225830078 -43.349998474121094
-81.015602111816406 -51.940601348876953 -45.124500274658203
-37.171901702880859 -51.535900115966797 -49.750000000000000
-27.640600204467773 -51.674598693847656 -50.950000762939453
-8.069399833679199 -51.940601348876953 -56.549999237060547
-8.578120231628418 -51.476299285888672 -57.750000000000000
85.575996398925781 -51.940601348876953 -58.950000762939453
-19.062500000000000 -51.940601348876953 -60.071098327636719
96.689903259277344 -51.940601348876953 -61.349998474121094
-27.111099243164063 -51.940601348876953 -61.750000000000000
-31.453100204467773 -51.940601348876953 -63.327899932861328
-60.940898895263672 -51.940601348876953 -63.349998474121094
-65.429901123046875 -51.940601348876953 -64.550003051757813
-64.812500000000000 -51.533000946044922 -66.150001525878906
-61.784599304199219 -51.940601348876953 -66.550003051757813
79.109397888183594 -51.940601348876953 -72.848197937011719
81.015602111816406 -51.592201232910156 -72.550003051757813
83.970298767089844 -51.940601348876953 -73.349998474121094
66.718803405761719 -51.940601348876953 -75.568199157714844
89.537696838378906 -51.940601348876953 -75.349998474121094
91.500000000000000 -51.337898254394531 -75.349998474121094
62.906200408935547 -51.119201660156250 -77.349998474121094
92.808502197265625 -51.940601348876953 -77.349998474121094
61.953098297119141 -50.987499237060547 -79.349998474121094
-45.434898376464844 -51.940601348876953 -79.750000000000000
96.720199584960938 -51.940601348876953 -80.949996948242188
101.984001159667969 -51.456001281738281 -80.949996948242188
62.906200408935547 -51.269401550292969 -81.750000000000000
61.953098297119141 -51.206901550292969 -82.150001525878906
98.171897888183594 -51.589801788330078 -82.150001525878906
103.944000244140625 -51.940601348876953 -85.349998474121094
102.938003540039063 -51.038700103759766 -85.750000000000000
-59.310798645019531 -51.940601348876953 -86.550003051757813
63.859401702880859 -50.995899200439453 -88.550003051757813
103.489997863769531 -51.940601348876953 -88.949996948242188
62.906200408935547 -51.388801574707031 -89.349998474121094
63.859401702880859 -51.134700775146484 -90.550003051757813
99.125000000000000 -51.488899230957031 -92.550003051757813
101.984001159667969 -51.355899810791016 -93.750000000000000
62.906200408935547 -51.412700653076172 -94.550003051757813
101.030998229980469 -51.247798919677734 -94.550003051757813
-68.843002319335938 -51.940601348876953 -95.349998474121094
64.812500000000000 -51.210998535156250 -99.349998474121094
-100.078002929687500 -50.987499237060547 -100.150001525878906
66.718803405761719 -51.324401855468750 -102.150001525878906
-99.390998840332031 -51.940601348876953 -104.949996948242188
-62.906200408935547 -51.695800781250000 -106.550003051757813
-75.724296569824219 -51.940601348876953 -106.949996948242188
-67.671897888183594 -51.940601348876953 -107.417999267578125
-98.794898986816406 -51.940601348876953 -107.750000000000000
-69.578102111816406 -51.436298370361328 -108.949996948242188
-63.859401702880859 -51.370601654052734 -109.750000000000000
-77.825698852539063 -51.940601348876953 -110.550003051757813
-69.578102111816406 -51.558101654052734 -111.750000000000000
-65.765602111816406 -51.451698303222656 -114.150001525878906
-63.859401702880859 -51.573101043701172 -114.150001525878906
-95.723800659179688 -51.940601348876953 -118.150001525878906
-86.734397888183594 -51.543498992919922 -118.150001525878906
-93.406196594238281 -51.384601593017578 -120.150001525878906
-91.500000000000000 -51.940601348876953 -120.453002929687500
1.906250000000000 -51.940601348876953 -235.916000366210938
-2.859380006790161 -51.775299072265625 -236.550003051757813
6.671879768371582 -51.651798248291016 -236.550003051757813
10.484399795532227 -51.733398437500000 -236.550003051757813
-0.953125000000000 -51.797599792480469 -237.350006103515625
0.953125000000000 -51.737499237060547 -237.750000000000000
3.689510107040405 -51.940601348876953 -238.149993896484375
7.232540130615234 -51.940601348876953 -238.149993896484375
6.671879768371582 -51.183700561523438 -238.550003051757813
3.812500000000000 -51.553199768066406 -239.350006103515625
12.390600204467773 -51.523601531982422 -241.350006103515625
17.156200408935547 -51.016399383544922 -241.350006103515625
21.268100738525391 -51.940601348876953 -241.350006103515625
-9.531250000000000 -50.998199462890625 -242.149993896484375
-13.343799591064453 -51.425800323486328 -242.550003051757813
18.109399795532227 -51.378501892089844 -243.350006103515625
17.156200408935547 -50.996299743652344 -243.750000000000000
20.015600204467773 -51.257400512695313 -244.149993896484375
15.250000000000000 -51.940601348876953 -244.712997436523438
24.781200408935547 -51.654701232910156 -244.949996948242188
27.640600204467773 -51.035198211669922 -245.750000000000000
-11.437500000000000 -51.047100067138672 -246.550003051757813
-13.082599639892578 -51.940601348876953 -247.750000000000000
30.006599426269531 -51.940601348876953 -248.550003051757813
27.610200881958008 -51.940601348876953 -248.949996948242188
-12.215900421142578 -51.940601348876953 -249.750000000000000
-11.437500000000000 -51.024898529052734 -249.750000000000000
-13.343799591064453 -51.455398559570313 -250.149993896484375
-12.390600204467773 -51.940601348876953 -250.527999877929688
24.549699783325195 -51.940601348876953 -250.149993896484375
-12.390600204467773 -51.940601348876953 -250.630004882812500
-11.437500000000000 -51.005001068115234 -250.550003051757813
14.736300468444824 -51.940601348876953 -250.550003051757813
-12.354700088500977 -51.940601348876953 -250.949996948242188
-11.437500000000000 -51.150199890136719 -250.949996948242188
8.578120231628418 -51.065601348876953 -250.949996948242188
29.546899795532227 -51.039299011230469 -250.949996948242188
-12.693900108337402 -51.940601348876953 -251.750000000000000
-13.343799591064453 -51.044700622558594 -252.149993896484375
31.044599533081055 -51.940601348876953 -252.149993896484375
-13.769300460815430 -51.940601348876953 -252.550003051757813
-13.343799591064453 -51.024200439453125 -252.550003051757813
6.671879768371582 -51.011100769042969 -252.949996948242188
-12.424699783325195 -51.940601348876953 -253.350006103515625
-13.343799591064453 -51.160800933837891 -253.350006103515625
-12.390600204467773 -51.940601348876953 -253.483001708984375
16.472099304199219 -51.940601348876953 -253.350006103515625
-13.995900154113770 -51.940601348876953 -254.149993896484375
26.493099212646484 -51.940601348876953 -254.149993896484375
30.155500411987305 -51.940601348876953 -254.949996948242188
16.203100204467773 -51.059398651123047 -255.350006103515625
-13.940999984741211 -51.940601348876953 -257.350006103515625
17.430999755859375 -51.940601348876953 -257.350006103515625
11.437500000000000 -51.305198669433594 -258.549987792968750
27.640600204467773 -51.456199645996094 -258.549987792968750
-9.531250000000000 -51.769298553466797 -259.350006103515625
29.546899795532227 -51.022800445556641 -260.149993896484375
-7.625000000000000 -51.633201599121094 -261.750000000000000
17.563100814819336 -51.940601348876953 -261.750000000000000
17.156200408935547 -51.407199859619141 -262.149993896484375
29.271299362182617 -51.940601348876953 -262.549987792968750
5.718750000000000 -51.232398986816406 -263.350006103515625
27.594400405883789 -51.940601348876953 -263.350006103515625
-11.437500000000000 -51.803398132324219 -264.149993896484375
29.149700164794922 -51.940601348876953 -264.149993896484375
14.296899795532227 -51.379600524902344 -264.549987792968750
-4.765620231628418 -51.538600921630859 -265.350006103515625
0.000000000000000 -51.096599578857422 -265.350006103515625
8.578120231628418 -51.246898651123047 -265.350006103515625
27.640600204467773 -51.833198547363281 -266.549987792968750
3.812500000000000 -51.282199859619141 -268.549987792968750
-8.578120231628418 -51.635398864746094 -269.350006103515625
28.593799591064453 -51.869998931884766 -269.350006103515625
8.578120231628418 -51.288799285888672 -270.549987792968750
16.203100204467773 -51.358501434326172 -270.549987792968750
24.781200408935547 -51.791698455810547 -271.350006103515625
27.640600204467773 -51.181098937988281 -271.350006103515625
-0.953125000000000 -51.683700561523438 -271.750000000000000
26.687500000000000 -51.622898101806641 -272.549987792968750
27.363599777221680 -51.940601348876953 -274.950012207031250
-5.718750000000000 -51.743198394775391 -275.350006103515625
19.697900772094727 -51.940601348876953 -275.350006103515625
3.812500000000000 -51.691600799560547 -276.149993896484375
15.250000000000000 -51.540699005126953 -276.549987792968750
19.062500000000000 -51.834701538085938 -277.350006103515625
25.187400817871094 -51.940601348876953 -277.350006103515625
-3.812500000000000 -51.782901763916016 -278.549987792968750
21.921899795532227 -51.654701232910156 -278.950012207031250
11.437500000000000 -51.614799499511719 -279.350006103515625
25.397399902343750 -51.940601348876953 -280.549987792968750
13.343799591064453 -51.775901794433594 -280.950012207031250
20.015600204467773 -51.706798553466797 -282.549987792968750
-0.953125000000000 -51.741100311279297 -283.350006103515625
16.203100204467773 -51.797599792480469 -287.750000000000000
12.390600204467773 -51.305198669433594 -288.149993896484375
0.953125000000000 -51.882900238037109 -288.549987792968750
3.812500000000000 -51.572200775146484 -289.750000000000000
19.681200027465820 -51.940601348876953 -289.750000000000000
13.343799591064453 -51.756999969482422 -290.149993896484375
4.765620231628418 -51.761901855468750 -291.750000000000000
9.531250000000000 -51.818199157714844 -291.750000000000000
9.531250000000000 -51.940601348876953 -294.233001708984375
5.718750000000000 -51.319999694824219 -294.950012207031250
8.578120231628418 -51.940601348876953 -295.993011474609375
33.359401702880859 -50.578998565673828 -12.949999809265137
40.984401702880859 -50.373001098632813 -14.949999809265137
42.890598297119141 -50.861801147460938 -14.949999809265137
27.640600204467773 -50.749198913574219 -15.350000381469727
36.218799591064453 -50.403701782226563 -15.750000000000000
39.078098297119141 -50.259201049804688 -16.950000762939453
43.843799591064453 -50.208801269531250 -16.950000762939453
29.546899795532227 -50.674999237060547 -17.350000381469727
39.078098297119141 -50.576499938964844 -17.350000381469727
45.671699523925781 -50.987499237060547 -17.350000381469727
26.687500000000000 -50.793598175048828 -18.950000762939453
46.703098297119141 -50.193801879882813 -20.149999618530273
43.843799591064453 -50.345901489257813 -21.350000381469727
47.656200408935547 -50.177501678466797 -24.950000762939453
49.331901550292969 -50.987499237060547 -24.950000762939453
44.796901702880859 -50.612701416015625 -27.350000381469727
45.750000000000000 -50.283500671386719 -27.350000381469727
48.609401702880859 -50.544200897216797 -30.149999618530273
43.843799591064453 -50.401199340820313 -32.549999237060547
46.703098297119141 -50.227401733398438 -32.549999237060547
47.159301757812500 -50.987499237060547 -34.549999237060547
40.984401702880859 -50.441299438476563 -36.150001525878906
43.843799591064453 -50.438899993896484 -37.349998474121094
36.218799591064453 -50.761798858642578 -37.750000000000000
31.453100204467773 -50.664798736572266 -38.950000762939453
40.031200408935547 -50.541801452636719 -39.750000000000000
36.218799591064453 -50.565799713134766 -40.150001525878906
-73.390602111816406 -50.987499237060547 -43.400001525878906
-41.937500000000000 -50.987499237060547 -49.741298675537109
-18.109399795532227 -50.987499237060547 -51.647300720214844
-9.050749778747559 -50.987499237060547 -53.750000000000000
-62.906200408935547 -50.885101318359375 -56.150001525878906
-95.765098571777344 -50.987499237060547 -56.950000762939453
-63.859401702880859 -50.987499237060547 -57.349998474121094
74.343803405761719 -50.987499237060547 -57.591899871826172
79.109397888183594 -50.987499237060547 -57.496898651123047
-60.046901702880859 -50.274700164794922 -57.750000000000000
88.640602111816406 -50.987499237060547 -58.213500976562500
91.668197631835938 -50.987499237060547 -58.950000762939453
-60.546100616455078 -50.987499237060547 -59.349998474121094
69.966201782226563 -50.987499237060547 -59.349998474121094
82.921897888183594 -50.987499237060547 -59.635700225830078
-64.894096374511719 -50.987499237060547 -60.549999237060547
-23.828100204467773 -50.987499237060547 -61.178600311279297
68.240798950195313 -50.987499237060547 -60.950000762939453
66.927803039550781 -50.987499237060547 -62.950000762939453
99.389396667480469 -50.987499237060547 -65.349998474121094
-99.543403625488281 -50.987499237060547 -66.949996948242188
65.765602111816406 -50.649299621582031 -67.750000000000000
66.718803405761719 -50.987499237060547 -69.134597778320313
70.531196594238281 -50.522201538085938 -69.349998474121094
77.203102111816406 -50.425899505615234 -69.349998474121094
74.343803405761719 -50.987499237060547 -70.230003356933594
81.968803405761719 -50.987499237060547 -70.873802185058594
-38.100799560546875 -50.987499237060547 -70.949996948242188
64.812500000000000 -50.667400360107422 -72.150001525878906
87.895401000976563 -50.987499237060547 -72.550003051757813
-39.078098297119141 -50.444698333740234 -73.349998474121094
90.025398254394531 -50.987499237060547 -73.349998474121094
64.812500000000000 -50.503200531005859 -75.349998474121094
98.171897888183594 -50.047100067138672 -75.349998474121094
101.984001159667969 -50.213298797607422 -75.349998474121094
63.859401702880859 -50.865798950195313 -76.949996948242188
97.427200317382813 -50.987499237060547 -77.750000000000000
101.030998229980469 -50.987499237060547 -78.250000000000000
-41.937500000000000 -50.987499237060547 -79.592300415039063
-100.692001342773438 -50.987499237060547 -84.550003051757813
63.859401702880859 -50.723300933837891 -84.550003051757813
-57.187500000000000 -50.987499237060547 -85.394897460937500
99.672302246093750 -50.987499237060547 -86.949996948242188
101.984001159667969 -50.578201293945313 -90.150001525878906
61.726200103759766 -50.987499237060547 -90.949996948242188
101.030998229980469 -50.563899993896484 -91.349998474121094
-67.629699707031250 -50.987499237060547 -94.150001525878906
62.906200408935547 -50.913200378417969 -96.949996948242188
65.765602111816406 -50.882701873779297 -97.750000000000000
-71.484397888183594 -50.987499237060547 -99.018302917480469
66.718803405761719 -50.289901733398438 -98.949996948242188
63.859401702880859 -50.737300872802734 -99.750000000000000
-72.618202209472656 -50.987499237060547 -100.949996948242188
65.765602111816406 -50.781200408935547 -103.349998474121094
68.625000000000000 -50.559398651123047 -103.349998474121094
71.484397888183594 -50.558601379394531 -106.550003051757813
68.625000000000000 -50.435199737548828 -107.349998474121094
70.531196594238281 -50.913501739501953 -107.349998474121094
-65.765602111816406 -50.770500183105469 -107.750000000000000
76.250000000000000 -50.370800018310547 -108.550003051757813
74.343803405761719 -50.453201293945313 -110.150001525878906
-94.550003051757813 -50.987499237060547 -118.949996948242188
10.484399795532227 -50.987499237060547 -235.942993164062500
6.671879768371582 -50.784500122070313 -236.550003051757813
3.812500000000000 -50.987499237060547 -237.617004394531250
8.578120231628418 -50.757701873779297 -237.350006103515625
13.343799591064453 -50.403301239013672 -237.350006103515625
11.437500000000000 -50.188701629638672 -241.350006103515625
21.921899795532227 -50.283000946044922 -241.350006103515625
23.791900634765625 -50.987499237060547 -241.750000000000000
16.203100204467773 -50.569099426269531 -242.149993896484375
-11.437500000000000 -50.493999481201172 -242.550003051757813
-1.906250000000000 -50.583499908447266 -242.550003051757813
-6.671879768371582 -50.875400543212891 -242.949996948242188
0.953125000000000 -50.504901885986328 -242.949996948242188
-7.625000000000000 -50.240001678466797 -243.350006103515625
-4.765620231628418 -50.211700439453125 -243.350006103515625
9.531250000000000 -50.695400238037109 -243.350006103515625
23.828100204467773 -50.190898895263672 -243.350006103515625
-9.531250000000000 -50.067600250244141 -243.750000000000000
17.356899261474609 -50.987499237060547 -244.149993896484375
17.156200408935547 -50.860401153564453 -244.149993896484375
18.109399795532227 -50.093898773193359 -244.149993896484375
5.718750000000000 -50.711898803710938 -244.550003051757813
-10.484399795532227 -50.102500915527344 -245.350006103515625
3.812500000000000 -50.604499816894531 -245.750000000000000
8.578120231628418 -50.606201171875000 -245.750000000000000
13.343799591064453 -50.666198730468750 -245.750000000000000
20.015600204467773 -50.651599884033203 -245.750000000000000
24.781200408935547 -50.751899719238281 -246.149993896484375
-11.437500000000000 -50.987499237060547 -246.850006103515625
13.990500450134277 -50.987499237060547 -246.550003051757813
-11.459699630737305 -50.987499237060547 -246.949996948242188
-12.390600204467773 -50.431499481201172 -246.949996948242188
-3.812500000000000 -50.034400939941406 -248.149993896484375
-4.765620231628418 -50.065399169921875 -248.949996948242188
14.296899795532227 -50.794998168945313 -248.949996948242188
30.205699920654297 -50.987499237060547 -248.949996948242188
-11.437500000000000 -50.806701660156250 -249.350006103515625
29.546899795532227 -50.577598571777344 -249.350006103515625
-11.437500000000000 -50.987499237060547 -250.070007324218750
-10.484399795532227 -50.585300445556641 -249.750000000000000
20.968799591064453 -50.360401153564453 -249.750000000000000
-11.457400321960449 -50.987499237060547 -250.149993896484375
-11.437500000000000 -50.987499237060547 -250.283004760742188
-9.531250000000000 -50.496700286865234 -250.550003051757813
12.390600204467773 -50.798999786376953 -250.550003051757813
23.828100204467773 -50.261699676513672 -251.350006103515625
-12.390600204467773 -50.498100280761719 -252.149993896484375
0.953125000000000 -50.468700408935547 -252.949996948242188
-7.625000000000000 -50.640899658203125 -253.750000000000000
-2.859380006790161 -50.401401519775391 -254.550003051757813
29.546899795532227 -50.702701568603516 -254.949996948242188
-12.765600204467773 -50.987499237060547 -255.350006103515625
24.781200408935547 -50.298900604248047 -255.350006103515625
3.812500000000000 -50.707698822021484 -256.549987792968750
25.308099746704102 -50.987499237060547 -257.750000000000000
28.593799591064453 -50.679698944091797 -258.549987792968750
24.510400772094727 -50.987499237060547 -259.350006103515625
-10.484399795532227 -50.868400573730469 -260.549987792968750
0.953125000000000 -50.688598632812500 -260.549987792968750
22.875000000000000 -50.275699615478516 -260.950012207031250
-2.859380006790161 -50.882900238037109 -261.750000000000000
24.567300796508789 -50.987499237060547 -264.950012207031250
28.593799591064453 -50.884201049804688 -265.350006103515625
20.968799591064453 -50.112098693847656 -268.950012207031250
-4.765620231628418 -50.807899475097656 -270.549987792968750
23.828100204467773 -50.910198211669922 -270.549987792968750
0.000000000000000 -50.298698425292969 -270.950012207031250
19.062500000000000 -50.170501708984375 -271.350006103515625
22.875000000000000 -50.780300140380859 -272.549987792968750
-1.906250000000000 -50.825099945068359 -274.950012207031250
26.594499588012695 -50.987499237060547 -276.549987792968750
13.343799591064453 -50.352100372314453 -276.950012207031250
2.859380006790161 -50.601398468017578 -277.750000000000000
5.718750000000000 -50.617900848388672 -280.149993896484375
16.203100204467773 -50.526500701904297 -280.149993896484375
20.015600204467773 -50.925201416015625 -280.149993896484375
3.240629911422729 -50.987499237060547 -281.750000000000000
23.828100204467773 -50.819301605224609 -281.750000000000000
24.133600234985352 -50.987499237060547 -283.750000000000000
10.484399795532227 -50.656799316406250 -284.149993896484375
17.156200408935547 -50.902400970458984 -284.149993896484375
21.921899795532227 -50.655498504638672 -285.750000000000000
21.921899795532227 -50.987499237060547 -286.928985595703125
10.484399795532227 -50.923400878906250 -287.350006103515625
20.015600204467773 -50.609699249267578 -287.750000000000000
17.156200408935547 -50.584499359130859 -290.549987792968750
17.156200408935547 -50.258598327636719 -291.750000000000000
17.516599655151367 -50.987499237060547 -292.149993896484375
14.467100143432617 -50.987499237060547 -294.149993896484375
10.484399795532227 -50.651100158691406 -294.549987792968750
6.671879768371582 -50.987499237060547 -295.872009277343750
9.531250000000000 -50.987499237060547 -295.863006591796875
-68.625000000000000 -50.034400939941406 -43.442298889160156
-75.296897888183594 -50.034400939941406 -43.959300994873047
-61.953098297119141 -50.034400939941406 -44.416698455810547
-53.375000000000000 -50.034400939941406 -46.421199798583984
-50.515598297119141 -49.621299743652344 -47.349998474121094
-86.371002197265625 -50.034400939941406 -47.750000000000000
-44.796901702880859 -49.522499084472656 -48.950000762939453
-35.265598297119141 -49.702499389648438 -50.950000762939453
-91.809600830078125 -50.034400939941406 -51.750000000000000
-21.921899795532227 -50.034400939941406 -52.134998321533203
-27.640600204467773 -49.336498260498047 -52.150001525878906
-61.000000000000000 -49.085601806640625 -52.549999237060547
-62.906200408935547 -49.096500396728516 -53.750000000000000
79.109397888183594 -49.098701477050781 -58.150001525878906
-10.423899650573730 -50.034400939941406 -58.950000762939453
-13.343799591064453 -49.486301422119141 -59.349998474121094
-63.859401702880859 -49.772899627685547 -63.750000000000000
98.465698242187500 -50.034400939941406 -64.150001525878906
-62.906200408935547 -49.936599731445313 -64.550003051757813
71.484397888183594 -49.093200683593750 -64.949996948242188
-36.218799591064453 -49.750701904296875 -66.949996948242188
69.578102111816406 -50.034400939941406 -67.055297851562500
74.343803405761719 -49.601600646972656 -66.949996948242188
67.900100708007813 -50.034400939941406 -67.750000000000000
-37.171901702880859 -49.301200866699219 -68.150001525878906
64.635597229003906 -50.034400939941406 -68.150001525878906
85.304702758789063 -50.034400939941406 -69.750000000000000
66.718803405761719 -49.666099548339844 -70.550003051757813
89.407302856445313 -50.034400939941406 -70.949996948242188
101.984001159667969 -49.152599334716797 -72.550003051757813
102.938003540039063 -49.807899475097656 -72.550003051757813
63.859401702880859 -49.281501770019531 -75.349998474121094
61.765899658203125 -50.034400939941406 -75.750000000000000
62.906200408935547 -49.124099731445313 -75.750000000000000
62.906200408935547 -49.373298645019531 -77.349998474121094
64.548698425292969 -50.034400939941406 -79.750000000000000
-53.375000000000000 -50.034400939941406 -83.689002990722656
60.793201446533203 -50.034400939941406 -83.349998474121094
62.906200408935547 -49.618301391601563 -87.349998474121094
62.906200408935547 -49.526599884033203 -93.349998474121094
63.859401702880859 -49.472900390625000 -94.550003051757813
64.812500000000000 -49.167900085449219 -96.550003051757813
63.859401702880859 -49.115299224853516 -98.150001525878906
64.812500000000000 -49.492198944091797 -99.750000000000000
-99.833999633789063 -50.034400939941406 -102.150001525878906
66.718803405761719 -49.367900848388672 -102.150001525878906
66.718803405761719 -49.317600250244141 -103.349998474121094
-74.901397705078125 -50.034400939941406 -104.550003051757813
69.578102111816406 -49.278900146484375 -106.150001525878906
70.531196594238281 -49.240100860595703 -107.349998474121094
76.250000000000000 -49.471900939941406 -107.349998474121094
81.015602111816406 -49.235801696777344 -107.349998474121094
-98.171897888183594 -49.125598907470703 -107.750000000000000
80.062500000000000 -49.821601867675781 -108.550003051757813
82.921897888183594 -49.659698486328125 -108.550003051757813
71.484397888183594 -49.889701843261719 -109.750000000000000
79.109397888183594 -49.468498229980469 -110.150001525878906
82.921897888183594 -49.244400024414063 -110.150001525878906
-83.875000000000000 -49.287998199462891 -114.150001525878906
-90.546897888183594 -49.802501678466797 -119.750000000000000
12.390600204467773 -50.034400939941406 -236.182006835937500
16.203100204467773 -50.034400939941406 -236.453994750976563
17.156200408935547 -49.288398742675781 -237.350006103515625
18.109399795532227 -49.404598236083984 -238.149993896484375
20.834499359130859 -50.034400939941406 -238.550003051757813
20.968799591064453 -49.341201782226563 -239.350006103515625
22.875000000000000 -49.676998138427734 -241.350006103515625
14.694000244140625 -50.034400939941406 -241.750000000000000
-3.812500000000000 -49.614101409912109 -242.149993896484375
0.953125000000000 -49.822601318359375 -242.149993896484375
9.531250000000000 -49.711700439453125 -242.949996948242188
17.156200408935547 -50.034400939941406 -243.483001708984375
6.671879768371582 -49.719100952148438 -243.750000000000000
-6.671879768371582 -49.602500915527344 -244.149993896484375
13.343799591064453 -49.670600891113281 -244.550003051757813
17.428600311279297 -50.034400939941406 -244.550003051757813
-9.531250000000000 -50.034400939941406 -246.389999389648438
9.531250000000000 -49.564899444580078 -246.149993896484375
18.109399795532227 -49.866199493408203 -246.149993896484375
-11.907899856567383 -50.034400939941406 -246.550003051757813
3.812500000000000 -49.471199035644531 -246.550003051757813
13.343799591064453 -49.477298736572266 -248.550003051757813
-11.437500000000000 -49.661098480224609 -249.350006103515625
-12.112000465393066 -50.034400939941406 -249.750000000000000
18.109399795532227 -49.538600921630859 -249.750000000000000
-12.106399536132813 -50.034400939941406 -250.149993896484375
6.671879768371582 -49.618900299072266 -250.949996948242188
1.906250000000000 -49.317298889160156 -251.350006103515625
20.968799591064453 -49.590801239013672 -251.750000000000000
18.109399795532227 -49.618900299072266 -253.750000000000000
10.484399795532227 -49.748401641845703 -254.550003051757813
0.953125000000000 -49.323898315429688 -255.750000000000000
-8.578120231628418 -49.759201049804688 -256.549987792968750
-2.859380006790161 -49.321800231933594 -257.750000000000000
8.578120231628418 -49.782798767089844 -258.549987792968750
20.968799591064453 -49.755901336669922 -260.149993896484375
3.812500000000000 -49.596801757812500 -261.350006103515625
18.109399795532227 -49.902198791503906 -261.750000000000000
11.437500000000000 -49.943599700927734 -262.149993896484375
-4.765620231628418 -49.807800292968750 -262.950012207031250
-1.906250000000000 -49.697200775146484 -264.950012207031250
4.765620231628418 -49.681598663330078 -267.350006103515625
14.296899795532227 -49.960498809814453 -269.750000000000000
5.718750000000000 -49.958099365234375 -272.950012207031250
-12.390600204467773 -49.081199645996094 -52.630001068115234
-59.827301025390625 -49.081199645996094 -54.950000762939453
-63.978000640869141 -49.081199645996094 -55.750000000000000
79.109397888183594 -48.358200073242188 -55.750000000000000
75.296897888183594 -49.081199645996094 -57.357498168945313
81.968803405761719 -48.392101287841797 -57.349998474121094
88.640602111816406 -49.081199645996094 -57.987201690673828
-96.581001281738281 -49.081199645996094 -58.150001525878906
71.979103088378906 -49.081199645996094 -58.549999237060547
83.875000000000000 -48.179599761962891 -59.750000000000000
95.799400329589844 -49.081199645996094 -61.349998474121094
-61.907100677490234 -49.081199645996094 -62.549999237060547
-31.097900390625000 -49.081199645996094 -62.549999237060547
67.245697021484375 -49.081199645996094 -62.950000762939453
73.390602111816406 -48.135200500488281 -62.950000762939453
72.437500000000000 -48.561698913574219 -64.150001525878906
67.671897888183594 -48.456001281738281 -64.550003051757813
-99.355598449707031 -49.081199645996094 -65.750000000000000
79.109397888183594 -49.081199645996094 -66.550003051757813
81.015602111816406 -48.575599670410156 -66.550003051757813
66.718803405761719 -48.572299957275391 -68.150001525878906
87.806602478027344 -49.081199645996094 -68.550003051757813
64.812500000000000 -48.938701629638672 -70.150001525878906
98.171897888183594 -48.511001586914063 -72.550003051757813
-39.771800994873047 -49.081199645996094 -76.550003051757813
-100.519996643066406 -49.081199645996094 -76.949996948242188
63.538101196289063 -49.081199645996094 -78.550003051757813
-47.268501281738281 -49.081199645996094 -81.750000000000000
61.680801391601563 -49.081199645996094 -84.550003051757813
60.546600341796875 -49.081199645996094 -86.949996948242188
63.516201019287109 -49.081199645996094 -90.150001525878906
65.134803771972656 -49.081199645996094 -90.150001525878906
65.152900695800781 -49.081199645996094 -90.550003051757813
65.765602111816406 -48.158901214599609 -90.550003051757813
60.861000061035156 -49.081199645996094 -92.150001525878906
62.434398651123047 -49.081199645996094 -93.349998474121094
65.496101379394531 -49.081199645996094 -93.349998474121094
66.494003295898438 -49.081199645996094 -96.949996948242188
67.980003356933594 -49.081199645996094 -100.550003051757813
-75.744598388671875 -49.081199645996094 -105.349998474121094
-98.645500183105469 -49.081199645996094 -106.550003051757813
83.875000000000000 -48.507701873779297 -107.349998474121094
74.343803405761719 -48.676700592041016 -108.150001525878906
80.062500000000000 -48.210498809814453 -108.150001525878906
73.390602111816406 -49.022701263427734 -108.949996948242188
80.062500000000000 -48.374900817871094 -108.949996948242188
-97.844200134277344 -49.081199645996094 -109.750000000000000
88.640602111816406 -48.743000030517578 -109.750000000000000
92.453102111816406 -48.587600708007813 -109.750000000000000
76.250000000000000 -48.167800903320313 -110.150001525878906
94.359397888183594 -48.195499420166016 -110.150001525878906
87.687500000000000 -48.975399017333984 -111.349998474121094
-82.921897888183594 -48.890598297119141 -112.150001525878906
-92.453102111816406 -48.273498535156250 -118.949996948242188
-6.671879768371582 -48.837100982666016 -243.350006103515625
-9.610670089721680 -49.081199645996094 -243.750000000000000
-2.859380006790161 -48.867000579833984 -244.149993896484375
0.357421994209290 -49.081199645996094 -245.350006103515625
-10.411100387573242 -49.081199645996094 -246.550003051757813
-4.765620231628418 -48.630798339843750 -247.350006103515625
0.000000000000000 -48.916698455810547 -247.750000000000000
-6.671879768371582 -48.913898468017578 -251.750000000000000
-0.953125000000000 -49.019298553466797 -253.350006103515625
-82.921897888183594 -48.128101348876953 -46.380100250244141
-58.140598297119141 -47.437301635742188 -46.549999237060547
-40.984401702880859 -48.128101348876953 -51.506000518798828
-92.749496459960938 -48.128101348876953 -52.950000762939453
-20.968799591064453 -47.492698669433594 -53.349998474121094
-16.203100204467773 -47.213298797607422 -53.349998474121094
-10.484399795532227 -48.128101348876953 -53.730201721191406
76.250000000000000 -47.699199676513672 -55.750000000000000
-95.846298217773438 -48.128101348876953 -56.950000762939453
76.250000000000000 -47.184200286865234 -56.950000762939453
78.156196594238281 -47.463798522949219 -56.950000762939453
84.828102111816406 -47.462600708007813 -58.549999237060547
73.390602111816406 -47.617198944091797 -58.950000762939453
93.406196594238281 -48.128101348876953 -59.456798553466797
-63.881301879882813 -48.128101348876953 -59.750000000000000
-60.990699768066406 -48.128101348876953 -59.750000000000000
-21.921899795532227 -48.128101348876953 -60.539100646972656
68.882202148437500 -48.128101348876953 -60.950000762939453
-29.546899795532227 -48.128101348876953 -62.063201904296875
70.641502380371094 -48.128101348876953 -64.550003051757813
83.875000000000000 -47.732799530029297 -65.750000000000000
99.839797973632813 -48.128101348876953 -66.150001525878906
86.734397888183594 -48.128101348876953 -66.550003051757813
69.578102111816406 -47.306499481201172 -66.949996948242188
90.546897888183594 -47.521198272705078 -66.949996948242188
101.198997497558594 -48.128101348876953 -69.349998474121094
94.677101135253906 -48.128101348876953 -70.150001525878906
62.518699645996094 -48.128101348876953 -70.550003051757813
67.099998474121094 -48.128101348876953 -71.349998474121094
-100.178001403808594 -48.128101348876953 -74.150001525878906
66.718803405761719 -47.630100250244141 -74.550003051757813
61.000000000000000 -48.128101348876953 -75.250000000000000
61.953098297119141 -47.716499328613281 -75.750000000000000
-40.473899841308594 -48.128101348876953 -77.750000000000000
-41.263401031494141 -48.128101348876953 -78.550003051757813
61.000000000000000 -47.523998260498047 -78.550003051757813
-43.338699340820313 -48.128101348876953 -79.349998474121094
65.765602111816406 -47.810398101806641 -79.349998474121094
60.046901702880859 -48.128101348876953 -80.404502868652344
63.859401702880859 -48.128101348876953 -80.949996948242188
-52.421901702880859 -47.361400604248047 -82.550003051757813
61.000000000000000 -47.924800872802734 -83.349998474121094
60.046901702880859 -47.572101593017578 -84.949996948242188
66.718803405761719 -47.574001312255859 -85.750000000000000
63.804901123046875 -48.128101348876953 -87.750000000000000
65.765602111816406 -47.819400787353516 -87.750000000000000
64.063598632812500 -48.128101348876953 -89.750000000000000
65.751403808593750 -48.128101348876953 -89.750000000000000
64.812500000000000 -47.216400146484375 -89.750000000000000
70.531196594238281 -47.270301818847656 -89.750000000000000
61.000000000000000 -47.581699371337891 -90.150001525878906
64.058403015136719 -48.128101348876953 -90.150001525878906
65.752601623535156 -48.128101348876953 -90.150001525878906
64.812500000000000 -47.213100433349609 -90.150001525878906
65.765602111816406 -48.128101348876953 -90.250000000000000
66.718803405761719 -47.608898162841797 -90.150001525878906
66.718803405761719 -47.647201538085938 -91.349998474121094
60.107398986816406 -48.128101348876953 -92.150001525878906
71.484397888183594 -47.253799438476563 -94.949996948242188
67.671897888183594 -47.614898681640625 -95.750000000000000
-100.425003051757813 -48.128101348876953 -96.150001525878906
68.625000000000000 -47.551399230957031 -98.150001525878906
61.628200531005859 -48.128101348876953 -98.550003051757813
62.906200408935547 -47.377201080322266 -98.550003051757813
-71.550102233886719 -48.128101348876953 -99.349998474121094
101.984001159667969 -47.208999633789063 -99.750000000000000
68.400100708007813 -48.128101348876953 -100.150001525878906
68.570503234863281 -48.128101348876953 -100.550003051757813
67.671897888183594 -47.202999114990234 -100.550003051757813
68.625000000000000 -48.048698425292969 -100.550003051757813
69.578102111816406 -47.572101593017578 -100.550003051757813
62.574699401855469 -48.128101348876953 -100.949996948242188
-72.853698730468750 -48.128101348876953 -101.349998474121094
69.578102111816406 -47.930900573730469 -102.150001525878906
99.125000000000000 -47.471401214599609 -102.949996948242188
68.625000000000000 -47.775901794433594 -103.349998474121094
100.078002929687500 -47.313499450683594 -104.150001525878906
64.683097839355469 -48.128101348876953 -104.550003051757813
71.484397888183594 -47.875000000000000 -104.550003051757813
97.218803405761719 -47.385898590087891 -104.550003051757813
66.718803405761719 -47.813899993896484 -104.949996948242188
73.390602111816406 -47.465099334716797 -105.349998474121094
97.218803405761719 -47.761001586914063 -105.750000000000000
-77.671897888183594 -48.128101348876953 -106.550003051757813
75.296897888183594 -47.781501770019531 -106.550003051757813
95.312500000000000 -47.819801330566406 -106.949996948242188
82.921897888183594 -47.644199371337891 -108.150001525878906
67.795196533203125 -48.128101348876953 -108.550003051757813
-82.032798767089844 -48.128101348876953 -110.150001525878906
84.828102111816406 -47.658699035644531 -110.150001525878906
81.015602111816406 -47.309398651123047 -110.550003051757813
88.640602111816406 -47.378601074218750 -110.550003051757813
95.312500000000000 -47.346298217773438 -110.550003051757813
73.390602111816406 -48.128101348876953 -111.386001586914063
88.640602111816406 -47.195098876953125 -111.349998474121094
92.453102111816406 -48.022998809814453 -111.750000000000000
88.640602111816406 -48.029499053955078 -112.550003051757813
-96.307701110839844 -48.128101348876953 -113.349998474121094
-85.781196594238281 -47.997100830078125 -115.349998474121094
-94.773803710937500 -48.128101348876953 -116.949996948242188
-74.343803405761719 -47.174999237060547 -44.599998474121094
-62.906200408935547 -46.588500976562500 -45.750000000000000
-52.421901702880859 -46.358001708984375 -48.150001525878906
-50.515598297119141 -47.067100524902344 -48.549999237060547
-62.150798797607422 -47.174999237060547 -50.150001525878906
-89.984397888183594 -47.174999237060547 -50.549999237060547
-42.890598297119141 -47.174999237060547 -51.480800628662109
-9.178509712219238 -47.174999237060547 -55.349998474121094
81.968803405761719 -46.374401092529297 -55.349998474121094
-63.764099121093750 -47.174999237060547 -55.750000000000000
83.224296569824219 -47.174999237060547 -56.549999237060547
81.968803405761719 -46.410701751708984 -56.950000762939453
91.500000000000000 -47.174999237060547 -57.970199584960938
72.890197753906250 -47.174999237060547 -58.549999237060547
82.921897888183594 -46.622798919677734 -58.549999237060547
96.265602111816406 -46.677299499511719 -58.549999237060547
75.142799377441406 -47.174999237060547 -58.950000762939453
-14.296899795532227 -47.066101074218750 -59.349998474121094
83.875000000000000 -46.705200195312500 -59.750000000000000
95.312500000000000 -46.929000854492188 -60.150001525878906
-97.678497314453125 -47.174999237060547 -60.549999237060547
74.797599792480469 -47.174999237060547 -61.349998474121094
71.761398315429688 -47.174999237060547 -61.750000000000000
100.078002929687500 -46.681301116943359 -61.750000000000000
-98.538497924804688 -47.174999237060547 -62.950000762939453
66.233001708984375 -47.174999237060547 -62.950000762939453
100.078002929687500 -46.481800079345703 -62.950000762939453
96.523597717285156 -47.174999237060547 -63.349998474121094
72.437500000000000 -46.489398956298828 -63.750000000000000
81.015602111816406 -47.174999237060547 -63.863201141357422
87.687500000000000 -46.702999114990234 -64.150001525878906
100.078002929687500 -46.360500335693359 -64.150001525878906
89.593803405761719 -46.628501892089844 -64.550003051757813
65.765602111816406 -46.931701660156250 -65.750000000000000
63.616001129150391 -47.174999237060547 -67.349998474121094
67.671897888183594 -47.174999237060547 -67.715698242187500
70.531196594238281 -46.673801422119141 -67.349998474121094
97.218803405761719 -46.524299621582031 -68.949996948242188
100.078002929687500 -46.776699066162109 -68.949996948242188
63.888500213623047 -47.174999237060547 -69.349998474121094
68.625000000000000 -47.174999237060547 -70.105598449707031
69.578102111816406 -46.773700714111328 -69.750000000000000
67.671897888183594 -46.277099609375000 -70.150001525878906
62.162399291992188 -47.174999237060547 -72.150001525878906
72.437500000000000 -46.471199035644531 -72.150001525878906
104.844001770019531 -46.322200775146484 -72.949996948242188
65.765602111816406 -47.025001525878906 -73.349998474121094
103.890998840332031 -46.505199432373047 -74.949996948242188
69.578102111816406 -46.771400451660156 -75.750000000000000
104.844001770019531 -46.618301391601563 -78.550003051757813
64.812500000000000 -47.043800354003906 -78.949996948242188
105.796997070312500 -46.390098571777344 -80.949996948242188
76.250000000000000 -46.419799804687500 -81.349998474121094
69.578102111816406 -46.925899505615234 -81.750000000000000
-55.281200408935547 -46.945899963378906 -82.949996948242188
104.844001770019531 -46.494201660156250 -84.150001525878906
70.531196594238281 -46.921501159667969 -85.750000000000000
-100.809997558593750 -47.174999237060547 -86.949996948242188
64.812500000000000 -46.980998992919922 -86.949996948242188
72.437500000000000 -46.890899658203125 -88.550003051757813
103.890998840332031 -46.376201629638672 -88.550003051757813
105.796997070312500 -46.451000213623047 -88.550003051757813
-60.476699829101563 -47.174999237060547 -88.949996948242188
64.769203186035156 -47.174999237060547 -89.349998474121094
64.812500000000000 -47.174999237060547 -89.578598022460938
76.250000000000000 -46.607299804687500 -89.349998474121094
65.765602111816406 -46.793701171875000 -89.750000000000000
104.844001770019531 -46.735099792480469 -89.750000000000000
-100.728996276855469 -47.174999237060547 -90.550003051757813
81.015602111816406 -46.422901153564453 -92.949996948242188
65.765602111816406 -46.927501678466797 -94.550003051757813
101.984001159667969 -46.358001708984375 -94.550003051757813
103.890998840332031 -46.882301330566406 -94.949996948242188
104.844001770019531 -46.358001708984375 -94.949996948242188
61.953098297119141 -47.115398406982422 -95.349998474121094
72.437500000000000 -46.978298187255859 -95.750000000000000
80.062500000000000 -46.626399993896484 -96.150001525878906
81.015602111816406 -46.570899963378906 -97.349998474121094
66.718803405761719 -47.174999237060547 -98.038902282714844
101.984001159667969 -47.153800964355469 -97.750000000000000
77.203102111816406 -46.865398406982422 -98.550003051757813
82.921897888183594 -46.430400848388672 -99.750000000000000
75.296897888183594 -46.860801696777344 -100.150001525878906
-73.898002624511719 -47.174999237060547 -102.550003051757813
69.578102111816406 -46.766498565673828 -102.550003051757813
82.921897888183594 -46.495300292968750 -103.349998474121094
76.250000000000000 -46.952999114990234 -103.750000000000000
79.109397888183594 -46.707801818847656 -105.349998474121094
65.765602111816406 -46.918800354003906 -105.750000000000000
81.015602111816406 -47.174999237060547 -106.169998168945313
73.390602111816406 -46.709701538085938 -106.550003051757813
66.372200012207031 -47.174999237060547 -107.349998474121094
75.296897888183594 -46.907501220703125 -107.349998474121094
97.722801208496094 -47.174999237060547 -108.150001525878906
69.578102111816406 -46.830799102783203 -108.550003051757813
94.359397888183594 -46.514099121093750 -108.550003051757813
95.312500000000000 -46.339900970458984 -108.949996948242188
68.211601257324219 -47.174999237060547 -109.750000000000000
81.015602111816406 -46.677299499511719 -109.750000000000000
72.437500000000000 -46.266201019287109 -110.550003051757813
77.203102111816406 -46.488800048828125 -110.550003051757813
71.484397888183594 -46.276298522949219 -110.949996948242188
74.343803405761719 -46.299400329589844 -111.349998474121094
91.500000000000000 -46.558700561523438 -111.349998474121094
85.781196594238281 -46.791301727294922 -112.550003051757813
-88.640602111816406 -46.863399505615234 -117.349998474121094
-70.531196594238281 -46.221900939941406 -44.812301635742188
-66.718803405761719 -45.705600738525391 -45.349998474121094
-81.015602111816406 -45.315200805664063 -46.549999237060547
-60.607498168945313 -46.221900939941406 -47.349998474121094
-58.140598297119141 -46.221900939941406 -47.720401763916016
-58.996101379394531 -46.221900939941406 -48.950000762939453
-63.117198944091797 -46.221900939941406 -52.150001525878906
-59.152900695800781 -46.221900939941406 -52.950000762939453
-60.046901702880859 -46.143699645996094 -54.950000762939453
-61.000000000000000 -45.965301513671875 -55.750000000000000
-9.069669723510742 -46.221900939941406 -56.549999237060547
70.960700988769531 -46.221900939941406 -57.750000000000000
89.593803405761719 -46.221900939941406 -57.819400787353516
92.453102111816406 -45.411300659179688 -58.150001525878906
86.734397888183594 -45.883300781250000 -58.549999237060547
69.134803771972656 -46.221900939941406 -59.349998474121094
95.312500000000000 -45.716800689697266 -59.349998474121094
86.734397888183594 -45.527301788330078 -59.750000000000000
92.453102111816406 -45.575500488281250 -59.750000000000000
-19.062500000000000 -45.593200683593750 -60.150001525878906
77.203102111816406 -46.221900939941406 -60.331001281738281
95.312500000000000 -45.659801483154297 -60.150001525878906
69.578102111816406 -45.924701690673828 -60.549999237060547
80.062500000000000 -46.056900024414063 -60.549999237060547
73.390602111816406 -45.985900878906250 -60.950000762939453
75.296897888183594 -45.796001434326172 -61.349998474121094
72.437500000000000 -45.822700500488281 -62.150001525878906
73.390602111816406 -45.304000854492188 -62.150001525878906
95.350601196289063 -46.221900939941406 -62.150001525878906
73.390602111816406 -45.312099456787109 -62.549999237060547
84.828102111816406 -46.221900939941406 -62.792400360107422
89.593803405761719 -46.221900939941406 -62.859100341796875
91.500000000000000 -45.702400207519531 -62.549999237060547
66.718803405761719 -45.923400878906250 -62.950000762939453
98.171897888183594 -45.995399475097656 -62.950000762939453
-34.312500000000000 -46.113300323486328 -63.349998474121094
95.312500000000000 -45.575401306152344 -63.750000000000000
-35.265598297119141 -45.699600219726563 -64.150001525878906
70.531196594238281 -45.951801300048828 -64.550003051757813
78.156196594238281 -45.567901611328125 -65.750000000000000
97.218803405761719 -45.601699829101563 -65.750000000000000
103.890998840332031 -45.877399444580078 -67.349998474121094
68.625000000000000 -45.946201324462891 -69.349998474121094
67.751296997070313 -46.221900939941406 -70.150001525878906
67.671897888183594 -46.221900939941406 -70.349998474121094
101.984001159667969 -46.104400634765625 -70.150001525878906
74.343803405761719 -45.951099395751953 -70.550003051757813
81.015602111816406 -45.436500549316406 -71.750000000000000
