# This PCD file was generated using the MATLAB® pcwrite function
# from Computer Vision Toolbox®.
# .PCD v.7 - Point Cloud Data file format
VERSION .7
FIELDS x y z
SIZE 8 8 8
TYPE F F F
COUNT 1 1 1
WIDTH 786
HEIGHT 1
VIEWPOINT 0 0 0 1 0 0 0
POINTS 786
DATA ascii
-93.406196594238281 -73.292800903320313 -252.949996948242188
-154.406005859375000 -73.662002563476563 -253.350006103515625
-152.610992431640625 -73.862503051757813 -253.350006103515625
-125.811996459960938 -73.198501586914063 -254.550003051757813
-133.438003540039063 -73.454002380371094 -254.949996948242188
-13.856200218200684 -73.862503051757813 -254.949996948242188
-155.358993530273438 -73.575103759765625 -255.350006103515625
-85.781196594238281 -73.486999511718750 -255.350006103515625
-116.984001159667969 -73.862503051757813 -255.750000000000000
-99.125000000000000 -73.651901245117188 -255.750000000000000
-94.359397888183594 -73.803100585937500 -255.750000000000000
-135.343994140625000 -72.916999816894531 -256.149993896484375
-165.843994140625000 -73.824600219726563 -256.950012207031250
-122.953002929687500 -73.862503051757813 -257.316986083984375
-104.844001770019531 -73.330902099609375 -256.950012207031250
-97.218803405761719 -73.662399291992188 -256.950012207031250
-92.453102111816406 -73.434196472167969 -256.950012207031250
-149.641006469726563 -73.862503051757813 -257.488006591796875
-117.234001159667969 -73.729499816894531 -257.350006103515625
-147.733993530273438 -73.593399047851563 -257.750000000000000
-100.078002929687500 -73.499702453613281 -258.149993896484375
-105.796997070312500 -73.180801391601563 -258.549987792968750
-160.125000000000000 -73.820701599121094 -258.950012207031250
-114.375000000000000 -73.613899230957031 -258.950012207031250
-108.655998229980469 -73.266799926757813 -258.950012207031250
-150.046997070312500 -73.862503051757813 -259.350006103515625
-166.796997070312500 -73.355903625488281 -259.750000000000000
-156.311996459960938 -73.771598815917969 -259.750000000000000
-149.641006469726563 -73.862503051757813 -260.140014648437500
-147.733993530273438 -73.575103759765625 -259.750000000000000
-115.328002929687500 -73.747100830078125 -260.549987792968750
-14.897299766540527 -73.862503051757813 -260.549987792968750
-123.905998229980469 -73.627799987792969 -260.950012207031250
-155.177001953125000 -73.862503051757813 -262.149993896484375
-142.016006469726563 -73.598701477050781 -262.149993896484375
-134.496994018554688 -73.862503051757813 -262.950012207031250
-14.549699783325195 -73.862503051757813 -263.750000000000000
-153.453002929687500 -73.794601440429688 -264.950012207031250
-145.679000854492188 -73.862503051757813 -264.950012207031250
-166.796997070312500 -73.698799133300781 -266.149993896484375
-11.078499794006348 -73.862503051757813 -275.750000000000000
-167.350997924804688 -73.862503051757813 -278.149993896484375
-9.008760452270508 -73.862503051757813 -279.350006103515625
-145.951004028320313 -73.862503051757813 -280.149993896484375
-167.570007324218750 -73.862503051757813 -282.149993896484375
-145.458999633789063 -73.862503051757813 -283.350006103515625
-143.921997070312500 -73.862503051757813 -284.734008789062500
-142.016006469726563 -73.099998474121094 -285.350006103515625
-136.296997070312500 -73.862503051757813 -285.834991455078125
-64.812500000000000 -73.862503051757813 -285.881988525390625
-124.867996215820313 -73.862503051757813 -286.149993896484375
-73.390602111816406 -73.862503051757813 -286.302001953125000
-40.031200408935547 -73.862503051757813 -286.183013916015625
-33.359401702880859 -73.862503051757813 -286.532012939453125
-26.687500000000000 -73.862503051757813 -286.420989990234375
-123.905998229980469 -73.862503051757813 -286.876007080078125
-85.781196594238281 -73.862503051757813 -286.610992431640625
-31.453100204467773 -73.149696350097656 -286.549987792968750
-12.390600204467773 -73.862503051757813 -286.799011230468750
-115.328002929687500 -73.606201171875000 -286.950012207031250
-4.765620231628418 -73.564102172851563 -286.950012207031250
9.013660430908203 -73.862503051757813 -287.750000000000000
8.875980377197266 -73.862503051757813 -288.149993896484375
13.343799591064453 -73.862503051757813 -288.792999267578125
-165.442001342773438 -73.862503051757813 -289.350006103515625
-45.750000000000000 -73.862503051757813 -290.911987304687500
-107.703002929687500 -73.862503051757813 -291.003997802734375
-87.687500000000000 -73.862503051757813 -291.273986816406250
-76.250000000000000 -73.862503051757813 -291.250000000000000
-66.718803405761719 -73.862503051757813 -291.045989990234375
-98.171897888183594 -73.732803344726563 -291.350006103515625
-32.479598999023438 -73.862503051757813 -291.350006103515625
-115.328002929687500 -73.637100219726563 -291.750000000000000
-113.421997070312500 -72.931503295898438 -291.750000000000000
-105.796997070312500 -73.129302978515625 -291.750000000000000
-19.062500000000000 -73.862503051757813 -291.750000000000000
-15.250000000000000 -73.093299865722656 -291.750000000000000
-13.343799591064453 -73.862503051757813 -291.993011474609375
-7.625000000000000 -72.922401428222656 -291.750000000000000
-121.046997070312500 -73.297096252441406 -292.149993896484375
1.299710035324097 -73.862503051757813 -292.549987792968750
6.671879768371582 -73.862503051757813 -292.920013427734375
15.908100128173828 -73.862503051757813 -292.950012207031250
10.484399795532227 -73.534400939941406 -293.350006103515625
14.296899795532227 -73.035797119140625 -293.350006103515625
-157.682006835937500 -73.862503051757813 -294.549987792968750
-144.444000244140625 -73.862503051757813 -311.750000000000000
25.734399795532227 -72.478103637695313 -16.950000762939453
30.500000000000000 -72.587501525878906 -16.950000762939453
26.687500000000000 -72.364700317382813 -20.549999237060547
25.734399795532227 -72.644897460937500 -22.149999618530273
24.781200408935547 -72.663101196289063 -23.350000381469727
21.921899795532227 -72.605499267578125 -24.549999237060547
24.781200408935547 -72.500900268554688 -26.950000762939453
21.921899795532227 -72.625701904296875 -29.750000000000000
21.921899795532227 -72.364700317382813 -32.150001525878906
25.734399795532227 -72.653503417968750 -32.549999237060547
29.546899795532227 -72.292396545410156 -35.750000000000000
41.937500000000000 -72.118103027343750 -35.750000000000000
25.734399795532227 -72.460800170898438 -36.950000762939453
32.406200408935547 -72.456901550292969 -37.750000000000000
37.171901702880859 -72.291297912597656 -37.750000000000000
29.546899795532227 -72.378402709960938 -39.750000000000000
39.078098297119141 -72.271896362304688 -39.750000000000000
32.406200408935547 -72.275802612304688 -40.150001525878906
37.171901702880859 -72.171798706054688 -40.950000762939453
-56.234401702880859 -72.307098388671875 -50.150001525878906
-43.843799591064453 -72.675903320312500 -51.750000000000000
-35.265598297119141 -72.520301818847656 -53.750000000000000
-79.109397888183594 -72.533302307128906 -56.150001525878906
-29.546899795532227 -72.460601806640625 -56.150001525878906
-81.968803405761719 -72.543998718261719 -58.549999237060547
-22.875000000000000 -72.355003356933594 -59.750000000000000
-88.640602111816406 -72.291603088378906 -65.750000000000000
-16.203100204467773 -72.560203552246094 -66.150001525878906
81.968803405761719 -72.401901245117188 -68.550003051757813
88.640602111816406 -72.119499206542969 -68.949996948242188
80.062500000000000 -72.817596435546875 -69.349998474121094
-16.626100540161133 -72.909400939941406 -69.750000000000000
85.781196594238281 -72.682296752929688 -70.550003051757813
-91.500000000000000 -72.353797912597656 -72.150001525878906
92.453102111816406 -72.801498413085938 -72.150001525878906
73.390602111816406 -72.665702819824219 -73.349998474121094
95.312500000000000 -72.428199768066406 -73.349998474121094
-92.453102111816406 -72.563598632812500 -76.949996948242188
-25.146499633789063 -72.909400939941406 -76.949996948242188
-28.593799591064453 -72.909400939941406 -78.054603576660156
98.171897888183594 -72.591697692871094 -79.349998474121094
71.135101318359375 -72.909400939941406 -80.150001525878906
-43.900699615478516 -72.909400939941406 -82.949996948242188
-48.609401702880859 -72.909400939941406 -85.284400939941406
97.621597290039063 -72.909400939941406 -85.349998474121094
98.601799011230469 -72.909400939941406 -87.349998474121094
-93.899398803710938 -72.909400939941406 -88.150001525878906
98.422096252441406 -72.909400939941406 -90.550003051757813
99.125000000000000 -72.209602355957031 -94.150001525878906
59.789798736572266 -72.909400939941406 -94.949996948242188
49.698699951171875 -72.909400939941406 -95.750000000000000
55.752300262451172 -72.909400939941406 -98.550003051757813
-77.203102111816406 -72.909400939941406 -99.312599182128906
95.312500000000000 -72.575996398925781 -99.750000000000000
-69.279701232910156 -72.909400939941406 -100.550003051757813
-75.731002807617188 -72.909400939941406 -100.949996948242188
-73.390602111816406 -72.909400939941406 -101.585998535156250
79.109397888183594 -72.318397521972656 -102.150001525878906
91.500000000000000 -72.519500732421875 -102.550003051757813
-81.968803405761719 -72.909400939941406 -103.220001220703125
43.668201446533203 -72.909400939941406 -102.949996948242188
53.163898468017578 -72.909400939941406 -103.349998474121094
41.232200622558594 -72.909400939941406 -106.949996948242188
51.580001831054688 -72.909400939941406 -109.349998474121094
109.609001159667969 -72.102897644042969 -112.550003051757813
35.032501220703125 -72.909400939941406 -114.150001525878906
-94.198501586914063 -72.909400939941406 -114.550003051757813
108.655998229980469 -72.165702819824219 -114.550003051757813
47.656200408935547 -71.989501953125000 -114.949996948242188
37.171901702880859 -72.034698486328125 -115.349998474121094
-88.597297668457031 -72.909400939941406 -115.750000000000000
106.502998352050781 -72.909400939941406 -117.349998474121094
43.868999481201172 -72.909400939941406 -118.150001525878906
-92.453102111816406 -72.559501647949219 -118.550003051757813
114.041999816894531 -72.909400939941406 -119.349998474121094
110.561996459960938 -72.909400939941406 -120.150001525878906
43.843799591064453 -72.032798767089844 -121.750000000000000
115.023002624511719 -72.909400939941406 -123.750000000000000
40.590801239013672 -72.909400939941406 -124.550003051757813
40.053798675537109 -72.909400939941406 -126.150001525878906
108.314002990722656 -72.909400939941406 -128.550003051757813
31.189699172973633 -72.909400939941406 -129.350006103515625
111.355003356933594 -72.909400939941406 -129.750000000000000
-55.281200408935547 -72.253700256347656 -130.149993896484375
-52.421901702880859 -72.081298828125000 -131.350006103515625
108.790000915527344 -72.909400939941406 -131.350006103515625
113.583999633789063 -72.909400939941406 -132.550003051757813
-77.203102111816406 -72.448501586914063 -134.550003051757813
-75.296897888183594 -72.809402465820313 -134.949996948242188
116.660003662109375 -72.909400939941406 -134.949996948242188
-59.093799591064453 -72.518501281738281 -135.750000000000000
-47.984100341796875 -72.909400939941406 -136.149993896484375
112.005996704101563 -72.909400939941406 -136.149993896484375
37.824901580810547 -72.909400939941406 -138.949996948242188
109.324996948242188 -72.909400939941406 -138.949996948242188
-58.707801818847656 -72.909400939941406 -139.750000000000000
-70.110198974609375 -72.909400939941406 -141.350006103515625
114.147003173828125 -72.909400939941406 -142.149993896484375
-43.595500946044922 -72.909400939941406 -142.949996948242188
-72.437500000000000 -72.317802429199219 -143.750000000000000
114.250000000000000 -72.909400939941406 -144.949996948242188
-67.962699890136719 -72.909400939941406 -145.750000000000000
25.569700241088867 -72.909400939941406 -145.750000000000000
-54.541999816894531 -72.909400939941406 -146.149993896484375
-72.437500000000000 -72.152702331542969 -146.949996948242188
-43.843799591064453 -72.909400939941406 -147.179000854492188
112.469001770019531 -72.283401489257813 -146.949996948242188
32.406200408935547 -72.292602539062500 -148.149993896484375
22.302099227905273 -72.909400939941406 -149.350006103515625
109.419998168945313 -72.909400939941406 -149.350006103515625
113.421997070312500 -72.217903137207031 -149.350006103515625
-68.397201538085938 -72.909400939941406 -150.949996948242188
-69.578102111816406 -72.090400695800781 -152.149993896484375
9.531250000000000 -72.070602416992188 -152.550003051757813
13.343799591064453 -72.730201721191406 -153.750000000000000
112.021003723144531 -72.909400939941406 -153.750000000000000
-69.357002258300781 -72.909400939941406 -154.149993896484375
-64.549797058105469 -72.909400939941406 -154.149993896484375
112.469001770019531 -72.366798400878906 -154.149993896484375
-51.809200286865234 -72.909400939941406 -154.550003051757813
-36.868598937988281 -72.909400939941406 -155.350006103515625
21.030399322509766 -72.909400939941406 -155.350006103515625
-48.776199340820313 -72.909400939941406 -155.750000000000000
20.461900711059570 -72.909400939941406 -156.949996948242188
13.343799591064453 -72.432800292968750 -157.350006103515625
-63.258499145507813 -72.909400939941406 -157.750000000000000
15.250000000000000 -72.493896484375000 -157.750000000000000
113.436996459960938 -72.909400939941406 -157.750000000000000
112.469001770019531 -72.379302978515625 -158.149993896484375
11.334899902343750 -72.909400939941406 -158.550003051757813
15.250000000000000 -72.432800292968750 -158.949996948242188
-70.105300903320313 -72.909400939941406 -159.350006103515625
-37.036201477050781 -72.909400939941406 -159.750000000000000
-45.889900207519531 -72.909400939941406 -160.149993896484375
22.144699096679688 -72.909400939941406 -160.149993896484375
108.142997741699219 -72.909400939941406 -160.949996948242188
-47.401100158691406 -72.909400939941406 -161.350006103515625
115.938003540039063 -72.909400939941406 -161.350006103515625
0.953125000000000 -72.209098815917969 -162.149993896484375
110.980003356933594 -72.909400939941406 -162.550003051757813
-67.832199096679688 -72.909400939941406 -162.949996948242188
-32.301300048828125 -72.909400939941406 -162.949996948242188
-61.953098297119141 -72.439903259277344 -163.350006103515625
112.469001770019531 -72.813598632812500 -163.350006103515625
-42.890598297119141 -72.332496643066406 -164.550003051757813
0.000000000000000 -72.465301513671875 -164.949996948242188
0.953125000000000 -72.909400939941406 -165.611999511718750
-65.765602111816406 -72.605499267578125 -165.750000000000000
-63.859401702880859 -72.000503540039063 -165.750000000000000
-33.237499237060547 -72.909400939941406 -166.149993896484375
28.336200714111328 -72.909400939941406 -166.949996948242188
107.098999023437500 -72.909400939941406 -166.949996948242188
110.561996459960938 -72.580596923828125 -167.750000000000000
-61.000000000000000 -72.374702453613281 -168.149993896484375
-29.302900314331055 -72.909400939941406 -168.149993896484375
111.552001953125000 -72.909400939941406 -168.149993896484375
-61.953098297119141 -72.377601623535156 -169.350006103515625
-42.659999847412109 -72.909400939941406 -169.750000000000000
-40.083000183105469 -72.909400939941406 -169.750000000000000
109.609001159667969 -72.750000000000000 -170.550003051757813
-60.046901702880859 -72.803497314453125 -171.350006103515625
-27.199699401855469 -72.909400939941406 -171.750000000000000
113.808998107910156 -72.909400939941406 -172.149993896484375
109.669998168945313 -72.909400939941406 -174.949996948242188
-148.688003540039063 -72.165901184082031 -175.350006103515625
-143.921997070312500 -72.348701477050781 -175.750000000000000
104.370002746582031 -72.909400939941406 -177.750000000000000
107.643997192382813 -72.909400939941406 -177.750000000000000
-23.463699340820313 -72.909400939941406 -178.149993896484375
17.156200408935547 -72.909400939941406 -179.300994873046875
14.747300148010254 -72.909400939941406 -179.350006103515625
107.708000183105469 -72.909400939941406 -180.550003051757813
-35.627601623535156 -72.909400939941406 -181.750000000000000
-33.294200897216797 -72.909400939941406 -181.750000000000000
24.833000183105469 -72.909400939941406 -181.750000000000000
107.703002929687500 -72.909400939941406 -182.136993408203125
-142.968994140625000 -72.705497741699219 -182.149993896484375
26.216199874877930 -72.909400939941406 -184.949996948242188
23.994600296020508 -72.909400939941406 -186.149993896484375
-18.963199615478516 -72.909400939941406 -186.550003051757813
-29.546899795532227 -72.414596557617188 -186.949996948242188
-147.733993530273438 -72.909400939941406 -187.623001098632813
12.690600395202637 -72.909400939941406 -187.350006103515625
109.111999511718750 -72.909400939941406 -187.350006103515625
-145.828002929687500 -72.535400390625000 -188.550003051757813
103.874000549316406 -72.909400939941406 -188.550003051757813
-27.810499191284180 -72.909400939941406 -190.550003051757813
103.890998840332031 -72.845596313476563 -190.949996948242188
-148.688003540039063 -72.395301818847656 -192.149993896484375
-145.828002929687500 -72.909400939941406 -192.600006103515625
22.141799926757813 -72.909400939941406 -192.550003051757813
99.125000000000000 -72.023696899414063 -192.949996948242188
106.356002807617188 -72.909400939941406 -193.750000000000000
-25.001600265502930 -72.909400939941406 -195.750000000000000
-131.531005859375000 -72.244102478027344 -196.149993896484375
-126.765998840332031 -72.556701660156250 -196.149993896484375
-123.905998229980469 -72.336303710937500 -196.149993896484375
22.591899871826172 -72.909400939941406 -196.949996948242188
-146.781005859375000 -72.909400939941406 -197.404006958007813
9.734530448913574 -72.909400939941406 -197.350006103515625
-140.108993530273438 -72.677001953125000 -198.149993896484375
-15.731100082397461 -72.909400939941406 -198.149993896484375
-133.438003540039063 -72.396202087402344 -198.550003051757813
100.078002929687500 -72.824996948242188 -198.550003051757813
-140.296005249023438 -72.909400939941406 -200.550003051757813
98.171897888183594 -72.841903686523438 -200.550003051757813
-133.438003540039063 -72.470596313476563 -200.949996948242188
-11.437500000000000 -72.909400939941406 -201.714996337890625
-24.080200195312500 -72.909400939941406 -202.149993896484375
-131.531005859375000 -72.697196960449219 -202.949996948242188
-123.905998229980469 -72.580001831054688 -203.350006103515625
97.277198791503906 -72.909400939941406 -204.550003051757813
20.457899093627930 -72.909400939941406 -204.949996948242188
-149.641006469726563 -72.374198913574219 -206.149993896484375
-145.207000732421875 -72.909400939941406 -206.149993896484375
-10.484399795532227 -72.909400939941406 -207.304000854492188
17.770599365234375 -72.909400939941406 -206.949996948242188
-163.938003540039063 -72.139900207519531 -207.750000000000000
9.358779907226563 -72.909400939941406 -208.149993896484375
-20.465299606323242 -72.909400939941406 -208.550003051757813
-163.938003540039063 -72.396697998046875 -209.750000000000000
19.290399551391602 -72.909400939941406 -209.750000000000000
92.453102111816406 -72.614402770996094 -210.149993896484375
-77.203102111816406 -72.909400939941406 -210.910003662109375
88.188201904296875 -72.909400939941406 -210.550003051757813
-78.956901550292969 -72.909400939941406 -210.949996948242188
-5.470779895782471 -72.909400939941406 -211.350006103515625
92.453102111816406 -72.598602294921875 -211.350006103515625
-158.218994140625000 -72.100303649902344 -212.149993896484375
92.504402160644531 -72.909400939941406 -212.550003051757813
-29.546899795532227 -72.535499572753906 -212.949996948242188
-84.828102111816406 -72.439300537109375 -213.750000000000000
-26.687500000000000 -72.374000549316406 -214.149993896484375
85.223396301269531 -72.909400939941406 -214.550003051757813
-93.693496704101563 -72.909400939941406 -214.949996948242188
18.583400726318359 -72.909400939941406 -214.949996948242188
-161.078002929687500 -72.412498474121094 -215.350006103515625
-14.094099998474121 -72.909400939941406 -215.750000000000000
-145.492004394531250 -72.909400939941406 -216.149993896484375
-152.500000000000000 -71.971397399902344 -216.550003051757813
86.851699829101563 -72.909400939941406 -216.550003051757813
-150.593994140625000 -72.357002258300781 -216.949996948242188
-164.891006469726563 -72.304603576660156 -217.750000000000000
-20.968799591064453 -72.294601440429688 -217.750000000000000
-87.687500000000000 -72.484001159667969 -218.149993896484375
8.285189628601074 -72.909400939941406 -218.149993896484375
-155.358993530273438 -72.375999450683594 -218.550003051757813
85.781196594238281 -71.995300292968750 -218.949996948242188
-25.734399795532227 -72.191001892089844 -219.350006103515625
-2.859380006790161 -72.909400939941406 -220.102996826171875
17.731100082397461 -72.909400939941406 -220.550003051757813
86.632797241210938 -72.909400939941406 -220.550003051757813
83.352798461914063 -72.909400939941406 -220.949996948242188
79.443000793457031 -72.909400939941406 -221.350006103515625
-163.938003540039063 -72.726196289062500 -221.750000000000000
-104.844001770019531 -72.309600830078125 -221.750000000000000
-95.525100708007813 -72.909400939941406 -221.750000000000000
-150.147003173828125 -72.909400939941406 -222.149993896484375
88.237197875976563 -72.909400939941406 -222.550003051757813
-162.031005859375000 -72.671997070312500 -222.949996948242188
-151.546997070312500 -72.385200500488281 -222.949996948242188
-152.207992553710938 -72.909400939941406 -223.750000000000000
-16.203100204467773 -72.909400939941406 -224.087005615234375
0.212264999747276 -72.909400939941406 -223.750000000000000
76.907600402832031 -72.909400939941406 -224.149993896484375
80.062500000000000 -72.909400939941406 -224.451995849609375
-154.406005859375000 -72.534698486328125 -224.550003051757813
-106.750000000000000 -72.693397521972656 -224.550003051757813
-101.030998229980469 -72.445899963378906 -224.550003051757813
-165.843994140625000 -72.000602722167969 -225.350006103515625
-133.438003540039063 -72.110397338867188 -225.350006103515625
-14.107999801635742 -72.909400939941406 -225.350006103515625
-7.311550140380859 -72.909400939941406 -225.350006103515625
-123.905998229980469 -72.633499145507813 -225.750000000000000
-116.280998229980469 -72.001602172851563 -225.750000000000000
-108.655998229980469 -72.424102783203125 -225.750000000000000
-16.203100204467773 -72.566802978515625 -225.750000000000000
81.968803405761719 -72.909400939941406 -226.024002075195313
84.973197937011719 -72.909400939941406 -226.149993896484375
-154.406005859375000 -72.822402954101563 -226.550003051757813
-141.061996459960938 -72.758598327636719 -226.550003051757813
-163.938003540039063 -72.888198852539063 -226.949996948242188
-147.733993530273438 -72.909400939941406 -227.302993774414063
-105.796997070312500 -72.342201232910156 -226.949996948242188
-16.220100402832031 -72.909400939941406 -226.949996948242188
17.649999618530273 -72.909400939941406 -226.949996948242188
-155.358993530273438 -72.588500976562500 -227.350006103515625
-148.688003540039063 -72.909400939941406 -227.384994506835938
3.088989973068237 -72.909400939941406 -227.350006103515625
6.273119926452637 -72.909400939941406 -227.350006103515625
-122.953002929687500 -72.269798278808594 -227.750000000000000
-164.891006469726563 -72.806602478027344 -228.149993896484375
76.250000000000000 -71.995597839355469 -228.149993896484375
-160.125000000000000 -72.756896972656250 -228.550003051757813
-114.375000000000000 -72.498596191406250 -228.949996948242188
-9.830400466918945 -72.909400939941406 -228.949996948242188
15.250000000000000 -72.693000793457031 -228.949996948242188
-111.515998840332031 -72.281402587890625 -229.350006103515625
-13.465399742126465 -72.909400939941406 -229.350006103515625
-4.663499832153320 -72.909400939941406 -229.350006103515625
-146.781005859375000 -72.750503540039063 -229.750000000000000
-122.953002929687500 -72.777496337890625 -229.750000000000000
-148.688003540039063 -72.589797973632813 -230.550003051757813
-147.733993530273438 -72.909400939941406 -230.832992553710938
9.282380104064941 -72.909400939941406 -230.550003051757813
-122.953002929687500 -72.527297973632813 -230.949996948242188
-8.578120231628418 -72.864303588867188 -230.949996948242188
80.306999206542969 -72.909400939941406 -230.949996948242188
-6.671879768371582 -72.087699890136719 -231.750000000000000
-141.061996459960938 -72.686500549316406 -232.149993896484375
-123.849998474121094 -72.909400939941406 -232.149993896484375
-14.016500473022461 -72.909400939941406 -232.149993896484375
-134.391006469726563 -72.063301086425781 -232.550003051757813
-165.843994140625000 -72.677803039550781 -233.350006103515625
-154.406005859375000 -72.703796386718750 -233.750000000000000
-152.500000000000000 -72.909400939941406 -234.328002929687500
-143.378997802734375 -72.909400939941406 -234.149993896484375
66.372901916503906 -72.909400939941406 -234.550003051757813
70.531196594238281 -72.489196777343750 -234.550003051757813
0.455383002758026 -72.909400939941406 -234.949996948242188
12.390600204467773 -72.342399597167969 -235.350006103515625
18.449199676513672 -72.909400939941406 -235.350006103515625
-152.500000000000000 -72.813003540039063 -235.750000000000000
74.837402343750000 -72.909400939941406 -235.750000000000000
11.381099700927734 -72.909400939941406 -236.949996948242188
-20.015600204467773 -72.909400939941406 -237.658996582031250
15.250000000000000 -72.862396240234375 -237.750000000000000
65.765602111816406 -71.967300415039063 -238.149993896484375
67.671897888183594 -71.969802856445313 -238.550003051757813
-8.578120231628418 -72.476501464843750 -238.949996948242188
-3.812500000000000 -72.254096984863281 -239.350006103515625
-23.719200134277344 -72.909400939941406 -239.750000000000000
-1.075119972229004 -72.909400939941406 -240.149993896484375
14.580800056457520 -72.909400939941406 -240.149993896484375
-23.828100204467773 -72.909400939941406 -240.604003906250000
-1.906250000000000 -72.639999389648438 -240.949996948242188
1.906250000000000 -72.909400939941406 -242.091003417968750
8.578120231628418 -72.398200988769531 -241.750000000000000
-19.062500000000000 -72.025100708007813 -242.149993896484375
-15.250000000000000 -72.909400939941406 -242.315002441406250
57.187500000000000 -72.536399841308594 -242.149993896484375
10.484399795532227 -72.435699462890625 -242.550003051757813
-166.149002075195313 -72.909400939941406 -243.350006103515625
-145.333999633789063 -72.909400939941406 -243.750000000000000
0.048004198819399 -72.909400939941406 -243.750000000000000
-6.671879768371582 -72.557701110839844 -244.149993896484375
62.906200408935547 -72.113403320312500 -244.550003051757813
-10.484399795532227 -72.516296386718750 -245.750000000000000
-5.718750000000000 -72.909400939941406 -246.020004272460938
54.328098297119141 -72.839897155761719 -245.750000000000000
-63.859401702880859 -72.070396423339844 -246.149993896484375
-57.187500000000000 -72.272003173828125 -246.550003051757813
-8.825940132141113 -72.909400939941406 -246.949996948242188
50.515598297119141 -72.421096801757813 -246.949996948242188
-76.250000000000000 -72.909400939941406 -247.990997314453125
53.375000000000000 -72.570800781250000 -247.750000000000000
-60.046901702880859 -72.337501525878906 -248.550003051757813
-10.484399795532227 -72.197402954101563 -248.949996948242188
49.562500000000000 -72.354202270507813 -248.949996948242188
-81.253898620605469 -72.909400939941406 -249.350006103515625
-13.343799591064453 -72.344802856445313 -249.350006103515625
-64.812500000000000 -72.383201599121094 -250.149993896484375
21.434400558471680 -72.909400939941406 -251.350006103515625
-145.376007080078125 -72.909400939941406 -251.750000000000000
-14.296899795532227 -72.447303771972656 -252.149993896484375
-12.037400245666504 -72.909400939941406 -252.149993896484375
21.599000930786133 -72.909400939941406 -252.949996948242188
-95.312500000000000 -72.315498352050781 -253.350006103515625
-144.186996459960938 -72.909400939941406 -253.750000000000000
-123.905998229980469 -72.909400939941406 -255.044998168945313
-100.078002929687500 -72.476799011230469 -254.949996948242188
-82.921897888183594 -72.909400939941406 -255.220993041992188
-142.677001953125000 -72.909400939941406 -255.350006103515625
-102.938003540039063 -72.361297607421875 -255.350006103515625
-103.890998840332031 -72.543998718261719 -256.149993896484375
-87.687500000000000 -72.909400939941406 -256.273010253906250
-115.328002929687500 -72.626701354980469 -256.950012207031250
-108.655998229980469 -72.414901733398438 -256.950012207031250
-101.030998229980469 -72.247299194335938 -259.350006103515625
-106.750000000000000 -72.823501586914063 -259.750000000000000
-107.703002929687500 -72.469902038574219 -260.549987792968750
-108.655998229980469 -72.207099914550781 -261.350006103515625
-142.968994140625000 -72.909400939941406 -262.536987304687500
-117.234001159667969 -72.678100585937500 -262.149993896484375
-135.343994140625000 -72.769203186035156 -262.549987792968750
23.584100723266602 -72.909400939941406 -262.549987792968750
-167.425994873046875 -72.909400939941406 -262.950012207031250
-125.241996765136719 -72.909400939941406 -264.149993896484375
-145.320007324218750 -72.909400939941406 -266.149993896484375
23.242799758911133 -72.909400939941406 -266.149993896484375
-13.939999580383301 -72.909400939941406 -270.950012207031250
-145.458999633789063 -72.909400939941406 -271.750000000000000
-167.604003906250000 -72.909400939941406 -273.750000000000000
19.029499053955078 -72.909400939941406 -278.549987792968750
-8.578120231628418 -72.909400939941406 -280.510986328125000
17.269199371337891 -72.909400939941406 -280.950012207031250
-145.511993408203125 -72.909400939941406 -281.750000000000000
-8.106920242309570 -72.909400939941406 -282.950012207031250
-131.531005859375000 -72.909400939941406 -284.074005126953125
-143.179992675781250 -72.909400939941406 -284.549987792968750
-124.998001098632813 -72.909400939941406 -284.549987792968750
13.932000160217285 -72.909400939941406 -284.950012207031250
-136.296997070312500 -72.909400939941406 -285.502014160156250
-61.953098297119141 -72.909400939941406 -285.834991455078125
-51.468799591064453 -72.909400939941406 -285.928985595703125
-123.905998229980469 -72.680397033691406 -286.149993896484375
-70.531196594238281 -72.909400939941406 -286.158996582031250
-99.125000000000000 -72.909400939941406 -286.804992675781250
-91.500000000000000 -72.909400939941406 -286.611999511718750
-42.890598297119141 -72.480499267578125 -286.549987792968750
-29.546899795532227 -72.354698181152344 -286.549987792968750
-26.687500000000000 -72.909400939941406 -286.950012207031250
-167.511993408203125 -72.909400939941406 -286.950012207031250
-114.375000000000000 -72.909400939941406 -286.993011474609375
-110.561996459960938 -72.909400939941406 -287.221008300781250
-34.312500000000000 -72.300903320312500 -287.350006103515625
-26.687500000000000 -72.397796630859375 -287.350006103515625
-15.250000000000000 -72.542800903320313 -287.350006103515625
11.437500000000000 -72.708999633789063 -289.350006103515625
9.531250000000000 -72.076301574707031 -290.149993896484375
-55.281200408935547 -72.909400939941406 -290.848999023437500
-51.468799591064453 -72.061096191406250 -290.549987792968750
-38.125000000000000 -72.909400939941406 -290.888000488281250
-36.218799591064453 -72.201301574707031 -290.549987792968750
-22.875000000000000 -72.123596191406250 -290.549987792968750
-22.875000000000000 -72.531303405761719 -290.950012207031250
-17.156200408935547 -72.217201232910156 -290.950012207031250
-13.343799591064453 -72.122901916503906 -290.950012207031250
15.250000000000000 -72.749496459960938 -290.950012207031250
-88.640602111816406 -72.909400939941406 -291.635986328125000
-163.080001831054688 -72.909400939941406 -291.750000000000000
-94.359397888183594 -72.909400939941406 -291.875000000000000
0.000000000000000 -72.147598266601563 -291.750000000000000
4.765620231628418 -72.207099914550781 -292.149993896484375
-142.205001831054688 -72.909400939941406 -292.549987792968750
14.296899795532227 -72.454597473144531 -292.549987792968750
-133.438003540039063 -72.909400939941406 -294.415985107421875
-145.296997070312500 -72.909400939941406 -295.750000000000000
-153.979003906250000 -72.909400939941406 -297.350006103515625
-154.242996215820313 -72.909400939941406 -299.750000000000000
-155.738998413085938 -72.909400939941406 -300.950012207031250
-155.919998168945313 -72.909400939941406 -306.149993896484375
-156.095993041992188 -72.909400939941406 -310.950012207031250
-150.593994140625000 -72.909400939941406 -312.109985351562500
-151.546997070312500 -72.909400939941406 -312.717987060546875
33.359401702880859 -71.782203674316406 -12.550000190734863
38.125000000000000 -71.741996765136719 -12.949999809265137
28.593799591064453 -71.918899536132813 -14.149999618530273
43.843799591064453 -71.446899414062500 -15.350000381469727
33.359401702880859 -71.916900634765625 -16.149999618530273
38.125000000000000 -71.875099182128906 -16.149999618530273
24.781200408935547 -71.838600158691406 -16.549999237060547
44.796901702880859 -71.714500427246094 -17.350000381469727
40.984401702880859 -71.602798461914063 -18.149999618530273
47.656200408935547 -71.068099975585938 -18.950000762939453
44.796901702880859 -71.751197814941406 -21.350000381469727
43.843799591064453 -71.048500061035156 -22.149999618530273
45.750000000000000 -71.764396667480469 -23.750000000000000
48.609401702880859 -71.622802734375000 -23.750000000000000
20.724800109863281 -71.956298828125000 -24.549999237060547
45.750000000000000 -71.810798645019531 -29.350000381469727
48.609401702880859 -71.604896545410156 -30.950000762939453
20.968799591064453 -71.031196594238281 -31.350000381469727
43.843799591064453 -71.884300231933594 -33.750000000000000
41.937500000000000 -71.730300903320313 -34.549999237060547
46.703098297119141 -71.774101257324219 -34.549999237060547
23.615200042724609 -71.956298828125000 -35.750000000000000
44.796901702880859 -71.677497863769531 -37.349998474121094
41.937500000000000 -71.555496215820313 -39.750000000000000
36.218799591064453 -71.933799743652344 -40.950000762939453
-61.953098297119141 -71.350898742675781 -49.349998474121094
-56.234401702880859 -71.457496643066406 -49.349998474121094
-48.609401702880859 -71.589996337890625 -49.750000000000000
-68.625000000000000 -71.600799560546875 -50.150001525878906
-72.437500000000000 -71.442703247070313 -50.950000762939453
-40.984401702880859 -71.631797790527344 -50.950000762939453
87.687500000000000 -71.732597351074219 -67.750000000000000
89.593803405761719 -71.725502014160156 -68.150001525878906
84.828102111816406 -71.523803710937500 -68.550003051757813
94.359397888183594 -71.182197570800781 -71.349998474121094
-17.911800384521484 -71.956298828125000 -71.750000000000000
-35.155998229980469 -71.956298828125000 -76.550003051757813
-25.356700897216797 -71.956298828125000 -76.949996948242188
-29.546899795532227 -71.956298828125000 -77.910499572753906
-40.984401702880859 -71.069099426269531 -78.150001525878906
99.789802551269531 -71.956298828125000 -80.949996948242188
-50.731899261474609 -71.956298828125000 -87.349998474121094
61.953098297119141 -71.165702819824219 -87.349998474121094
58.140598297119141 -71.766601562500000 -87.750000000000000
55.281200408935547 -71.522499084472656 -88.150001525878906
68.845596313476563 -71.956298828125000 -88.550003051757813
-58.118999481201172 -71.956298828125000 -90.949996948242188
53.375000000000000 -71.956298828125000 -92.201103210449219
-64.812500000000000 -71.956298828125000 -92.908302307128906
-94.940200805664063 -71.956298828125000 -94.150001525878906
46.271099090576172 -71.956298828125000 -95.750000000000000
105.796997070312500 -71.956298828125000 -96.410202026367188
-65.289100646972656 -71.956298828125000 -96.550003051757813
107.077003479003906 -71.956298828125000 -96.949996948242188
101.984001159667969 -71.956298828125000 -97.625000000000000
46.703098297119141 -71.956298828125000 -98.480796813964844
101.480003356933594 -71.956298828125000 -98.550003051757813
55.541198730468750 -71.956298828125000 -99.750000000000000
73.390602111816406 -71.719200134277344 -99.750000000000000
109.047996520996094 -71.956298828125000 -101.750000000000000
41.437698364257813 -71.956298828125000 -102.550003051757813
77.203102111816406 -71.405097961425781 -102.550003051757813
94.359397888183594 -71.318901062011719 -102.550003051757813
102.938003540039063 -71.956298828125000 -103.719001770019531
53.647300720214844 -71.956298828125000 -106.150001525878906
41.937500000000000 -71.037597656250000 -106.550003051757813
50.572399139404297 -71.956298828125000 -107.349998474121094
111.097999572753906 -71.956298828125000 -107.349998474121094
107.474998474121094 -71.956298828125000 -108.550003051757813
37.656501770019531 -71.956298828125000 -109.349998474121094
48.857200622558594 -71.956298828125000 -109.349998474121094
104.306999206542969 -71.956298828125000 -109.750000000000000
109.609001159667969 -71.016601562500000 -111.349998474121094
113.016998291015625 -71.956298828125000 -113.750000000000000
44.988700866699219 -71.956298828125000 -114.949996948242188
34.044200897216797 -71.956298828125000 -116.949996948242188
-90.257499694824219 -71.956298828125000 -117.750000000000000
45.478500366210938 -71.956298828125000 -118.550003051757813
111.203002929687500 -71.956298828125000 -118.550003051757813
41.960399627685547 -71.956298828125000 -120.150001525878906
109.920997619628906 -71.956298828125000 -121.349998474121094
111.903999328613281 -71.956298828125000 -122.150001525878906
30.997299194335938 -71.956298828125000 -124.150001525878906
39.078098297119141 -71.707099914550781 -124.550003051757813
33.359401702880859 -71.956298828125000 -125.694000244140625
42.482898712158203 -71.956298828125000 -125.349998474121094
110.761001586914063 -71.956298828125000 -126.550003051757813
111.515998840332031 -71.032897949218750 -127.750000000000000
115.901000976562500 -71.956298828125000 -127.750000000000000
-58.140598297119141 -71.342697143554688 -128.550003051757813
37.792800903320313 -71.956298828125000 -130.149993896484375
-75.296897888183594 -71.623703002929688 -131.350006103515625
113.337997436523438 -71.956298828125000 -131.350006103515625
112.469001770019531 -71.387397766113281 -131.350006103515625
-56.234401702880859 -71.185997009277344 -132.149993896484375
39.662899017333984 -71.956298828125000 -132.149993896484375
30.440099716186523 -71.956298828125000 -132.949996948242188
-57.187500000000000 -71.273002624511719 -133.350006103515625
27.370199203491211 -71.956298828125000 -134.550003051757813
-51.468799591064453 -71.956298828125000 -135.102996826171875
35.265598297119141 -71.028198242187500 -135.350006103515625
113.619003295898438 -71.956298828125000 -136.550003051757813
-72.031799316406250 -71.956298828125000 -136.949996948242188
112.212997436523438 -71.956298828125000 -137.350006103515625
-46.450599670410156 -71.956298828125000 -137.750000000000000
-77.758697509765625 -71.956298828125000 -138.550003051757813
-57.187500000000000 -71.753601074218750 -138.550003051757813
28.527000427246094 -71.956298828125000 -138.550003051757813
-73.390602111816406 -71.079399108886719 -138.949996948242188
25.377700805664063 -71.956298828125000 -140.149993896484375
34.312500000000000 -71.877799987792969 -140.949996948242188
-44.796901702880859 -71.046401977539063 -141.350006103515625
113.421997070312500 -71.831703186035156 -141.350006103515625
116.998001098632813 -71.956298828125000 -141.350006103515625
-46.618598937988281 -71.956298828125000 -141.750000000000000
36.376300811767578 -71.956298828125000 -142.550003051757813
-76.854400634765625 -71.956298828125000 -143.350006103515625
-71.177398681640625 -71.956298828125000 -144.149993896484375
-45.750000000000000 -71.525497436523438 -144.149993896484375
-41.937500000000000 -71.956298828125000 -146.843002319335938
34.880001068115234 -71.956298828125000 -146.949996948242188
116.998001098632813 -71.956298828125000 -146.949996948242188
-70.531196594238281 -71.222198486328125 -147.750000000000000
-67.029098510742188 -71.956298828125000 -147.750000000000000
-71.484397888183594 -71.956298828125000 -149.742004394531250
-74.651702880859375 -71.956298828125000 -149.750000000000000
-52.505500793457031 -71.956298828125000 -149.750000000000000
15.250000000000000 -71.428398132324219 -149.750000000000000
13.343799591064453 -71.602096557617188 -150.149993896484375
24.580799102783203 -71.956298828125000 -150.550003051757813
24.781200408935547 -71.032897949218750 -151.750000000000000
15.250000000000000 -71.675498962402344 -152.149993896484375
-73.007499694824219 -71.956298828125000 -153.350006103515625
-40.912498474121094 -71.956298828125000 -153.750000000000000
23.615800857543945 -71.956298828125000 -154.149993896484375
116.550003051757813 -71.956298828125000 -154.949996948242188
5.718750000000000 -71.956298828125000 -155.645004272460938
-64.735000610351563 -71.956298828125000 -155.750000000000000
-50.855598449707031 -71.956298828125000 -155.750000000000000
13.972000122070313 -71.956298828125000 -155.750000000000000
32.658500671386719 -71.956298828125000 -155.750000000000000
2.859380006790161 -71.956298828125000 -159.210006713867188
29.583299636840820 -71.956298828125000 -159.750000000000000
28.593799591064453 -71.045303344726563 -160.149993896484375
-63.859401702880859 -71.558700561523438 -160.550003051757813
-38.125000000000000 -71.363296508789063 -160.550003051757813
108.589996337890625 -71.956298828125000 -160.550003051757813
8.262040138244629 -71.956298828125000 -160.949996948242188
5.718750000000000 -71.177902221679688 -161.750000000000000
-66.718803405761719 -71.472099304199219 -162.149993896484375
-63.859401702880859 -71.470901489257813 -162.949996948242188
2.859380006790161 -71.484100341796875 -162.949996948242188
-46.152198791503906 -71.956298828125000 -163.350006103515625
-35.005298614501953 -71.956298828125000 -164.550003051757813
115.028999328613281 -71.956298828125000 -165.350006103515625
28.074300765991211 -71.956298828125000 -166.550003051757813
19.879499435424805 -71.956298828125000 -169.350006103515625
-39.361598968505859 -71.956298828125000 -169.750000000000000
29.350799560546875 -71.956298828125000 -170.149993896484375
-31.149099349975586 -71.956298828125000 -170.550003051757813
113.741996765136719 -71.956298828125000 -171.350006103515625
19.062500000000000 -71.956298828125000 -172.867004394531250
105.867996215820313 -71.956298828125000 -174.149993896484375
-39.477199554443359 -71.956298828125000 -174.550003051757813
16.273000717163086 -71.956298828125000 -174.949996948242188
112.825996398925781 -71.956298828125000 -174.949996948242188
-28.593799591064453 -71.747398376464844 -175.350006103515625
-35.307800292968750 -71.956298828125000 -177.350006103515625
-151.195999145507813 -71.956298828125000 -178.149993896484375
-142.684005737304688 -71.956298828125000 -178.949996948242188
-26.415199279785156 -71.956298828125000 -178.949996948242188
104.232002258300781 -71.956298828125000 -179.350006103515625
24.937900543212891 -71.956298828125000 -180.149993896484375
111.180999755859375 -71.956298828125000 -180.149993896484375
-142.705993652343750 -71.956298828125000 -181.750000000000000
-142.175994873046875 -71.956298828125000 -182.149993896484375
-34.694999694824219 -71.956298828125000 -182.550003051757813
-23.715999603271484 -71.956298828125000 -182.949996948242188
16.151399612426758 -71.956298828125000 -182.949996948242188
-31.458299636840820 -71.956298828125000 -183.350006103515625
-29.546899795532227 -71.027397155761719 -184.149993896484375
23.957099914550781 -71.956298828125000 -185.350006103515625
102.166999816894531 -71.956298828125000 -185.750000000000000
-142.044006347656250 -71.956298828125000 -186.550003051757813
-31.453100204467773 -71.057998657226563 -186.949996948242188
25.081499099731445 -71.956298828125000 -188.550003051757813
-20.687299728393555 -71.956298828125000 -188.949996948242188
107.330001831054688 -71.956298828125000 -190.550003051757813
-25.734399795532227 -71.003097534179688 -192.550003051757813
22.018499374389648 -71.956298828125000 -192.550003051757813
-144.617996215820313 -71.956298828125000 -192.949996948242188
10.909099578857422 -71.956298828125000 -192.949996948242188
13.196499824523926 -71.956298828125000 -192.949996948242188
-27.682100296020508 -71.956298828125000 -194.550003051757813
23.188600540161133 -71.956298828125000 -194.949996948242188
-154.406005859375000 -71.470298767089844 -195.750000000000000
-153.186996459960938 -71.956298828125000 -195.750000000000000
-123.905998229980469 -71.825698852539063 -195.750000000000000
-116.280998229980469 -71.014999389648438 -195.750000000000000
-141.061996459960938 -71.956298828125000 -196.348007202148438
-140.108993530273438 -71.203796386718750 -196.550003051757813
97.324996948242188 -71.956298828125000 -196.550003051757813
-159.171997070312500 -71.677001953125000 -196.949996948242188
-120.094001770019531 -71.522598266601563 -196.949996948242188
-115.328002929687500 -71.347503662109375 -196.949996948242188
-147.733993530273438 -71.956298828125000 -197.485000610351563
-122.000000000000000 -71.206100463867188 -197.350006103515625
104.306999206542969 -71.956298828125000 -197.350006103515625
-162.031005859375000 -71.513496398925781 -198.149993896484375
-154.179000854492188 -71.956298828125000 -198.149993896484375
20.056900024414063 -71.956298828125000 -198.149993896484375
-145.828002929687500 -71.876296997070313 -198.550003051757813
-148.688003540039063 -71.147201538085938 -198.949996948242188
9.134110450744629 -71.956298828125000 -199.350006103515625
-145.828002929687500 -71.776100158691406 -199.750000000000000
-122.000000000000000 -71.777099609375000 -199.750000000000000
-112.469001770019531 -71.504096984863281 -199.750000000000000
-163.938003540039063 -71.339103698730469 -200.149993896484375
-154.406005859375000 -71.703102111816406 -200.149993896484375
95.030097961425781 -71.956298828125000 -200.550003051757813
-146.781005859375000 -71.777999877929688 -200.949996948242188
-113.421997070312500 -71.518699645996094 -200.949996948242188
-14.216400146484375 -71.956298828125000 -201.350006103515625
-154.406005859375000 -71.546798706054688 -201.750000000000000
-140.108993530273438 -71.698997497558594 -202.149993896484375
-21.225099563598633 -71.956298828125000 -202.550003051757813
101.599998474121094 -71.956298828125000 -202.550003051757813
-164.891006469726563 -71.680496215820313 -202.949996948242188
-163.938003540039063 -71.918899536132813 -202.949996948242188
-123.228996276855469 -71.956298828125000 -203.350006103515625
-152.500000000000000 -71.768302917480469 -204.149993896484375
10.429699897766113 -71.956298828125000 -204.149993896484375
-161.078002929687500 -71.890602111816406 -204.550003051757813
-150.733001708984375 -71.956298828125000 -204.949996948242188
99.577903747558594 -71.956298828125000 -206.149993896484375
-150.593994140625000 -71.749900817871094 -206.550003051757813
-19.202400207519531 -71.956298828125000 -206.949996948242188
90.989402770996094 -71.956298828125000 -206.949996948242188
-159.171997070312500 -71.921203613281250 -208.550003051757813
17.319599151611328 -71.956298828125000 -208.550003051757813
-79.109397888183594 -71.203796386718750 -210.550003051757813
-78.156196594238281 -71.956298828125000 -211.662994384765625
6.975769996643066 -71.956298828125000 -211.350006103515625
-151.546997070312500 -71.877502441406250 -212.149993896484375
-79.168899536132813 -71.956298828125000 -212.149993896484375
95.815696716308594 -71.956298828125000 -212.149993896484375
9.305299758911133 -71.956298828125000 -212.550003051757813
16.342899322509766 -71.956298828125000 -212.550003051757813
-150.548004150390625 -71.956298828125000 -212.949996948242188
86.384002685546875 -71.956298828125000 -213.350006103515625
-91.500000000000000 -71.956298828125000 -214.621994018554688
-17.009199142456055 -71.956298828125000 -214.550003051757813
-6.640789985656738 -71.956298828125000 -214.550003051757813
15.673000335693359 -71.956298828125000 -214.550003051757813
