# This PCD file was generated using the MATLAB® pcwrite function
# from Computer Vision Toolbox®.
# .PCD v.7 - Point Cloud Data file format
VERSION .7
FIELDS x y z
SIZE 4 4 4
TYPE F F F
COUNT 1 1 1
WIDTH 1453
HEIGHT 1
VIEWPOINT 0 0 0 1 0 0 0
POINTS 1453
DATA ascii
56.369564 255.635590 -68.501465
-67.435143 258.149933 -66.386696
56.078899 262.940063 -69.945175
-92.471062 260.476715 -68.147194
-122.693977 263.857117 -67.387375
-129.119995 261.557983 -65.652679
42.171680 259.747131 -67.842926
-137.938171 264.477692 -67.162712
-108.960030 268.303070 -68.687279
-113.763504 266.674835 -63.062771
-86.146370 265.281799 -64.748909
-113.437004 267.370483 -64.715996
-122.477493 275.482208 -64.343224
-147.341156 277.114960 -63.453545
-17.115740 271.287476 -66.491501
-166.176407 274.191193 -66.748100
-19.298439 283.112823 -66.522133
-156.172287 276.671509 -66.549393
-154.804535 287.770081 -62.751160
-167.583664 286.777527 -64.174561
-11.344106 283.859985 -66.975906
-133.688049 297.965271 -68.068672
-160.490524 297.913269 -66.472778
-149.339783 295.128204 -63.909779
-133.348969 297.866547 -65.567703
-9.676126 295.267151 -62.133118
-122.485085 295.831543 -70.334641
-143.118713 292.780426 -71.309448
-113.963631 291.726837 -65.781898
-77.639526 296.037720 -65.530663
-62.640266 292.060211 -67.446404
-4.479453 298.659973 -62.382576
-53.990425 302.781830 -61.885399
-57.723930 299.129974 -64.958916
-64.643227 301.685242 -62.171375
-81.587105 304.005768 -67.542114
-99.503021 299.806854 -64.275223
-159.280579 299.268341 -64.293587
-165.061539 305.973206 -68.915352
-129.719864 303.779633 -64.669449
-145.053558 303.400970 -65.377335
-151.401810 311.139374 -70.528816
-148.870193 319.128723 -64.784111
47.476719 29.237959 -66.059357
18.069160 37.152824 -65.559486
46.619453 45.084972 -62.883659
-10.384272 75.525536 -63.116962
84.766823 69.462349 -64.845200
86.532211 78.946167 -65.093643
74.648140 74.013039 -62.730762
73.855728 77.351921 -65.986794
91.515648 81.541069 -66.979355
-93.507233 87.934303 -61.865768
73.179901 86.759628 -70.095612
-35.503681 86.405487 -61.050694
102.655861 95.241089 -63.662239
59.528008 97.359329 -65.330772
103.436317 103.905716 -66.548500
102.018272 108.298080 -61.532455
69.018440 108.270111 -67.308533
-78.445824 104.727791 -68.788811
54.655621 113.284203 -66.928352
104.862366 113.389198 -66.230568
44.388184 119.963036 -70.739014
80.355934 118.032822 -63.760387
39.744057 117.774185 -62.699566
105.985367 114.122444 -63.399750
50.335297 115.653442 -61.812454
108.956345 121.875000 -66.482132
108.738106 126.003860 -66.381523
-78.629059 121.265236 -62.315567
-84.298561 127.449409 -63.072250
41.250408 129.754089 -68.222878
113.228638 129.123657 -64.429352
113.660324 132.203049 -64.927757
-86.833351 138.614410 -65.544373
107.596008 133.616776 -66.678696
-58.496380 142.794601 -65.956482
-89.856346 135.643524 -64.564171
-74.801636 137.990982 -62.846317
-55.000484 139.249664 -63.362659
29.514605 136.386459 -63.391590
36.029629 142.635147 -64.439606
-72.616112 147.990662 -64.474220
27.403435 146.194748 -64.394585
107.331985 154.653091 -67.219307
-44.364956 155.280304 -67.112595
25.807671 155.303955 -60.017075
117.548096 156.495300 -64.308235
32.955616 153.206787 -62.727734
105.249039 151.951965 -64.571686
-51.553951 156.574341 -67.523331
-66.051559 161.235840 -58.479954
-50.591763 162.136169 -63.338673
-45.224144 173.080261 -65.970818
4.686048 166.136032 -62.427498
114.625389 165.474960 -66.576454
109.830154 165.952667 -64.955338
8.392550 169.108215 -62.578907
4.468267 173.094467 -67.107849
13.428012 164.751404 -63.094673
24.612078 166.385605 -61.801060
112.057907 173.058182 -63.262218
105.977432 174.872360 -67.705986
24.555681 181.810043 -62.419682
26.783785 166.118469 -62.862480
114.821625 173.358063 -64.646248
-27.842575 183.171417 -64.702568
111.212830 180.244431 -63.533936
14.454406 184.470749 -63.845757
22.911753 173.857758 -65.791039
103.667007 181.238297 -66.306839
26.191210 180.508789 -62.679016
110.059219 186.613159 -59.892570
-43.361393 182.540146 -63.681179
26.238583 186.231155 -62.645805
104.211296 192.109589 -62.920586
25.286673 192.764954 -61.253918
-151.519379 196.045425 -59.867920
-30.715332 198.734573 -60.501305
24.664932 197.103027 -57.270844
-110.213852 203.962708 -66.350555
-107.808701 199.476196 -65.076164
22.908747 195.273117 -59.270817
15.477077 191.818619 -60.682289
-29.837410 197.285583 -66.251732
-23.819731 203.122452 -67.304802
-31.365845 198.616119 -64.509232
20.348618 187.528046 -62.729874
-152.195282 203.471909 -63.627449
-145.329163 205.464249 -64.165359
-144.072144 204.887970 -66.952171
-19.088120 200.668365 -63.820885
11.691977 211.587830 -65.734642
99.658508 203.046982 -61.534557
-109.122551 206.880203 -65.590851
24.785923 207.053619 -66.011955
-13.849986 202.961349 -66.865921
-21.518169 207.674973 -64.099792
96.299271 206.222534 -63.319992
14.027911 214.124176 -66.205597
-21.404829 203.837936 -65.121269
-123.685562 212.286530 -61.150860
-133.330322 215.500092 -64.035919
-112.046165 211.152969 -67.589615
-139.918396 217.182251 -64.324257
17.786596 207.297134 -62.011570
93.470947 217.629974 -66.189911
-165.962860 212.013260 -60.117378
100.867897 212.534439 -62.582340
-18.569483 217.137039 -62.790382
93.695030 222.212265 -69.122047
87.873657 224.760269 -63.327713
10.400638 220.760910 -65.746727
19.867590 222.511154 -65.177338
14.191546 216.040421 -63.681469
-11.197556 228.191132 -65.522995
-96.572060 226.578781 -64.070076
-6.087767 221.995697 -67.479340
94.609901 225.755356 -63.635860
-91.899643 227.866745 -65.116745
-103.847572 227.988174 -64.774803
-89.833862 229.942795 -67.439064
87.551338 230.625748 -61.814613
-133.355927 234.282913 -65.902092
-133.617203 235.934982 -62.542694
-120.505997 231.632904 -65.753693
-109.573776 231.133362 -65.456436
-140.555786 236.817596 -68.481674
-113.897247 237.641129 -68.132584
-116.089523 237.888855 -70.107895
-6.889523 234.694397 -65.696159
-17.550604 232.979279 -62.515865
-0.601364 241.817612 -63.889256
-8.524810 237.790192 -62.962078
18.057041 243.628342 -68.379807
-18.333368 236.007446 -57.963970
-164.820999 237.564972 -66.131783
0.879932 242.804443 -65.485718
82.428215 237.942841 -67.997444
11.048001 243.223297 -66.294533
-3.757598 244.624481 -66.306709
-157.687149 251.507416 -64.539742
-142.551407 246.616928 -65.144814
63.493504 245.791077 -66.255051
-6.091415 245.719696 -63.965313
4.065356 242.992294 -62.509224
72.810066 244.793289 -64.519691
80.111916 245.662415 -68.658241
69.848877 250.648331 -61.662918
-4.346522 249.045181 -66.273262
58.315411 253.490601 -65.106819
-20.999990 249.126846 -64.311188
-18.428913 252.703186 -66.378265
9.013709 251.543335 -60.101067
63.233784 249.646332 -63.380390
62.657982 247.923203 -65.758621
49.922817 256.822388 -64.095291
56.555256 250.755493 -65.384529
-15.937201 260.777130 -65.672951
-82.521240 264.115326 -62.695732
-76.865204 261.306763 -66.466469
40.340668 256.963379 -65.364639
-147.394943 261.087799 -65.197731
40.262501 264.266388 -65.192802
-90.807457 261.290344 -66.230774
-153.554184 265.995331 -62.151917
-141.175720 262.370819 -66.372185
47.796474 262.298981 -63.507305
-122.565147 266.444519 -64.239700
-119.373688 261.470459 -66.564919
-94.608932 264.905853 -62.319321
-10.923603 259.946991 -64.907928
32.728310 273.568787 -62.084900
23.204437 267.632813 -66.985916
-156.558624 268.863831 -61.140598
-111.864922 270.261688 -65.395912
-12.369550 267.848236 -61.832195
-136.102280 274.713287 -68.591293
-14.725226 280.468323 -63.815361
-170.759476 283.995209 -66.976944
-10.662099 296.461395 -67.374603
-161.573807 298.518951 -66.011398
-162.939819 288.108887 -67.627251
-146.053604 293.489838 -65.055489
-172.696259 295.736633 -65.839851
11.322820 296.867493 -62.477493
-109.322777 293.621582 -63.491646
-85.991310 296.651764 -61.859730
-166.559158 296.536896 -64.908905
-93.403030 295.053772 -65.205505
-149.258118 295.191223 -64.579651
-72.213898 300.001556 -62.183868
-68.273895 297.370087 -65.511070
-79.818291 299.080017 -64.877113
-1.296238 299.272858 -62.086254
-84.034874 300.352386 -58.122910
-99.833229 303.192444 -66.040115
-113.761513 298.284485 -64.014359
-119.906219 301.047150 -64.761108
-136.866241 304.894928 -61.777668
-144.397888 315.058716 -62.344547
-145.060165 319.514526 -64.632431
21.460693 28.553112 -64.852066
29.182573 26.484692 -64.364220
26.453484 30.220118 -63.130062
41.545101 36.329491 -60.227283
25.048452 42.918884 -66.757851
-77.330566 57.695740 -66.672035
89.184540 74.702927 -57.752674
-11.931821 76.865135 -64.782051
100.372894 81.752373 -63.536552
97.866875 87.756538 -66.156013
70.111923 87.064240 -64.859604
65.009453 91.249168 -66.324013
-41.334606 93.056076 -64.024422
61.512661 92.120476 -56.172886
-93.983009 96.593605 -68.590820
-48.054825 90.877945 -59.976643
-58.370174 102.551155 -67.657722
99.580841 105.291168 -66.403725
57.871952 105.434860 -60.989262
65.654999 102.872055 -64.012436
-96.052849 106.095306 -56.815536
112.777184 109.076256 -64.577499
46.001667 106.404198 -64.705109
100.382538 105.623665 -65.517860
102.129333 113.597244 -69.091698
105.248688 116.780792 -66.996796
70.890862 114.380386 -64.150436
91.839951 116.400627 -61.987015
46.420101 122.285660 -66.781342
108.306519 116.066887 -62.579941
46.546009 121.443367 -61.745342
46.557213 109.767128 -60.432617
113.857727 125.554558 -62.552292
-81.617241 122.303932 -64.241135
48.579350 125.156334 -64.316391
34.711277 123.277817 -59.538780
102.748711 118.652390 -64.609055
40.132622 125.665871 -61.549355
-89.079613 126.689735 -66.062637
-92.236794 121.790710 -66.578140
107.717743 125.352287 -62.911285
-93.147896 128.865570 -72.612587
35.940037 130.102539 -62.596672
38.969360 127.962914 -64.340683
-80.945168 136.748901 -61.535603
34.818951 152.030426 -59.559078
111.629166 146.665909 -61.186382
-52.537498 143.130417 -60.768810
-88.394020 137.738281 -63.285244
35.222675 146.859970 -67.296738
-89.264404 143.752350 -66.926765
-88.673859 151.077362 -65.812637
-48.276768 146.727310 -69.034561
-67.234619 147.500809 -65.974174
-50.558708 142.471207 -61.853058
111.414803 146.920212 -59.268970
-74.776459 146.997391 -61.484161
34.903099 139.869537 -59.600563
-78.302742 150.410065 -66.049950
-71.362236 148.560837 -59.474957
-90.013016 148.763275 -60.407913
-49.799519 157.159454 -65.338760
29.823006 158.291061 -61.191177
26.534937 158.904709 -63.941574
15.332869 156.607010 -62.510063
115.141304 155.580353 -61.301571
-96.578049 164.748566 -62.408634
17.826967 164.970886 -59.909405
-75.358086 163.014832 -63.546326
20.621857 158.243301 -62.213554
-49.751835 164.762527 -62.198780
8.687916 159.706406 -64.532265
16.453630 164.463303 -60.183079
19.932808 169.272293 -64.112961
-42.536247 176.199051 -66.464729
-44.276318 161.365982 -64.598259
-45.455208 167.586365 -62.820095
-108.048241 183.467224 -65.897034
21.773207 185.398117 -63.829861
-34.874756 183.823349 -60.425785
16.823158 182.969971 -60.812347
-142.949295 186.990494 -66.461327
-35.150585 181.458817 -63.555069
-149.125214 183.949646 -63.987251
25.027086 193.963989 -65.389168
-32.294159 184.043427 -61.971119
-110.034752 194.212708 -59.810684
-108.779350 197.223724 -62.157223
-25.923677 194.818695 -64.555840
-25.313078 193.183121 -68.060760
14.401549 201.154160 -63.405697
19.123566 205.472565 -57.533169
13.340781 197.679977 -61.089748
-144.739502 199.079529 -65.781075
16.288021 197.959351 -63.112724
11.393815 208.764526 -65.509575
-137.907990 207.668488 -60.772491
-114.953957 203.281219 -65.793495
12.449257 203.695007 -66.993950
-113.602661 204.242920 -67.383537
-107.915939 201.231705 -66.703911
-162.699829 209.760651 -67.493401
-23.344948 208.826569 -69.153450
20.964977 214.729416 -65.306824
-138.312515 209.454758 -66.527306
-128.130753 212.581451 -61.992714
-17.330170 214.604477 -61.350502
-12.536206 215.917969 -62.334148
-17.188738 218.425369 -64.283539
-142.996277 212.834854 -64.772705
-17.529333 221.883652 -67.911240
-14.565088 222.618484 -62.708183
17.808502 217.050476 -64.325996
-12.736325 221.097687 -66.261917
14.621984 220.459244 -59.744057
-6.679183 229.140335 -61.732639
-21.471539 224.294174 -62.395241
12.271626 230.571289 -65.017563
0.281129 234.580963 -59.857075
13.095930 233.922272 -64.360283
-5.383284 232.348038 -66.177895
-155.737625 236.661240 -68.802406
83.084076 230.216751 -68.947998
-133.412735 235.658920 -65.887520
-133.948563 233.688873 -61.668850
-9.188313 238.693573 -58.524647
7.600223 240.623505 -65.960472
-155.327301 235.924774 -60.485855
86.759415 231.707443 -64.938011
-2.536275 234.183151 -63.353027
-1.096431 236.851532 -69.508163
76.602806 236.870651 -66.483429
-0.761981 243.599869 -63.137993
-16.715792 240.950012 -65.189217
-127.182007 243.491577 -68.784904
-5.697786 244.846130 -61.032280
5.526296 241.846085 -63.631195
68.068741 252.349014 -61.189629
-158.707123 251.403030 -63.071465
-14.669365 257.912140 -63.678883
-166.988220 251.585983 -65.903305
7.827262 254.509521 -61.399200
-171.514069 248.650604 -64.822029
-160.031952 253.149979 -64.772591
53.351391 255.224030 -62.697632
62.357994 252.303329 -60.783783
60.806328 249.104675 -65.324791
48.965298 258.973938 -62.601807
-162.288437 256.415192 -61.907372
-156.946762 264.798553 -61.024853
-17.256319 261.923187 -65.564827
-151.803802 259.704498 -66.546486
21.513834 261.059387 -64.718597
-166.505737 261.999481 -66.005386
-165.145187 254.887390 -62.838993
-78.291283 257.510590 -66.461212
-165.800568 274.439301 -64.069580
-81.725441 262.028473 -65.441269
43.834236 263.987305 -60.503040
21.575489 263.686249 -66.686325
-159.361465 270.938721 -65.258995
-98.947342 269.565002 -65.571579
38.908051 266.357391 -63.771862
-104.432526 271.810059 -66.802521
-156.532318 274.668182 -59.507389
-104.720177 267.136841 -61.249741
-166.770889 269.259094 -63.879967
-112.228874 272.779297 -62.832489
-150.086960 273.411957 -63.124470
-155.164032 273.727783 -66.909348
-167.318146 278.081665 -66.340775
-162.507446 270.358826 -62.488003
-160.746063 278.881378 -67.075645
-162.088715 277.322235 -59.582371
24.562578 273.506165 -65.192917
-155.319214 278.324768 -60.472618
-150.957489 295.921570 -60.869186
23.509264 289.057190 -64.556480
-11.475484 283.398193 -61.041306
-127.738060 293.192535 -67.078682
-134.644623 292.910950 -67.416313
-136.725876 294.514313 -62.959816
-124.214455 298.004181 -66.512642
-112.461922 295.747406 -64.479546
-111.432426 296.583466 -64.567238
10.698782 300.132385 -57.214775
-86.985497 295.228149 -59.227375
-149.674042 302.572327 -67.209091
-97.436813 297.412109 -61.208866
-125.568939 303.698059 -59.546078
8.881178 301.839539 -61.740509
-114.082237 301.305847 -63.664406
2.743472 305.753326 -63.569595
-142.725662 302.538452 -60.219753
-150.693466 306.816772 -64.698273
-157.593689 322.541229 -67.742393
-153.630890 327.157501 -66.320763
52.616909 37.953373 -65.026428
24.816256 49.361446 -67.144142
34.538559 42.470440 -67.046227
-45.736504 54.418652 -65.547821
-16.811451 72.358711 -61.765751
96.628654 83.360229 -61.678074
66.978027 81.764603 -62.960041
-24.451443 82.091736 -63.925102
-93.229286 96.799965 -67.008926
-39.120407 90.415474 -61.119862
68.979759 92.708603 -59.875046
56.791248 96.144272 -59.936558
55.863522 98.289154 -60.560581
-59.452442 98.333473 -64.141388
64.581779 95.345680 -63.384415
47.234005 105.599541 -63.930542
69.222527 109.378235 -62.313560
-65.017471 105.439209 -61.737225
51.157322 111.471329 -60.728306
46.203930 107.071495 -64.637314
105.910179 111.771996 -65.578079
-66.402092 108.884125 -62.223476
112.483452 113.223679 -63.252697
-80.103798 103.033051 -64.160980
56.131725 113.569466 -63.824505
50.026367 110.464020 -65.379128
93.340828 113.899414 -63.439964
82.903923 119.172554 -57.589428
52.375134 114.661324 -62.227982
-74.101662 119.166107 -70.167656
-77.704079 120.614319 -61.934746
-78.066589 127.948936 -63.585800
-95.383026 128.060165 -63.327065
108.021324 124.532288 -60.568962
-87.875626 124.643570 -63.527149
-76.953033 127.023384 -60.657013
105.373299 124.155144 -61.853245
-65.923218 126.734879 -59.323978
114.940010 139.762558 -61.295570
101.340385 140.983353 -60.490040
110.917870 135.154755 -56.272030
-96.443718 146.583466 -58.443745
-52.484192 152.519821 -64.730553
-77.647797 158.623520 -65.479630
-71.066940 160.361176 -61.719326
-72.861862 154.343048 -59.955841
-53.259254 153.661789 -61.995491
-44.472073 155.592407 -62.511173
20.151979 154.710785 -62.819183
-96.530701 157.491165 -63.650734
-45.315804 161.875671 -60.435585
-54.217728 164.860229 -64.942001
-42.840843 164.705536 -61.084881
31.473091 177.711365 -62.418240
-48.826256 159.381287 -60.472878
-95.903435 159.326355 -61.914711
-45.332020 166.224304 -60.069988
27.176878 159.379181 -62.771091
-103.959465 175.223282 -61.920387
22.387047 166.612549 -67.164146
-108.412514 181.793991 -66.737640
-103.704094 172.943604 -65.408394
22.404222 173.890213 -62.108868
25.130697 176.024750 -65.634468
-103.509377 184.354431 -67.202309
-143.042191 186.929382 -58.442959
-19.901320 198.834564 -61.552937
-31.770466 197.507126 -66.645409
-114.606956 193.625336 -61.627441
-140.729034 197.106720 -54.500546
-107.143616 192.188034 -55.602894
-156.014206 200.190903 -60.317764
-134.219940 203.473587 -64.149612
-133.207489 203.438293 -59.708359
-22.238766 206.919281 -61.264301
-124.526833 207.453674 -59.484276
-116.303566 203.681046 -58.112778
-21.794149 211.371735 -56.724342
-153.428741 211.358978 -61.884953
-130.805893 215.655594 -66.972954
-122.087685 216.052063 -64.145279
17.449499 208.306839 -59.872383
-157.102661 216.067551 -56.762192
8.901946 222.555145 -67.025253
11.649854 222.704132 -61.663639
-19.569550 210.711029 -62.529846
-6.950210 225.387253 -62.809769
-168.387665 216.872665 -61.311485
-154.323822 221.416916 -65.552238
-95.036072 225.152557 -62.789150
-96.729233 229.991974 -61.586102
-160.207794 228.108124 -60.920963
-106.738029 228.575119 -62.728874
-6.721639 228.977463 -62.460068
-121.688766 229.736252 -62.662407
-142.441986 233.903656 -64.096756
2.595741 235.737091 -62.775082
-131.601395 233.548904 -64.338669
-120.575470 232.862503 -70.799423
-115.017006 238.278885 -59.462452
3.888705 234.800293 -60.356007
-104.778893 236.758514 -66.739487
-156.371292 227.282761 -58.506359
-147.205811 237.197403 -58.137455
-165.002991 235.235352 -58.928417
-6.097321 240.294662 -63.111725
-8.353344 242.428925 -56.690132
75.561798 235.911362 -62.508907
3.915191 240.744003 -65.284744
-142.070358 243.761948 -69.317230
-10.855171 235.778152 -62.578186
74.592598 236.737991 -62.961681
77.574982 244.036804 -64.622726
-131.759735 242.190216 -62.943039
-159.203842 237.882813 -58.568535
-114.989738 246.789429 -62.745731
-119.219849 249.724091 -58.956650
-162.080063 244.239426 -61.148964
-161.543533 243.925064 -66.496346
-145.577545 242.863510 -66.459877
-11.315440 245.702393 -63.261761
-3.679785 249.755127 -64.116318
-159.851822 252.190033 -59.236378
6.937801 246.765198 -57.233189
9.370043 242.953430 -63.382702
-160.916519 249.422852 -64.349808
14.844432 255.559662 -66.663506
52.209312 254.906342 -61.404465
55.849110 253.053055 -61.260857
-13.992237 251.665390 -68.416595
49.840252 255.401962 -63.594604
-160.140228 264.544373 -65.463562
-163.061447 254.584991 -60.877838
-159.277802 256.669220 -59.186516
52.200134 261.805756 -69.670662
-89.731102 259.595123 -61.904675
-129.238770 265.799530 -59.841995
-109.372047 264.370941 -64.143974
27.282770 268.574799 -61.443569
45.875919 265.613892 -62.938854
-99.343185 266.465179 -60.558342
-97.152962 266.014832 -64.939819
43.268673 263.560608 -62.496231
44.980690 262.770416 -60.978638
-154.681702 267.755554 -66.531326
33.907078 267.138245 -60.611473
-143.389130 278.850769 -64.223969
-113.570076 276.648590 -59.885742
-135.243698 269.845886 -69.754318
31.601887 272.173645 -63.235569
-124.523979 272.160370 -59.340542
-12.108366 266.972076 -60.748310
21.006491 282.525299 -61.792381
-2.875550 275.781708 -63.350307
21.628092 288.903168 -63.084869
-150.093933 295.247833 -62.698601
-5.232733 288.571136 -62.289379
-158.677460 294.342773 -61.579453
-123.751671 295.612183 -66.952660
-154.416916 293.574890 -66.733620
-114.034363 294.284271 -61.339275
-106.599442 297.749969 -62.034431
-6.887691 296.051117 -64.350708
-111.762306 300.359924 -62.987885
-114.569839 296.941986 -60.517414
-117.076408 302.162689 -64.028740
-134.476898 297.182526 -63.535233
-125.371368 303.744141 -59.377052
-156.370972 300.476410 -65.657303
-137.995255 304.372345 -64.669861
-153.475998 308.959900 -63.411438
-152.562973 318.492401 -58.902874
-154.414108 310.718323 -64.555428
-144.241592 322.969635 -58.561802
-153.592087 319.298370 -62.087219
32.845417 19.522457 -60.975983
42.477768 22.862038 -66.062798
26.615582 34.431038 -56.796310
54.495819 41.769585 -64.601898
29.548307 47.771305 -68.018074
35.839138 48.000969 -66.585999
-58.458939 51.495358 -58.344002
85.441040 73.082436 -61.627666
77.941948 75.509354 -66.731361
-91.822899 71.276215 -64.044044
-10.378827 76.429443 -59.170952
-89.990768 77.508530 -65.142754
95.034599 80.946564 -59.810059
-12.324441 76.023735 -61.329906
69.627655 84.848816 -66.059349
-36.146297 83.403214 -65.024971
-27.492144 84.715637 -64.779572
59.348312 94.055481 -63.571236
-44.025982 90.981606 -74.312515
67.627968 96.920044 -59.968224
54.253120 97.580353 -66.909294
48.948425 100.732933 -64.507629
61.881004 98.108986 -59.504288
57.375633 106.046669 -63.269760
103.101944 108.467903 -61.627083
104.128029 103.386238 -65.525795
62.531509 110.261436 -63.018673
105.845505 102.061935 -58.007652
-75.847137 111.830765 -63.247009
-73.206276 107.294815 -62.029045
103.653992 110.928703 -58.640091
50.343990 110.431236 -59.411987
71.490082 109.263878 -62.257462
-77.357452 114.961746 -58.714355
-86.277100 115.941689 -61.354431
94.046196 113.290955 -61.199459
42.790504 113.004890 -63.364605
106.714287 118.630150 -62.835972
45.973106 122.413368 -65.689957
108.238884 113.303093 -66.284813
-78.347038 116.057526 -61.555050
107.031708 117.080780 -62.982010
-84.487389 127.306915 -62.537376
-58.931347 136.813904 -63.206486
-53.253983 137.726974 -59.231731
-73.650856 141.791183 -64.029007
-50.267040 139.841049 -60.664604
-86.207657 132.018173 -66.055191
-77.551682 143.971527 -60.313587
-85.446655 137.217346 -57.637783
-58.122139 154.275116 -61.691868
-77.257828 146.685837 -60.150043
-56.883221 146.065659 -58.170757
-62.244911 148.606491 -67.037071
26.378145 149.832382 -63.008041
-89.743279 154.883850 -62.872246
-43.838711 152.038895 -59.283344
-97.874420 158.704208 -60.128529
-100.032936 161.618881 -62.239567
23.136106 159.375259 -61.938000
15.194327 164.731125 -66.210510
-95.886932 167.189896 -62.821983
-102.482628 167.222916 -64.259972
-98.021141 177.879044 -63.581932
22.306440 182.249924 -56.497021
-102.965881 181.673782 -62.611473
19.729105 177.707382 -61.832211
-146.296219 186.145004 -60.120132
15.563148 189.681000 -61.241528
19.799980 194.816147 -61.874050
-154.235855 197.670609 -63.011433
20.209826 191.964111 -60.810532
19.084713 192.196640 -63.837761
-140.600250 196.489090 -63.170959
-149.475494 195.935684 -65.165810
17.763451 197.090881 -64.252357
17.862074 200.567688 -58.654972
-141.885452 197.879227 -66.716019
-105.036896 205.490921 -62.709789
14.716874 210.198318 -60.069332
-127.180214 202.974792 -66.175133
12.555711 207.536301 -60.303005
-134.739288 198.655334 -61.833488
-153.777451 205.140518 -64.278740
-163.455093 205.892075 -65.789955
-162.281860 207.996216 -59.592571
-20.086882 205.207184 -58.247314
-166.494781 210.900513 -60.348663
-22.074772 197.419525 -58.892406
-13.136168 205.442657 -62.938148
13.711478 206.175095 -57.556942
-163.192734 212.168701 -62.585381
-111.192986 210.451721 -60.209084
-19.513517 216.077957 -61.085537
-158.860733 215.271851 -68.023041
14.883273 211.872803 -62.123066
-166.568634 212.599838 -63.261284
-124.074097 210.064377 -64.284485
-110.270691 214.592545 -62.292309
-121.957573 218.355209 -60.213360
-14.280151 218.578339 -63.682732
-9.508190 215.994965 -58.379948
-162.146332 219.315063 -62.462959
-162.962875 224.993820 -63.394104
-166.180176 230.197189 -58.160095
-143.267578 225.214874 -63.407070
-143.930695 229.255020 -61.726902
-9.012241 229.411362 -58.214848
-13.133113 226.984711 -61.074261
-99.800034 233.736572 -66.607475
-6.439747 238.517868 -61.686058
-166.896210 240.821869 -59.673393
-113.026955 241.991272 -62.534588
-0.707575 235.764282 -60.094173
0.820070 239.557693 -60.678696
-112.577858 241.419815 -61.402149
0.712486 239.924438 -61.565628
-115.489555 240.216660 -63.204697
-7.281399 250.563202 -60.350365
-1.702140 242.749054 -61.510967
-0.037367 244.632111 -62.566891
66.432762 245.105316 -60.109550
-14.584083 248.054001 -63.917397
-1.457963 250.953644 -66.820381
13.293053 248.206131 -59.185829
5.311264 249.143738 -62.585339
1.599017 248.903503 -61.129063
63.396496 244.489594 -56.806561
70.970871 249.620316 -59.105515
5.664164 255.340958 -63.029930
54.606918 255.628983 -61.701698
55.693222 252.435196 -61.713474
45.004009 254.216843 -63.118267
42.458847 260.869415 -61.473003
38.311455 260.309387 -59.982723
-132.726257 264.701660 -60.373581
-10.364704 263.907990 -64.223198
24.049664 268.072845 -58.516701
48.233395 259.656769 -64.197929
20.164669 267.567444 -60.628838
-101.113762 265.400208 -63.065086
36.106277 263.204102 -61.232098
-151.466324 269.543793 -59.991879
-116.442589 269.085754 -64.087234
-107.059853 270.344177 -56.916576
-8.439416 267.777008 -62.039177
-147.356735 266.012909 -63.923664
33.284130 270.309937 -60.388832
-104.234497 268.659058 -60.834885
23.541597 272.214844 -58.325878
-136.538696 273.851410 -57.860172
-108.896637 270.799042 -61.232258
-105.633835 271.775085 -64.757576
-118.482857 273.200317 -60.136238
-135.772552 273.033722 -61.282803
26.259516 272.157928 -59.248585
-114.325058 275.730194 -62.944946
-146.581451 273.639984 -64.982628
-8.104642 281.671631 -57.965458
-153.351059 293.234650 -60.752407
-10.836355 288.804047 -60.710537
-4.949751 293.980804 -62.593307
-134.960098 297.491882 -58.504276
-124.600410 295.029633 -62.716225
-136.186234 304.828308 -60.037857
-127.583290 306.973236 -65.485756
-152.084015 311.356354 -63.797871
-150.101685 311.711365 -59.425144
-149.470810 307.946564 -55.381706
-154.502487 313.225708 -61.092884
-142.672089 316.380951 -63.658119
-145.125137 312.860779 -65.807938
-148.430206 324.566071 -61.582767
18.663576 38.823215 -63.988266
50.047218 43.860161 -61.940350
29.070496 48.534840 -61.252518
34.313076 51.214241 -65.849731
-45.370895 56.516945 -61.322830
-77.431389 64.238525 -59.917133
78.353210 67.887947 -58.736794
76.013000 74.294296 -59.326534
67.676315 75.384865 -56.682762
-98.008949 84.891258 -60.858448
101.139328 88.539047 -61.442005
-34.840927 87.609276 -53.922394
63.810909 86.120964 -57.064999
-49.631577 88.185814 -54.305252
-50.900616 90.438538 -55.615414
53.708122 102.515213 -60.252651
101.236031 103.401550 -62.031204
67.041405 104.957031 -58.990002
60.392418 103.804504 -60.066151
52.071102 109.478928 -61.196556
59.936878 105.481705 -63.290260
103.594162 106.728539 -57.781380
68.300659 111.037407 -60.383488
49.656128 112.465492 -60.603779
79.897385 114.729958 -64.991776
90.428619 119.109703 -57.077934
-77.563278 112.647926 -57.239315
-83.674477 124.636559 -61.417625
-80.829025 124.491768 -59.418736
-60.973370 124.555443 -56.241497
-57.838696 136.930481 -64.291534
-91.180565 129.463333 -63.775940
-77.657379 127.589394 -59.620564
-75.292030 140.821808 -59.289982
-57.299900 138.051758 -60.747555
-92.077682 137.300552 -59.355556
-88.240234 138.123215 -63.905563
-49.698208 146.314133 -62.551579
-51.573792 142.778351 -59.118095
-75.172272 146.345947 -56.403343
-53.970203 151.694275 -63.222725
-76.364883 151.856827 -60.461506
23.044949 148.487717 -58.684330
-56.047653 155.482224 -63.664318
-56.343399 152.079712 -60.801941
12.367933 164.425262 -59.920349
11.253409 161.853683 -59.037891
-144.920364 181.925964 -59.846973
-105.355255 189.452606 -62.181934
-105.667412 201.237030 -60.704437
-150.787186 201.895615 -57.891006
-105.796486 197.685745 -58.219181
-153.332291 206.863129 -58.495712
-111.685028 207.661560 -60.737888
-149.378708 211.280991 -58.128696
-152.557785 210.301636 -63.021893
-150.396530 225.138123 -60.016850
-146.793915 233.168976 -65.062027
-150.865265 232.704529 -63.633255
-104.949318 228.938797 -59.202213
-101.869057 231.484299 -61.029694
-124.911850 237.555817 -58.488079
-111.103912 237.308380 -64.504433
-153.482391 239.728241 -63.491676
-2.182301 235.246399 -62.917850
-136.417557 241.413361 -60.345249
-147.144760 245.172882 -64.498421
-135.181305 247.797928 -62.409752
-12.998062 245.474548 -58.737469
10.366084 248.562759 -56.173019
63.770756 248.774231 -61.637650
21.247314 258.651398 -62.494549
59.787399 254.345505 -62.187225
42.515663 256.746063 -61.424759
52.234940 254.142487 -63.502205
-149.375854 263.715271 -60.129425
-151.103851 263.102814 -63.355694
40.912960 265.105499 -61.825474
34.404930 266.341522 -61.905880
49.802433 263.656586 -61.650921
-145.306702 263.936737 -65.793884
-131.937332 272.540314 -60.447350
-119.198700 265.950653 -60.281532
-134.810776 263.134125 -67.379570
-139.940308 273.944031 -61.175507
-126.100487 272.075134 -61.814461
-142.453735 265.834229 -60.434925
-122.218185 270.717072 -61.611317
-124.006409 270.912018 -64.000992
-128.728943 273.343109 -64.365433
-114.751472 271.122223 -63.915695
-2.515273 275.724304 -59.963089
23.388809 273.877472 -64.288925
-144.815247 274.057983 -57.060684
24.928858 277.678680 -61.716644
-3.139055 285.768494 -60.821396
16.979961 293.783447 -61.648327
-139.130310 298.666382 -61.247467
-124.718605 294.980621 -58.822613
-137.829025 298.714874 -57.715954
-155.970749 303.269226 -57.793674
-130.280319 299.650909 -61.007870
-122.579277 298.870483 -61.239548
-129.063049 298.806732 -62.672707
-147.267822 309.308960 -63.056347
25.262608 20.669521 -71.062775
36.518692 25.579813 -67.491287
38.297897 30.811296 -63.627129
51.180573 35.963985 -58.005947
30.396400 39.457848 -65.942421
22.379416 49.281559 -67.711166
-33.894138 61.335217 -60.650833
-79.203056 63.123466 -57.566730
-16.749434 59.614998 -61.975231
67.096169 76.814880 -59.125717
100.060532 75.645645 -62.927032
65.518845 93.778381 -60.013748
60.001556 89.881622 -55.327648
101.641113 94.477287 -59.444347
-62.125946 100.764290 -57.651550
-63.119038 105.168259 -58.797146
49.607071 106.614471 -60.624992
-65.541016 108.273911 -59.197075
-71.775558 110.423576 -59.386127
-96.130653 106.548454 -59.598209
-77.554840 113.868767 -60.578018
47.345066 108.389503 -65.153633
-68.022820 110.337379 -62.715546
56.036980 106.986977 -59.870544
97.616646 111.770988 -61.739750
94.996017 116.294579 -59.932304
-72.363602 128.472153 -58.291485
-82.339226 126.378014 -58.016327
-62.261456 130.551468 -64.040726
-99.449661 129.317657 -57.845490
-74.844383 141.817245 -63.903973
-87.180054 131.862778 -59.929695
-61.990368 131.932861 -64.318108
-63.136597 130.254257 -56.243626
-87.936073 137.075439 -59.972179
-60.148071 139.402466 -61.277359
-83.151085 141.296204 -55.894829
-74.211784 139.680038 -56.244408
-63.650295 142.878189 -59.004368
-59.666084 150.267670 -57.083458
-55.572365 151.558746 -58.425636
-88.427124 144.811890 -59.628765
-99.166870 153.703705 -58.692131
-83.194588 138.907776 -57.399666
24.591417 156.440491 -62.020821
-48.858135 156.273102 -58.196907
18.477173 159.992401 -57.773384
-97.192299 169.451508 -58.554970
-102.334549 182.015732 -61.363693
-100.762642 178.769012 -62.122665
-105.998405 172.940628 -61.095722
-102.888542 190.326859 -57.133316
-112.726738 185.477829 -59.663277
-139.524094 198.126572 -58.113861
-107.621284 195.465149 -57.722607
-130.627121 206.473511 -57.477421
-140.912857 209.516617 -60.085869
-124.579063 204.113525 -62.436607
-154.785156 208.615021 -64.202736
-150.069702 213.793518 -62.743095
-121.936790 212.921280 -61.207954
-130.983459 215.375229 -58.944004
-144.737823 208.766266 -67.918304
-132.231659 231.443344 -62.417622
-116.130112 238.412247 -61.126621
-145.830688 237.651413 -61.618923
-117.893707 238.462234 -59.129498
-117.715538 243.955322 -64.033432
-127.238235 241.248138 -60.021519
-127.777901 245.103195 -61.773323
-114.177856 242.972565 -58.907887
1.899570 244.005936 -57.433739
-148.465317 244.447601 -62.867153
9.362286 241.012131 -64.608307
6.008527 248.498505 -61.513546
3.014833 249.675598 -58.370857
18.597126 247.514221 -60.933403
-147.552628 247.868317 -63.260597
-0.459474 251.287460 -58.824104
19.149220 251.890839 -63.260094
43.434704 260.361115 -55.182369
50.409031 256.053436 -63.446095
-146.927521 262.903717 -63.231895
-1.713578 265.639160 -56.328808
26.152285 269.506592 -59.224728
-135.712524 276.048584 -58.352123
-131.254517 272.478973 -56.108276
-122.587730 265.111633 -53.417953
25.604317 269.490173 -60.316837
-135.184998 274.025482 -63.385578
33.401470 271.536346 -54.381046
31.158512 272.498383 -56.801929
-155.128159 278.090363 -61.785511
-146.334595 297.131042 -63.079800
-146.068466 300.490234 -56.817055
-144.380814 305.465820 -54.401810
5.721392 301.169128 -63.574413
-156.208679 305.505157 -57.407196
43.553230 33.663494 -60.885159
39.541054 46.301510 -63.514980
-65.174706 55.745647 -60.821098
-70.497253 56.585052 -52.176331
-27.677412 62.003792 -58.493549
-17.942087 60.419052 -58.283783
-19.144236 81.193726 -57.971474
-20.550831 77.110634 -56.132168
63.660332 80.045258 -59.141933
-97.983994 86.385353 -59.082180
-46.493061 93.394478 -57.943687
54.736774 95.626205 -58.605404
53.232285 99.262543 -57.006874
63.081905 104.687065 -58.390743
106.959114 102.090767 -64.052505
50.777370 107.314964 -59.302269
103.532532 114.160835 -59.202103
-75.866982 113.028900 -64.676453
-97.860023 116.064430 -59.753784
76.787247 118.149094 -56.677261
-76.188805 114.110893 -56.418629
-72.400871 125.225380 -63.201569
-82.203049 127.556602 -59.192799
-56.223873 136.295319 -63.498997
-79.617271 140.937576 -63.212601
-58.836880 138.383713 -60.205063
-79.852058 147.880463 -58.595612
-73.330917 144.912613 -60.055664
-77.915024 134.857697 -59.669308
-89.533676 139.644318 -58.028992
-62.050903 140.052063 -53.895683
-90.892044 147.028641 -58.120415
-48.378731 146.016968 -60.251518
-59.315613 150.980011 -60.318806
26.713291 143.909225 -57.181877
-55.482422 144.139664 -60.000023
15.604663 159.544678 -57.718513
20.263834 159.535965 -60.816891
13.443508 159.810944 -54.780239
-97.746429 155.921906 -53.052258
-92.827156 162.071884 -60.275112
-96.306999 168.941696 -57.695480
-101.093925 169.073792 -57.848145
-95.510750 166.068832 -59.662052
-151.805008 186.367172 -62.136528
-153.849960 187.929794 -59.623844
-102.133286 189.436096 -55.635246
-143.085709 183.842209 -55.571133
-110.244148 188.099823 -60.632351
-150.040268 197.581665 -61.115032
-106.018570 202.361588 -55.996838
-104.839645 197.259125 -60.924171
-141.351196 207.415710 -55.760864
-129.483276 204.182983 -57.653618
-110.382042 205.574432 -58.739914
-111.950294 208.583237 -58.888897
-112.406433 206.533813 -57.729259
-115.870384 209.883102 -62.720940
-135.159393 209.708664 -52.668629
-133.525696 211.915619 -59.440899
-131.847275 213.385635 -62.039227
-128.041260 214.885498 -59.539516
-129.471390 219.053787 -62.231644
-113.449783 215.948608 -55.029881
-145.891449 223.722153 -58.326366
-153.781723 235.235062 -65.562531
-153.192917 233.520187 -58.241165
-142.726120 237.903458 -61.753281
-132.511658 233.508469 -57.086021
-122.658585 234.623611 -62.104050
-141.878220 244.285080 -61.294830
-145.204086 236.791428 -60.007473
-133.368271 237.641708 -57.606995
-135.754166 235.880463 -55.725502
-145.717102 240.895386 -62.880653
-131.030014 245.270142 -60.912098
-124.422417 235.783752 -58.710239
-3.792581 245.021561 -61.397240
6.314267 251.084778 -55.181423
13.324078 254.109589 -54.410130
7.954913 253.151382 -61.939781
-9.250909 250.689117 -60.378670
-13.919538 255.480179 -63.886158
37.990894 261.048920 -57.757633
51.652508 265.198395 -59.327061
-140.457794 264.786621 -56.624088
40.732620 267.699646 -57.187168
33.566269 260.762543 -54.603691
-156.014557 268.689545 -62.733826
-155.264297 273.881653 -56.842045
-143.622009 276.064453 -63.991844
2.229369 273.652740 -56.978806
-151.529633 270.326385 -60.724392
-5.648356 282.213867 -54.623573
-145.734039 279.856995 -63.919025
-144.884918 292.152710 -56.051807
-148.859756 294.728241 -59.497200
-146.479126 291.902496 -62.088425
-149.549881 297.766937 -54.882877
-152.172668 299.022034 -62.003922
-151.734177 298.358490 -61.543686
-147.604752 298.937195 -61.158150
-150.638214 297.986511 -58.612148
-141.975098 296.228943 -59.440388
15.943716 300.410645 -58.734936
-149.003281 302.146729 -62.673965
-156.020966 298.975433 -54.493122
-150.126205 302.313599 -56.056419
-151.719452 302.444458 -58.190262
-153.077438 304.182678 -57.628292
-149.830902 302.502533 -57.546383
-3.094886 301.155609 -63.647701
-144.648239 301.087860 -63.989807
-148.955856 304.290863 -51.212906
29.065584 29.944384 -49.149063
44.445042 31.085136 -60.361145
44.527649 33.253376 -57.902000
18.583046 46.066338 -61.954815
31.276794 46.060608 -48.135487
40.300179 45.560368 -63.357193
-55.199142 55.789932 -62.053673
-47.364151 53.991837 -54.805408
87.557335 74.913765 -57.631126
-95.533028 78.511047 -57.808712
94.171074 73.497955 -62.044643
68.027786 72.963196 -59.561821
102.291382 86.223236 -53.221630
65.656258 88.620544 -59.706104
-41.114464 88.608887 -60.898617
53.557629 90.555878 -54.239182
-60.011425 87.155251 -58.497066
62.060608 97.418022 -56.158241
59.114239 91.407417 -58.735470
-95.733635 91.821640 -59.327335
53.247005 99.459297 -58.139160
52.628201 99.273087 -62.007526
62.780319 101.533890 -55.995152
52.788826 107.730019 -56.468075
-79.285782 115.824699 -59.694969
81.416946 112.372284 -62.161381
-71.587708 121.701241 -58.703793
-74.020248 122.882385 -55.388130
-76.348938 134.019485 -55.569496
-85.791443 121.091400 -60.560333
-89.092888 130.154739 -59.747330
-80.956161 133.213165 -60.068241
-52.153587 137.266174 -54.773880
-74.730774 140.702164 -53.057030
-54.260551 148.496109 -54.661381
-85.117798 144.699326 -52.432178
31.416302 146.000320 -56.016602
18.096346 150.507584 -64.239395
-90.277969 148.205902 -58.809902
21.003534 153.910507 -55.511177
-88.894592 151.389084 -59.936073
-97.175606 158.931564 -56.085579
23.661797 162.298431 -57.052299
-94.317902 154.239639 -60.545017
-96.683556 154.287598 -61.361126
-104.270134 173.439514 -55.819237
-92.830086 173.214569 -62.533581
-106.665810 182.570724 -59.404903
-105.073959 175.052994 -61.059772
-101.789223 170.245667 -58.301865
-107.024742 186.594833 -56.994072
-144.160477 188.357361 -58.960674
-104.739243 189.085541 -59.145683
-146.391342 197.743530 -59.179226
-146.842529 195.970093 -59.263500
-145.079773 200.214371 -60.399151
-125.967255 204.762100 -61.432701
-128.606522 209.420029 -56.253544
-121.831451 210.523438 -59.267582
-139.068680 214.796783 -59.718071
-127.683289 215.489151 -59.761108
-144.480576 215.994995 -60.212734
-149.353012 218.683212 -58.792423
-156.406387 239.525833 -54.178879
-141.292099 240.756165 -60.433018
-125.648705 242.150208 -58.770908
-157.561279 239.880737 -53.350430
-3.857802 249.207657 -60.091183
11.355597 250.730438 -59.967991
-2.766530 259.817810 -60.285007
-145.524841 255.838852 -50.288986
-4.740923 260.981110 -54.369823
-147.376907 263.308197 -52.743923
-4.538103 256.480042 -56.460632
-147.406265 263.568054 -54.978592
19.526546 265.595215 -62.783417
-152.819626 268.132813 -56.734959
-144.357239 259.136017 -55.548885
-155.151337 265.025055 -53.325626
-146.117599 267.472382 -53.194477
30.562775 266.000366 -62.314999
29.445452 273.126892 -52.546021
-144.661621 268.563049 -55.164539
-151.489151 271.694977 -52.383125
-155.616562 270.426849 -59.956131
-149.818405 267.511078 -56.781048
24.359554 271.117889 -60.029400
31.604464 273.658905 -58.247211
-151.175217 278.346039 -57.873959
-140.073807 272.582581 -60.276829
-156.395172 274.568848 -55.420135
-145.984146 269.846161 -59.251980
-145.523514 278.992035 -63.181942
-151.482971 277.024567 -60.701431
-149.318604 276.562347 -59.275249
-150.843246 293.880463 -60.975361
-150.273743 293.895325 -56.703732
-146.979202 294.218384 -55.235188
22.721657 293.965546 -57.640965
-150.509445 293.232178 -53.491802
-149.004440 294.628265 -55.054684
-8.591562 298.676697 -61.884567
7.389224 301.984222 -62.448601
-145.686172 308.074249 -62.618603
27.756790 29.245308 -62.358452
40.656391 34.549877 -56.669857
50.913822 42.787060 -65.668823
38.432854 42.930912 -53.853249
24.257597 51.603497 -65.632179
42.265942 54.273140 -64.139488
82.347603 70.359093 -55.202282
73.590179 70.542915 -56.291370
-10.252968 71.150368 -61.205891
59.752636 81.536430 -56.576496
-30.288670 89.242134 -61.256954
-30.318506 91.380020 -57.668316
-51.457844 87.599800 -54.098419
-46.871002 93.678207 -58.226715
63.060921 94.397415 -57.691055
103.049850 97.084061 -60.888466
-61.909332 99.659004 -56.374168
54.742130 101.123100 -60.424400
61.459446 103.221085 -58.365570
104.661469 105.174957 -61.473850
-67.431702 106.303749 -56.535019
56.257645 108.969696 -56.329601
-70.908531 115.650620 -58.859001
66.753334 105.243698 -63.877277
67.033638 110.433807 -55.816566
-71.687141 118.404564 -59.864838
-99.903267 117.920197 -56.255543
-73.201378 117.439529 -57.068817
-83.861252 123.416908 -57.743744
-61.769478 116.893837 -55.659801
-85.692589 122.844284 -57.623074
-75.281731 123.804092 -56.886173
-74.536423 134.187683 -57.711079
-64.425758 131.244293 -57.655296
-84.174828 131.029541 -59.870518
35.328575 136.026321 -55.966084
-56.143543 138.087936 -54.679779
33.469425 138.743912 -56.999172
32.394150 143.814011 -55.631008
36.307331 144.170868 -57.816875
-47.207081 144.774872 -57.909237
21.785769 152.741592 -58.560497
28.853842 154.255844 -57.476028
-142.292282 186.888245 -56.691036
-147.314774 182.116333 -56.171955
-157.161514 188.457993 -56.584557
-151.580093 193.360535 -59.986977
-145.765106 194.398010 -56.706676
-147.881653 205.212814 -59.924572
-143.125290 201.386719 -61.685146
-144.222733 209.103394 -54.444691
-125.210213 211.050797 -59.091129
-134.180115 214.896194 -57.378521
-147.256775 218.636856 -56.616196
-146.455246 234.463943 -51.523987
-152.046204 234.695755 -52.180614
-148.267624 235.470032 -50.593498
-152.426544 238.947525 -56.962265
-155.211655 234.683807 -60.252853
-147.319794 234.858658 -51.979279
-146.782883 243.166138 -56.140942
-143.235489 243.122131 -53.609882
-147.570007 239.072739 -53.772503
-155.152420 242.589798 -54.887077
7.074660 254.168839 -59.848953
-13.831410 252.196594 -62.972057
-146.697784 248.455917 -54.258331
-153.705383 245.900757 -58.818176
-145.741104 241.626175 -53.721584
11.723433 255.522552 -56.408325
-150.074188 253.313080 -57.923096
-146.847992 264.012939 -58.565723
-0.238710 258.918121 -57.055820
-147.342545 259.001068 -58.963898
-153.726868 260.378632 -53.719814
-145.573090 263.075012 -61.214085
-142.376251 268.739746 -60.106789
27.199179 271.036804 -61.279232
-149.110687 275.547241 -57.974529
25.825272 279.562042 -57.782215
18.345375 296.017548 -62.728573
-2.495815 298.431061 -56.633068
4.719418 302.654572 -54.215263
30.057573 27.047859 -56.058212
46.865887 50.862926 -64.626991
32.666908 46.787319 -69.144722
-45.384689 54.858772 -56.605701
-94.860313 58.234375 -52.399876
-96.188042 68.340851 -55.715694
-15.321640 74.395515 -58.518700
103.409904 79.672150 -58.212616
110.089706 85.005753 -51.645744
103.428207 84.211830 -60.622814
-52.791142 92.106911 -60.703953
-65.273544 93.051369 -52.446796
59.783066 96.499435 -55.517372
54.800404 97.584106 -53.301048
-61.743404 101.233635 -56.939587
-99.522133 118.180656 -53.339676
76.771248 117.410927 -60.840572
-76.559227 119.724236 -55.459675
-69.234818 119.774574 -52.283264
-79.596916 126.925369 -58.498386
-86.546013 121.740723 -57.051727
-79.515045 124.848404 -59.033764
-69.482132 121.747406 -55.665615
-64.636726 129.387009 -58.283661
-81.772209 123.584877 -57.139271
-76.685089 127.835243 -55.182137
-69.109329 133.355011 -55.363300
-88.791534 129.106735 -58.401855
-78.394905 130.073761 -58.143536
-74.042427 135.036362 -56.218365
-73.645790 144.060013 -53.614319
28.773859 139.945251 -55.732346
-58.192467 139.102600 -55.377911
26.635914 144.743729 -56.647377
21.777353 144.210388 -59.872307
-147.104858 205.961884 -58.260941
-139.094482 208.666504 -61.186459
-155.498566 212.080261 -54.160141
-150.519119 209.253937 -57.441036
-159.316452 211.406998 -55.835060
-146.616272 215.354660 -53.721149
-146.303436 211.301025 -55.727711
-148.797714 215.657196 -59.684277
-147.824753 229.007767 -60.387184
-147.877060 237.179306 -58.941669
-142.972061 230.061096 -54.753384
-146.762634 227.734344 -54.524860
-146.535507 234.205353 -54.433266
-143.400162 235.842743 -51.497196
-144.722885 239.879654 -55.532787
-140.294556 236.144165 -56.063339
-138.792664 240.185059 -58.520245
-137.850891 245.673843 -54.866180
-148.875107 247.983612 -56.737289
-149.008469 245.469131 -55.403099
2.541575 250.375198 -51.428337
20.172565 253.965759 -56.960270
21.930323 262.997284 -51.219707
26.416092 268.294678 -50.469135
5.206259 273.617920 -52.141148
18.966015 286.080872 -59.305141
3.349299 292.470520 -59.518757
-0.786319 297.927979 -55.973656
9.910897 302.062256 -58.591415
53.400494 30.436846 -66.886818
32.874722 46.080750 -51.282696
-30.881727 56.333176 -57.570335
-17.686316 55.871952 -54.480251
-11.133445 66.043846 -55.116699
97.944328 70.092125 -55.002186
-100.244911 78.526062 -52.813755
102.242592 82.261032 -54.680912
56.969978 91.117897 -56.429676
65.445084 98.882446 -54.972267
-68.682190 101.453629 -52.348465
54.451031 101.301804 -60.408398
64.656830 107.604301 -56.571621
106.703896 105.430176 -53.564556
-66.083565 107.485527 -56.139038
-69.834587 111.001099 -55.912197
73.613922 112.845276 -52.612873
-76.013786 111.970154 -57.587849
-63.342888 123.530060 -58.255875
41.531414 124.891151 -53.494362
-81.845726 131.753342 -57.275589
37.096092 129.695694 -56.491978
-88.142220 127.189392 -57.650616
-92.583054 134.220779 -55.513458
-65.825760 132.650391 -56.829693
39.464806 132.970032 -52.454647
-62.134666 139.848404 -51.574593
-57.073708 142.193314 -56.131481
-60.283951 147.850510 -59.989765
-146.085648 209.575653 -58.552788
-144.806808 200.606522 -50.635376
-150.240524 207.393906 -55.279850
-155.406113 208.595306 -53.912971
-151.150742 205.748138 -54.151543
-140.080765 205.341354 -56.249168
-143.199005 210.560715 -54.488640
-148.912460 207.165512 -54.980942
-147.372635 213.481674 -53.926010
-151.766205 216.663910 -54.064400
-142.730911 217.727173 -52.350594
-143.218216 213.933228 -55.798519
-144.335205 219.475159 -52.928940
-153.256958 212.133057 -58.628555
-147.111557 234.764526 -58.095592
-4.847423 248.725449 -53.221119
4.435393 249.917145 -53.549541
14.732241 248.619904 -53.822197
5.341692 256.434265 -53.316372
22.938629 257.632324 -58.707249
0.996074 264.419159 -55.647591
7.844575 280.188629 -57.314709
29.001513 275.959473 -55.789482
16.921749 292.034607 -58.531517
36.642525 21.424339 -58.283653
-69.933578 52.484188 -57.494694
-39.917702 60.564327 -56.013706
71.790779 71.843445 -53.274071
-24.390203 77.103104 -59.620327
-35.467937 91.028839 -55.225952
-42.536724 90.665474 -52.094257
68.486702 101.017166 -54.184669
103.494926 97.289925 -49.934940
66.340309 100.405769 -60.503059
-73.120544 112.354782 -56.966682
101.383118 109.020416 -55.955605
99.490288 112.428223 -55.255600
-67.826439 112.584007 -50.470402
80.603363 119.047859 -56.194122
97.106071 118.490410 -55.649578
-59.061993 121.605522 -56.317032
45.724068 125.216499 -56.326714
-64.396461 125.593277 -53.301998
-81.179214 124.146523 -58.864887
-55.222710 128.008820 -60.371468
-80.697998 126.391678 -56.949314
35.150246 134.134399 -53.064877
-96.155296 135.066803 -55.122906
-52.902210 141.744873 -56.111526
21.712666 148.520844 -56.646774
9.804052 248.630554 -54.163261
2.748972 256.000092 -54.214172
2.989071 297.784058 -59.472912
22.565674 30.167852 -60.654980
39.741489 28.708332 -52.399364
18.338560 35.812450 -57.069118
41.353138 32.886963 -56.174999
-46.888672 53.790276 -56.632225
-10.299707 68.421234 -52.605415
-99.153320 95.067665 -50.584423
69.753471 112.522614 -55.822414
85.689888 117.415985 -53.920460
-67.718819 123.164207 -52.932697
48.256630 128.664108 -53.498219
-84.853226 131.170013 -54.498451
-62.863522 128.481079 -52.631653
-64.196228 145.857117 -52.568333
36.114220 144.961258 -54.569317
