-140.213516235352 -87.162597656250 -233.109100341797 4.574456214905
-152.506729125977 -85.200744628906 -228.635726928711 2.448472976685
-148.258209228516 -81.475418090820 -244.120147705078 2.705626249313
15.590924263000 -81.707366943359 -249.867950439453 2.708364963531
-0.528093993664 -81.358596801758 -255.694488525391 3.189880609512
-148.360855102539 -84.469520568848 -260.639251708984 0.989132225513
-1.591611027718 -76.094123840332 -269.149536132813 6.841861248016
13.918283462524 -86.457206726074 -266.627380371094 3.283179759979
-4.232526302338 -81.550178527832 -262.323242187500 3.092373609543
-144.485031127930 -83.431617736816 -271.222991943359 1.945030212402
-143.825653076172 -84.985542297363 -285.053924560547 1.375157594681
-143.729461669922 -82.579994201660 -289.923400878906 1.472719430923
-147.119049072266 -87.823287963867 -289.345458984375 2.394338846207
-151.833801269531 -86.159584045410 -297.808837890625 2.030616521835
-61.434402465820 -87.968597412109 -72.707946777344 5.638176441193
-57.107948303223 -81.700805664063 -71.254394531250 2.967313289642
-40.473705291748 -81.329132080078 -76.089149475098 1.830279469490
-31.932138442993 -78.211906433105 -79.682571411133 1.114090561867
-73.114311218262 -78.411132812500 -79.081489562988 4.262172222137
-47.167495727539 -83.842025756836 -88.059738159180 2.836192131042
-57.151100158691 -84.471679687500 -88.257080078125 2.956104993820
-64.548194885254 -82.358718872070 -100.399688720703 1.917504310608
-12.907297134399 -82.820121765137 -179.908370971680 1.732615351677
-19.843778610229 -82.605598449707 -180.711639404297 1.690685272217
-48.437110900879 -86.097885131836 -181.084609985352 5.677825927734
-146.716659545898 -85.236465454102 -188.980178833008 2.186667442322
-41.831096649170 -80.421539306641 -193.298263549805 0.672150492668
-146.439346313477 -81.988067626953 -195.793441772461 1.275822639465
-136.380187988281 -80.689247131348 -197.239334106445 0.892838418484
-37.611343383789 -86.597526550293 -198.649291992188 3.677692890167
-146.782485961914 -84.259498596191 -202.707748413086 2.088634967804
-139.807861328125 -82.282821655273 -198.061782836914 1.152762889862
-50.295127868652 -86.675743103027 -195.990020751953 3.123422384262
-147.719390869141 -81.925109863281 -203.607009887695 1.144202947617
-58.956451416016 -86.107322692871 -203.860061645508 2.258897304535
-149.888763427734 -79.598541259766 -204.886062622070 0.660037279129
-64.997787475586 -81.579010009766 -207.236999511719 2.086178302765
16.027223587036 -84.428329467773 -239.452896118164 1.955892682076
15.915348052979 -80.605987548828 -236.567306518555 1.708154201508
-151.486251831055 -85.389762878418 -232.391143798828 1.853566884995
20.624164581299 -85.617019653320 -253.451324462891 7.179724693298
16.095142364502 -83.558792114258 -249.430541992188 2.286866903305
17.678733825684 -78.457511901855 -249.605651855469 1.807937145233
13.529539108276 -80.990303039551 -249.825561523438 1.872333645821
-151.917098999023 -86.790245056152 -252.856994628906 3.548273086548
-131.255905151367 -86.989585876465 -259.448028564453 5.365454196930
14.274358749390 -84.239349365234 -263.824707031250 2.543413877487
-143.106231689453 -83.916038513184 -270.360656738281 2.799309015274
-151.415649414063 -85.674201965332 -279.421325683594 2.051064252853
9.553427696228 -84.377319335938 -275.792694091797 2.929924011230
-144.635116577148 -87.129013061523 -275.509948730469 3.396625041962
-136.574020385742 -81.827194213867 -284.567108154297 3.484487056732
-146.983612060547 -87.925346374512 -283.751617431641 2.119023799896
-154.776306152344 -86.811187744141 -288.038452148438 2.066500663757
-154.990570068359 -81.073432922363 -287.361389160156 1.624492645264
-143.960311889648 -86.780120849609 -286.475738525391 1.799696803093
-149.035232543945 -86.595481872559 -290.621978759766 1.194579720497
-56.061565399170 -76.745368957520 -67.394950866699 3.875658035278
-56.549434661865 -84.263038635254 -74.073684692383 3.489256143570
-40.537048339844 -81.336059570313 -70.692871093750 1.091016769409
-79.123474121094 -86.098403930664 -85.553413391113 3.542243480682
-40.101707458496 -81.248237609863 -82.843521118164 1.388217568398
-41.874725341797 -80.560821533203 -85.020751953125 1.539978265762
-80.044944763184 -81.748283386230 -97.473602294922 3.902154445648
-69.587768554688 -79.954925537109 -105.540153503418 5.304814815521
32.745532989502 -81.818672180176 -123.468544006348 3.095165967941
27.809579849243 -82.616363525391 -144.085754394531 3.177991151810
-7.678172111511 -81.538490295410 -175.756393432617 1.927700519562
-15.919558525085 -82.825294494629 -182.511962890625 1.646078586578
-25.053117752075 -83.709106445313 -182.221801757813 2.693095207214
-37.362739562988 -82.693122863770 -192.093444824219 2.503247261047
-53.273666381836 -81.295448303223 -187.191879272461 1.276190757751
-33.877204895020 -84.907272338867 -193.736572265625 2.010510444641
-144.623214721680 -82.564872741699 -190.825378417969 1.278241634369
-148.079544067383 -86.083282470703 -192.707855224609 3.988926649094
-153.851379394531 -76.662635803223 -196.122100830078 1.047082185745
-150.855285644531 -79.369773864746 -202.781723022461 1.535598397255
-61.843959808350 -84.839614868164 -205.077804565430 1.117522239685
-59.441482543945 -80.753952026367 -211.382064819336 2.424731731415
-148.406707763672 -80.160690307617 -208.947875976563 1.753803253174
-76.602310180664 -87.668655395508 -211.247863769531 6.086550235748
-75.295173645020 -83.706558227539 -213.077789306641 2.679390192032
-77.195793151855 -82.698249816895 -214.006484985352 2.482847452164
-146.272872924805 -80.302734375000 -229.511871337891 0.878162026405
-140.894104003906 -79.532814025879 -229.324554443359 2.373997211456
-150.057006835938 -85.627609252930 -245.992507934570 2.178315162659
13.149952888489 -75.823753356934 -246.245605468750 1.534247279167
6.277907371521 -81.075111389160 -255.414215087891 3.823817729950
-133.349716186523 -83.923881530762 -255.230712890625 3.069178342819
15.994565963745 -81.974380493164 -253.250366210938 2.176385164261
9.092894554138 -84.844764709473 -260.067230224609 1.993187546730
-151.143447875977 -84.960914611816 -265.382446289063 2.336143970490
-151.904754638672 -81.503890991211 -273.164367675781 3.103574991226
-2.822201013565 -82.327262878418 -274.150024414063 1.483465909958
4.220066547394 -81.302543640137 -268.085510253906 3.970553398132
-151.600662231445 -88.725944519043 -286.547515869141 2.852204561234
-146.233551025391 -84.359558105469 -282.551818847656 1.116326570511
-147.630050659180 -83.618736267090 -297.969177246094 1.741515159607
-46.508193969727 -77.295150756836 -72.161048889160 3.972587585449
-67.262489318848 -78.076332092285 -68.070953369141 2.362379312515
-38.959205627441 -83.186553955078 -70.554039001465 2.837266445160
-33.847229003906 -84.846603393555 -77.134216308594 3.544327497482
-74.430511474609 -79.444770812988 -69.988830566406 1.273462772369
-34.812797546387 -77.007614135742 -81.821342468262 1.050413250923
-50.022491455078 -81.264099121094 -84.244369506836 3.700198888779
-60.645587921143 -73.070091247559 -91.985771179199 2.545803785324
-63.030712127686 -85.677459716797 -96.241821289063 1.381103754044
-60.452861785889 -79.526985168457 -100.450149536133 4.193664550781
-86.430274963379 -78.171585083008 -105.206771850586 3.449911117554
42.728286743164 -79.510871887207 -114.255821228027 1.206860899925
36.828170776367 -79.239799499512 -127.379402160645 2.365166187286
-40.096076965332 -77.081947326660 -163.454742431641 2.718250751495
-38.957344055176 -80.810554504395 -159.001358032227 1.765286326408
-6.901103019714 -81.078742980957 -168.948455810547 1.134628176689
-60.880115509033 -78.684234619141 -168.860076904297 1.534893631935
-57.161682128906 -78.490097045898 -178.905731201172 1.771078944206
-57.160766601563 -82.485290527344 -174.021713256836 1.909238934517
-35.108093261719 -78.332794189453 -177.996520996094 1.363752961159
-52.191852569580 -81.734191894531 -181.667968750000 0.813645541668
-25.803445816040 -76.621643066406 -183.161285400391 1.719069004059
-146.621459960938 -78.287956237793 -186.812942504883 1.771537423134
-48.961585998535 -84.848304748535 -180.961975097656 4.416427612305
-42.979576110840 -84.597557067871 -192.971633911133 1.286190032959
-32.660655975342 -80.798805236816 -190.766738891602 2.270938158035
-32.527832031250 -76.877853393555 -187.560119628906 1.770831584930
-33.920989990234 -83.325187683105 -190.122741699219 2.149616956711
-26.087617874146 -82.535026550293 -185.533218383789 2.480953693390
-44.337768554688 -79.484848022461 -194.001983642578 1.278208136559
-145.152816772461 -78.209625244141 -192.756149291992 2.045434236526
-42.381542205811 -76.922103881836 -192.190979003906 0.854287266731
-40.178009033203 -82.201736450195 -196.218643188477 1.795869588852
-45.173213958740 -82.814682006836 -200.312240600586 1.935185313225
-45.006565093994 -81.658226013184 -198.698394775391 2.006053447723
-132.724197387695 -77.335861206055 -196.185150146484 2.137224912643
-132.631591796875 -81.166580200195 -197.918090820313 1.295851945877
-46.428886413574 -81.152748107910 -205.354675292969 2.977096319199
-57.996662139893 -80.088661193848 -198.439804077148 4.080976486206
-36.529624938965 -77.802017211914 -202.041748046875 0.933054864407
-144.660675048828 -85.145912170410 -207.478759765625 3.140304565430
-68.638954162598 -77.074623107910 -207.316513061523 1.735439896584
-27.821197509766 -81.433349609375 -202.915679931641 4.970733642578
18.573246002197 -78.801765441895 -203.877410888672 2.703851222992
-75.112220764160 -83.344825744629 -212.922668457031 2.304872274399
-30.727893829346 -76.679306030273 -215.137344360352 1.663912534714
14.502784729004 -80.833061218262 -213.461242675781 2.512750625610
-152.952133178711 -83.927360534668 -217.109130859375 3.575297355652
11.937999725342 -81.324203491211 -227.543319702148 0.517250835896
13.418627738953 -84.187088012695 -223.627334594727 3.740029335022
18.119497299194 -79.819137573242 -224.250534057617 2.670084953308
-133.098159790039 -84.611900329590 -223.521286010742 4.858042716980
-147.680480957031 -81.102279663086 -228.534515380859 1.761931538582
12.858899116516 -83.566383361816 -236.120437622070 1.223033547401
17.086364746094 -77.739395141602 -237.828063964844 1.982409596443
14.463829994202 -82.053611755371 -236.618103027344 1.108329057693
-151.750946044922 -86.134529113770 -236.900482177734 3.955070734024
-145.536788940430 -82.851470947266 -238.486907958984 1.670067071915
11.958751678467 -86.653076171875 -238.949920654297 3.901058912277
-34.044216156006 -76.573867797852 -239.728057861328 1.441058039665
16.118375778198 -81.326622009277 -243.984970092773 2.874218940735
-40.813388824463 -80.747665405273 -245.667572021484 1.392118811607
-144.199371337891 -83.544464111328 -252.155944824219 2.175481319427
12.456788063049 -77.903518676758 -248.355102539063 1.978340625763
-142.566665649414 -81.425025939941 -254.778503417969 1.719164609909
-145.079849243164 -82.779190063477 -249.527923583984 0.846442937851
13.537492752075 -83.554046630859 -254.649078369141 1.707526922226
-6.415495872498 -80.119216918945 -250.478546142578 1.797539591789
-5.017067432404 -83.909866333008 -260.288818359375 2.095789670944
-145.195205688477 -85.219337463379 -256.279846191406 0.770055890083
-155.088241577148 -77.495536804199 -261.507049560547 2.469048738480
-143.687469482422 -85.203193664551 -264.024383544922 2.521624803543
-149.442245483398 -82.847770690918 -267.296752929688 2.649157524109
-151.569656372070 -83.864913940430 -272.901123046875 2.566368341446
-8.728532791138 -79.755882263184 -268.251525878906 1.768976211548
-2.761745214462 -78.309494018555 -276.214233398438 2.694511175156
16.644170761108 -81.924385070801 -266.946868896484 1.823598146439
7.200304508209 -78.191703796387 -282.319183349609 2.357806444168
9.737063407898 -81.056701660156 -281.507659912109 2.499875545502
-137.149154663086 -79.981651306152 -291.663696289063 1.358638286591
-145.241287231445 -82.855377197266 -290.722808837891 2.037778139114
-58.295799255371 -81.984100341797 -66.090415954590 2.996398210526
-42.270111083984 -81.813720703125 -65.577987670898 2.645592927933
-50.902114868164 -79.094543457031 -68.253631591797 2.633266210556
-46.678527832031 -82.831092834473 -66.314002990723 3.276792287827
-68.834671020508 -81.266593933105 -70.174438476563 0.711636841297
-80.967361450195 -75.857231140137 -69.935516357422 2.655297994614
-32.284896850586 -74.399879455566 -77.094650268555 1.393134117126
-41.056949615479 -79.396362304688 -83.746620178223 1.341825962067
-48.307910919189 -83.673294067383 -88.109695434570 1.690240502357
-93.429542541504 -79.159614562988 -90.240013122559 3.695796489716
-78.603027343750 -78.268707275391 -106.010223388672 2.533607721329
46.544288635254 -78.390464782715 -111.291000366211 1.972673416138
-85.211914062500 -80.184150695801 -113.548591613770 3.001888751984
41.955604553223 -84.092071533203 -118.254402160645 3.736778259277
40.606723785400 -79.017349243164 -123.239509582520 2.337301254272
31.958343505859 -79.344619750977 -121.968818664551 2.231873035431
30.715875625610 -80.390739440918 -126.786964416504 2.669049263000
40.649982452393 -75.084732055664 -140.049896240234 2.916450977325
25.799066543579 -80.244514465332 -150.015121459961 0.762114346027
-46.428199768066 -77.492576599121 -152.227584838867 0.674340665340
32.057380676270 -79.292953491211 -148.173080444336 1.590553998947
29.243642807007 -80.102272033691 -154.734802246094 0.452004730701
-43.093029022217 -79.102157592773 -155.891677856445 2.033091783524
29.826778411865 -81.340766906738 -156.318847656250 1.778236389160
-43.890460968018 -81.559936523438 -158.266433715820 3.544170379639
23.472072601318 -83.467498779297 -167.241180419922 4.064755916595
-62.671848297119 -82.739250183105 -174.104766845703 4.468549728394
-12.253829956055 -78.611679077148 -177.316207885742 1.100223779678
-33.124286651611 -77.752723693848 -174.050033569336 1.693757534027
-14.719542503357 -82.792953491211 -174.690078735352 1.857762336731
-52.935012817383 -79.402328491211 -173.618286132813 2.148369550705
24.234500885010 -79.404891967773 -179.129501342773 1.166002869606
-16.221815109253 -79.808090209961 -178.645507812500 2.839900255203
-25.604070663452 -80.332626342773 -190.341644287109 2.117383956909
-52.175571441650 -77.103790283203 -188.294952392578 1.798648238182
-27.672163009644 -82.710716247559 -187.360473632813 3.071763753891
16.725460052490 -79.118446350098 -188.232604980469 1.413827657700
-150.672119140625 -81.942306518555 -188.415740966797 1.920449137688
-21.968040466309 -81.217102050781 -188.096908569336 2.087544202805
-45.440452575684 -76.040512084961 -188.460632324219 2.724047183990
-151.005493164063 -77.343788146973 -193.791336059570 0.728180348873
-142.345016479492 -79.761146545410 -200.287551879883 1.914126634598
-21.990198135376 -79.848129272461 -196.478576660156 1.798517942429
-19.010244369507 -81.012519836426 -195.481872558594 1.229494214058
-44.288997650146 -78.718429565430 -196.531463623047 2.082173824310
-23.434417724609 -77.118202209473 -193.643905639648 1.501309990883
-47.288372039795 -77.079429626465 -200.871505737305 2.765430450439
-43.889488220215 -76.973556518555 -199.416076660156 1.883414149284
-58.605754852295 -75.794998168945 -206.100234985352 3.341387033463
-15.870957374573 -74.779304504395 -206.178924560547 3.744216203690
-146.435363769531 -84.950790405273 -211.587921142578 1.967516183853
-54.075126647949 -81.526794433594 -205.184204101563 1.464828729630
-54.226375579834 -73.928100585938 -206.849319458008 5.744420051575
-29.471889495850 -78.590209960938 -199.872619628906 4.679452896118
-17.614208221436 -82.351081848145 -206.067413330078 3.719588279724
-39.926219940186 -78.862075805664 -206.792037963867 1.039812564850
-76.888420104980 -79.136077880859 -215.285690307617 1.200157999992
-151.582611083984 -82.983116149902 -209.865295410156 2.617608308792
-30.505460739136 -81.118797302246 -209.787628173828 1.618238091469
10.815650939941 -80.310020446777 -208.898559570313 1.408197760582
-59.917102813721 -82.295402526855 -211.264907836914 2.362591981888
-68.598510742188 -83.555419921875 -216.227050781250 4.643027305603
-23.849905014038 -80.151908874512 -217.517623901367 2.145059347153
-13.517216682434 -83.561996459961 -211.493972778320 3.814603090286
-24.241510391235 -84.789451599121 -219.461303710938 5.669021129608
15.960767745972 -83.723518371582 -213.183395385742 4.935999393463
-152.692474365234 -78.958435058594 -223.309463500977 1.328371405602
-9.240610122681 -78.582412719727 -221.451156616211 1.968191385269
-152.548568725586 -84.687332153320 -229.030441284180 2.355449438095
14.970870971680 -85.016822814941 -226.652633666992 4.257227420807
12.398713111877 -78.713073730469 -229.017211914063 1.482015252113
-6.328002929688 -82.779487609863 -227.055892944336 3.838500738144
19.325244903564 -77.355018615723 -221.863418579102 1.908821105957
-137.058410644531 -81.344009399414 -228.298538208008 2.227509975433
13.189159393311 -75.697097778320 -224.876571655273 3.430674314499
-153.773147583008 -82.873588562012 -228.958099365234 1.597544789314
-146.869186401367 -85.367347717285 -233.651565551758 2.171886205673
-3.472807645798 -78.984695434570 -225.967636108398 1.701478481293
14.242750167847 -79.564964294434 -234.049728393555 1.668518543243
-33.667510986328 -82.089485168457 -240.595275878906 1.714793443680
-145.762069702148 -80.658218383789 -237.840469360352 3.162390947342
-39.509090423584 -83.329849243164 -238.495834350586 4.231643676758
-42.479068756104 -80.401153564453 -242.160171508789 1.447539567947
-28.576728820801 -81.997627258301 -248.922088623047 6.722501277924
19.503980636597 -77.480323791504 -237.435897827148 1.671048760414
-48.087375640869 -83.351394653320 -245.610992431641 3.835298061371
10.054738044739 -86.259544372559 -245.187393188477 4.414380550385
6.733019828796 -74.170127868652 -242.633422851563 1.041781306267
13.122935295105 -83.024948120117 -248.441894531250 2.019340991974
-46.899154663086 -75.376457214355 -242.434829711914 1.567387342453
21.826028823853 -79.496963500977 -246.402526855469 1.449619174004
-146.560623168945 -79.169013977051 -250.301666259766 2.159304380417
15.379306793213 -82.180595397949 -246.563079833984 0.848781228065
0.183857709169 -83.055152893066 -253.730987548828 1.981990575790
9.476923942566 -81.011657714844 -249.120483398438 1.956136226654
-147.698837280273 -80.780693054199 -251.136199951172 3.058849096298
-149.817016601563 -85.608016967773 -260.466003417969 1.828728318214
-145.165039062500 -82.451240539551 -261.705474853516 2.360691308975
-153.310714721680 -78.471725463867 -263.470245361328 1.543125152588
20.033901214600 -76.338523864746 -262.820312500000 1.844437837601
-153.398223876953 -80.731887817383 -270.412841796875 2.399420261383
-5.211404323578 -82.035736083984 -277.499145507813 2.763284206390
-144.481689453125 -78.543441772461 -276.821594238281 2.282191038132
-145.147964477539 -83.601600646973 -272.745666503906 2.803341865540
-153.833145141602 -77.373519897461 -273.017974853516 3.172375679016
-159.376678466797 -80.574066162109 -287.131713867188 4.183706760406
-132.254150390625 -82.996467590332 -287.490142822266 3.823036432266
-151.078598022461 -83.017692565918 -289.548583984375 1.573354125023
-146.141235351563 -84.374481201172 -288.811676025391 1.820149183273
-145.951828002930 -82.461563110352 -295.627929687500 1.578143239021
-152.828002929688 -82.089225769043 -296.965942382813 2.404500722885
-144.655822753906 -80.625968933105 -295.765319824219 2.122767448425
-153.059402465820 -78.453720092773 -301.446411132813 1.891524910927
-143.039443969727 -84.013267517090 -302.685211181641 4.917066574097
-152.080429077148 -81.128379821777 -300.130310058594 0.541559875011
-53.190799713135 -77.359176635742 -57.977329254150 1.286869764328
-65.467239379883 -79.539115905762 -65.408683776855 1.782620072365
-48.850109100342 -74.563934326172 -61.169048309326 4.507393360138
-27.321329116821 -77.393348693848 -73.752418518066 1.411932826042
-55.602294921875 -83.695343017578 -94.080932617188 2.415461063385
-89.882225036621 -82.474388122559 -102.153579711914 3.073662042618
49.878108978271 -78.923095703125 -105.193763732910 1.862743973732
-81.465614318848 -84.612205505371 -107.957260131836 2.431777238846
44.610515594482 -78.986701965332 -111.801467895508 1.567192435265
36.904308319092 -79.522499084473 -117.585464477539 1.396496772766
41.096736907959 -77.664299011230 -125.554924011230 1.045809626579
41.001247406006 -73.584968566895 -133.473083496094 1.794577121735
31.035085678101 -75.502029418945 -136.699935913086 2.773613214493
32.424980163574 -76.348754882813 -132.366104125977 2.380662441254
28.779542922974 -81.962562561035 -146.827667236328 1.639880418777
-44.476490020752 -80.522369384766 -150.480422973633 1.614617705345
29.145133972168 -77.189514160156 -142.964019775391 1.481413006783
-67.834739685059 -78.285736083984 -158.697738647461 0.741665005684
-41.077323913574 -79.312469482422 -158.842239379883 1.797265410423
-63.312297821045 -80.971054077148 -169.472229003906 2.219543457031
-41.852855682373 -76.161224365234 -162.681533813477 1.660239338875
30.980930328369 -76.408500671387 -156.907196044922 2.076211214066
-35.097217559814 -79.648872375488 -164.490112304688 1.101911664009
-2.277812004089 -80.764205932617 -167.453536987305 1.461391091347
32.508808135986 -79.335929870605 -160.469802856445 2.724838256836
-7.143875122070 -82.991516113281 -167.492782592773 3.246851444244
-60.321960449219 -75.026916503906 -164.472396850586 1.059201240540
-31.672815322876 -78.901840209961 -170.341232299805 1.211051464081
-27.285768508911 -79.250793457031 -172.982940673828 2.346912622452
22.109861373901 -80.571868896484 -172.375183105469 1.316951513290
-52.051624298096 -76.595649719238 -176.256439208984 1.443336009979
-30.791782379150 -74.225700378418 -177.000701904297 3.694028139114
20.077632904053 -78.007194519043 -178.429321289063 1.883710980415
-54.852828979492 -81.501762390137 -187.109863281250 2.436341524124
-25.884885787964 -76.113784790039 -181.829757690430 1.327306628227
-55.741249084473 -76.598091125488 -181.745315551758 1.678921699524
-40.338577270508 -81.407241821289 -192.448425292969 1.949367403984
-27.258792877197 -80.861526489258 -185.204315185547 2.091624259949
-45.252582550049 -76.306999206543 -195.635604858398 1.091894388199
-25.062992095947 -82.355247497559 -192.676956176758 3.116042852402
-138.106140136719 -76.887550354004 -199.621261596680 2.533320426941
19.005159378052 -80.928611755371 -199.424819946289 2.702607393265
-133.978851318359 -78.824356079102 -200.665634155273 2.033128976822
-20.898984909058 -73.980529785156 -197.997528076172 2.468988180161
-17.628551483154 -77.943450927734 -198.955657958984 2.418666362762
-42.853553771973 -77.987373352051 -199.745819091797 2.033170223236
17.776548385620 -77.791046142578 -190.293380737305 1.176756620407
-18.768737792969 -78.757202148438 -197.314483642578 0.900962650776
-60.086914062500 -79.768203735352 -212.121109008789 3.044783830643
-36.325355529785 -73.529243469238 -205.823532104492 1.886641502380
-61.792621612549 -80.761444091797 -205.556289672852 1.872102618217
-69.560485839844 -79.414871215820 -208.776596069336 1.993589639664
16.929191589355 -82.591041564941 -208.561462402344 3.583024740219
-85.881820678711 -76.862548828125 -213.003005981445 1.002825856209
-27.640090942383 -77.682228088379 -214.935333251953 1.056268692017
-82.792282104492 -77.068954467773 -215.600555419922 1.038157463074
-145.815231323242 -82.784156799316 -220.008056640625 2.720511198044
-7.852546215057 -74.751091003418 -214.158782958984 1.277756214142
-12.643719673157 -79.761711120605 -216.678131103516 2.248454809189
9.534711837769 -73.164237976074 -218.429901123047 2.052904129028
17.941623687744 -80.174736022949 -218.999099731445 2.428892135620
-4.465318202972 -75.218383789063 -229.135269165039 1.837594270706
-134.486068725586 -81.151657104492 -226.362731933594 1.213836073875
-152.131637573242 -81.837837219238 -226.048889160156 1.916614294052
-146.743545532227 -74.824752807617 -231.105178833008 2.176578760147
8.221340179443 -77.804649353027 -234.707794189453 1.075095295906
2.444462776184 -74.286903381348 -235.214752197266 2.444949865341
-23.544740676880 -83.446426391602 -240.434692382813 4.191853523254
-150.801803588867 -81.150764465332 -241.173950195313 2.124285459518
12.175784111023 -75.326522827148 -244.108428955078 1.306270599365
-25.136325836182 -79.073265075684 -243.280349731445 1.734116196632
19.947286605835 -76.452178955078 -237.042938232422 1.170111894608
-53.304870605469 -78.554733276367 -243.531906127930 0.884888947010
-48.611076354980 -74.805358886719 -245.373168945313 1.362773776054
-144.906494140625 -81.801162719727 -251.641174316406 2.122145891190
-67.193923950195 -77.801834106445 -252.468719482422 2.845992803574
-7.713716030121 -74.906661987305 -246.184570312500 1.987089514732
-7.723891258240 -78.251243591309 -254.047302246094 2.024327278137
-147.218292236328 -85.975440979004 -255.407135009766 1.654363751411
-134.823486328125 -80.288368225098 -259.772735595703 1.231815218925
-138.944351196289 -77.176383972168 -262.843414306641 2.507873296738
22.798114776611 -77.034667968750 -264.824523925781 2.080960988998
-140.096069335938 -79.637008666992 -273.782714843750 6.683441162109
16.220989227295 -83.515800476074 -270.933441162109 2.874696731567
-149.861221313477 -77.907707214355 -269.174316406250 1.212424993515
0.491682946682 -78.611923217773 -280.446990966797 1.860652565956
-146.716781616211 -79.150856018066 -282.381591796875 0.672484457493
-1.405056118965 -81.284820556641 -285.476898193359 5.064183235168
-152.300537109375 -82.030586242676 -283.072143554688 2.271673917770
-141.207412719727 -79.495132446289 -282.461456298828 3.559379100800
-138.399612426758 -78.222869873047 -286.976287841797 1.378186821938
-148.387542724609 -81.264022827148 -290.966278076172 0.711929261684
-19.544452667236 -77.624038696289 -290.135253906250 0.680538713932
-153.709579467773 -79.173706054688 -290.816802978516 2.281877756119
-155.456008911133 -78.885620117188 -296.808227539063 3.776876211166
-149.849990844727 -77.133979797363 -309.795715332031 2.322527885437
-57.972873687744 -77.623016357422 -60.232677459717 0.736198246479
-36.492919921875 -76.333183288574 -60.095134735107 1.369271278381
-79.930953979492 -79.718742370605 -62.698696136475 3.448750257492
-28.952325820923 -75.405006408691 -68.148925781250 2.504549503326
-23.446687698364 -73.024993896484 -68.388946533203 3.156274318695
-81.946464538574 -74.795539855957 -82.213958740234 5.993649005890
88.654426574707 -70.908348083496 -85.563720703125 6.585828304291
-35.310100555420 -73.881546020508 -86.746726989746 6.419295310974
79.806106567383 -80.195793151855 -87.566383361816 3.661773443222
76.819335937500 -74.287620544434 -86.013893127441 2.895348787308
87.678909301758 -72.259017944336 -85.283866882324 5.415568351746
80.256805419922 -79.806228637695 -90.100479125977 2.508394241333
93.978485107422 -75.915550231934 -91.749870300293 0.877767801285
-90.974716186523 -78.504707336426 -96.796142578125 2.759582519531
51.839778900146 -78.731971740723 -105.397453308105 1.315838694572
-88.296844482422 -77.908256530762 -117.282524108887 3.239100933075
41.211631774902 -75.249282836914 -113.447921752930 3.104796648026
47.438423156738 -75.393280029297 -111.405250549316 0.550730824471
40.973312377930 -77.682632446289 -116.198226928711 2.099123239517
34.701686859131 -78.655281066895 -129.479644775391 1.996124982834
22.834356307983 -76.425582885742 -138.620849609375 3.435179710388
26.042613983154 -70.024597167969 -145.537277221680 1.999064683914
29.336311340332 -78.981636047363 -144.562423706055 2.665663957596
-51.161926269531 -80.168800354004 -152.440948486328 2.454081296921
-44.989597320557 -79.914833068848 -148.839248657227 1.845961928368
-43.528392791748 -74.658264160156 -151.721054077148 2.051612138748
30.095241546631 -80.957946777344 -153.383560180664 2.173942804337
22.174268722534 -74.992118835449 -168.204421997070 2.301203489304
-32.826858520508 -80.251083374023 -166.199264526367 1.831650972366
-34.121265411377 -75.961997985840 -163.274581909180 1.885258793831
-50.366592407227 -79.463211059570 -157.483703613281 3.915263891220
0.050042167306 -76.123275756836 -165.273925781250 2.909367322922
25.771455764771 -75.949661254883 -162.063537597656 2.218488454819
27.920305252075 -77.836509704590 -164.685089111328 1.827004194260
24.713003158569 -81.194320678711 -168.258697509766 2.216871738434
-11.585085868835 -79.358802795410 -170.067733764648 2.568575382233
0.258872509003 -73.951431274414 -170.414413452148 2.761132478714
-57.845195770264 -78.116439819336 -175.776763916016 1.147852540016
-61.496135711670 -78.777496337891 -173.982772827148 2.197451829910
-40.323863983154 -78.965904235840 -173.033813476563 1.661207079887
-36.166847229004 -79.226226806641 -172.029525756836 1.351402640343
26.575214385986 -78.234634399414 -175.686157226563 1.890760779381
-17.248291015625 -80.795562744141 -176.783493041992 2.019306182861
-35.904560089111 -77.954147338867 -180.871688842773 2.397100448608
-55.863498687744 -81.414276123047 -180.369583129883 0.976543426514
103.419700622559 -82.030738830566 -184.105407714844 5.131285667419
21.532508850098 -74.312538146973 -173.019378662109 2.265270471573
-26.024320602417 -76.734397888184 -184.009735107422 2.233727455139
-50.608791351318 -76.856361389160 -182.073883056641 1.586835741997
-14.349009513855 -78.140792846680 -179.293411254883 2.111535310745
104.455230712891 -75.412994384766 -172.449035644531 2.256528139114
-51.249824523926 -80.153259277344 -180.490325927734 1.317588090897
21.018457412720 -76.111686706543 -180.568786621094 2.381837129593
26.887285232544 -75.702804565430 -183.183837890625 0.750990152359
-58.277263641357 -77.676879882813 -180.654693603516 0.837280571461
-24.484859466553 -78.168571472168 -179.799484252930 1.736314535141
-52.756080627441 -81.732757568359 -172.729904174805 3.256574630737
-32.188282012939 -75.304130554199 -179.947204589844 1.994691967964
-27.391525268555 -78.988059997559 -187.664642333984 1.275416374207
24.446155548096 -77.654518127441 -185.619979858398 2.095693588257
-50.469982147217 -79.812759399414 -187.673355102539 1.107405424118
102.715927124023 -77.583129882813 -192.190795898438 1.709932565689
-51.689540863037 -73.582298278809 -187.334243774414 2.362334489822
13.324064254761 -79.033355712891 -204.935089111328 0.919777929783
21.652347564697 -78.675338745117 -198.454620361328 3.320126295090
-44.825706481934 -74.317138671875 -190.596527099609 1.767699718475
-21.528455734253 -75.077522277832 -185.482803344727 0.943003416061
102.199157714844 -76.353973388672 -199.284957885742 1.775251269341
100.049301147461 -76.899955749512 -200.718612670898 1.120450019836
-41.801280975342 -82.777908325195 -190.003234863281 3.187335729599
-147.826232910156 -81.549072265625 -196.611175537109 0.738770723343
-46.256973266602 -72.240165710449 -198.011245727539 3.380011081696
-146.624160766602 -77.951766967773 -199.153198242188 2.173770427704
-137.635665893555 -72.367614746094 -203.290802001953 1.933207869530
-44.373672485352 -73.754371643066 -197.057067871094 1.566072225571
15.964076995850 -78.123451232910 -206.604171752930 1.547855377197
-15.126538276672 -81.966590881348 -205.367172241211 3.604335308075
14.487541198730 -76.098632812500 -201.162673950195 2.136370897293
91.900848388672 -76.328643798828 -214.325851440430 2.357812643051
-35.633251190186 -74.603103637695 -194.858169555664 4.269332885742
-11.010644912720 -79.124130249023 -207.518463134766 1.936194181442
-10.295158386230 -77.794471740723 -212.946151733398 1.888471007347
-35.065155029297 -76.364669799805 -207.821090698242 0.740259170532
11.001467704773 -78.657089233398 -204.888702392578 1.688814878464
-72.105514526367 -72.526969909668 -210.240570068359 3.885390281677
15.052521705627 -75.134155273438 -210.951614379883 2.486235380173
-36.115463256836 -78.827117919922 -207.286056518555 1.361471176147
-146.488006591797 -73.714073181152 -208.932388305664 1.924926161766
-146.560913085938 -73.218040466309 -215.319686889648 2.375107049942
-83.031379699707 -77.139427185059 -212.432571411133 1.776890158653
-37.030040740967 -75.178199768066 -212.968017578125 3.224065542221
-25.051380157471 -77.694641113281 -218.415100097656 1.415909886360
-30.579799652100 -77.701858520508 -208.315216064453 1.711504817009
-92.767898559570 -74.814697265625 -220.709442138672 1.300182938576
-86.604309082031 -76.015823364258 -215.897766113281 2.068087100983
14.803905487061 -78.168159484863 -223.539154052734 1.080046772957
-147.424636840820 -74.713462829590 -219.136642456055 2.194614648819
-15.627894401550 -74.369979858398 -217.421661376953 0.788276255131
10.997137069702 -80.775329589844 -216.695358276367 2.059338569641
-142.564529418945 -80.582397460938 -216.138259887695 3.156227588654
-17.302631378174 -80.288665771484 -222.691879272461 2.981641769409
-2.265150308609 -79.999778747559 -224.837722778320 1.711591720581
-1.286273360252 -83.585151672363 -217.929595947266 5.206800460815
-151.886489868164 -78.565116882324 -218.513504028320 2.061605930328
-142.911514282227 -76.659484863281 -232.186233520508 1.970568060875
-7.580482482910 -79.357650756836 -222.609970092773 1.704097151756
-146.922790527344 -78.357421875000 -228.256088256836 0.869965434074
0.796832978725 -78.284500122070 -233.034683227539 2.387744188309
13.014191627502 -78.589714050293 -231.800918579102 1.951520442963
0.939864575863 -75.461647033691 -230.271469116211 2.264032840729
-1.009977817535 -74.818321228027 -236.718170166016 1.287518978119
6.975738048553 -76.723930358887 -230.603332519531 1.484450340271
-150.748291015625 -77.311569213867 -232.902572631836 2.273017644882
-22.792472839355 -75.083015441895 -237.235015869141 1.887128114700
-35.120067596436 -79.701591491699 -239.068649291992 2.193955183029
6.817914962769 -71.403327941895 -236.928802490234 2.392086505890
-1.495146036148 -75.370506286621 -236.361145019531 1.359062552452
3.158326387405 -81.649330139160 -233.049713134766 3.575673103333
-52.927947998047 -76.470588684082 -238.579254150391 4.461386203766
-147.214340209961 -77.338973999023 -244.893493652344 1.337285161018
-155.627136230469 -77.986618041992 -252.247192382813 3.449445247650
10.030545234680 -71.616096496582 -245.422546386719 2.067953586578
22.858970642090 -78.501220703125 -251.878784179688 3.644708871841
-61.618701934814 -79.819770812988 -248.638946533203 2.510805845261
-145.559799194336 -80.411872863770 -255.524017333984 2.771919488907
-147.763473510742 -81.246383666992 -255.727783203125 2.196981191635
-148.681411743164 -84.089630126953 -260.161621093750 0.639450073242
-139.499374389648 -78.262619018555 -257.279510498047 2.025224208832
-138.426345825195 -82.176208496094 -252.004180908203 4.525044441223
-14.432734489441 -73.130470275879 -256.025665283203 1.253642082214
-140.622375488281 -78.159416198730 -261.457580566406 1.631537914276
-11.225106239319 -77.817749023438 -262.060150146484 1.661220312119
-145.549011230469 -81.118141174316 -279.875183105469 2.504418373108
-144.661483764648 -78.394866943359 -277.501678466797 2.094409227371
-150.827621459961 -76.205291748047 -283.921875000000 2.116658687592
-6.220299243927 -75.163475036621 -283.495117187500 1.273536443710
-143.038284301758 -79.123443603516 -288.905303955078 1.369755148888
-34.395347595215 -74.056854248047 -284.174591064453 2.578396558762
-31.377298355103 -77.788497924805 -284.439788818359 2.130045175552
-20.846590042114 -79.932548522949 -287.863189697266 2.201146602631
-6.363600254059 -77.725151062012 -287.149871826172 1.863555550575
14.067919731140 -79.195701599121 -292.150909423828 0.990049481392
-127.112335205078 -78.859535217285 -289.252441406250 1.886305928230
-54.343223571777 -76.143371582031 -285.624755859375 1.477927565575
-38.533008575439 -77.909637451172 -286.913726806641 1.763851881027
-30.710046768188 -78.574699401855 -288.599090576172 1.154677033424
-13.062249183655 -75.048477172852 -289.544433593750 2.736195087433
4.031256675720 -76.347923278809 -293.195831298828 1.429807901382
-145.746871948242 -80.122215270996 -291.547485351563 2.219230413437
6.971325874329 -82.204421997070 -292.242156982422 4.720075130463
-153.361724853516 -79.638488769531 -299.494323730469 1.526608467102
-153.227401733398 -81.707328796387 -297.951843261719 2.369700908661
-152.330184936523 -80.214820861816 -309.461700439453 2.456124305725
-141.323806762695 -73.450981140137 -306.717254638672 3.419069766998
-47.380069732666 -75.797225952148 -56.205036163330 0.644449353218
-57.904396057129 -79.996002197266 -57.561527252197 2.877886772156
-66.334678649902 -73.704139709473 -59.533039093018 4.086021423340
-38.180526733398 -71.717674255371 -56.907787322998 3.103148937225
-39.267257690430 -79.658172607422 -55.102947235107 4.811472892761
-21.789005279541 -70.440032958984 -68.949851989746 4.439877033234
-84.979949951172 -77.617843627930 -68.373680114746 2.538972139359
79.277770996094 -75.133758544922 -78.233848571777 1.495247840881
-90.075080871582 -74.636589050293 -85.916717529297 1.530524849892
84.379814147949 -75.915855407715 -80.090217590332 1.641301393509
90.666442871094 -74.619186401367 -82.267776489258 2.999552965164
90.644378662109 -71.821044921875 -88.123283386230 5.108877658844
-57.535659790039 -81.614982604980 -94.482093811035 0.339987844229
85.406425476074 -76.614952087402 -96.937423706055 1.494476556778
80.057937622070 -70.471008300781 -95.549255371094 4.459289550781
82.612121582031 -76.489540100098 -84.922187805176 1.747897028923
-63.319683074951 -80.807029724121 -95.477729797363 1.373084902763
55.907608032227 -77.849739074707 -96.201316833496 2.360692739487
42.583873748779 -73.219253540039 -106.521072387695 2.596443414688
39.876411437988 -75.768836975098 -105.068672180176 1.498951792717
40.828872680664 -79.051185607910 -110.837570190430 1.497486591339
-86.185226440430 -77.843521118164 -111.778984069824 1.478853464127
30.958572387695 -77.163726806641 -116.681312561035 3.098065137863
-86.024223327637 -75.901809692383 -109.690086364746 2.192116260529
43.021526336670 -78.706001281738 -126.662391662598 2.031232118607
37.156204223633 -79.388954162598 -123.179115295410 1.233891248703
35.763011932373 -72.490676879883 -121.110710144043 2.187548160553
43.777503967285 -75.449272155762 -121.323127746582 2.054372787476
37.287239074707 -76.342338562012 -129.609085083008 2.264002799988
-52.574775695801 -72.512275695801 -139.050491333008 2.000906229019
38.446857452393 -73.658988952637 -133.993789672852 2.630765676498
38.910991668701 -76.392570495605 -141.047439575195 2.314695119858
-48.577377319336 -74.707901000977 -139.333190917969 1.351174235344
-46.385334014893 -75.551651000977 -139.900726318359 2.449302911758
37.254276275635 -75.050857543945 -141.534790039063 1.678013086319
111.278846740723 -77.150894165039 -143.265319824219 1.742612838745
114.718917846680 -74.802406311035 -138.744964599609 2.037359476089
26.369354248047 -76.247856140137 -147.909210205078 1.774313211441
-44.544837951660 -78.415580749512 -146.904861450195 0.776358187199
110.630973815918 -79.459564208984 -152.335189819336 3.830615520477
-41.159690856934 -73.831611633301 -152.176895141602 2.166073799133
-72.248748779297 -79.204887390137 -160.385162353516 4.010508060455
106.525245666504 -75.179924011230 -164.441024780273 1.575882554054
25.814277648926 -79.839416503906 -164.248626708984 1.227577209473
2.032836675644 -75.562614440918 -166.408615112305 2.087843656540
116.484230041504 -78.407295227051 -161.667785644531 3.295996427536
-59.101509094238 -75.201293945313 -167.088241577148 1.287330508232
-34.013477325439 -80.223014831543 -159.055130004883 2.566704273224
114.231521606445 -71.854766845703 -164.715377807617 2.148892641068
31.680484771729 -79.727890014648 -157.481826782227 1.757697224617
-65.412864685059 -80.220909118652 -162.378540039063 1.251745939255
111.508316040039 -81.057785034180 -165.696197509766 4.344633102417
-64.528625488281 -77.474975585938 -167.318069458008 1.265550851822
-48.726055145264 -77.464691162109 -178.307998657227 2.469862222672
105.913543701172 -79.358154296875 -170.725158691406 3.958117008209
-60.393211364746 -72.228828430176 -170.521408081055 1.357226490974
114.196594238281 -78.912200927734 -175.942642211914 3.807782173157
-57.841064453125 -77.569015502930 -176.292800903320 1.064126253128
-12.587739944458 -78.478912353516 -179.356430053711 1.409821271896
-17.160167694092 -77.311584472656 -182.816589355469 1.885080337524
103.717727661133 -79.603096008301 -173.081848144531 4.951144695282
21.299699783325 -73.821723937988 -175.472106933594 2.867683410645
36.296268463135 -74.198593139648 -171.833511352539 6.759913921356
-56.197891235352 -75.101142883301 -181.364440917969 1.239217996597
19.953714370728 -73.062164306641 -183.796539306641 4.059741497040
-57.878910064697 -77.033287048340 -179.357162475586 1.578064203262
-53.294731140137 -75.990928649902 -184.471572875977 1.325658679008
13.839192390442 -72.133087158203 -182.379455566406 0.893185734749
-60.099002838135 -80.512664794922 -186.923065185547 5.753684520721
109.848556518555 -77.042350769043 -183.727828979492 1.333686113358
24.300355911255 -75.542327880859 -180.352020263672 0.727530598640
-27.109121322632 -75.810127258301 -188.499694824219 1.593400955200
-38.753715515137 -76.214485168457 -193.548614501953 2.663114786148
12.168194770813 -74.169952392578 -191.692398071289 0.978678047657
-21.840913772583 -74.165222167969 -185.238983154297 1.440355062485
-47.449119567871 -75.046493530273 -194.728622436523 1.581583619118
111.871612548828 -76.012504577637 -184.593414306641 2.309279203415
16.484031677246 -76.270004272461 -194.642181396484 2.527898788452
-134.736709594727 -75.105247497559 -191.081695556641 6.337075710297
-40.217731475830 -80.028839111328 -194.759628295898 1.319269061089
95.566452026367 -74.776405334473 -200.153488159180 1.383677005768
-144.683929443359 -82.301376342773 -202.955322265625 0.802996695042
20.272932052612 -74.560615539551 -192.332305908203 1.459679841995
-38.927787780762 -76.374534606934 -202.043014526367 1.129919052124
-31.650745391846 -77.167327880859 -201.410476684570 2.348176956177
-39.378189086914 -77.156593322754 -206.373703002930 1.266010522842
-40.180973052979 -75.433090209961 -194.400360107422 1.720295667648
103.085243225098 -76.342002868652 -202.011169433594 2.655492544174
-18.285383224487 -75.597824096680 -207.376831054688 2.924734115601
-151.584594726563 -78.349784851074 -205.556457519531 2.129772424698
15.120648384094 -74.040740966797 -211.564483642578 2.217411518097
-77.937828063965 -77.449066162109 -207.721618652344 2.214637756348
-151.827514648438 -82.284828186035 -206.879730224609 3.593550682068
95.989097595215 -75.344573974609 -208.091476440430 1.167763710022
-27.903219223022 -77.555503845215 -207.804382324219 1.306382417679
-22.793453216553 -75.409820556641 -212.841949462891 1.925909519196
5.052759647369 -76.388984680176 -210.196777343750 2.953214883804
-72.624862670898 -74.915122985840 -211.606872558594 1.589844346046
-29.759571075439 -78.870826721191 -209.144302368164 1.501401424408
-2.363318204880 -77.202323913574 -212.105606079102 2.851559638977
-73.544502258301 -80.749549865723 -210.886474609375 1.857207536697
-13.231628417969 -78.377067565918 -212.076782226563 1.585441827774
5.677951812744 -75.808876037598 -215.258468627930 0.599331676960
15.942459106445 -79.417686462402 -220.706512451172 1.816309571266
-145.330352783203 -76.332412719727 -213.673889160156 2.184791803360
-4.414717197418 -76.674621582031 -216.010498046875 1.019344210625
-94.047340393066 -74.081649780273 -218.670501708984 1.812197208405
-24.151554107666 -77.982246398926 -222.146240234375 2.198741674423
95.025215148926 -76.118690490723 -209.684249877930 1.453779935837
4.719718456268 -75.567169189453 -230.594543457031 1.144617080688
14.332351684570 -71.418449401855 -215.184478759766 1.091513395309
83.885856628418 -74.399238586426 -220.679992675781 1.644313812256
0.611376464367 -75.596740722656 -228.791229248047 1.601925373077
87.372085571289 -74.043228149414 -218.810363769531 1.308760523796
-20.013193130493 -73.688667297363 -218.693054199219 1.764652609825
12.706014633179 -79.863616943359 -222.712219238281 2.022886514664
-143.666870117188 -81.071586608887 -223.649383544922 2.123301506042
-17.212274551392 -79.395584106445 -223.459091186523 2.200463056564
4.514409065247 -77.911827087402 -224.010452270508 2.419802904129
-156.167358398438 -77.369522094727 -228.660995483398 2.223898410797
-136.360488891602 -76.838447570801 -226.413513183594 1.197332143784
8.196312904358 -77.348045349121 -224.691070556641 1.753229975700
-1.771456956863 -75.409637451172 -230.951568603516 1.345120787621
-135.252334594727 -73.393974304199 -232.096343994141 0.946387827396
-144.636276245117 -76.258453369141 -235.423217773438 1.747641444206
-143.573593139648 -78.631446838379 -236.196868896484 2.208962917328
-29.619375228882 -74.683525085449 -241.317871093750 1.972601890564
-143.938034057617 -75.912353515625 -238.387039184570 3.437203884125
20.163322448730 -77.065917968750 -243.055358886719 2.095464468002
3.861400604248 -71.747360229492 -238.931762695313 2.412758588791
-152.279281616211 -77.972038269043 -236.725921630859 2.415071964264
-147.881149291992 -77.239830017090 -242.604904174805 0.776094079018
-50.688686370850 -77.027046203613 -242.824188232422 2.456903696060
-31.326679229736 -76.545372009277 -240.675765991211 2.319995164871
6.682401180267 -82.632308959961 -250.272338867188 1.235183715820
-40.487529754639 -76.133529663086 -244.408920288086 1.277443528175
19.632135391235 -77.655723571777 -247.979370117188 1.641839981079
-9.593770027161 -75.962074279785 -251.605529785156 1.318894147873
-154.132293701172 -76.333068847656 -251.638000488281 3.570792436600
-7.040971755981 -78.068496704102 -248.339477539063 1.945622324944
-145.270080566406 -76.938148498535 -249.400482177734 2.703328371048
-65.113388061523 -78.418533325195 -246.543579101563 1.416651844978
-149.551208496094 -80.272087097168 -261.387420654297 3.335648059845
-125.566482543945 -72.904953002930 -258.870819091797 2.395972967148
-148.358612060547 -72.391075134277 -259.131652832031 1.643439531326
-16.580183029175 -76.888931274414 -262.636871337891 3.002426624298
-147.076644897461 -74.773849487305 -262.648864746094 2.447833061218
-148.742614746094 -85.619911193848 -264.368957519531 1.686353087425
-7.759976863861 -77.057228088379 -267.894073486328 3.572828531265
-145.431564331055 -77.680107116699 -272.958618164063 2.565743207932
-4.066446781158 -80.388092041016 -277.086212158203 1.978783369064
-49.576828002930 -79.344810485840 -282.528137207031 5.338760375977
-137.073471069336 -77.799064636230 -288.356567382813 0.669796705246
-133.516281127930 -78.171340942383 -288.761108398438 1.574382305145
-130.312072753906 -73.139373779297 -287.062561035156 3.836677074432
-51.726032257080 -72.363265991211 -291.374603271484 0.945722103119
-114.082695007324 -78.626274108887 -284.736236572266 5.526527881622
17.322237014771 -78.025367736816 -285.598205566406 4.317953586578
-62.169086456299 -79.069351196289 -289.567962646484 2.716569423676
-138.629455566406 -75.373725891113 -292.998535156250 3.037321090698
-60.840148925781 -78.397712707520 -291.904418945313 3.032289981842
-144.914047241211 -78.689201354980 -291.684234619141 2.301370620728
-120.223594665527 -79.129913330078 -285.049835205078 5.222590446472
-45.604778289795 -76.585296630859 -291.232391357422 1.979591608047
-36.456981658936 -80.912315368652 -286.818939208984 3.861929416656
-134.824234008789 -79.438026428223 -291.210144042969 1.689744472504
-10.829388618469 -76.333007812500 -290.525390625000 1.101939916611
3.017917633057 -78.725982666016 -293.431701660156 3.394050598145
6.666798591614 -77.318702697754 -292.180053710938 0.373488694429
17.888370513916 -76.157203674316 -293.279022216797 2.212353467941
-151.203140258789 -74.195014953613 -295.709259033203 2.075429439545
-149.130661010742 -81.393173217773 -300.941131591797 1.643187761307
-66.792816162109 -75.026786804199 -59.083080291748 3.133592605591
87.211997985840 -79.768554687500 -69.701904296875 6.036996364594
