# This PCD file was generated using the MATLAB® pcwrite function
# from Computer Vision Toolbox®.
# .PCD v.7 - Point Cloud Data file format
VERSION .7
FIELDS x y z
SIZE 4 4 4
TYPE F F F
COUNT 1 1 1
WIDTH 1411
HEIGHT 1
VIEWPOINT 0 0 0 1 0 0 0
POINTS 1411
DATA ascii
-31.516268 -39.413082 -277.255859
3.811513 -29.398575 -282.217010
-4.930700 -29.771381 -286.559998
1.320600 -28.052757 -285.654053
-54.703758 -42.730556 -271.083252
-143.153534 -68.310005 -244.311371
-143.645599 -70.636063 -246.809036
-0.200546 -23.172544 -299.804901
11.440845 -19.202755 -302.232056
-62.283558 -44.493595 -276.565857
-141.755875 -67.258949 -250.451431
-150.543488 -68.026138 -245.785629
-145.212753 -68.517151 -255.949600
-141.662354 -60.289875 -257.296906
-136.700562 -58.987881 -253.909821
-22.466518 -23.825912 -299.126068
-143.804825 -62.154213 -262.910645
-26.039656 -19.856499 -304.095978
-153.499649 -54.147240 -266.446472
-155.513977 -53.319950 -274.785583
-158.697159 -55.712132 -272.643311
-29.722046 -8.778590 -321.378357
-151.671112 -48.071346 -274.386719
-55.720623 -18.005337 -313.456024
-55.687290 -16.752262 -313.399078
-39.133759 -8.787584 -320.275391
-34.181355 -9.726658 -324.182434
-11.961390 -3.635853 -336.382233
-139.095139 -38.580276 -285.334076
-78.140633 -24.783295 -309.355957
-59.070999 -19.586508 -314.237213
-57.169205 -16.995422 -317.225830
-33.640461 -10.812856 -324.113098
-24.784533 -4.897434 -326.961243
-157.854248 -46.533051 -283.595581
-20.366308 -3.994661 -330.429199
-169.158813 -46.626308 -282.663177
-165.848083 -44.757526 -287.587860
-173.921432 -43.456005 -292.103912
-171.095535 -39.390198 -293.142181
29.856476 -119.099068 -125.947617
25.820381 -121.543098 -122.863945
18.779703 -122.342422 -123.156952
34.420456 -117.000282 -132.222076
42.401600 -117.569656 -131.320602
52.282616 -108.793449 -143.668060
-1.539599 -126.052856 -125.507751
142.356918 -75.316605 -188.828369
-15.568859 -118.046089 -134.381409
140.905121 -71.526337 -192.476807
138.629257 -70.017380 -191.670197
144.824234 -64.228470 -198.316422
6.566234 -111.930573 -154.619965
132.085526 -67.176201 -198.988968
130.808868 -67.441284 -195.337585
138.771759 -69.963966 -204.183212
0.018750 -110.060295 -154.582550
104.992378 -70.109726 -196.203262
94.527023 -69.873375 -197.427200
92.484108 -74.436493 -197.129196
84.542038 -72.138855 -199.605911
-26.827482 -107.679947 -154.818100
81.173767 -71.969246 -202.876419
-23.365440 -106.733315 -159.629089
80.950485 -66.681419 -212.632339
77.515121 -67.818565 -207.386673
76.046822 -68.027779 -205.270203
85.684097 -67.192230 -209.475052
80.953705 -65.622192 -213.306198
-11.081507 -85.903160 -189.596039
74.753639 -61.690041 -219.601700
69.368111 -60.572235 -223.539154
-6.963712 -81.580544 -191.863235
-5.558395 -88.407883 -194.712601
66.962517 -61.661457 -222.598526
138.949646 -39.224552 -248.841782
142.399902 -37.767727 -249.285965
59.484497 -60.929867 -222.271515
-3.780350 -81.479973 -203.737091
133.184341 -30.385330 -257.676727
-5.454014 -75.005440 -209.027328
-31.068050 -83.156006 -200.273193
126.929863 -32.340328 -264.335876
51.120579 -58.718586 -235.271225
31.370255 -61.675446 -227.180832
132.441605 -28.998110 -261.144714
-29.722309 -79.370377 -208.521240
-5.712874 -72.894508 -209.876251
129.726074 -27.936138 -268.998779
55.484249 -53.746590 -233.656830
-30.716614 -78.038239 -205.442093
128.876556 -30.492556 -269.660645
-27.924879 -77.151894 -217.104691
-25.177774 -70.460281 -223.057114
120.298141 -25.324657 -272.877045
-28.541315 -77.289986 -212.213242
121.252396 -24.743877 -272.914093
-26.064852 -74.222679 -214.557724
10.247128 -58.943092 -235.455505
9.001250 -57.859364 -237.357193
123.459732 -23.838457 -272.378937
42.823639 -50.141075 -242.657211
50.223408 -46.003246 -245.010788
-27.417000 -67.710098 -219.518723
42.684502 -44.760410 -250.738724
-28.139824 -69.965073 -218.845337
-27.895807 -68.200531 -226.816162
35.888622 -51.327358 -247.782471
-32.257668 -71.633347 -222.277786
117.547073 -20.826563 -283.571960
42.798046 -46.091469 -247.872284
-9.936889 -59.236397 -234.339783
-22.419142 -61.797722 -236.931137
24.303474 -43.669579 -258.854492
3.849003 -52.627747 -243.504471
-30.186903 -62.953056 -238.805588
111.926598 -22.370382 -284.949066
30.356630 -44.159573 -254.775681
-108.533577 -84.508461 -209.916229
-20.622627 -59.847485 -236.945892
102.508163 -19.040884 -288.566406
-119.350449 -92.067390 -209.173004
29.897249 -43.991016 -255.682449
-23.868015 -53.633846 -244.621964
-23.026606 -52.949574 -251.014099
-19.487803 -53.255344 -246.818939
-21.887951 -59.240337 -240.329086
100.175591 -14.399618 -292.267639
-4.440885 -47.723667 -251.655594
-123.664574 -84.157852 -210.044601
24.564795 -35.180790 -268.226990
-57.340839 -65.556732 -236.299240
-122.074654 -82.677040 -214.182083
93.139023 -15.482091 -294.316681
-19.477968 -51.468269 -251.026901
-18.868172 -45.968792 -259.825012
14.200345 -39.013538 -269.469513
-55.167820 -62.736576 -243.499496
-20.327780 -46.997673 -255.867203
4.758489 -42.557869 -267.861450
-64.049690 -64.484032 -245.018646
-11.273674 -40.091671 -265.251007
12.439990 -33.223564 -269.199127
19.726482 -31.539398 -281.021759
-126.358658 -80.164993 -219.258438
-1.985641 -42.103329 -265.433228
-79.807663 -60.365910 -240.584930
-15.113853 -43.072277 -266.352539
93.063759 -11.769164 -299.577576
10.841692 -34.648319 -278.916656
17.775700 -32.530159 -272.064667
76.489250 -12.189439 -301.002380
2.213045 -32.148918 -277.559906
77.653503 -9.331903 -298.636658
-11.384144 -40.663334 -266.409027
19.228884 -34.881630 -279.408936
-125.321152 -76.901215 -224.922180
-14.265894 -40.633507 -268.944000
2.700201 -31.287092 -277.640228
-138.076492 -76.535843 -225.854340
-121.766510 -70.553444 -232.156464
7.378435 -34.127079 -278.111572
-5.540718 -33.661705 -277.931122
-122.538765 -70.060524 -235.257523
-128.260727 -72.950394 -234.567749
-133.297760 -68.724495 -236.217484
-35.340557 -38.722805 -276.820404
-138.710983 -69.428932 -239.052444
10.940688 -17.455379 -297.072021
-1.939498 -22.361801 -294.614563
-138.494232 -72.076797 -236.559631
-140.576431 -70.239845 -238.425110
-45.847515 -41.008923 -274.632721
-33.844353 -31.829042 -283.469604
-4.594339 -27.105175 -293.327667
-40.842686 -39.934887 -279.626587
12.856697 -16.775812 -301.675842
-10.902000 -27.788279 -293.474976
-143.752167 -68.946884 -246.730255
-16.984909 -26.136280 -294.536194
-140.583740 -66.714035 -246.203125
-69.553009 -41.981754 -274.092041
-147.815750 -69.038162 -256.724884
-125.587135 -52.792995 -263.662415
-145.376495 -58.549427 -249.393448
-29.386869 -19.651421 -301.252502
-145.131851 -57.558620 -260.255920
-149.501556 -57.533577 -256.866333
-27.586552 -18.923475 -308.334595
-151.177277 -56.393147 -265.205170
-26.416824 -11.097507 -320.305511
-66.581429 -21.519651 -311.759369
-148.168427 -47.238110 -280.609619
-143.626114 -46.736881 -276.113068
-138.385864 -41.800343 -278.157562
-74.274811 -23.572495 -307.771606
-127.898117 -35.790813 -286.617706
-14.375062 0.416255 -335.569641
-81.757523 -23.024647 -305.495056
-155.713181 -47.683311 -277.351624
-85.689148 -23.589500 -306.144806
-154.806168 -46.976406 -282.901611
-132.407043 -42.533028 -285.196716
-70.627815 -18.811806 -311.508392
-58.705368 -15.608846 -315.912354
-145.557678 -44.807114 -281.771515
-33.688057 -8.621046 -324.615875
-25.962135 -8.159520 -326.705811
-21.249374 -4.217519 -329.541565
-15.084822 -2.031492 -337.274414
-164.950592 -44.586201 -283.163940
-161.383209 -44.511356 -285.905518
12.297029 -124.942802 -124.268806
148.694519 -72.320251 -185.425827
135.565521 -77.233704 -184.247437
44.066769 -108.386108 -150.263733
142.958542 -71.546791 -188.534790
32.461082 -106.878502 -152.234650
145.354187 -71.359047 -192.021591
146.929321 -70.527824 -195.011368
0.094781 -103.159744 -149.534637
125.486710 -67.367561 -199.735184
129.848129 -63.942387 -201.509109
143.675446 -63.096333 -204.407745
107.122704 -71.791130 -193.186508
-9.741942 -112.223915 -154.004333
-10.291162 -103.252068 -149.915298
98.622955 -72.192596 -200.409821
-27.214613 -113.950386 -151.465347
92.035965 -65.408096 -206.857559
149.231674 -48.548897 -225.069153
142.353027 -37.976875 -238.922638
66.181740 -60.782944 -216.169739
144.601440 -41.465229 -238.491592
64.509094 -67.412590 -214.499893
146.582214 -40.000961 -238.313919
76.161545 -62.709293 -222.102005
-8.721759 -84.160233 -197.732346
72.437714 -59.459274 -222.231689
136.240631 -38.338902 -246.762527
-9.443293 -83.727089 -195.338165
64.850189 -55.054062 -226.850983
-11.962642 -83.973419 -189.607697
-11.721073 -80.484550 -197.115570
-9.378065 -77.896759 -197.701492
-27.308615 -84.599380 -200.975311
136.611954 -34.766941 -255.960922
-9.933157 -77.385170 -205.797729
52.034916 -58.609657 -230.760178
128.204849 -30.566414 -258.412079
-30.165806 -84.017418 -197.935486
-14.875149 -78.598587 -207.284531
41.525810 -57.083572 -223.906937
-27.575548 -80.227623 -198.277420
-22.274744 -78.211945 -202.789246
28.263565 -60.033627 -225.676758
-11.873775 -69.885582 -217.976898
59.509644 -49.973122 -237.673630
-28.510427 -76.429054 -208.435669
-25.424417 -73.884109 -212.812759
46.684902 -56.658001 -232.597763
-3.416743 -64.112923 -221.742783
-2.327365 -70.455666 -220.448975
36.715336 -49.785019 -242.371155
-10.676053 -65.569603 -223.584229
13.212348 -60.472679 -229.158310
-26.865610 -74.052513 -212.721222
20.598732 -56.324501 -230.699997
0.416019 -57.201744 -233.805176
44.778511 -45.306705 -249.798126
-10.382914 -68.059258 -219.579956
36.084526 -47.963776 -245.783218
-1.458024 -55.238369 -232.520508
-8.195775 -60.751991 -231.319717
-111.900108 -93.328087 -196.717163
-1.886956 -57.834259 -237.133575
-109.155998 -90.334991 -195.705551
-118.250343 -91.629791 -194.181091
-25.095739 -62.098557 -231.173569
99.896957 -15.540582 -285.385834
-114.927147 -90.430099 -202.709473
-120.687775 -91.149368 -201.596893
31.571396 -40.164280 -263.546356
-112.881668 -79.175362 -209.482483
31.389578 -36.037758 -261.096283
-112.830322 -84.657631 -205.838409
26.588650 -38.156647 -253.510468
-109.876335 -81.847069 -209.763809
18.409468 -38.695011 -262.131104
-126.296059 -85.321381 -207.797592
93.557610 -16.989285 -290.640137
-1.445388 -46.369663 -254.865067
-18.506287 -49.492199 -251.207123
2.780761 -46.710907 -257.583527
-126.243584 -82.682510 -213.171707
-19.440775 -46.996983 -248.439911
-66.515907 -64.972275 -238.634674
-13.371910 -45.800320 -253.875458
26.512911 -35.620865 -272.937042
-126.667870 -82.183243 -216.378784
-76.288338 -64.729828 -237.689453
-18.456413 -48.353149 -255.968918
-16.564886 -41.689552 -260.111450
-1.590816 -40.147526 -264.432983
-16.881674 -45.377113 -255.394852
-69.420853 -59.423019 -241.422348
-73.963387 -59.243763 -241.723709
-18.087379 -44.480328 -265.294250
-1.239379 -36.696537 -272.188507
-126.089745 -75.155724 -221.765411
1.459321 -39.715706 -272.292511
73.138535 -5.808626 -300.319855
-128.082123 -75.388474 -226.720825
-4.035172 -38.973522 -273.421509
-123.318855 -75.708183 -226.686966
-128.312607 -80.451080 -231.497925
-10.177469 -31.098722 -275.908295
17.943069 -29.030224 -281.354309
-128.747375 -69.659218 -229.235962
-11.882869 -33.998116 -271.655487
71.380791 -9.068649 -302.888733
66.405739 -8.282066 -304.199860
3.950316 -25.303316 -283.772614
-23.979961 -38.708599 -277.253723
-22.753014 -32.267574 -282.805817
-0.240290 -25.167696 -293.320862
-45.210377 -41.956451 -274.004242
-29.404779 -30.634285 -284.898193
0.511284 -26.504873 -293.249634
-63.896286 -42.585529 -267.628845
-31.994137 -32.897213 -279.911194
-46.655125 -34.849167 -274.631256
-141.490906 -66.690155 -238.629654
-50.855865 -37.714520 -278.737366
-54.512733 -37.942272 -273.384705
-72.139648 -42.034435 -272.857483
-19.398426 -24.440035 -292.881897
-83.836082 -43.562004 -266.966217
-148.399338 -66.243660 -252.216171
-138.947678 -60.613682 -249.702560
-125.954323 -53.177303 -258.243195
-154.603561 -56.473488 -252.732239
4.805652 -11.453459 -315.609344
-29.613901 -17.632908 -306.382965
-152.038452 -58.191120 -258.616150
-154.148666 -57.697655 -266.397339
-153.352371 -53.450508 -275.901215
-77.190842 -21.364584 -303.160553
-60.298141 -17.340403 -311.885345
-52.716644 -15.989117 -315.589844
-37.971058 -5.941319 -319.302399
-84.085564 -23.715212 -302.014557
-98.531174 -26.530842 -300.810730
-27.580225 -6.719235 -324.260529
-17.735865 -2.164826 -327.557709
-150.582657 -42.256500 -281.090851
-98.256317 -26.615246 -297.345032
-155.967133 -49.000191 -276.576538
-112.789986 -34.035255 -289.982391
-97.926666 -29.732573 -298.385986
-101.211235 -25.201685 -300.763702
-80.053177 -23.681810 -305.402954
-48.943089 -13.349478 -319.803009
-31.348385 -5.530236 -327.742889
-168.821899 -48.329456 -280.037201
-166.276993 -47.170513 -280.718719
-160.932266 -44.296844 -287.044861
-173.586731 -43.617336 -289.757629
24.936169 -122.108009 -123.190109
39.161854 -120.747101 -123.067482
44.333698 -116.742905 -126.924164
8.450201 -124.388397 -119.983650
46.341019 -114.687965 -135.236771
38.114098 -104.168663 -146.462555
133.383087 -75.201813 -188.682358
134.930908 -74.649933 -191.227814
128.519104 -74.623032 -190.410538
147.294708 -65.327415 -201.336960
127.305397 -68.244789 -192.995239
108.537346 -74.138618 -193.056122
100.848251 -76.151588 -192.983109
-3.609729 -108.769058 -153.897018
-5.907170 -102.148781 -150.407303
93.781891 -74.069656 -195.556320
-18.521297 -109.013947 -156.387650
-33.604698 -107.492958 -156.164505
104.017944 -70.623314 -200.052887
147.259216 -49.683868 -222.288040
76.202034 -70.899673 -205.111588
92.210922 -63.572948 -209.443573
87.902313 -60.006935 -210.371933
71.757416 -69.366364 -207.368927
146.281693 -48.357697 -228.887512
80.564606 -61.435871 -214.404678
69.354431 -62.203884 -211.910095
-4.507580 -80.169167 -196.885742
-29.511614 -86.376228 -191.004700
-13.791644 -80.374969 -192.889374
-28.374098 -85.903046 -186.810760
-0.641367 -78.484718 -195.238205
132.862183 -30.573856 -254.353058
-32.413952 -82.701744 -197.789032
58.691734 -58.160725 -225.310211
64.247879 -56.939533 -230.347458
136.049500 -29.792994 -264.488251
38.539154 -59.487045 -229.867020
59.769913 -54.957222 -235.240417
-26.363749 -78.753387 -199.663651
-13.958582 -69.640472 -215.389572
44.243217 -52.386467 -230.182327
-27.488632 -76.206245 -207.593613
-33.745987 -79.014870 -207.429108
124.362839 -26.853750 -267.066559
20.515091 -59.247631 -230.009644
-35.016392 -76.238075 -218.922211
1.012434 -61.063854 -223.002563
-23.435553 -70.477592 -217.059067
51.922195 -49.277416 -239.619629
123.022537 -24.472420 -272.055725
114.304214 -20.862488 -278.949493
112.592056 -15.415481 -282.438507
119.318092 -21.178230 -274.437531
-33.452015 -64.134628 -230.294586
-25.650614 -65.760429 -222.387085
41.554596 -42.741112 -251.477203
-26.588980 -61.798515 -229.361481
1.178978 -56.818512 -235.338013
-30.429869 -61.603443 -229.564545
-117.581696 -90.933876 -196.367325
105.102196 -19.137304 -284.642517
-27.856833 -58.332256 -233.977341
-3.262573 -50.181259 -247.486847
-113.784851 -86.632973 -206.151688
-25.870966 -55.764500 -237.646622
107.720200 -13.981423 -290.395447
114.712723 -19.874186 -283.211273
-27.928326 -56.981632 -238.746063
-7.322376 -54.535770 -240.584229
-119.592194 -90.867577 -208.141541
-10.758396 -56.934425 -247.157776
-125.336609 -85.813843 -207.852783
-125.403427 -87.974800 -204.764893
-114.742363 -87.319427 -210.221527
-21.026686 -54.803341 -240.169418
103.883484 -14.250644 -293.630676
-19.180777 -53.604698 -239.606766
-117.397362 -83.980408 -212.414978
-25.705418 -52.645195 -246.513641
-8.159494 -45.366810 -257.363342
96.438210 -10.822835 -289.580048
88.614578 -13.878918 -297.185242
-20.537111 -43.970592 -258.950623
-68.209358 -64.344757 -236.746078
-62.089378 -61.465420 -237.611633
-8.281645 -40.677330 -264.894684
-127.449196 -81.686615 -212.905029
85.923653 -13.671474 -296.789917
83.529152 -11.249797 -301.475922
84.859306 -9.304729 -305.032349
-88.398399 -60.534019 -237.663467
-132.556915 -79.973557 -224.407028
-11.192242 -40.839813 -266.120667
74.860924 -8.126475 -303.755493
-133.093048 -75.501633 -227.851456
-20.519779 -41.529629 -261.799072
-118.652946 -72.223663 -235.062424
-8.509075 -37.942638 -274.839813
20.279104 -32.723618 -281.526886
15.252863 -26.703995 -287.567444
-138.302567 -73.983643 -231.141357
-113.080055 -64.485245 -239.180069
-13.923205 -28.140924 -279.327454
-4.131574 -30.128359 -286.879517
58.892250 -7.157954 -308.088348
59.955788 -5.865349 -306.648529
-5.987719 -27.615755 -284.533661
9.667048 -19.710354 -292.774811
-32.155037 -33.851391 -279.765289
-36.649162 -38.516182 -273.493774
-48.337585 -37.549568 -273.338593
-37.030441 -38.468563 -271.932526
-20.420135 -30.569027 -283.456818
-49.410793 -37.755047 -267.308533
-6.313337 -22.551538 -291.309265
-69.486557 -41.918339 -269.090271
9.132198 -18.777136 -298.309052
-138.707321 -67.760239 -243.414871
-75.178810 -46.073315 -270.053009
3.863451 -21.140402 -297.402130
-155.146790 -70.641464 -238.201523
6.088682 -18.898533 -304.271118
-84.615303 -45.927170 -268.608185
-75.273178 -45.969933 -268.459961
4.538595 -15.224483 -306.121002
-91.453796 -46.036938 -267.235748
-123.319611 -55.185619 -259.791382
-130.666061 -58.554295 -256.132935
-134.048950 -56.329460 -254.705551
-147.564102 -58.498127 -250.952652
-140.342102 -57.297787 -255.043732
-134.024918 -53.895458 -260.186493
-157.723282 -62.328823 -248.272217
-127.746246 -50.923084 -265.161713
-134.822464 -56.134480 -257.270264
-161.154480 -65.654289 -249.875641
-155.544922 -60.763405 -253.313766
-152.517670 -57.142784 -256.096283
-145.702255 -57.025242 -255.731689
-7.379692 -4.235100 -324.216766
-167.191422 -57.602524 -251.774765
-155.503448 -53.314854 -263.399475
-25.504452 -17.121635 -314.109375
-163.418350 -55.975533 -254.505371
-12.337818 -5.746004 -324.619507
-157.822739 -53.823071 -269.460785
-171.621124 -50.499531 -268.863220
-162.988586 -50.173824 -269.236511
-173.633209 -50.468449 -264.417572
-24.423727 -5.026335 -326.759674
-18.274027 -4.692863 -326.901428
-113.466682 -32.730732 -287.737640
-161.655869 -48.474422 -269.662506
-161.433075 -46.282307 -271.845978
-126.476997 -37.866215 -288.831024
-160.362747 -45.048920 -274.753876
-161.860657 -46.399452 -274.157806
-89.478287 -25.988890 -306.500275
-170.972305 -54.635174 -270.789276
-141.072281 -38.770248 -284.467712
-67.189636 -15.617034 -312.181549
-169.126785 -49.284710 -271.296570
-152.208710 -40.689156 -282.888367
-44.849758 -4.904565 -324.961945
-141.607529 -39.054054 -284.167267
-22.450991 -1.968941 -331.882050
-13.239607 1.609408 -331.931061
-149.607132 -40.703510 -280.360107
-160.262238 -47.921196 -281.942017
-180.800491 -39.584030 -288.876099
14.506797 -123.778061 -115.549843
51.351925 -105.221100 -135.033173
54.035538 -107.186279 -143.294296
137.561386 -70.850731 -181.779022
148.881927 -72.152283 -187.501205
30.801809 -104.335594 -143.145462
133.256668 -75.437782 -185.982483
145.922348 -73.625031 -190.375870
130.109222 -76.644859 -185.174927
124.370270 -73.605179 -189.528381
17.106615 -108.639725 -152.675400
-21.344933 -120.643951 -134.584885
112.944496 -69.608757 -189.631073
105.091408 -76.228867 -192.728333
147.675964 -58.836102 -206.529541
-29.083136 -111.185966 -144.421921
134.550110 -65.343201 -203.793747
120.982704 -64.585838 -200.771866
138.581223 -61.099911 -207.533340
127.588821 -58.997986 -205.273987
133.528564 -64.914337 -206.152267
-16.034248 -108.828094 -153.277908
88.658340 -71.191612 -199.469666
144.009857 -53.466267 -221.535080
151.589676 -50.357616 -225.451935
92.459854 -69.552177 -204.941986
143.590759 -45.235020 -230.361710
141.428665 -35.134583 -242.879211
-6.733799 -84.755943 -184.801498
65.387833 -62.045513 -210.954193
76.736458 -60.987465 -219.040405
61.313435 -56.830528 -219.297775
142.949463 -35.170818 -247.667099
139.870209 -39.044907 -237.925568
-29.449705 -86.585190 -188.431763
-5.097079 -79.015205 -199.387939
-27.734566 -84.512260 -190.616699
51.696957 -57.154564 -226.345108
136.871689 -31.047417 -258.316895
-14.237386 -78.266830 -196.906967
-28.324429 -83.342445 -190.823074
-2.314404 -76.590546 -205.917450
66.365829 -52.625732 -230.298264
134.656982 -34.658806 -256.079529
130.144211 -29.120087 -265.639404
-25.832342 -81.936653 -190.307251
-32.053478 -77.183350 -202.594727
51.313866 -51.945221 -234.348221
-27.593685 -76.268448 -207.666626
-0.601544 -70.738869 -215.768295
34.790558 -56.911312 -227.880310
134.013977 -28.164593 -262.236389
32.529045 -58.334381 -228.007904
-1.334303 -70.056854 -215.116806
27.581194 -55.645657 -231.444641
123.463272 -22.342110 -270.487885
-6.791938 -67.151207 -217.479950
50.325264 -43.226521 -243.195419
122.413010 -24.756531 -271.718384
-28.249897 -67.597374 -218.611053
-0.349417 -63.458374 -224.083038
118.739090 -23.296600 -273.476074
49.672668 -44.325638 -243.320099
124.555786 -25.297915 -274.985260
-12.311500 -63.759529 -225.649384
119.290848 -22.522589 -276.129913
-32.971657 -68.116142 -215.771545
-0.166928 -67.140350 -230.036148
-110.448463 -91.217636 -190.479172
-28.597364 -64.288795 -225.067444
-111.987114 -90.738190 -196.631958
-9.021108 -57.618240 -233.589050
37.960941 -40.251690 -251.471054
114.553123 -18.959780 -280.689545
-8.106225 -59.112484 -236.764496
28.713167 -45.014477 -253.610031
30.773581 -37.684994 -260.897186
-114.023682 -87.623665 -203.043350
107.851860 -12.790159 -286.422119
-1.680093 -52.315746 -245.189865
109.007957 -17.818933 -285.447693
30.141487 -42.082138 -248.093475
-105.928864 -79.724518 -210.553085
-110.474876 -80.376663 -206.160080
99.340256 -12.169332 -285.568909
1.874455 -48.323723 -252.787888
-0.257851 -43.916168 -252.311630
20.612226 -36.613743 -265.417297
-122.140633 -84.592865 -210.591202
-122.822182 -79.480705 -212.878830
96.646667 -13.484061 -290.877899
-61.485329 -60.169994 -234.852905
-24.372477 -52.655682 -243.699402
25.532560 -33.730289 -266.908386
-15.461258 -44.315441 -253.967804
-60.698608 -61.107414 -238.301163
89.041443 -14.293573 -293.184662
-67.276917 -59.214752 -238.212662
-127.357529 -78.923737 -220.981812
-63.574848 -59.911610 -235.619141
-8.340952 -40.501591 -261.254120
-15.909344 -40.555008 -263.183624
21.265841 -32.649914 -272.000885
-2.679471 -42.186573 -266.539948
-72.801048 -57.341000 -240.859299
87.670746 -10.174647 -296.033020
-82.133179 -64.426125 -236.349014
-131.896774 -78.385796 -221.916962
-13.796128 -38.157269 -269.653900
21.530493 -31.005436 -274.445862
-88.114525 -65.955505 -235.523712
8.439540 -33.474518 -274.822693
-16.694750 -42.811848 -259.559601
78.740494 -8.489799 -300.843994
-128.107758 -78.708916 -224.357132
4.104149 -28.536686 -276.742249
-7.800971 -36.246010 -269.713440
18.930443 -26.301294 -278.605682
79.707932 -9.457522 -301.096375
-12.009811 -35.925495 -275.956360
-112.329262 -70.066261 -232.292618
-8.875473 -34.796665 -270.255676
14.969652 -23.310570 -289.543610
-112.155136 -67.934471 -233.748978
-131.193695 -72.048027 -220.959167
-127.172775 -69.392212 -229.947021
-117.088745 -67.572014 -234.030624
-14.086292 -34.912868 -272.184723
63.762844 -11.116123 -305.542999
-128.292206 -69.935310 -232.171188
67.653709 -7.755165 -301.821381
-17.772598 -37.273273 -271.772919
-126.960770 -74.082970 -232.478622
67.481911 -4.844669 -303.949432
7.145833 -25.971828 -284.785278
-129.374176 -73.545204 -237.576965
-136.708878 -69.420029 -232.809296
9.357237 -23.834341 -285.711823
-7.313971 -27.883690 -279.285675
-23.710571 -34.471340 -275.296844
-8.576547 -23.852642 -285.376251
-146.146683 -74.042892 -227.544418
2.102515 -23.080559 -294.347717
-149.634476 -69.788063 -227.196136
-14.970399 -30.017113 -282.532410
52.098484 -7.775941 -306.665100
-14.783187 -31.187056 -286.185211
-28.859385 -34.723045 -279.575592
-31.907047 -32.595024 -278.855896
-24.774750 -32.307674 -284.457672
-133.630341 -69.345093 -233.150986
2.569893 -24.814810 -291.906891
53.180218 -6.007096 -312.843170
6.765894 -18.582441 -294.716095
-149.674164 -69.389709 -231.560257
-51.155861 -36.748722 -273.512756
-4.496030 -27.933863 -293.472137
7.853659 -19.878334 -294.292847
-56.965336 -35.499386 -272.971405
-16.218468 -21.580633 -288.192596
8.662745 -20.125229 -302.926880
-154.938828 -68.269508 -238.232376
-66.306473 -44.889870 -268.776917
-52.709320 -38.688812 -272.510803
-78.961639 -44.206745 -268.983673
-150.441406 -65.822540 -238.463058
-145.197891 -62.889580 -243.685501
-56.292984 -38.292839 -275.557190
-67.997299 -38.312965 -272.535614
-148.189407 -64.005165 -246.248779
-146.764221 -62.619377 -245.812149
-79.215439 -42.827145 -273.721008
-92.862305 -45.311913 -264.039398
-157.582596 -71.115677 -233.265488
-150.989075 -62.346336 -247.628372
-131.578201 -58.259495 -252.015579
-86.456459 -41.991383 -266.799805
-156.832489 -69.014610 -241.419189
-137.427414 -55.063137 -247.205704
-88.763191 -42.745106 -267.581299
-97.168510 -42.941799 -266.042816
-145.114624 -58.101517 -250.431305
-100.081306 -43.463726 -265.678894
-144.469940 -58.016392 -251.965805
-103.414680 -45.603439 -268.141022
-159.963928 -66.427574 -245.798355
-157.203522 -64.806595 -243.708252
-118.310051 -52.728573 -258.276489
-147.535645 -62.230640 -251.538208
-115.455338 -48.298328 -263.019592
-29.928169 -17.549671 -300.576813
-142.829773 -57.379242 -253.320038
-126.777069 -49.853172 -262.653290
-153.658127 -59.010948 -250.693436
2.711261 -9.679237 -317.774750
-154.584930 -52.458725 -268.552460
-170.311508 -58.279896 -260.292847
-30.284679 -10.488409 -315.222168
-157.590454 -52.981533 -272.703888
-31.854198 -9.465483 -318.959167
-13.647836 -1.920132 -329.057861
-145.028229 -42.313805 -277.775635
-90.933060 -23.089346 -295.796906
-55.255283 -15.035469 -312.622833
-127.651192 -34.596085 -285.845886
-111.089401 -33.620979 -298.201508
-109.221634 -26.716158 -293.560577
-72.846550 -14.018253 -311.479736
-128.655014 -35.828838 -288.138824
-127.048637 -35.506935 -287.572784
-55.907207 -9.866977 -315.626892
-127.428322 -36.563744 -288.790802
-140.691849 -36.499870 -289.187134
-158.810822 -45.737717 -278.067261
-22.842203 -0.190972 -331.259186
-17.126493 2.982325 -334.820953
-169.426102 -47.084034 -277.104401
-169.592194 -43.459137 -282.718109
-161.587357 -35.340199 -293.810791
-172.029999 -33.250027 -290.024933
-171.841141 -41.325348 -290.513428
120.039223 -109.894012 -122.392525
116.105637 -112.976669 -116.744980
109.258705 -112.917534 -125.078896
106.348839 -100.899200 -136.964020
29.095629 -121.153427 -116.413345
20.395960 -125.128975 -113.769653
45.683266 -114.668533 -128.058548
3.486311 -126.053009 -117.556671
140.748383 -75.812141 -185.101593
53.045891 -102.319969 -146.858276
146.925323 -73.689171 -187.016403
151.408539 -66.441254 -192.749603
-18.232109 -119.811455 -125.795280
125.437103 -72.186584 -181.539764
25.702688 -105.852707 -151.053146
152.686157 -58.850075 -191.687668
12.394255 -107.313240 -152.142639
109.729584 -75.000938 -183.950073
128.060425 -68.035179 -195.840897
110.505608 -70.132500 -196.848999
105.188454 -71.540802 -194.238663
124.342606 -70.427513 -198.446823
97.288780 -73.680901 -192.287186
149.742035 -55.868725 -208.338364
151.087097 -52.660881 -218.713379
129.832794 -59.490726 -204.781952
136.621628 -62.799026 -208.186035
148.242691 -55.269203 -211.368149
151.561951 -53.120995 -213.767426
87.470741 -72.342049 -193.353104
146.362411 -42.510464 -227.950974
149.481766 -46.112251 -233.526093
76.713425 -65.777451 -204.666092
86.200027 -61.383595 -207.156769
146.689606 -40.851341 -240.185974
79.035332 -59.682323 -210.327988
145.790070 -39.158749 -238.887238
145.105850 -44.201443 -231.120438
60.987186 -60.458115 -214.240341
-0.851773 -83.364418 -188.784515
-8.463929 -82.971382 -187.363876
144.408401 -39.819721 -241.425232
-24.926340 -87.720276 -186.096924
-24.395140 -88.427391 -181.824188
-13.196515 -84.254715 -193.899857
69.722519 -56.378601 -221.313354
139.062546 -35.289970 -246.927261
-22.518318 -80.576309 -190.456390
-3.539498 -81.579704 -194.622543
68.633461 -56.623928 -227.063828
-26.463499 -83.685570 -192.234665
138.471008 -33.783592 -250.014984
133.495789 -29.010511 -259.106964
141.913849 -29.495672 -255.204193
-0.785775 -74.988968 -207.351776
-30.855074 -74.966209 -205.611328
-31.983570 -81.850136 -196.582947
64.817764 -56.076420 -228.964066
28.900398 -59.046352 -224.427719
126.225914 -30.628998 -261.152374
135.112610 -29.324461 -257.279449
132.768799 -26.817589 -257.691650
-28.955042 -75.785851 -205.268112
-10.311126 -73.184807 -210.563202
27.764484 -56.234463 -226.244995
-1.195603 -58.735989 -225.645096
124.442551 -26.658703 -264.740509
-2.281039 -68.223297 -209.479843
123.979050 -23.688736 -266.733612
-8.290355 -66.024544 -221.193954
127.607063 -22.756943 -268.422485
-114.365112 -95.245178 -191.277512
-2.260698 -58.287430 -227.189468
1.987782 -54.222656 -235.036041
45.453728 -50.346230 -243.666489
35.255585 -46.708767 -247.704376
46.861961 -44.011219 -247.815613
116.206749 -18.998823 -280.822937
-115.877296 -93.331810 -193.066742
-3.474555 -56.362946 -240.761581
114.464134 -22.399143 -270.932648
108.475670 -16.624502 -283.418427
117.536255 -19.081234 -277.264374
102.460953 -22.173384 -283.882599
-118.182861 -93.779732 -195.858231
103.653038 -12.869602 -291.418671
-12.616652 -51.482815 -239.839539
101.830124 -16.201683 -285.030975
-98.084335 -79.819275 -209.521988
-12.546215 -56.646923 -240.493347
-112.315399 -82.169731 -204.819534
97.304054 -15.139337 -288.388824
19.322439 -43.907063 -255.372314
36.405251 -36.648170 -257.854431
-117.270531 -81.377113 -203.073074
-113.516121 -80.655457 -209.234055
1.035245 -44.332706 -256.934113
-101.815742 -75.729683 -212.321671
-117.822197 -84.865921 -208.452240
20.197594 -38.290119 -259.588013
-5.871356 -50.099850 -252.975342
27.544477 -34.880871 -268.465332
15.863276 -35.523731 -266.989166
88.771858 -14.474296 -295.451263
-8.282097 -40.597965 -257.064178
93.323669 -10.414706 -292.308655
96.076729 -11.875563 -292.490784
-128.744232 -80.641045 -215.268494
92.608955 -10.903352 -297.546448
10.069523 -35.881092 -263.194733
12.032649 -36.160316 -266.277557
-22.429411 -49.076523 -250.119247
-70.634010 -63.027252 -235.821655
-17.260920 -44.013832 -255.807343
82.896446 -10.984582 -293.124023
82.927414 -5.575724 -298.947571
-24.367462 -48.925873 -255.388916
-71.031082 -58.925751 -237.029739
1.836499 -38.188065 -268.566956
86.092018 -7.121832 -294.656219
-129.609146 -78.018074 -220.415604
-143.194687 -83.289154 -208.022491
-141.268631 -77.115974 -220.982346
-18.110949 -37.078892 -268.938507
-135.431122 -75.900040 -218.760895
-3.919090 -30.162836 -273.947540
14.837179 -29.483803 -274.176453
-145.696289 -76.469498 -218.670517
-141.464539 -78.175034 -218.713547
72.204529 -5.766016 -307.525543
6.434542 -26.707165 -278.063660
-138.724106 -76.472031 -224.523621
-124.134903 -71.606247 -225.997116
-16.118061 -36.402302 -266.350769
7.147648 -30.633455 -278.684174
71.068794 -7.778915 -299.830475
-143.181885 -76.160416 -224.725769
-131.622910 -71.184067 -226.099594
-112.577042 -66.468269 -235.043839
73.900581 -6.782993 -302.239319
-102.810471 -61.368881 -236.634903
-135.631531 -72.351189 -226.585297
-136.056366 -70.968781 -225.479874
-133.830429 -70.595497 -228.435944
-140.225754 -71.904129 -224.422531
-149.169250 -77.495804 -222.964722
-128.289474 -63.327400 -234.760727
-117.799576 -66.374649 -233.550827
-141.618469 -73.463501 -224.895187
-131.292892 -65.753075 -230.294388
-140.203918 -69.832222 -228.555588
67.243370 -7.701248 -301.840454
57.110298 -7.026871 -305.654449
-144.660156 -74.416252 -227.313492
60.778797 -5.428257 -306.120148
-17.956614 -30.275528 -279.270081
5.832626 -24.562372 -287.403931
-1.380235 -28.494900 -286.819336
-143.286407 -62.405483 -238.098251
6.533752 -21.956999 -293.942596
52.679214 -10.203379 -307.009430
7.171813 -19.191269 -287.241486
0.753317 -23.010496 -289.302277
-10.041159 -29.803526 -286.270935
-23.978500 -30.860584 -282.013336
-9.771700 -23.596691 -290.157288
-4.001603 -25.913786 -290.536926
45.376030 -8.600364 -307.182861
-55.339287 -39.827072 -269.053680
8.949272 -15.844486 -296.002563
-61.232853 -42.410049 -268.681732
-16.390591 -23.098703 -289.690948
-64.250122 -37.573750 -271.919678
-88.085953 -44.260353 -265.825592
-84.415459 -47.072941 -263.875092
-17.597601 -18.684275 -290.754608
-124.265808 -52.886372 -256.633301
-21.459965 -25.889883 -293.642731
-120.154549 -49.844532 -260.785095
-113.978256 -50.229195 -259.745392
-104.326874 -46.174030 -263.201843
-146.216049 -54.898388 -256.070740
-144.271835 -55.571903 -256.412109
-164.525558 -59.642307 -248.786026
-7.136842 -2.388175 -322.536316
-72.492577 -21.126696 -308.136475
-80.793083 -22.269485 -299.806519
-62.442295 -15.702912 -309.015167
-49.618252 -13.922888 -312.704437
-111.278656 -30.017065 -290.520721
-49.873920 -12.371484 -315.718262
-31.446026 -6.594126 -319.211212
-177.911621 -50.056885 -270.340485
-36.228424 -8.386153 -319.800140
-19.820801 -4.766095 -326.275818
-12.215504 -0.491567 -330.203949
-77.869209 -18.941401 -306.665131
-55.102722 -12.593137 -315.376129
-12.847730 2.372644 -329.712646
-88.547226 -20.236031 -300.709534
-58.119366 -12.369122 -316.094879
-44.106529 -6.637377 -321.287628
-11.362791 0.848142 -332.674286
-36.646557 -6.104555 -327.408295
-25.207680 1.785645 -327.764099
-17.353310 1.913039 -331.837982
-146.949203 -39.045586 -284.137756
-159.003632 -39.086056 -286.046631
-172.285599 -39.409859 -293.762177
127.647560 -109.966713 -121.148598
123.486488 -112.628677 -114.928116
125.592110 -108.694267 -118.857536
112.145859 -115.201988 -119.475647
131.149979 -104.915985 -128.603607
111.217949 -110.766418 -121.629105
108.905357 -110.889473 -127.185020
106.345055 -103.545990 -130.164215
128.547928 -101.916336 -132.145233
109.299950 -102.263214 -136.193115
123.415710 -99.105469 -136.427399
109.243462 -102.342247 -140.579391
116.876282 -101.992081 -138.176865
108.177406 -101.990479 -138.090759
118.877037 -96.966469 -142.204132
114.483963 -96.912209 -144.815002
46.579552 -113.638870 -118.568947
49.693623 -107.096733 -125.862534
-2.324452 -121.883080 -106.310684
-6.771121 -124.665390 -116.939354
141.979401 -74.467827 -181.273941
143.888718 -71.712776 -180.920334
51.336689 -101.726051 -145.814911
-10.094861 -124.548927 -123.623093
43.804428 -102.694992 -148.918137
18.521723 -104.830574 -145.251144
122.901611 -66.395256 -185.044876
108.946915 -69.230820 -187.343246
149.687851 -56.927673 -205.643555
121.205460 -67.944702 -190.978500
-1.058427 -109.022766 -148.806671
-0.337116 -105.114235 -150.908615
97.126266 -73.590904 -189.860092
125.565338 -59.643993 -205.086441
101.620895 -69.758980 -202.254135
145.901093 -57.494747 -209.746292
-34.278088 -106.932617 -149.046066
85.677513 -71.326561 -203.499130
147.995193 -51.783405 -215.170532
94.143227 -65.757874 -200.147659
143.895111 -50.857635 -218.504745
-28.555084 -105.850441 -156.626633
82.697380 -72.568214 -193.550247
142.612671 -46.300255 -225.310577
143.445251 -47.400238 -221.199051
145.201797 -45.236107 -223.805817
148.714630 -47.996796 -226.895187
83.547485 -65.263557 -201.019470
76.163284 -66.809158 -206.637665
87.534401 -61.627415 -202.493820
144.095047 -43.237419 -233.294388
80.250137 -62.768890 -209.646652
136.153412 -40.828991 -236.249420
143.020477 -35.776276 -236.852646
77.012627 -63.888031 -205.042038
-22.470451 -94.682907 -171.305573
143.533340 -33.890148 -244.148315
-9.791802 -83.402397 -185.264343
74.462227 -60.643303 -215.764465
-25.771931 -86.317162 -180.756454
67.574089 -58.432407 -215.878098
-30.047802 -86.573456 -176.380249
-5.168465 -83.937035 -195.830551
-26.126808 -85.160545 -181.090775
141.739365 -35.464310 -243.951218
139.056091 -35.409111 -247.709518
141.398117 -31.812670 -251.779877
-26.805624 -82.410439 -182.269348
43.396057 -58.089756 -217.572296
-12.615427 -77.351082 -197.265350
-14.423306 -73.449310 -203.294785
127.335037 -28.010181 -258.361694
-1.735506 -73.499054 -202.544327
46.937927 -54.111172 -226.111526
53.100330 -54.370354 -227.829834
132.836624 -26.733831 -266.894897
52.481045 -47.016659 -233.593796
26.968746 -57.683029 -226.127594
60.424999 -48.914474 -232.757202
-29.866535 -73.865067 -199.209396
-30.305288 -78.959534 -201.187408
-36.056339 -77.352203 -206.474426
133.574585 -24.619572 -261.439423
-7.106726 -69.730324 -212.245407
48.397636 -49.370541 -237.654739
-28.779297 -69.891518 -208.588333
-25.462851 -73.036659 -211.838562
-4.651963 -68.493027 -207.330063
-2.581579 -63.891689 -220.745560
128.262314 -20.930281 -268.328125
-11.579350 -59.965878 -224.438080
39.133694 -48.812447 -238.389191
117.581017 -17.630873 -277.703979
-110.328659 -95.214241 -185.810684
-105.941895 -93.876289 -185.747131
-111.340263 -94.324669 -183.431061
-105.595032 -89.591789 -189.023239
-9.989765 -53.616535 -235.057083
-0.842435 -51.498085 -231.656174
35.389885 -41.333920 -256.571381
-106.018982 -84.540146 -193.030884
-109.128044 -90.210442 -194.628677
3.285539 -53.711094 -235.705566
30.071159 -48.311859 -247.228897
-117.037605 -91.302109 -195.405884
-6.546165 -58.785828 -236.255554
111.789139 -16.545294 -278.584442
113.405228 -16.426615 -284.825409
33.888699 -35.255836 -256.523743
0.182221 -54.766636 -240.821075
-8.907799 -52.578274 -242.551620
-121.815445 -84.981819 -203.172424
-101.967133 -82.325508 -205.666214
-92.839211 -77.049110 -207.442596
-98.571152 -75.109657 -211.074066
-4.410015 -46.296146 -243.484848
24.166851 -41.837261 -255.352081
96.605042 -12.883683 -288.162842
-118.804939 -84.121468 -201.202316
-120.930359 -82.142311 -204.624115
-117.924614 -85.950386 -202.317719
-125.648537 -82.949722 -201.624237
-9.125992 -50.494350 -244.931076
2.458488 -48.210415 -249.956863
-119.996277 -82.871323 -205.477859
0.015559 -46.863785 -247.610474
-130.530472 -90.040016 -194.500641
-104.187782 -81.628357 -208.192642
27.161669 -30.212435 -265.177490
-135.805695 -85.245453 -201.178574
-121.761246 -78.195015 -208.902283
23.460136 -38.670761 -259.140656
-125.471672 -81.598389 -205.947510
-8.754642 -48.132538 -250.113388
101.968582 -13.008854 -290.498993
-131.802963 -80.327888 -216.294891
-139.607376 -84.082649 -205.932587
-62.607769 -60.843143 -235.323425
87.984924 -11.026626 -293.392365
1.958737 -34.625702 -265.268463
-126.374779 -77.173874 -213.626358
-70.880783 -58.522774 -234.706070
3.103077 -40.467590 -260.995880
16.247822 -28.841579 -277.017365
-129.439117 -73.312004 -219.353943
-2.988689 -33.818954 -270.641479
-18.991528 -38.077106 -263.270233
-8.078587 -35.030659 -263.947449
85.361153 -7.266071 -298.069519
-16.281685 -37.643486 -260.721985
-20.929312 -43.444908 -257.024445
-94.501144 -58.673332 -234.515839
-10.899262 -36.563709 -267.595490
86.098503 -6.139645 -297.496704
80.221558 -7.935997 -296.788269
10.609670 -34.696850 -274.260803
-8.395250 -33.978401 -269.637482
75.526016 -9.373923 -301.722809
-110.444725 -64.622986 -228.228317
-18.373068 -38.044518 -262.037720
-89.064400 -60.520061 -239.741989
-95.100739 -57.649376 -236.989212
-119.828217 -70.161835 -229.938446
72.942383 -7.885012 -301.845734
-106.536674 -63.868320 -229.298111
4.154416 -27.358807 -279.647766
73.484268 -5.908125 -299.808807
-12.876633 -35.202477 -268.060242
-12.480359 -32.159069 -274.195343
-4.146754 -30.187290 -273.850647
5.524560 -30.297346 -277.399811
77.383667 -5.449106 -306.164978
7.575184 -25.347340 -286.676453
2.805779 -29.504940 -279.598267
-7.789603 -30.508398 -271.712585
-9.718770 -27.934095 -282.660187
10.311791 -18.354324 -283.687134
-15.457205 -27.474567 -275.878113
56.433388 -3.579001 -308.891388
-7.103731 -26.254158 -279.501099
13.445270 -20.782770 -289.504120
-156.100815 -72.068649 -228.673386
-6.357011 -22.535587 -284.384796
-13.386106 -24.021051 -281.946167
-160.966721 -65.100220 -236.928329
-16.982857 -26.655733 -288.525238
9.453409 -20.839361 -293.324585
-140.899887 -62.453594 -245.439819
-70.707733 -40.270248 -268.467682
-62.077106 -34.073021 -270.166260
40.437061 -2.818398 -307.969025
-76.690704 -44.476704 -265.814362
5.880785 -15.695582 -300.675415
-77.089966 -32.379349 -266.403229
-21.347342 -25.656389 -289.566345
-138.467850 -59.799892 -242.726868
34.572910 -8.766846 -308.400543
-81.005554 -37.585510 -268.910980
-100.264206 -46.565842 -261.456421
-101.941940 -45.161621 -262.312531
-115.615959 -51.738297 -258.369690
-105.073105 -48.349072 -263.751434
-109.284111 -45.604324 -263.967743
4.341464 -8.588425 -315.328613
-130.679703 -47.007015 -262.175323
-33.518719 -13.965239 -309.108948
-155.374374 -49.692307 -270.368073
-176.516556 -50.152954 -265.443420
-136.363052 -40.846371 -280.326813
-128.535950 -36.316628 -282.991486
-92.406151 -24.420799 -296.715302
-77.040977 -19.848927 -303.175018
-61.204365 -16.848656 -307.498322
-40.622005 -6.576707 -317.935730
-38.144348 -9.145250 -318.842957
-61.531635 -9.940879 -309.775726
-56.715008 -12.190722 -312.007141
-43.968414 -7.085291 -317.420074
-89.005714 -19.488865 -299.316162
-75.685417 -15.304705 -303.344147
-42.460842 -5.280348 -320.714325
-42.504913 -5.412972 -320.856964
-32.655220 -4.309102 -323.245117
-22.526510 0.097991 -323.202484
-106.846771 -25.856407 -296.500916
-155.775146 -39.904251 -278.626709
-132.927811 -36.685841 -285.469208
-167.117920 -41.097393 -282.052521
-170.442383 -45.802517 -280.537903
-163.319824 -42.975979 -284.523376
135.899429 -102.967468 -129.414063
108.604309 -109.132919 -122.383644
135.737991 -99.520859 -133.794769
130.195618 -98.633171 -139.874847
149.636871 -74.154106 -180.048721
153.851303 -67.010040 -189.649139
157.440002 -61.250694 -192.509521
148.688141 -65.022507 -194.524963
112.281937 -70.276421 -185.207611
105.388992 -73.074181 -188.272827
115.333519 -70.775208 -187.578659
3.402391 -103.410507 -142.221329
124.671516 -65.781479 -190.069016
149.716385 -54.509403 -208.390869
126.934128 -67.342949 -201.608200
140.531799 -55.381306 -208.284012
-16.765129 -105.494179 -149.641769
96.080360 -69.958908 -191.490128
-20.656858 -102.330322 -149.445023
98.924248 -63.656834 -200.715179
87.162308 -69.388771 -192.127182
151.332596 -49.677742 -212.887054
84.916367 -70.674149 -193.657806
85.776154 -67.385918 -200.870270
88.220131 -67.770264 -203.013870
143.973785 -47.186966 -224.579453
-30.286083 -97.250832 -161.783081
144.785950 -37.606434 -233.181793
82.223145 -61.168781 -204.460495
85.868172 -59.502029 -203.937790
81.510048 -58.602978 -204.315704
-7.328142 -89.118874 -181.399475
74.491562 -63.575634 -207.723083
-28.909637 -90.254372 -177.039200
-6.250932 -84.682198 -183.761780
-30.103971 -89.201523 -174.040451
74.068756 -59.085312 -211.549347
-11.186355 -87.095184 -180.743073
72.900276 -58.834694 -214.524719
-28.366663 -86.807472 -183.859146
-16.576323 -82.405930 -187.063293
65.997002 -58.651882 -215.773193
134.679901 -34.062069 -247.762650
144.646210 -32.549664 -243.338364
67.451042 -52.170734 -214.712280
-3.297658 -75.880013 -190.396317
134.311234 -30.244175 -254.499786
-30.046513 -86.937988 -182.989838
-13.512061 -82.965546 -189.616653
61.981216 -53.855461 -226.045929
-34.434303 -83.903961 -188.253479
-28.469070 -81.019707 -190.633301
138.143005 -28.355040 -255.846313
-23.741718 -75.618271 -195.655441
-0.485896 -71.610802 -205.774582
59.971283 -52.826767 -220.384613
-33.859669 -85.502235 -189.914429
45.380447 -60.755043 -220.519150
63.727661 -50.050854 -225.067703
65.392426 -55.578640 -223.354980
43.599712 -54.100262 -224.815948
-11.075791 -73.137550 -204.760925
56.218456 -50.428013 -225.151581
-5.996671 -76.337517 -199.041977
36.862232 -59.938557 -218.367477
53.428177 -55.352997 -222.674408
-30.051767 -78.625412 -196.378098
-7.372420 -70.065033 -202.354034
-29.954845 -75.309753 -195.976486
42.594189 -53.214035 -225.567810
58.172306 -53.286625 -223.911392
33.690067 -57.194912 -223.293823
52.637177 -53.779697 -229.696320
56.178146 -46.952606 -237.785141
-12.289146 -71.781021 -207.761429
1.312232 -66.230110 -210.896317
-5.692582 -67.505409 -208.737732
56.187820 -47.267609 -231.862808
-11.035638 -65.709877 -210.515778
-9.423836 -66.473007 -210.101578
44.937149 -49.676537 -232.449783
-12.108871 -59.077282 -218.730392
51.215832 -48.739941 -243.432144
127.196182 -22.842367 -266.527405
-4.883816 -60.759407 -221.524872
121.267166 -23.836571 -269.954529
-10.407201 -60.450172 -224.688599
-14.572763 -57.932617 -229.393860
37.045525 -48.590626 -245.498077
113.707405 -16.573021 -274.296417
-3.928380 -50.726994 -232.129135
-5.279668 -56.463951 -224.374863
-3.765591 -52.664783 -234.599777
-112.051926 -87.340080 -197.303650
32.739243 -42.530155 -247.754303
111.406837 -15.237668 -281.763275
-124.838287 -84.773842 -199.932693
-8.078739 -50.055748 -240.776016
-87.111549 -75.787117 -212.163208
-108.597366 -78.629173 -205.212387
-86.629509 -73.655151 -216.220123
-85.254776 -70.700233 -216.382309
3.205319 -44.972198 -247.397049
33.915573 -35.169468 -255.578979
-2.680001 -42.956394 -250.179764
-98.070290 -72.029831 -216.931015
-12.087847 -42.263836 -247.773346
-107.820297 -76.108574 -210.098938
-2.801122 -41.741238 -250.084686
-118.416573 -77.307121 -209.931732
91.870247 -8.827189 -293.147705
-135.797791 -87.800186 -198.711090
4.429161 -39.817490 -265.122528
17.863115 -35.584194 -264.148407
12.381627 -30.206493 -268.774109
77.814964 -10.486536 -297.375031
10.518873 -31.888172 -266.416626
16.605274 -30.557545 -268.215210
-10.160356 -37.043327 -263.808533
-77.705048 -56.667301 -236.727448
-80.588531 -57.167339 -231.194519
-2.251290 -33.873302 -268.536499
-145.187149 -75.142792 -214.809586
15.837953 -27.701300 -274.229431
-127.813187 -68.850708 -225.190262
12.573089 -20.388281 -280.027100
-118.837387 -66.404381 -226.581726
-105.131622 -61.909985 -232.920227
14.473784 -23.744362 -273.920563
73.291702 -6.197552 -298.369324
10.166396 -30.916632 -273.736572
-98.810204 -61.773544 -240.253357
71.686455 -6.571476 -304.063934
74.038864 -6.433369 -306.293518
-112.791397 -63.112770 -236.787003
-101.899940 -58.448868 -239.213699
-14.208189 -29.263002 -272.668549
64.316589 -5.277971 -298.257874
57.092804 -4.566208 -303.936768
65.984375 -6.262496 -305.585022
-126.916145 -61.649342 -234.448532
61.230705 -7.509977 -306.652557
54.939972 -3.317520 -303.756989
-148.862122 -76.514931 -218.449341
-7.103884 -22.618568 -285.074280
11.566065 -17.577234 -292.060455
-6.897413 -25.039593 -282.803345
10.130864 -14.578257 -291.408600
52.005970 -7.919115 -308.321503
9.671269 -16.995914 -290.255219
-18.769875 -22.640970 -282.004913
-4.612436 -19.174042 -286.113068
50.265121 -1.733847 -312.365631
-2.606817 -20.506144 -290.952881
-14.038259 -22.655134 -285.321838
4.798433 -16.455734 -293.038910
-153.962189 -71.429817 -230.448639
44.238945 -2.930620 -310.744537
36.935612 -3.197552 -310.092529
42.223854 -5.403194 -305.803711
-20.805685 -24.437819 -289.292969
38.899460 -5.743572 -309.938324
-73.215752 -39.446060 -267.314697
38.299442 -5.093073 -311.173706
-93.817726 -44.161076 -265.449799
-124.773064 -53.767708 -254.030212
-130.079086 -54.778305 -250.332947
30.532936 -4.610135 -312.433228
-134.644547 -52.269058 -250.922775
-110.803879 -46.000381 -261.473389
-115.588226 -46.104740 -260.343994
-87.638680 -40.183979 -270.066406
-114.563812 -51.463570 -261.519775
-123.789658 -51.530823 -261.104309
-145.187561 -52.782494 -254.734665
-29.532701 -19.354877 -297.233002
-168.000931 -59.861012 -248.343338
-30.609718 -13.383780 -304.941711
-161.090134 -52.320621 -252.441330
-158.684479 -49.483757 -260.848572
-177.534576 -54.593163 -256.700317
-33.912148 -6.667621 -308.521545
-148.273483 -41.086498 -272.791992
-165.704590 -51.513351 -265.678436
-154.410660 -44.950550 -270.271149
-150.268021 -48.121078 -275.015381
-33.331608 -4.277127 -317.682678
-135.922775 -43.631920 -275.989502
-154.697052 -42.631878 -274.560883
-128.461060 -36.797195 -282.877014
-93.276184 -26.164148 -295.782288
-80.081566 -19.984665 -299.502716
-32.397434 -3.755077 -323.914337
-79.040649 -17.212727 -306.771210
-75.057838 -16.939623 -302.833740
-93.242523 -21.253500 -301.448120
-104.382446 -28.803080 -297.479401
-113.145988 -27.703587 -289.703918
-171.777496 -43.846558 -267.574829
-174.989929 -45.792206 -270.100159
-140.883621 -36.377522 -285.609711
-158.015488 -42.616245 -281.051239
-173.747406 -41.007954 -278.367523
-172.662857 -33.571846 -292.349670
135.511673 -103.559227 -128.020081
106.791489 -113.932198 -124.132256
119.769661 -99.872025 -135.874069
56.291374 -105.957291 -146.526093
147.402451 -77.984375 -174.344070
149.397491 -69.671669 -174.976791
140.522720 -74.658478 -176.950882
132.723068 -73.154419 -174.422882
