# This PCD file was generated using the MATLAB® pcwrite function
# from Computer Vision Toolbox®.
# .PCD v.7 - Point Cloud Data file format
VERSION .7
FIELDS x y z
SIZE 8 8 8
TYPE F F F
COUNT 1 1 1
WIDTH 799
HEIGHT 1
VIEWPOINT 0 0 0 1 0 0 0
POINTS 799
DATA ascii
33.351723379521729 -43.408952758776650 -239.164671273382368
35.943702505051824 -40.632033034958539 -240.388877656511312
39.391294221688383 -38.541666290782644 -239.978567614671931
35.987239425745486 -41.865185083841531 -239.741750486207081
46.511779781628448 -29.572661760073473 -240.124962638987796
48.553337637526347 -28.030136422050095 -240.561649526789893
51.888810252749231 -23.098441984909837 -238.850828903651632
33.783351331192712 -44.205994469082199 -240.113040607473607
41.537385807071892 -33.893010137177029 -240.592160151964720
43.229284477117609 -34.498576755952335 -240.203794482436336
44.310902186187633 -32.660555005154663 -240.098562611165050
46.268835046999257 -29.439736257383235 -241.091259134442623
49.587490706219199 -27.382924474254899 -239.745537016097245
35.340826080675690 -41.445701232463470 -240.472288528587484
37.791427439115438 -40.078651669776377 -240.300778411203567
41.870264948473014 -33.924214972592978 -240.541494814509889
40.822947611653710 -35.586911472934688 -240.707892892116206
50.316273132609965 -26.537364801580477 -240.929132788172666
52.146460391567885 -26.317973528825419 -240.858172830957983
35.123973499242183 -42.659332947014157 -241.247393028018138
43.852495633618197 -32.984080850456614 -240.869218276469041
44.486322237907920 -31.470572473869140 -241.276533427008275
53.853453077661690 -23.656295491340064 -241.688272006028029
36.512992681114390 -39.503988397231694 -241.578423390921898
37.694632085631326 -39.579666438318348 -241.054840033557724
39.382039847046350 -38.091785166632910 -241.534227378821953
51.494768541356791 -26.030449127205447 -241.248433674636487
28.305170412766078 -49.170195992451838 -241.798281389766828
34.359447193221179 -41.161558353901860 -241.369035013137875
36.994674740050698 -39.060769580805079 -242.171611582183829
42.634791161174348 -35.492575738762433 -241.924462635953859
42.793210890177129 -34.095355673961215 -241.973308354246853
44.817103386506069 -31.582997626473180 -241.514896358718147
50.684153790157708 -26.871461487360015 -243.020157989157468
52.101934242294469 -25.497118128377362 -241.692259059281156
52.816283497411661 -23.393059230946434 -241.802943021175111
29.235886821276193 -47.566328612854221 -242.623244546622658
30.734575736994337 -47.077135321499895 -241.733177067125183
33.144820883017452 -44.029843532722602 -242.325047566611772
34.741991811081597 -41.957639193896533 -241.734634005650889
39.904767386946730 -36.834954445649863 -242.069471005402164
41.941341297387787 -35.605743742689995 -242.628200627155877
42.108324248655030 -34.375559189783388 -242.538841619625686
53.764738590341359 -24.796147403796262 -242.016681772436812
54.235198346368243 -22.503721151654364 -242.503723359641697
26.319796517368321 -50.247886623205154 -242.483662154160413
27.296090603780993 -49.202454759108051 -242.977962150857223
42.072182851346021 -34.617857483353681 -242.108000506775085
49.840891809343091 -27.509098686408333 -243.318806562936118
53.537111564598497 -23.597829248084640 -242.872000485426696
53.884861750055016 -23.078935967918227 -242.807434060155998
27.924274485530873 -48.694829348184662 -243.908850757925251
25.895428921630362 -52.077113220623318 -245.307886712000396
54.800355379884870 -22.854359131520777 -244.986092329021119
55.117191262632652 -21.778065340668235 -245.287564046110873
28.649220695277041 -47.536749282879157 -245.901841606927690
26.240673547236277 -50.972637195834423 -246.064841827154027
29.024122354628247 -47.603803938549561 -245.393064693612757
27.159770680823783 -48.467139367684211 -246.532675133268356
56.033722567287931 -20.877304893627695 -246.760875398759595
44.592042708438989 -32.324562579600695 -247.399062071340438
55.533367648156450 -21.887964597030688 -248.281678233128389
25.603903270037517 -51.623678284865356 -247.845235190271836
45.054080654497554 -32.758258002192981 -248.244019383149038
53.846415625968817 -23.687034402901634 -248.270205208428251
56.605900387863407 -19.430100958395844 -247.852433164658493
44.421882864524143 -31.406502722259468 -247.510184831564203
54.947078092845999 -23.536278284885235 -247.817447953940075
58.134914529114731 -18.285327732645943 -248.760366524226754
28.509995562283958 -48.260530488905374 -249.416072692541519
25.785237126834776 -51.041258730759225 -248.688656366405297
44.539479179082406 -32.278150004403756 -249.426199642012904
54.428330673225503 -21.774284180330298 -249.809486296961893
25.571953641924534 -50.024910820141002 -249.803326066759581
29.265555000586492 -47.527838069000396 -250.071890369036140
54.796105503107960 -22.983954342083454 -249.952913261066783
55.319686030906240 -21.858862960412566 -250.852125523112960
25.508449462994744 -50.744830610044161 -250.967504899919135
46.213246069435193 -31.248529636669243 -250.736423104716039
55.447687582162210 -21.487978442130434 -250.650390086432168
27.208908992604275 -49.268926006649778 -249.965885558940300
55.900299920432523 -20.355971914935889 -250.963590145792892
25.558086290087132 -51.599798191989130 -250.844046435602166
46.831605165914389 -29.564077470992608 -251.088882611970604
55.600862063529583 -21.685389562658109 -250.723366438565705
58.058348624710675 -20.336912615176050 -251.450501342892295
47.245452155433732 -29.806854815042023 -252.157832345427892
56.222126172258399 -20.591727356916063 -251.887796225167449
56.383882651765923 -21.138494725292944 -251.945582626637531
55.910812232606304 -20.263506783240452 -252.133507197216545
59.263312321509737 -18.585264341354470 -252.466999953908868
27.270922968221601 -51.143388877740207 -252.760513884497556
28.314763843875721 -49.005735979950806 -252.663468661266137
27.431434245345862 -50.064330230422286 -253.571700049955098
28.780831046212075 -48.388784234504222 -252.821102716321064
25.674429281512474 -51.120526509344657 -252.761320387536841
56.757104443347373 -21.181526762657708 -253.780818559635094
27.570740242262161 -50.557693717253592 -254.361278856746566
46.662935556610009 -28.143815558878668 -254.381237691175528
47.082414930257436 -29.506707794350625 -254.931255636173177
56.186131366261769 -20.371166002401051 -254.886108566365181
57.093555455125404 -20.505201769840095 -255.347649005332869
28.025906749813043 -49.678682638545297 -256.122367460605062
56.073329814215768 -20.943291103476199 -256.407578016145806
55.880539484557275 -22.827134768584330 -257.124363792416432
56.774955435248742 -21.066904372613500 -257.172675719242989
27.747835907716521 -49.853631810114869 -257.435048511802165
47.312263405391178 -28.824454346266545 -256.889714762842573
55.893165813774914 -21.367333618577451 -257.615609125268634
47.593051008471903 -29.262005583210829 -259.026732040433046
27.812943054541861 -49.485887108007248 -258.408432581358454
55.682957015833338 -22.247475568846184 -258.425835888737197
57.838773969177183 -19.552877892350136 -258.422062961635618
55.261633988699913 -20.178527314011731 -259.903416146927668
48.725214830423432 -27.248964210340329 -259.399978438264100
27.100142315014836 -48.440338649094024 -261.972543200823907
58.544759534177878 -19.180729260363059 -261.498477255257171
48.809026571164651 -29.298084382196322 -261.365986716864484
28.648266344991359 -48.031995722768585 -262.421023904794367
28.306626227410252 -49.146991146411409 -264.872793412014971
29.281564161923669 -48.362882587279991 -264.648892923374206
49.076085103470568 -27.452316481996373 -265.119587196449629
59.123671905162240 -19.088632404471369 -264.316581715403970
28.937552386860524 -49.520029758386556 -266.388262931540510
29.361787950398675 -47.932014011849475 -265.130724768977700
28.289229685845793 -49.119404481153587 -264.982909008463935
28.710985698091584 -49.462388851298122 -266.346627892790877
28.918498964363369 -48.086395720027767 -267.823700037928631
28.545422512238357 -49.177403661940929 -268.339814083476881
56.142064862030558 -21.049763818259287 -268.094778308613741
28.582213344606963 -49.355202087403569 -269.546416015898160
58.147104807745947 -19.413786317716404 -268.657571441541904
29.797164041785113 -46.932805781138399 -269.547689529161289
55.820786766245320 -21.217994599568939 -269.416107286097770
56.713928237855612 -21.056405581691607 -269.375894408221257
29.241948477363700 -47.915265377249952 -270.271717028311116
30.561152812602206 -46.425503629651246 -269.755463727031440
56.159682882203064 -21.660719955278843 -269.862265005246059
28.497686336686431 -49.009809134982248 -270.639270929512350
55.020806322814849 -22.349887443722483 -271.029998149759990
30.551710287797533 -46.771565433783778 -271.870398064684196
31.141816584196082 -46.024421105980686 -272.203028625000854
48.654908558341006 -28.921040258164993 -271.937218345145709
29.862779177036288 -46.222959829202395 -272.317170009367032
30.359443883455477 -47.949403212382528 -273.363152323059694
31.090890935002676 -45.439463545175073 -272.503889620229245
56.263257845669678 -22.057693377308457 -273.839782183971238
30.526859021522608 -46.181680904251721 -273.522212472864794
29.356098448170428 -47.054411945204031 -274.549901065234451
31.095184775637161 -44.518415479685480 -273.872845054323250
29.646453720617938 -46.188984383693111 -274.151222430694474
31.352943736166306 -45.459010462822270 -274.582831265753782
53.006891735030358 -24.535809272524897 -274.947391316616745
31.590221653972133 -46.969346955552339 -275.748099183728641
52.902894402435869 -24.786121794055177 -275.999664095778712
31.347691365225881 -45.327467942786804 -276.605938071899800
31.957518753226875 -45.755542916038010 -277.260324447733694
48.107160977251823 -29.130473057901362 -277.669261571328377
32.614186541642439 -43.799509028604341 -277.212015424189417
32.456889086053003 -44.119006298603630 -278.384840741864821
50.007329973097583 -24.721044351363521 -278.282368524095375
56.021284496067850 -21.275219699227794 -278.146342702460800
32.304415854411133 -45.402400554531432 -279.090332646030106
33.835900850442123 -42.890409948537808 -279.835743066891951
51.340294801001008 -25.246955539897797 -279.629500460423515
33.430901945294181 -44.172739373541241 -279.311541045305319
33.605317972886631 -43.558113897628814 -280.579155793648056
48.115525181062893 -28.090978958802406 -279.566135505770774
55.736345231624597 -20.163157574638262 -279.417905681579668
33.853741406560786 -42.262073654211939 -280.109733427926869
35.110145658588401 -42.484352619989885 -281.942671249443094
48.908196885591607 -26.947346410178231 -281.704467604234765
48.603117983115887 -28.268632203474318 -281.487969229166310
50.690647220904118 -26.886667727611616 -281.593252567535899
35.420576664454543 -41.675600822826915 -282.559821779580773
48.748707062100735 -27.646378684450738 -282.421060808360721
31.050332865074214 -46.521645856593942 -283.105236702868808
32.267443810694729 -47.089498735775059 -284.269000002137147
48.384074205717141 -27.130243894268567 -283.539807886007736
32.867252048587410 -45.040618968495110 -284.558456475910646
36.472577877489684 -42.328164122996171 -284.153805203433762
31.864843786737680 -44.981029755628029 -286.159972027395440
33.121078694540024 -44.459618540076598 -284.917824733413056
36.128858764747328 -40.095635095036904 -286.044917395210462
50.760246869668201 -25.323562694325140 -285.306544180398021
32.808860544361259 -43.019918559504276 -285.420996971518264
50.198639975475928 -26.403286037157535 -286.187208170706583
32.875444553509425 -43.156176300578821 -286.521130750294901
34.466590460116493 -42.194029883594126 -286.139864148947709
33.256296725743447 -44.431439959959484 -288.053333008313757
36.459595492560844 -41.303521916111748 -287.700386299032346
52.752754461083775 -24.360522628021165 -287.585563324382122
32.820299116925945 -42.902179758508247 -287.844495108592980
33.651683367815231 -45.176268928930071 -289.200484888732490
34.807212844933879 -41.263363661488896 -288.857606643342876
49.466510877557418 -27.035899178899907 -288.741889801370917
34.461181462445744 -41.753059681620663 -289.186993175129260
37.492431374189295 -40.386214601979617 -289.319729794824980
33.729153270199710 -42.930372337629905 -289.931778005663318
47.919337424442489 -28.626856723724917 -290.803014042695906
35.113909237578227 -42.761545151899512 -290.717639890333828
38.260174460663983 -39.662247283720930 -290.265968132052365
40.120148843762763 -37.602566093205837 -290.171874039861621
37.593410609173795 -39.859844475163186 -291.492873796528272
47.945450879271519 -29.903752318974320 -291.075938842236440
35.985584056611359 -41.617049083802542 -292.173624424174250
37.874320979303668 -39.098588187782767 -291.556601580844756
38.016214231501856 -38.749410210963497 -292.354087517012033
36.814516187641701 -40.542699916700705 -292.778071789369676
38.359787826544611 -38.324148676078615 -292.291562375797412
38.728029521189129 -38.341636805554437 -292.603319232026706
43.373131548964992 -33.902084696615752 -291.881814392921285
45.565205960745836 -32.816839310893542 -292.370555892816981
38.767501889538181 -37.929229494880104 -292.290138244498337
40.031439679589077 -35.655803141376872 -292.576493471950641
37.814727985292521 -40.646156301678381 -293.759767633794411
40.244077043710512 -36.277842092174168 -293.673568977368063
43.387386407900749 -32.643305768858205 -293.039273736148232
44.649764317478528 -31.321616187060052 -293.987247790972617
41.049383268362519 -35.158906561596808 -294.388126407518996
44.413840597519581 -32.665515038308797 -293.854912450463758
38.924819663900259 -38.575284253461220 -294.871506729983025
40.105370468402533 -36.364313662675350 -295.003164305854909
42.443486509584517 -35.245974348706440 -295.386699881444372
44.229124356922931 -34.107771540885217 -295.587334374281511
61.732879118929482 -14.792619023063455 -12.666335367868387
65.696690818039613 -10.495703540220484 -13.051712967183215
57.777339736625230 -19.014502712557270 -13.684464859687534
59.628182145177128 -16.264313533814128 -18.918091938634220
72.931583516337497 -3.545771666725322 -23.818437562775557
68.656441968584730 -7.224554633965422 -23.778366239750742
52.337878235905897 -24.780263659878273 -24.293386656320511
73.377710662719934 -3.257357891319936 -25.549949208010851
52.235599702944207 -23.924453704434114 -26.602360716082163
72.598352667919642 -3.187392450018276 -26.368425720274139
68.107462737392424 -8.537497906366658 -30.496628793368334
52.151753941593753 -23.473096720814649 -30.471233992339641
72.134218661236673 -3.773370782909712 -33.728327442999557
66.741132504675505 -9.591045538658541 -35.288258321409138
62.826607374045075 -13.700513308837722 -37.674272239056926
70.168850459410152 -5.204138386808170 -37.073621426201584
56.300643045090915 -19.959491759931304 -39.338688779625400
61.015320456263453 -15.000079865486912 -41.435069561479779
65.837021861986955 -10.868634868514739 -41.177736188470440
64.273616136330261 -11.615530322083167 -42.480900539805482
-11.190390149198624 -87.474373229711958 -42.980705059924531
-13.573749227472508 -89.553789301747059 -44.244060359288966
-12.769464735393772 -88.343387218984589 -42.779283156173747
-0.830599936403550 -77.136097109882272 -44.493584503311574
-17.321200595254592 -93.266655892511210 -44.055263640812882
2.640679534343944 -73.321686215634102 -46.023835742886313
-21.359875651646192 -96.886501335470228 -46.208068247341295
5.919199907758430 -70.566769822775996 -46.824540263940442
6.010675638901161 -69.613245482909761 -47.282885936043428
10.168566738190341 -65.122272062101089 -48.829453822954171
13.170172063181608 -64.121524892533117 -49.848940239730247
-25.660616331523990 -101.335202206996357 -48.888171148966151
15.893615508220721 -59.437405699162831 -49.454176809960465
16.633345649153046 -60.595581262332729 -50.268313521775219
21.267527159612328 -56.141375711711213 -50.910346208305761
-25.735822821472841 -102.103339185759324 -50.925506041112712
23.070873248231411 -52.141356692352225 -50.454744070567720
26.190520669174802 -50.674778580193795 -51.517721860792044
28.937917069643120 -47.634016854871746 -51.856892905174519
30.708581599406411 -45.940082743582671 -52.658553208163433
-27.224216635761813 -103.419970506223180 -53.095241316789135
-28.294221071182044 -104.368603039038192 -55.678396062029407
32.386667596761129 -43.208518168903872 -56.213225719312589
-29.187120611662703 -105.917271225816577 -56.455107124368084
91.911082418280458 15.663783049019221 -58.532744567598748
101.189801948442692 24.624462820786945 -59.308371308263681
91.768370916815599 15.340535118793900 -57.859122193377729
96.946346721517301 21.076964346174037 -58.458232051936292
88.698220531315613 13.825881157169334 -58.913423066534598
96.986448782463640 21.351863499083475 -59.420391181001278
97.508072790950706 21.317253685185705 -59.360335515644699
103.258046454162567 26.800433139499681 -58.971305809080853
88.136472426597223 12.116895003975321 -58.966320871554458
104.562082721384243 27.703207199994765 -59.239630052086071
31.155332833324881 -45.250305642173075 -59.889684829165013
25.468894140165730 -50.057712243320516 -60.518166930001016
25.856978347450610 -47.596882382448200 -60.549426950378546
30.407159103217566 -45.281583783672673 -59.609268274518115
28.901262596513643 -46.886042705845952 -60.272227242780907
104.922864802312787 28.598878818436383 -59.695420712937427
-7.895580084604896 -82.585317534834289 -60.180375976704340
-7.237304928997182 -82.575351608530099 -61.619692266469322
20.219320907798515 -54.093458665556632 -61.495556603169796
106.607407877590035 31.082354145182709 -61.914444030655467
-30.437989867817798 -107.192092071211448 -61.132868861555934
-8.100418528464962 -82.727787478286729 -61.997499429174283
20.058578818336532 -55.518456508576470 -61.634311040677602
86.814217199871294 10.362490500846052 -61.084869382946557
106.850677347347059 30.705256786282387 -61.904578515791492
18.836705227017102 -58.120522790527822 -61.952725881804582
18.038647203590720 -58.554591689455833 -62.761326150829063
-7.408129944329684 -82.836325108530261 -62.531992449979661
-5.726334773349820 -82.528638744672747 -63.265273952825041
14.556852841460101 -59.860926361045919 -63.571712099721026
84.724337624190326 8.823739834105952 -64.800149445434926
108.976387812203939 32.960071490022365 -64.731242449895419
-5.046159650498452 -81.129359392574671 -64.429942197053009
84.836775069799785 7.819388415496094 -65.497127368837951
-8.693809965020280 -84.483526916068882 -66.089189553876423
14.666124859674490 -61.195923776370755 -65.832785168299509
83.604070203617908 7.915860317123826 -66.072043240560504
-32.314131137742947 -107.106212874041461 -67.401213190964327
14.440866301481170 -61.327725230994290 -67.556230914581576
109.430807042694624 33.762917176512495 -66.845554686501586
-8.411919562028347 -85.027903702987473 -68.117690387347068
12.521625356731871 -62.507203420115808 -68.541251994989423
-32.304130628340154 -107.591160604846863 -69.112685214862296
-8.797699376154767 -84.526300453093143 -69.092950692393444
11.220455949764249 -63.426867664884838 -69.522585999579348
-7.625110368435307 -82.851390342888479 -70.001287527533563
-8.345463168622576 -83.845210231653198 -70.213565841913379
-8.154793697953815 -84.645105216455548 -70.215811673791990
-7.818975222300925 -83.416979799384407 -72.297316375321344
83.491468766142532 6.803215452193479 -71.139829717548238
-8.794905984621384 -84.493571225747857 -71.811650268135352
83.014181614470687 7.015248711578564 -72.356340735828525
11.760318255278996 -64.112592728653411 -72.914474576926921
10.667937955190958 -64.852787056026244 -73.424647382217913
83.213603162510339 7.929816382921912 -73.452662610396885
-32.899953006693032 -109.056112500889938 -74.359996896022551
11.643370732449297 -64.176208325263303 -74.362724981387814
83.977826311558388 7.567797990724888 -73.908730128736764
111.554289585318074 35.890133523646185 -74.162087325369583
83.427766933297946 7.968530149059166 -75.151736001301842
82.974957345322423 7.312170785101904 -75.511843691918401
111.858604416721562 35.104425235948014 -76.289521031406338
95.239460079716196 18.473934160240074 -76.116770718740369
83.299217819826637 7.226095802832806 -76.583277688447509
89.388747933945567 14.271888812902686 -77.053406791311659
94.254200090481717 17.445218459215461 -77.488412203202458
111.946130316244762 36.404092838265932 -77.174861901102545
10.626967363134630 -65.375134079761494 -77.322339259892985
95.703271558648069 18.334641547579174 -77.756945737466410
97.421710655003864 20.274429888284295 -78.420987810729329
91.534039764882493 15.864293968933291 -77.724600010566775
83.706220158266049 7.110576998273050 -78.146386125419525
90.143623064347992 14.977084921271073 -78.740269755794728
91.963419002838265 16.529128619561128 -78.635681766244232
99.224513614304925 23.454280390162356 -78.186535357599013
99.956534108474443 24.055137862466310 -79.146591686183115
-32.506302763431101 -108.054944683406035 -79.159490517449967
6.553413122863661 -69.678631778492360 -79.237084365179570
88.008656855812291 12.608501467330472 -79.880846175304839
7.370256570825132 -68.979031008167937 -79.602565316052562
7.786604850534958 -69.367892516285963 -80.265879994591060
85.502680613862168 10.367772156042641 -78.972502415587826
89.048653041217136 14.092308246071203 -80.020377680220008
100.748484805863484 24.032687294874176 -79.738801281798160
102.471527441269131 25.282519396600950 -79.570871594709146
112.703215377980925 36.703421788938826 -79.351378962748981
83.600455114500704 7.264354275050341 -80.888060960836128
84.214520794320762 7.387307175798068 -80.402968184988154
84.537435755600242 10.024080975516595 -81.624980645974475
86.319261373065828 11.751422819364326 -80.442704679116474
103.410911512776750 29.442912504233334 -80.389171656431813
88.131272713220483 12.424377578900563 -80.673734047630049
101.611658305050597 26.281783349159038 -81.139276458490940
-32.786527750100049 -109.569121753061665 -81.320624901035714
2.595495098973574 -72.810171310388711 -81.691634341269634
1.794668740573304 -74.040483285771572 -82.062376635509040
85.025878573957769 10.507966573970483 -82.616580853716471
83.659732687143332 7.964224168483061 -82.985913014161696
112.915153062969310 35.946020858046793 -82.656796833723419
86.037922841161247 10.219895214832892 -83.566309151442198
103.974304552972470 26.978494870631856 -83.018202755363603
103.454478359273480 29.027422961033079 -83.398929699412861
84.257873207349988 8.709351853958335 -84.272126642169624
-33.404811173670289 -108.730605755708993 -83.432421365663757
85.086736512130884 9.323448880185820 -84.090013351052932
104.854765488936394 29.363943745278700 -84.323224784750849
-32.527420220269640 -110.059390732131618 -85.198724412747566
104.625907736505766 28.241106848858493 -84.887111062245552
103.886290573348248 28.693183897127511 -85.632357430124429
-33.622176723042990 -108.480292306190492 -88.018230519024797
-6.038480399734275 -80.559807748234547 -87.771105127498160
104.749923832052076 29.071503761809147 -88.655778860274268
112.077074233331302 35.168703928529553 -87.060086473212010
-7.005449921615623 -82.588251282209882 -89.717355454784894
105.564458043077096 29.646613713989424 -90.687413584998481
111.582187547240878 35.293036106089303 -90.999425577359617
105.866809820311786 31.163468284547381 -94.357704839427612
111.088312468814166 34.881667598152568 -94.781867495364082
109.387678923394134 34.594021289144322 -93.350765308503426
-10.331447902882775 -86.618750027355688 -94.515580642138318
93.635160308701401 17.960258334544577 -94.507380799815635
94.848868308253500 19.935458762940492 -93.918761055573938
97.241507456295196 21.532584221530485 -93.980139396309355
92.932286190003239 17.762726180147009 -94.785353735136482
96.053327285048127 20.579337374248158 -94.402617176073122
97.667984045025634 22.935891924438991 -94.197137055125424
100.733916607696003 24.711242948583660 -94.593870822190823
94.561746307225746 18.430337417246708 -94.554931589138945
97.450585765352486 22.151674255673381 -95.124335119443813
87.757126726601271 12.452774661160804 -96.488066695555133
89.527897722265763 14.273340143721336 -94.799317678749489
90.390879083445228 15.291406138445666 -95.147456508326869
102.973689102932639 27.906701212899794 -95.747305143834623
104.149141962150722 27.572497583989840 -95.228504254999422
-34.299713511865370 -109.120338520733085 -96.867684752480898
85.180502261172876 10.147740110577145 -97.157804952769553
87.702364585538007 12.213214531007338 -97.246565701586093
104.015395565740704 29.076099511455190 -96.200675114215898
110.885838479377185 34.465272291748079 -97.005572351505052
85.163736346496975 11.000484814527542 -97.319154701555675
103.598645552108081 28.499072485598997 -96.483381982183758
105.436526847669484 29.920405663613415 -96.988383870122789
102.039201567473796 26.580075268389180 -97.496141570172185
104.328206881033651 28.398798979553710 -97.744590556322251
108.554714470963503 33.766174058342230 -97.558591849881964
-31.989149404377176 -109.322178647565806 -97.364230979993494
83.050254574582979 7.671391166673108 -98.583994614274317
97.285807262870762 22.917012004550166 -98.200073372117529
101.318536673528470 25.891613372394978 -98.560347252407738
102.489589722213239 25.747767948737771 -98.457973435508933
83.156163248470051 7.622058816999555 -98.750853062899154
97.563584667718516 23.227108131321909 -98.693821491622003
110.036884297934321 32.892825942418817 -98.383810300763443
93.969656403004151 17.348911612745955 -99.098246323057083
95.188989318303356 18.992778882399339 -98.761859238913743
107.778462763892804 31.371514384779161 -99.375095447828471
108.279254942314111 33.464681632283650 -99.087468028724032
109.254881356171111 34.075286315287599 -99.469161581041462
-32.257677208339686 -108.894395820800554 -99.951540501506472
81.222376763128111 7.521889023743933 -99.583751002097429
89.257144670377869 14.139443063552688 -100.476830352835108
90.445615691366413 15.827338993649334 -99.707709741865600
91.190867621881509 15.728072291321837 -99.814374012772547
110.056519416993268 33.087761337803634 -99.985814775670562
89.945534065100944 13.517004829120422 -100.909646158261026
86.936858709771002 11.834080918577103 -99.626976940685338
-32.833020550499405 -107.733010009644829 -101.493451766482735
87.976580400750805 12.411065878055346 -99.989898478388255
79.606128518140963 3.956953249087949 -101.796817136329878
86.072361263866043 10.968213392021955 -101.589849819229741
85.446274760722545 9.027654781527348 -101.961862804361473
78.009215721962988 2.907099255171780 -102.956405977179017
84.720019766040068 8.776987142723454 -103.094778889766431
77.802078184358948 2.373980364000781 -103.232576075205230
81.660929457597575 5.862427373093868 -103.142601445495984
-32.954863157929061 -108.855292764140216 -103.840565131773218
76.962800214969079 1.551965677084259 -103.889528063559183
82.534393737723249 6.521079213839357 -104.432266258811765
-14.561400672910326 -90.626390592115541 -104.021658093446504
-13.636722626065923 -90.760054934954425 -104.111443316908804
76.812253096715210 1.663235236971230 -104.724362269333056
79.863161153388333 5.038016126825622 -104.485644717779422
-6.952087051943227 -82.658201397241541 -104.875473806309273
-6.275936270763141 -82.582478116983353 -105.023077961973328
75.108601623203398 0.833152169650181 -104.200368337931607
78.720709258703508 3.792014151690707 -104.738756713889074
-5.100250506756299 -81.189256065296505 -105.469522333234721
-7.641097869431268 -83.036240664746401 -106.148070844576921
76.487569209157883 1.437667582877371 -106.299677749137132
77.348869679519169 1.921587436664080 -105.877241047500632
79.025985958452580 3.244137285956357 -106.010760951424700
-14.601248339282360 -90.455830720959597 -106.256593101037467
74.853226022202008 -1.230498783505072 -106.658863515357794
-32.402880025188573 -107.601668851664002 -106.629665166926017
-15.821802993346244 -91.139511675807000 -107.233384399397750
-7.671007394188508 -83.360545015304012 -106.602931085636627
78.719433528123758 2.675477465768206 -106.506485312677910
-9.258541261294164 -83.749273987476684 -107.697363523740748
75.371851190734077 -0.974058573785276 -107.090104084446153
76.807145284005159 1.232611540587764 -106.797784065517263
-11.899239998409456 -87.492315689400257 -108.070801347915335
-10.638403136207296 -86.263618297714203 -108.527412638900927
-10.081033311465555 -84.598156590481125 -108.335944579209567
-8.417276069101066 -83.657805673428115 -107.846055038491116
74.784502441038271 -1.697921310883886 -107.521050380743475
-12.648560663965030 -88.781200612704652 -107.958076168034282
-13.481051446257084 -88.544662878677400 -107.825325852936544
-10.221643106726839 -87.357062647237839 -107.983308372576744
-9.276254984888029 -85.411680373214125 -108.487522283500766
75.501307239169705 -0.209799879706274 -107.746452415425836
-15.429240305647056 -91.201208191207812 -109.085056640785311
-4.523508009859047 -81.261321606427870 -109.107260012026202
-13.444382372382645 -89.366369413481081 -109.289845307645280
-8.852161436171293 -84.669811000563882 -108.779380890533034
-9.126234777247481 -83.708443332655648 -109.732117253598631
73.969826772048322 -1.194207490896417 -109.823215565231365
-31.388179903816525 -107.461896893515046 -111.114959704268529
72.323145031989043 -3.390613647115175 -109.973018060357589
-12.507775796254350 -89.277326520177397 -110.609284996333727
-11.257601498822181 -86.750072694869445 -111.128243821817861
-10.289239043888488 -86.167048664449084 -110.557595518293596
-7.219168450292291 -83.253874377213378 -110.639090973375559
-4.516103248150690 -80.818234671987383 -111.683972140150544
-16.402510041998855 -93.373284373385886 -111.599048984283826
72.562654577340368 -3.166646018338594 -111.905316184953762
-13.378436224568501 -88.105161770536697 -111.334666568853763
-10.404472229775285 -87.736776167018149 -112.307614308051825
-7.833430180331439 -84.104573190455952 -112.383165903026267
-31.617085729971802 -108.037234367988148 -114.005753355341227
-7.535118798483010 -82.828377793499740 -112.695279163149266
-5.433307706733101 -81.131434304542651 -113.373464711268170
-12.743876708845423 -89.202444935852839 -113.116472126625311
-9.585863038678026 -86.111491271270026 -113.549950832385832
-17.677872899831943 -94.094082132241169 -114.302690143321172
-18.937461092504673 -93.222118752704517 -113.835653582841189
-6.234258578484532 -82.354755702539833 -113.816124874941323
-12.933711578002434 -89.153312105012034 -115.440510321975395
-8.454381072054844 -83.786518068786009 -116.041889233265053
-19.200493016569329 -95.879835538084237 -115.384954251529408
-4.518344500470923 -80.043543336095382 -115.995713445431988
-11.270362904475796 -86.918080596662080 -116.908477540719460
-30.197539858921409 -106.143475344209818 -116.762145690954767
-20.152823242766654 -96.768356121890832 -117.207925818429857
-11.109127497104362 -86.509359654672807 -116.364587656453494
-22.843528372534582 -97.789115985494263 -117.709993575814011
-10.734404176525784 -86.010535787173467 -117.260990203157746
-22.482068317018047 -99.161300303756491 -118.066761262083816
-5.025168777815860 -80.225197769164893 -118.566899382551185
-9.630373310109579 -86.400941280753457 -117.749583968724252
-29.602341189029371 -106.433037911703309 -119.266190844180812
-9.173101695500101 -84.681929769287763 -118.832619602658653
-7.782141537110340 -81.894801837914898 -119.045159875064712
-30.050224885991330 -105.181852826459135 -120.410181360546318
-29.359908602167867 -104.091468450157521 -121.319213637751346
-8.478026150842462 -83.553701387390831 -120.047629651277504
-8.212150827942347 -82.821690376271604 -120.417231262413779
-5.957900145951091 -80.902706020729497 -120.611603425823887
-26.259748454392422 -101.721619691463189 -120.816788863001364
-7.429929769999492 -83.262587838940178 -122.012478667430628
-4.536607413049817 -81.298009772253664 -121.612583376567514
-5.077616590092195 -81.724757024948261 -122.385958301491939
34.366237422252738 -40.480234033658029 -236.711285546742744
32.296107956595343 -45.421779977312312 -236.795803750377047
33.080815281483005 -43.578689719924427 -237.160795135176926
34.100631440434285 -41.463236907163612 -237.376176952067510
30.317803755830209 -45.267885207312311 -237.302794113909698
34.097937732819091 -41.445982542367993 -237.421087819851039
38.363909566651650 -36.533161472033747 -237.476195888995875
45.102949036183645 -29.547516619149366 -237.260017813512860
34.842561948975181 -40.196972951652228 -237.442075688084913
36.915797338633240 -37.940010733485629 -238.567695608279536
30.611623105747459 -44.874313489529563 -238.028205403116857
33.748832370050970 -40.345113981316189 -238.764881736584954
50.495491022375354 -25.661511869964304 -238.272241685407238
28.127631326630333 -47.454358034217748 -239.245163848501051
33.193986655923617 -42.633231815338114 -238.293647059639284
39.557847408478111 -36.099489837615934 -238.889561670865476
28.970299964721725 -46.178961155997833 -238.853561506629489
31.064520123227492 -44.293372271931645 -239.080167963235937
36.986644440263504 -39.112733821058534 -240.324587123793776
45.600472489360421 -29.545588749351868 -238.899104737533520
52.403684521278691 -24.387925802961171 -239.209263887120585
27.545173561979741 -48.213527868361375 -239.807196551853536
35.613791630950367 -40.984799874331500 -239.581352972321440
35.992207633457667 -39.478818664476371 -239.010544425291528
41.617578013050000 -35.097695322471687 -239.416418584764159
44.618186234149661 -30.953467964671553 -240.191664159500590
31.572013416785364 -43.026299442592133 -240.031341923811112
37.265406601188275 -38.443730023356466 -240.269214137960688
44.388050808946225 -30.167957611046859 -240.281937855617088
49.466030308754796 -25.594682448073176 -239.455708056001924
26.752352329824678 -47.694783983866017 -239.253249893549253
30.276509030559687 -45.107275489154880 -240.063235999326480
38.328214083017862 -37.136439056892186 -239.842950576392496
34.563705127170635 -39.916236400921385 -240.416302651900367
37.529900158235414 -38.174859316930984 -240.288545545239742
47.376232817554801 -28.711692283575115 -240.244942334541747
50.458854429622733 -24.366500307031313 -239.964667690107746
53.692429842998102 -22.869320023061167 -240.586541393698752
26.129637829431598 -49.703467671792581 -240.532191721678771
26.352428382619557 -48.321866028936121 -240.765065694499583
29.257751558822925 -47.026020156382479 -240.619348586554366
30.245026592327957 -45.724745028365831 -241.225919020229668
31.689152512037527 -44.404545472503187 -241.576683312130683
32.861963799412997 -42.133981252748164 -241.124548672635285
36.006238136385164 -39.704515943380926 -240.924204100797823
41.875182515217709 -32.725738327117661 -240.825609236231855
29.956577618543243 -45.314209409735952 -240.883294544188516
32.673560503623648 -43.084961894016978 -240.868643635096930
52.247548770456113 -24.246155073443987 -241.502903267468469
43.846253026615571 -32.784276290229734 -242.771741681816593
34.885916902503645 -41.028265434038815 -242.095553733198045
35.130938152753167 -38.159417528226335 -242.255594961721329
38.997564237474180 -36.692832949384311 -241.786191233061800
40.275079658060008 -36.997851345248620 -242.400800738896123
44.813958834025385 -31.542437766293588 -242.384125996708690
50.199549257991855 -25.038502538090249 -241.275213271328312
51.762813634953957 -23.201024300767507 -242.422750438120062
28.530153001600716 -47.813795552022135 -243.552742374488076
27.902301324731980 -46.810256632136230 -242.193059308212185
40.742363065898481 -35.793204826012278 -242.326390186366496
52.913580108022920 -23.067279805682652 -242.771472748428891
25.075262020516774 -50.726123068982560 -243.439549466253851
26.372100237052255 -49.265044344369151 -243.036778606541361
29.300937186437363 -46.120843798353555 -242.626489574430281
42.978872257729385 -31.874132744924875 -242.575694665104805
50.074297672146514 -26.287572421211820 -242.546791245223886
53.899033965136518 -22.228580871250966 -243.182557966163699
42.008754318521596 -33.575304561217557 -243.310703403040947
48.515168534870675 -26.966733126869041 -242.520657358849519
51.622294518188731 -23.269898991204112 -244.026281278687975
49.308782297770549 -25.682820723919857 -244.083878283203092
53.295739375072294 -21.693050747872121 -244.015032734393060
47.727146248764214 -27.867520341686088 -244.977889332423530
26.026255780920039 -49.077979046301429 -244.117226495532378
47.332653350072000 -29.283513770240869 -244.483433054865401
27.864033522114063 -47.320381643969441 -246.529611483721226
47.556634421460082 -28.352416197859949 -246.354944029635419
27.139604928334151 -47.605757495095283 -247.146608859521962
52.937604905633179 -22.734361796006347 -245.155565597076645
25.545022692917033 -49.537342935090685 -246.718186094541579
52.862980887008845 -22.445538768517842 -247.470212306600871
56.394117254003859 -20.661753129686385 -247.184409227437811
45.875966411779217 -29.648377348501715 -246.791974214299302
45.871650700872479 -29.835753498151821 -247.660508358938728
54.017507640958378 -21.828662209377942 -247.463162194731609
26.843270521335825 -49.324234887501333 -248.036826081048616
27.136622595494746 -48.262920784060398 -248.402679662461480
29.546703854736258 -47.249558497330511 -248.223646503744448
54.890992155783700 -21.442126056016026 -248.423681834766882
56.772368468574079 -19.324924092418428 -249.211979098250822
55.895893255847298 -18.766874534053287 -249.389722560242234
45.138497785444478 -29.355615873969604 -249.308856525825576
53.882602107874881 -23.143634975050208 -249.757876780905093
56.987872207797821 -18.354453190946835 -249.923887269975666
56.077912181190740 -18.865363505828423 -250.339363366316462
29.299611187434628 -47.736481170113919 -250.612577925569809
46.190340571034476 -28.920988251840850 -251.112897626367328
54.692629313043682 -18.702402954765066 -249.950218310057693
56.668287229956732 -19.611797427578285 -250.595533223356654
58.938984133937616 -16.860503653757039 -250.194872403269699
55.613044180634859 -20.540265646257271 -251.779035716054580
57.515009797140152 -18.538599426002595 -251.616149414686447
58.655912813960278 -17.339301469072545 -251.205799334338479
27.612078604127365 -49.025475702489857 -251.792598003080855
58.845598813076080 -16.782878466071665 -252.522509920545332
48.151660886324031 -27.983461520467561 -252.507000905447768
46.765845393708297 -28.209349063230199 -254.299960125970387
28.802101452616711 -47.474566436254740 -253.688908949917590
56.048589330455513 -19.070952917346350 -253.359255871304839
27.558715612668337 -47.821019180042796 -253.734304202370964
57.259792945646268 -18.071337359889704 -254.440136863605233
27.957984457888024 -47.253783800407284 -254.901618916308053
48.723111996078792 -28.491796356255964 -255.483599460024266
56.370697518495980 -19.323071442964192 -256.046099917911647
58.033285699509676 -17.861088995575976 -256.161438275491150
27.545396215987417 -47.750307212931311 -256.972128209079358
54.044512349352246 -21.420492516033889 -258.375168024186792
47.842162280233943 -26.349010864056570 -257.975616694795519
55.088893934124975 -20.302303000497098 -257.878853089944357
55.877716056218055 -19.439284560563131 -258.568141437612780
58.168072961301846 -17.431156161743246 -258.714204797131856
27.061442421667365 -48.785904444091962 -259.613839103118096
55.458213110778487 -21.282692771148866 -258.413456446807800
28.215608780240192 -47.848279917469839 -259.521536598004957
48.375358451311214 -27.214233994342987 -259.709967998007244
27.810320836483925 -47.497196686340146 -259.860769181674357
29.121367387995534 -45.852065163242962 -260.564109220215528
28.835149387773910 -48.584036876967822 -261.757510766987082
28.106158414742730 -47.995827310821468 -262.718211968728440
56.738568923461003 -18.252750391033658 -262.003393690426492
58.153891642142611 -17.882543960972558 -261.678835007194834
28.770195069038639 -47.315929013765704 -263.648248352563598
27.279344429905482 -48.340238685957047 -263.977152350660447
57.108045793033753 -16.894121766329633 -264.237567244881916
29.483590739428227 -46.119316040091782 -263.994087808110578
57.854202793326564 -17.643843153956901 -265.528978723081764
28.783223368812184 -45.724436400868527 -265.466882220404841
57.410880427140917 -16.820035290074905 -264.364085869471182
27.865863637440174 -48.996414986960922 -266.583198551122280
58.414072217066980 -18.492245539887769 -266.327326763070516
29.727716350587826 -46.147273471007530 -267.124074726034223
27.763084867293152 -48.007327679730075 -267.446360554890475
31.056765066680860 -44.356926734035767 -267.897197396328750
56.861795343371043 -18.471428402824561 -266.240398232192206
30.345836822999871 -44.254709951596162 -268.145379681604879
55.269852710403931 -20.065050085469668 -268.542158221542422
57.755862955723380 -17.977138642176591 -268.207204235611471
27.890609072334399 -46.929001603022712 -269.062165983463785
54.804113068012008 -21.500241875335970 -269.105646110216696
54.605478810670881 -19.012973079473209 -268.905105372602975
31.662318917660066 -44.172931336177555 -270.054946975094310
57.203700595770052 -18.609015392550848 -269.906376947815886
54.664163009747462 -21.255478210227817 -269.638110708672286
55.280935435217771 -20.573690582582564 -269.509057788080725
32.915312040491202 -42.871200457266731 -271.177444140955856
55.506310929011036 -19.423929084205284 -270.575298591064097
58.284272486101095 -18.908820675369416 -270.621931147045018
29.308021941476145 -46.468820803866947 -271.585712033769369
54.003170384254446 -22.339208652150823 -271.255619626105499
57.277603349549729 -18.607162110609398 -271.551052869701891
29.367337722294774 -46.142432388347487 -272.384911796706149
29.428692621461153 -44.316801591755159 -271.638407256255675
32.309513069106607 -44.131851115366068 -272.144542501602075
31.524970870470828 -42.396076002286414 -272.191273584526357
55.033779736596905 -20.844384817306253 -272.125902348542411
30.632122759057079 -46.152234377653635 -273.477075782095369
32.810718989817133 -44.648678510152592 -271.964686640408331
53.087195900713979 -21.731158284027678 -273.122350028363542
52.621774128614767 -21.869398150754780 -272.539563560272313
56.036834048443154 -18.690142746038898 -272.366304893556674
54.694972179261384 -20.193767304318740 -273.375392932543036
31.832766177207475 -43.519884845585807 -273.841707831121255
30.717589649417341 -46.535361458611291 -275.226542987631490
55.099004108707035 -21.890543847435694 -275.116666308928473
56.757146695334256 -19.411358280396705 -274.334507113992629
34.872652551703389 -40.692107068497428 -275.271260968480135
47.589308823477666 -27.387248863832745 -274.541639300692793
32.734100964319303 -42.362829563782483 -276.241314282342444
54.992827737743177 -19.778698442259117 -276.259973397278998
30.786669696915308 -44.974019914872962 -276.830514538220427
48.365146959972783 -27.013619671100560 -276.138249788329176
54.220186836232003 -21.067752934161959 -276.229063991651742
35.226016167327458 -40.981133716483036 -275.603791711975703
51.852296691630613 -23.435402258559780 -277.439530257305307
54.224493591573655 -20.206046202296594 -277.705090608043861
56.358075026395746 -19.180001689324286 -277.046716824972634
54.182326966522133 -22.594207338362764 -278.090770809906360
34.216415338824497 -42.198646329218114 -277.993056131771198
32.106554191005579 -44.159654901488771 -278.647722415602743
34.997972353731733 -40.149125506199155 -278.733360642326488
55.481849592569489 -20.115824338159722 -278.325974094143930
48.500741924049827 -26.954879838583444 -279.364986213305656
32.406501477284905 -42.750236264417275 -279.730557907265791
34.007479608908220 -42.110210517937304 -279.736228159237555
34.245286405390310 -42.680168200789780 -280.284587085436101
53.146924646633657 -22.741273246735567 -279.404153300291682
32.802498513866681 -43.777278177168540 -279.607622597432623
34.067595966346715 -41.698695467805294 -279.854945426991208
33.047003018063997 -42.259895724257014 -279.590237743823252
34.364517853643818 -41.879548864962750 -279.816271169511481
50.742097165343040 -25.429814291137529 -279.381918221905607
54.556749716809833 -22.216952717329185 -279.917013930441271
32.580476462767898 -42.125432005330481 -279.981134774040981
48.212282299642027 -27.147887736945105 -280.048042376740398
49.474878634334296 -27.079773130566878 -280.129113416266819
34.478846017948953 -41.671295060986374 -280.534776257285216
36.316650120359327 -38.780407532592257 -281.022284070982948
53.326039099251702 -22.593527050386459 -281.357301779928207
53.626208039264412 -21.404657980732608 -281.708226684720671
33.144109062396048 -43.326195095320273 -281.879334775999325
52.602220169016938 -23.129590627701326 -282.004219506939478
54.375020356938087 -21.271298700281655 -281.122319891371887
36.527532732973526 -39.446259052394396 -282.745755744097892
53.243281962140898 -21.571438372728206 -282.198357637424976
51.709511236379157 -23.600838194072153 -281.626800391685265
34.104689196650192 -42.014840893716865 -283.262756585136742
34.960663830415314 -41.463375539618589 -284.051585027065357
35.570300243409655 -39.544399932013441 -283.038737942342664
34.115855268074348 -40.864541975824906 -283.912510606052535
52.677113450623530 -22.921557032379653 -283.668001820298457
51.438972194008947 -25.081145722920350 -284.127215462710751
52.645408386505146 -24.014335456985823 -283.981407161664549
35.578555155344830 -40.698162559240444 -284.455469754602461
52.006402458883755 -23.364697232171387 -284.359355261332155
53.451167588079329 -21.394440817231718 -285.273948989325049
37.296100722027873 -37.498964923248110 -285.906026651667673
50.899528093589055 -24.171862097906093 -284.432947919448452
35.538260336208396 -40.598554623649306 -286.049346843835451
35.860591842189770 -39.206062539731057 -284.990238925913218
51.609547264845837 -23.050683221148802 -285.594611433709247
35.638533752862038 -40.020107915216485 -286.151170135430448
37.351917578547926 -37.194617634046743 -285.280734250424587
39.014241599241650 -36.795041199573696 -285.539566984391627
51.133959179006141 -24.523513232954343 -286.353689938478340
50.247139998842286 -25.153733312450687 -286.871004029357209
53.800595504450293 -23.494297939628371 -286.909408272758867
37.332124320683697 -39.257351766727638 -287.043108595350589
37.144920289605381 -38.648462945894231 -285.891726985435923
51.409877821981524 -23.951294995381307 -286.061178219639487
50.490473330936730 -25.141231552194188 -287.667976442513861
39.220702789471837 -35.711353273994398 -287.730853073884646
50.423533265390141 -25.405471126087956 -288.023688178328484
37.014574929921004 -39.120325631621121 -288.079059464321631
38.076050850457371 -38.707663967090625 -287.922024898961183
37.657435862050129 -36.821792068470835 -288.143744599707361
48.291026897668644 -27.595341292776183 -288.610564334781429
49.697138303851865 -25.364044451413363 -288.531909166217076
49.247350885136413 -25.553170923432521 -289.213983478841897
51.427755338838956 -24.649928801548104 -289.175098457163926
37.780853231207566 -39.541301312648883 -289.066348784206298
38.257393766344798 -37.640374487668367 -289.265246030757851
38.855286112499478 -37.375236310455591 -289.348853266489698
49.512355099072309 -26.217928769471335 -290.267464277637146
36.325656731996681 -40.894995695057609 -289.762581897138205
49.117135329400483 -27.904149119626897 -290.529224249102526
35.165558325453503 -41.147310802843606 -290.746731111006056
38.154375395215993 -38.272056258643310 -290.650266376616742
38.688561748000808 -36.624310056426857 -290.562533048627074
39.378557572266942 -35.637404346053216 -290.467519622138184
45.289132309308329 -29.387238556204874 -290.227392433572106
36.190437714548807 -38.956781703813398 -291.526692248452264
48.195234630244173 -28.245853071878116 -291.338791123354952
50.284465298964470 -25.067872602205821 -290.786636129919202
35.133079784765719 -39.928304253802281 -292.057435273101248
40.616026336037578 -35.252297019352007 -291.196191929648592
46.167988646825982 -30.528985907974970 -290.719283269688333
47.697689815801880 -28.576451150383342 -290.744863947747604
40.580779115572398 -34.324235534323243 -290.686241022833940
43.325171129655580 -31.687614311009753 -292.135474678893729
