# This PCD file was generated using the MATLAB® pcwrite function
# from Computer Vision Toolbox®.
# .PCD v.7 - Point Cloud Data file format
VERSION .7
FIELDS x y z
SIZE 8 8 8
TYPE F F F
COUNT 1 1 1
WIDTH 801
HEIGHT 1
VIEWPOINT 0 0 0 1 0 0 0
POINTS 801
DATA ascii
28.633060133576173 -46.918125033503763 -250.828765293828951
46.768084477889914 -29.232415808331979 -249.950542878429729
56.505039703726084 -18.263509805971047 -248.573494107785677
58.246719339930401 -18.016111230392568 -249.470654791810631
28.321602868117441 -47.189971582305056 -251.368758239811200
48.085769209930547 -27.376214606995596 -250.792501637181317
56.182617417809617 -19.115686291740126 -252.679076466538220
28.154136419903566 -48.784725250364346 -252.233250829091162
47.628132837554105 -27.772356317476284 -252.286596217438500
58.233523859247896 -16.186889062057499 -250.680885966507532
28.573900526171034 -44.757634332578050 -252.488135590660249
28.095997158466574 -44.511509928633949 -253.834278209860884
49.670766078357374 -25.042650977972599 -255.691385304816407
57.533413552273601 -17.880953328573366 -255.022423117671622
57.950825425197131 -17.148366373550473 -251.658104072959816
27.513172110595590 -48.255263842195610 -252.637249653965625
26.706981552370998 -46.486584489227077 -255.376465514110549
27.310584122332017 -46.737109953240491 -255.160373760454206
49.461249367699359 -25.411282666191497 -254.676697821630597
28.748090999768525 -48.644349936642641 -256.053690886019012
28.400955432804931 -45.190830117322783 -256.475049649063749
56.078222284039889 -16.504488788014179 -254.802969234365889
25.475546967728292 -46.487055938272576 -257.240208273279507
57.247120660896911 -16.774658973824216 -257.140879840246043
55.178047726322021 -18.489604319518666 -257.833982637418046
26.714204380906498 -47.104140026922245 -257.636702955711030
27.842097235352263 -47.766697452784889 -256.727768348643565
27.612798871493670 -47.105720922999446 -257.002046411999061
25.317265901482706 -45.790355690340583 -258.259287445467066
28.082609193696026 -47.183128398152220 -257.070851803892197
28.832476281483181 -45.941328961917122 -257.575405401149283
49.286904023799721 -26.322750358636814 -256.045772957676718
57.160330602277291 -17.054168074782460 -258.539991264674711
57.117155578304569 -19.918367033296882 -257.910474011333122
55.892591262391612 -19.575721506112092 -257.595707034990085
56.549575105662491 -19.769225319273232 -259.634411661710544
27.687645944436934 -46.932263173431870 -258.698479767189212
29.769847829232749 -44.957965256445981 -257.376425710477463
49.776406553276729 -25.656356545553429 -258.427541947066516
55.944372459117417 -18.075255524883897 -258.960885091094781
27.680823204569343 -48.753375926462276 -258.824493410542061
26.117372892271145 -47.257136340943006 -260.052452561825362
53.651581159981454 -19.773467480770417 -258.748881134212127
28.353218162001646 -45.103788465243042 -259.826607803415754
48.224466748380017 -25.703286842388056 -260.799128836226487
27.775375178157475 -47.032700219002770 -262.126457223978264
31.352955086856550 -43.246659950650312 -261.985601741172616
28.623442992487220 -46.685770898376099 -261.373294321517733
55.630254574609374 -21.189999008562911 -260.251943242084224
57.169695909853075 -16.320908933418320 -261.618922216793749
27.494553622882275 -47.641736228854441 -261.252505542566098
28.769361598434060 -45.112435013918912 -264.230481741813037
27.066960847878345 -43.910857542636819 -263.523057201988820
57.801726959510930 -17.784984809995397 -262.343914559273628
31.284103895771928 -43.711160299411894 -262.016864229320447
57.427120857745010 -19.034192406210494 -263.657372968910408
28.020203166103631 -46.755096060927130 -262.827632043057520
28.750396501640019 -45.126346413200949 -263.907515185706757
29.115937694796393 -42.986923385082655 -264.331088352158758
54.996616665301673 -18.331113815535304 -263.687198778163065
57.114155276580462 -15.532706251909904 -263.171757756058071
57.033924044505845 -17.240624364638325 -265.150180140741782
32.234365334632074 -43.280496457573214 -264.919762399183355
55.657554237207336 -17.772794971528253 -265.673633142956874
28.462369534900816 -44.878267718443304 -265.760807600255418
30.263735335872887 -43.195666975041689 -264.764201158941034
55.736742198340188 -18.036313057183360 -265.342382333693422
27.723972083355559 -46.171898693357242 -265.842882551233913
55.260792591976461 -18.533729862877170 -266.802540729823477
27.873705720914522 -44.641177642292142 -265.613513974551779
54.315886741979178 -20.908187654987298 -268.683555682760755
31.979795464844010 -43.435777402171141 -267.856502612810232
50.640156701182065 -26.587143748351682 -267.424256395980763
55.030179848772569 -19.147945599099788 -267.622100084230908
54.390790765301041 -20.499387570664918 -269.178388432427880
54.427948707496768 -19.602500520582865 -266.672567867189855
56.503189102063700 -18.355010959270885 -268.835904048820453
31.933389650458640 -43.703057134284748 -267.633363901954056
52.137676252021194 -18.804607664549700 -267.786970791875433
57.984753536086963 -16.941256842195124 -268.463205531189999
33.612772389006707 -41.678203941222790 -268.050304228192658
56.639490555199117 -19.567788926344683 -268.689838304492014
53.531156894468374 -18.249125841777399 -267.289971574367030
29.251750200792845 -44.228332212609843 -268.672618130382489
30.921121699735309 -44.363795855845446 -266.765613187533802
55.890792766876039 -20.601430396329089 -270.301023923891762
34.386089685637678 -39.764782423245066 -270.035372986966422
52.012537474810756 -21.361541743966946 -269.143273162939636
32.100156955199488 -41.209393742872827 -269.634551328556199
54.079732214260417 -21.300033067872629 -268.815381812422231
35.754902491935930 -38.050005662073865 -270.880902906809865
47.572057483847864 -23.328230165716391 -269.483492862576725
30.878194184695886 -44.027091932083508 -271.472737101239204
35.397502510776569 -38.891371412017882 -272.111480325816899
51.941054017620473 -21.535161506614390 -271.068128283353701
29.113512819985846 -43.267254321936129 -270.979558597611799
49.389687632588185 -24.918227402927990 -274.046467451553212
52.722385152800236 -21.587867844943929 -270.422586947990681
52.902098110420908 -21.291526232477157 -272.714028426948630
53.758694989838432 -20.396768574896267 -272.359764388329950
57.200133167274366 -17.220973359527139 -272.348863247098734
33.922933359151791 -40.810152744265089 -272.685027697975670
51.400403315412689 -21.832974150189020 -271.199957180938043
55.762740475541385 -18.991479659447521 -272.235866942673624
33.425975026574804 -40.847540994910410 -271.415270687780833
52.982784237264255 -20.104508967638402 -273.994404565192326
51.156549038552349 -22.893227433795399 -271.033635189454799
36.306617069299982 -37.992187151419245 -275.114288676807348
48.729785333803740 -26.363033106419159 -273.165656501199294
51.782118531351202 -20.562038406870940 -273.524373881489566
55.543983080608847 -18.374722897581314 -273.040606003343441
31.373741767256885 -43.793181432392565 -272.724781974906307
54.983547010831238 -16.857955628050167 -272.971750912323444
35.119718393117886 -38.398757129823508 -274.868670065917115
51.966078510346762 -22.674079538088474 -273.424576977529341
35.001659914385264 -41.119504376427464 -273.906236667837277
48.526448484570935 -25.685777318430137 -273.366657792601927
51.844151858680441 -23.399769060479258 -274.340840567449845
53.407702392254890 -21.262362934313082 -275.387904450710494
55.406420283068243 -17.882484730393408 -275.290505916245877
30.995117764668166 -42.796547898355911 -274.596964849907295
52.748954814536425 -22.878556665135264 -274.168658062464203
36.490646176309433 -37.000458434848689 -276.005508408747517
30.531370240660411 -44.359572825923699 -273.207925712547649
53.194571531985190 -21.310511121850411 -274.345456643422551
36.837866869845605 -39.594440471744939 -275.975812058121960
51.160292783597185 -22.764972190362954 -276.879501897409398
51.601099404513477 -23.012283315988856 -275.859196332862211
54.468473199932141 -20.787581516355651 -276.828667243579901
48.731994619433003 -27.010867627915573 -276.902159523106491
52.430535466007584 -23.219859330563573 -277.127500757187818
33.366417590252112 -40.007082484597454 -277.960081088530160
35.002921508723986 -38.020548479162457 -277.980442725473324
47.842359049560073 -23.379742942819544 -278.030160326738439
52.695013476617859 -21.219463428662966 -275.598415729819123
54.887469613558984 -21.939783601610049 -275.402928480975163
54.670658665764783 -18.943794819807859 -276.473336859225014
38.305365831744524 -35.323401245501898 -276.591106959615274
48.572371266599909 -25.312138047926098 -275.840701676061826
50.688154977151676 -24.091235264476953 -276.568372327842553
53.559579592159409 -21.677864039209886 -278.564861315105645
54.036520690525109 -21.807840394122589 -276.278108516011798
54.192764697318744 -22.394319133303007 -278.302587140441574
53.405574421877859 -21.070887274333014 -275.378171296963956
55.640318013504753 -18.571657540442065 -277.860972927801924
47.460544857879178 -24.760781635408673 -278.387298097300572
52.265766929751400 -21.858098053474812 -278.552134830065086
37.040640568953549 -37.002309694491466 -279.008954293635838
48.303896593463882 -25.380495828513315 -277.089988016887332
49.738420179433106 -24.811989347426156 -278.515097225633440
39.643401139965626 -37.288031913262238 -279.880671431454516
52.940723441484636 -21.141074439610723 -277.920489795566994
35.678428385115993 -40.698200856385526 -277.140512361845083
51.433270807947437 -22.735960028654020 -279.821505628736872
55.729960407112820 -19.595477975217207 -278.874417900527988
33.578124143560039 -42.588519341533178 -278.817112072571661
36.833035160581602 -36.738039489370216 -277.682926701665508
50.759654081271911 -21.491166216429693 -277.886265992856806
53.180645170828534 -21.193572453895197 -280.940928557780637
32.406193602000933 -41.734429235698698 -279.496087676371701
38.413165531070206 -36.056388247244740 -278.300849618346660
47.566524247187246 -25.784491204606603 -280.310542293696187
52.066242159519184 -20.379930641419307 -281.132931011031644
34.087148643963644 -40.360470673518577 -279.517846447294005
36.326992423878444 -38.306290362779166 -279.632346657788332
39.427954437941430 -36.374873696990790 -280.695817081820167
35.025980249022517 -39.481939946423921 -280.179315977543297
47.711078921174355 -24.970680635289241 -281.502920076739827
52.362958949015074 -23.297470504141167 -281.182302724706233
40.933679699698075 -34.150174338401946 -281.502883600377743
41.582102479950251 -30.392734164305462 -282.262892039437418
48.565935534551421 -24.909382020552425 -280.978634569466635
49.997485016362290 -23.175993290727021 -281.369138067096571
37.320192911626243 -38.852383707245210 -280.933512767259231
42.061033279853099 -32.756914156175860 -281.778946717187978
34.204479866920430 -38.340536744162769 -281.770467440427069
39.169062788709020 -37.005953493629086 -282.547997097026155
40.635306875286382 -34.445693551389404 -281.179661685773397
45.324541538652454 -28.270540454061138 -282.091726964017482
47.872224957785868 -26.570733692099861 -284.514289062947569
48.819846664771724 -25.122302049320098 -283.028015467282614
36.502107438772185 -37.446876863754056 -281.182681062957556
41.054972266737657 -34.223673088693559 -281.527404181595614
49.051060908369010 -22.641739962528867 -282.806422602931434
54.170560515342167 -21.915988861910353 -284.250146871716311
32.955122438461920 -40.917975265113277 -282.430892343613550
43.485876272557583 -30.066101581883842 -284.432237989405280
45.714893027330042 -27.307159659851084 -282.927887651678986
47.958260055269861 -24.452707566249334 -282.947255905436975
53.240792515542957 -20.532108759699177 -283.414284939067670
39.800765260106260 -34.128006885107354 -281.855810800385484
44.647521203498165 -29.369997568186033 -283.887851805894741
47.586911007190302 -26.429125126780317 -283.787141649449723
49.948173579931492 -23.673053930388452 -283.846480374109660
49.795954447429715 -23.428982980778208 -284.122881244278290
53.460985448238816 -21.012864565902692 -283.981501277119719
33.661446793372875 -39.871452417816364 -284.985037050981532
39.735277288894153 -35.099740459380222 -284.197280325398367
39.238288215201671 -34.428459193460000 -284.850361542222117
44.982852234662808 -30.701854893227409 -284.170370165505688
47.011121423956133 -28.352279529328815 -283.231470057389572
51.442510184192223 -25.119950255625319 -284.588016152151511
39.057690173935960 -36.069907973679086 -284.314721572903977
43.223090966503115 -30.573683157285828 -284.890328289110073
46.753246270777638 -27.205891109028201 -285.198221775072227
39.397389606388032 -36.606744434519612 -284.465437544334861
40.750733925711302 -34.439038868419367 -286.355331118772312
42.965647348816958 -30.870291888459327 -285.610610163878505
46.613037200394857 -25.236911804073827 -283.631082130401978
50.311571171866476 -24.424627792054949 -285.357587536928577
36.696198238914526 -39.230265502402204 -283.704503170581120
48.556171037997771 -26.646645297420722 -286.904431773131307
40.260699025232533 -35.199214578926529 -286.026418111655516
41.199903717279675 -30.458982254030701 -287.230822939905181
48.178718038745998 -25.283267254763668 -287.506216990828193
41.422362321098774 -32.106856532460249 -287.215514194802495
44.715048319076111 -30.138688354727289 -287.006089356959251
48.173666929754717 -27.311627053468463 -288.025885062416762
52.684621437661839 -21.276365591992654 -287.465717164459477
35.758315134240277 -38.375033178838422 -288.430776468547776
39.655286605418027 -35.150866406061503 -288.825805603012327
49.621248945712843 -24.302569316469476 -288.791020251547764
38.202258849737191 -34.568097502756423 -287.546666763278495
42.867253838804075 -30.248673031379319 -289.466333492004026
46.985645291527383 -26.873086260022419 -287.737979052510809
43.391921357877791 -31.752147289634628 -289.229496530140580
44.038175102552415 -28.019905702153849 -288.516446191020464
37.360308810710961 -38.752197265036422 -288.277580103757941
37.184082412622850 -37.689077446966479 -291.223553102002597
46.606089611339421 -29.059805454568757 -289.180409908801266
41.574609793010850 -34.290547533583997 -288.072107551308250
44.250012073763003 -28.706352069215377 -288.177215353556960
43.847334626991497 -28.309507178937022 -290.844012420866648
37.330663465781939 -37.181987201342345 -289.368932615198901
41.145439601486913 -34.443308909898178 -289.976500082406801
41.179244692299449 -30.404402011143631 -289.740168475952714
40.816119340808058 -33.531680921469089 -290.704708280921409
43.114476258922849 -30.814213041937791 -291.587288566223606
38.823127710785393 -36.211478181659423 -291.177151281800093
45.648505068779826 -29.081740847475210 -291.033360069661796
42.375935752352213 -28.255524553213583 -294.137609388174099
37.798803988683567 -37.597599611129070 -293.621080323558033
38.341001880495625 -38.401944084003517 -293.103195875855647
46.203743649487350 -30.655951924284061 -294.886310191265352
47.174566027860301 -28.143013785562903 -292.853979155158981
36.562121468301171 -36.915702573140067 -295.546405448645714
38.973479881631334 -32.696398456800736 -295.011349606376541
44.505137397218824 -27.199475178765194 -294.022550490467097
35.920019372373325 -35.546001247283165 -294.267557061646926
39.077509021957397 -36.273649365912789 -294.148278706103724
43.100412617252374 -30.440687553704308 -297.491819900741746
39.525683745938359 -35.750984592916012 -295.551794285251106
42.646964811676035 -31.578614066160782 -294.897660945156872
62.469574765208961 -10.318553599492123 -12.084117575704374
59.941558202669853 -14.592514490024094 -11.008001382183210
63.751021341808787 -9.337034578560116 -12.898533943865477
63.392357542971965 -10.568037531294879 -13.343505042258268
58.301856833162610 -16.927548900520332 -12.762136045371724
57.422301732629592 -15.358448915848513 -12.364605211079358
63.316054055475433 -9.256375503770942 -13.298497328597970
64.528864525811727 -7.229378927361555 -11.493024239226571
65.895372964655280 -7.146729882614639 -13.264984314953233
64.414572172156255 -7.911227419606018 -13.632856437752340
55.110730732728008 -17.746020084578863 -15.396076071638941
66.025714215215515 -8.038690701385265 -12.905051530714143
57.378621363958217 -17.500955429194473 -15.658707224873199
65.685203340730808 -5.090156465520744 -14.508936268279360
68.484093117258766 -6.705010215514366 -15.525211491598608
54.120626545681219 -20.116892998063342 -14.333834022935408
54.213754821399114 -18.018985725021718 -16.430586892133551
68.508854639228105 -6.009538626727691 -14.275200472875170
53.085514689092776 -17.783744886231009 -16.186590089485506
53.716915490303300 -19.935452928015327 -17.413833536728273
53.971600300216473 -17.131399349925793 -17.597626199332687
60.174325113279558 -13.298144587944762 -17.529926394939125
57.585431578686986 -13.761728988936527 -15.168490103028949
61.146685136900352 -11.717822116873817 -17.598895073651395
59.995879617356366 -13.349617426823183 -16.910581922621482
62.023804729089072 -10.977499416065825 -18.743910526553648
59.461340636356937 -13.552009988332919 -17.303950973229068
64.481383147630737 -8.931867825828261 -16.956012454849034
67.692079025751781 -2.358196634189195 -16.429102015008667
53.080134998066164 -19.503088556383972 -18.105123863980435
53.189141809462022 -19.543191446668278 -18.481957247098986
59.718999042741672 -14.016506071312817 -19.448206210131826
63.293520237407961 -7.046417929094153 -17.778677399492281
51.336312828058674 -20.377293210977392 -18.805061601973083
56.628427759511688 -16.643680638465131 -18.819600502335231
63.981632857092919 -8.798572145207011 -18.171651304560122
70.257360434798628 -3.741014399180531 -17.772123636636273
57.150766032727510 -16.027915092217963 -20.440672942788282
63.144695158770077 -6.066903671096557 -18.605977750371924
51.635100823158574 -22.032970979945471 -18.767181636372907
51.212045937605460 -20.205630837188032 -21.516549862439334
68.395624279812139 -2.710605894097612 -18.680685594576293
58.243873229437924 -17.414678506606123 -19.720695104991911
51.814159027728131 -19.769002148189855 -18.978929256861974
67.281216939538581 -8.014407117343584 -20.910168592127743
71.562163481974380 -2.292797548207722 -19.746718546228056
52.324679686054374 -21.368281247933172 -20.819880231835725
64.892069865247976 -8.422003670335794 -21.454681972534829
56.871249560780008 -17.241350769116053 -20.355488151908229
54.288356534903897 -18.314316833545664 -20.661725235519885
65.762172124485005 -5.966753329189630 -20.923683922754744
67.157268807161330 -5.062381683436397 -20.556195993579511
70.972761455211796 -1.697296253782027 -20.081763303400145
51.539261274029322 -23.136069772074880 -22.150480483777901
51.916444279445720 -20.252136337161378 -20.974679193608058
66.076716566275181 -5.620959174719876 -21.252913473745405
72.457015788601709 -3.373196413856403 -19.925787005787122
51.815125075981129 -21.284166444369358 -23.522811122386770
54.475639982903800 -18.674986547072521 -23.405319680009214
52.869236754410551 -20.472206766893670 -22.565315177630666
65.803146117999020 -5.508239354883282 -24.038019190394984
72.541802509857192 -1.628797840928678 -22.567121503258459
52.792448184183385 -20.779057900977300 -25.908316945872574
52.860936373418753 -20.241569083810976 -24.062531368023372
66.989416762215313 -5.629317057413599 -24.091432375055895
50.406115355339175 -20.999587556725341 -23.832992813236988
69.271271130680574 -4.885499169931336 -26.137631333213868
70.569091961942505 0.702685002289031 -24.633014851191049
50.289642635833339 -21.667968914833239 -26.209811209479366
54.176993580406986 -18.981925704010209 -26.318848294803885
54.166850785981026 -16.528833669657644 -26.310465171830053
55.276010109073965 -16.950722809375183 -26.724278423932194
69.857128539885366 -0.619768958632955 -25.550213225489273
66.940894268510760 -5.228538720845600 -25.443824285810553
50.383735925804210 -22.487284374921632 -28.025972921082513
54.174096792827491 -18.714393838790009 -26.183345328985411
52.057633057648495 -17.965280069992655 -29.359480949554310
54.706112923639012 -18.555345704222727 -28.514164456882792
67.777004110907157 -5.763019360677722 -28.671473224009986
72.301984591752742 -1.891371291883944 -29.642698471083307
66.450743969087242 -5.995244408074256 -29.725490545502392
50.709790523695943 -22.634942236811209 -29.085080729757259
51.461972454150022 -20.942328456020732 -30.262330611113153
53.905287254659072 -18.945894193854588 -28.825951280797156
50.938610668910805 -20.177830827940937 -30.523234677100646
71.206318593209232 -0.913991940611969 -28.951374598144454
51.241017245156939 -23.229686519815122 -31.238513302751802
52.027476516417565 -20.579581476526720 -31.211882274000175
53.025445727571082 -18.481799641417165 -31.248983204766613
55.067927354950733 -18.222488841366442 -29.427778622728400
54.963688474987016 -18.334672842564931 -30.494600620492164
67.499112914207245 -4.509923064644375 -32.202615385040779
71.758386387970830 -2.294422222709740 -32.433223593633933
51.777269538372266 -21.952870369813652 -32.792625436211125
53.599705510034042 -19.576278577884342 -30.635231398706608
53.155030383626453 -19.133884232233751 -32.365918929240735
65.966213496677000 -7.184341833036616 -33.710564782328035
55.273370796243782 -17.496998067640316 -33.816370855422825
70.951665876425665 -1.475646841547392 -32.818807540983059
53.249397334812038 -20.134522100801838 -32.624360546158329
52.327118588247849 -20.587942149010797 -33.011292045081369
53.534180174116784 -19.080382897434525 -34.175512842876238
54.843929523022858 -16.295776619971175 -31.702935299181132
66.218693175151401 -8.386587179059513 -36.095751051837311
70.178870810702122 -1.481219862752963 -33.250116297495445
51.972653859735409 -20.554804632669402 -35.429078460660762
52.681815614231205 -20.210208315986570 -33.700724657687061
56.092090798041134 -19.324510235931193 -34.054452692362140
57.905662159817126 -15.304048169067196 -34.077090853051715
64.964052006965446 -7.577137872197778 -34.037801376931029
64.311415445115315 -7.764032384673502 -34.182517403398904
68.994252760303141 -3.447605022163917 -34.728467355230507
55.854665023002248 -14.754311760643901 -35.706629496472573
70.535359581158616 -1.706025630528948 -35.424312332610427
54.235312874088862 -20.219819323343224 -34.308723659033411
57.643401582206074 -15.425663868909755 -34.995394685567909
52.686522061340860 -17.887261491668145 -36.449989866797807
65.013964484584605 -10.190516906534862 -37.355533175690631
71.087462265799985 -5.247302689400248 -36.561474877829902
54.534093504919923 -20.523067738608997 -36.733790476851020
51.683183610466664 -18.295239420011882 -37.386175606947887
57.327056768700942 -13.955066088075487 -37.221543645519759
60.285421116230097 -14.981760386229624 -36.916258090850491
63.565898295685678 -8.803379468642346 -36.227067696540097
69.162455912420015 -4.137095718597963 -37.162911747768419
53.183692930386059 -16.880100978644542 -35.462125838912797
57.304325737233725 -14.677039980828010 -36.971244933355152
61.814289977666462 -11.483124979156885 -37.954673790706529
61.424929984012564 -10.840142008614089 -36.921210701969230
53.432800407106924 -18.670592649020985 -39.731989127174430
56.723897398062114 -14.910592189684806 -35.338469918311716
61.032709133406549 -13.545576735750615 -38.324343972344607
68.786160674945606 -3.060883053183864 -37.221708847130557
54.872918699981156 -18.604537391419068 -38.730634503601898
54.022394629544365 -16.202729293059711 -37.097667576560056
59.511194215305778 -14.166056394635136 -37.211832515970670
61.774790821831132 -13.248860220038605 -38.928399174033316
61.373163037213921 -12.471735715351372 -37.430627231491506
68.776026460881738 -4.264126263432924 -37.936637764925585
66.568417884096078 -3.163844478517781 -37.696485579751283
54.504636137444031 -17.071415019510098 -36.622945603737385
55.312610645472056 -18.256107197299897 -38.323363897524267
54.749396638119336 -16.040169991048177 -39.402349479732507
59.800465897149579 -11.756764303796835 -38.247339015898248
66.167971742866314 -6.375336146337673 -38.887244467201690
55.850699625733498 -16.517545616087933 -40.702318869787106
56.460131960483260 -15.193807040910873 -40.097905846041563
64.687395477147490 -7.973525797430149 -39.667479386339416
59.420952283678574 -13.474706768835679 -39.850523415267659
61.117024507837009 -10.979275517072667 -40.675586363148845
57.914207972936353 -15.213594221568732 -41.397309739935679
58.869571803808654 -12.882979096527452 -39.248399956641997
64.296774656161347 -6.885403160546884 -40.556002415944100
58.715682895955830 -14.284137216691660 -42.167995729090372
61.241830784816770 -12.892296987349951 -41.235857325307535
61.615628195796425 -9.978016839207529 -41.378052603142450
64.892441829196926 -10.087532992891822 -42.457101168173232
63.638877922723644 -10.880232618471007 -40.640624782875257
-14.008580467860266 -83.597563136414394 -44.115851626422710
-11.971383946146208 -84.597076387211132 -43.294834397581539
-8.300717362659903 -83.140232749200905 -42.646093062488717
-15.656398116740089 -90.375029473326265 -43.829113071438783
-10.668976563684383 -82.275598924911293 -44.760889782871907
-7.237183011428391 -79.438585570237990 -43.454433114357677
-3.933356891094401 -78.099029317601776 -44.404337025099750
-18.520780308054658 -92.335437495531025 -44.650425907792290
-19.827107909545745 -93.762979063221209 -46.124427695851317
-1.843970779440149 -75.781261811270198 -43.251895447001210
-21.341546475932642 -95.312325971527883 -44.717488332662285
-22.210832564716515 -95.028554798223681 -47.609464821383945
-24.243813934847910 -97.709574066903755 -47.742078946972327
-24.633242558215372 -97.450575483546956 -45.716144158657116
5.332138806549057 -67.214669916637718 -47.892529741335785
-26.783768051533666 -98.575054825552471 -50.674684186910966
-27.430915978583382 -99.741530640129369 -50.399226829235118
8.964045146537723 -64.201745447891994 -49.034618779819517
10.075653641861360 -62.844308625944329 -49.991900483913604
11.976928335145399 -58.368331113792216 -49.857288826864171
-26.996565363597373 -101.075749214048059 -48.733633282056829
17.401380287606191 -54.734807571298887 -52.329480242177027
18.492492298313248 -55.250985723816349 -50.079041730451848
24.344133749784479 -47.849520083976302 -50.779245254937251
29.174886896407401 -44.800334909563453 -51.186975214516565
28.805971290620530 -44.284880614845683 -50.431583700804204
-27.629237803723484 -102.824857938658312 -52.690349111706411
-29.249198909503903 -104.474157172002847 -53.511582235941979
32.274139888186760 -44.288392661314205 -54.714741838236321
30.008712717675760 -43.040824464324231 -54.986586623940504
30.840672195175355 -41.704827320234699 -57.516467386930174
-7.484224101853957 -80.730643937320082 -57.086142885581907
89.513572289497844 16.577744002887854 -55.853198176378250
91.257332841257679 19.477901999971909 -57.383657694495859
28.208876095832597 -41.720628592220088 -56.181368414095211
88.655809390666931 15.106187007912993 -56.867513236101324
100.290636077343549 25.728412703215682 -58.434837836416492
-31.185512356523599 -104.720990708492138 -59.218583870038792
-7.705393271133583 -82.156946713709374 -58.813152662573430
87.737563595290325 13.250976265741308 -59.008537906843308
101.125770012928484 29.461452308418391 -60.375610626756767
-8.546684787799466 -81.176638407165854 -59.923126437394288
-6.025130376904542 -80.382811784813455 -59.384822968505773
96.910113683990744 25.567300935990559 -59.142861124949988
102.592697962843573 29.967796774748937 -60.120625005224433
23.347852488739608 -50.182599119333133 -59.720544385724232
23.795399680378711 -49.439879800824357 -57.189806442024903
26.810863548012890 -46.291411178089710 -60.147292354960953
26.726079189928029 -44.757528260493935 -59.301266741478138
-6.382731931482504 -79.325615253057094 -60.458706717628154
104.279491143127586 29.430848609578696 -60.217527980554195
19.376682678405629 -53.359481294176405 -60.441691860022310
105.750789239568206 30.806811183120164 -60.817709450597746
16.010782825206643 -56.044137095860073 -61.181322404458214
16.766182632676269 -54.771804235407274 -63.302403455271339
-9.835878223534644 -83.342981962690786 -62.757977337435761
-6.077191254172892 -79.492378120591766 -61.340665015547536
104.467168231554922 31.458284604950379 -63.604416826434630
13.466034810580588 -56.224663472018037 -63.470974734483441
-5.766354825034388 -80.039850622443225 -62.201567370978715
-10.040373374715251 -82.612342417332201 -63.804212109952651
105.383801741232816 34.065938403190451 -64.419211728305015
-32.570191379739114 -107.343235514226336 -66.187789119142280
-10.529733528839710 -82.993644272489618 -66.065429405336516
-7.359873035762356 -81.511953298453108 -68.082359831722158
-8.296528023428742 -82.525599755367509 -66.418965709668285
-8.200484076726740 -81.155073176071980 -67.284447059115294
12.580733063577448 -60.480588973276497 -65.736672165624455
84.586160987785590 10.422732631912428 -66.009676148270103
-7.558133759382671 -80.317213194428277 -64.958359019404156
108.325030923013870 35.906748200167378 -67.728171485100461
-33.127490135304228 -106.396811441999944 -67.041811377456753
10.827961291714759 -61.998901154643399 -68.740058011666775
80.275509019006435 9.126271401842668 -69.056873855176804
81.561967552618739 10.808401557925693 -68.294761286457970
82.709516100435124 9.474516929362084 -69.667179213324317
109.756624762597795 35.912830211534832 -71.013909980594391
84.425849908157758 10.463705735169814 -72.952937469620167
91.393554583852179 17.996477309328714 -71.553026919948252
-34.509968903451778 -107.985764266873346 -71.316040662607918
83.612302540175790 10.115752852047974 -71.498965043827965
86.546245685082454 13.763506032569939 -71.543688808560148
84.319919298283367 13.445989683304401 -72.098880277303067
86.104557234600335 14.181141454853941 -73.974795063552975
91.611930542032184 17.216021122151986 -71.207431217007496
89.393305415191080 17.151934033033161 -72.194747828059178
92.272133468430354 19.500498085389307 -72.252251155779291
94.356039905842266 21.171330697402606 -71.813326566890424
110.831005325365652 37.604032161504406 -70.532851951588370
85.628003747294741 12.173144472328055 -73.658272114901052
96.356667523546093 23.068605591753336 -72.607911717404733
99.418000609407798 23.162233943976176 -72.621527637992273
110.054844991973837 36.611591412008615 -75.492988946346571
82.679476615056160 11.369121271881712 -73.703816972208799
84.222718035987413 13.295975286665030 -73.309705519974571
86.447132119703156 11.358015061693928 -73.652580483657985
111.105453581277914 36.866032231792943 -73.779006530749371
-33.614508672124217 -107.917696134044604 -74.236403815873018
8.547349010078255 -64.727073190930170 -75.725299531837720
83.851908662610114 11.256363358329304 -75.527918092316753
102.937141760489936 27.777275796302241 -74.164673691663140
101.035111647466124 28.079627745579593 -75.694577389555917
10.193473544751999 -65.820128482349062 -74.749584249282890
109.719598320968544 37.028485677842909 -77.245621858184165
101.141930039804251 26.271332231818587 -76.249988096052107
-32.225532051620128 -107.537111203505731 -76.537807626072578
108.891814600953964 37.888424848281240 -75.873017614031426
79.845224207619808 7.935381790244919 -77.117967291619550
102.087653875268629 29.065469511379508 -77.266620585583610
102.128023923749652 29.324644929363732 -78.371041085720393
109.247013292786093 37.175853645046722 -78.000594228910643
-34.206946394982793 -107.615048816550441 -78.116992998698294
106.496161519309680 32.307275799152613 -79.355842556287442
105.374965028912683 31.854925014817564 -79.292088922844798
-33.340405852923602 -108.291676308351327 -80.125633282931275
4.846198830923528 -66.527459443872800 -79.579140380135684
80.609424505528267 7.205277302452939 -78.557344079524725
106.471428674077373 30.217850252401984 -79.196767572835597
107.231736622435278 35.749577579217529 -79.757389216308937
5.163425470164879 -70.042203204511111 -79.069102591912269
107.316729317395712 34.064868673582232 -80.223199674585871
4.184987788349199 -70.284087405076946 -80.886967758195269
105.703152338700122 32.202563705412039 -79.549073637245272
107.082693102870763 34.620277256600083 -81.354174197097151
82.917607079559133 7.701408706585802 -82.081262588290230
80.333796782780013 7.448530000962473 -81.780089593737642
104.954750513472860 32.905553758708336 -81.544126013291745
108.408174228339945 36.648053487117856 -81.970350169932104
107.997578949479362 35.404085117206122 -82.057197219577816
105.598943669401919 31.031158879436536 -82.786155875442759
109.019230047987222 37.582844842353708 -82.599742018248392
81.720886417792372 7.533655381920756 -85.176879280759337
105.856694149586943 33.898710857635237 -85.350884197493372
109.870600774332829 35.446544906144304 -82.597028301861130
105.096628117431905 33.106904859605116 -85.634975910121454
108.277739355133946 37.851028787995332 -86.656814670590848
-6.427794681629782 -79.155428082575767 -87.354681046905156
109.912831012783101 37.437160447515659 -85.551331222479362
-5.260610529758973 -82.702564544781481 -87.786626742955931
109.919479344014277 36.507402605485311 -87.657811967962402
-6.190210820420744 -79.665910849063621 -87.648522908073403
80.599713389428103 6.829933125092471 -87.276979437326858
81.996725867997725 8.924938946129336 -88.517315475278750
111.410490953595627 37.087551924850914 -89.538657222815445
-5.967371202438125 -81.373719053414490 -90.405462156274950
80.598732393514197 8.313593031368487 -89.883728180227493
-34.878969865810184 -107.030166920333215 -92.009159640397002
80.206917471245632 8.710995022019924 -90.089534497707646
82.069667812163800 9.806351856825616 -89.765722111119032
108.724569769816497 37.071896089106794 -90.636469583248285
-10.276801592928761 -83.425786323245021 -92.086559325208356
106.350359821181087 33.080595195114569 -93.166702366393139
111.406420711228023 35.944074996488546 -91.463830362721581
107.999800225291381 35.630918258099882 -94.391194812313998
80.982023926862126 9.801406032524900 -93.934553103407694
80.766320260483894 9.184458183331168 -93.805039134055761
107.823642851493972 33.590529447432004 -95.289057439973760
108.476754582574543 37.348890060764049 -93.183587186466653
-34.864262744512871 -108.783738343353249 -95.014132916408172
109.457685519364887 35.564289352181213 -94.231425833845364
-12.594797838671152 -84.605093185904991 -95.369783110325670
-11.777363937322251 -85.261613602401340 -95.491264671525059
81.978286122655831 9.329294181755570 -96.636279098924035
82.796438792399584 8.993004066034306 -97.425254331496404
-12.340502888329233 -89.384149249526814 -98.563256625506867
81.876379494587923 9.076143757422209 -97.876755887419051
82.597593127260311 9.006959209440796 -98.777450172115437
83.069392069199282 8.815074302445900 -99.020091084863225
-36.217710954663069 -106.548780330907633 -102.227278149890410
80.823924375587012 9.218277864440015 -102.115907738354309
82.777526513962684 12.065592749865681 -101.432949608585730
82.572198259790909 10.876009731021265 -101.608862681696166
83.672889577365837 10.190645433085910 -101.498762165012351
83.114291310714478 10.251755884055610 -103.220394200180991
-34.703232557247034 -106.957859548552264 -103.864663175707676
82.330730125499244 12.644803793742254 -105.428552494090070
-14.736376288911053 -90.028290618144979 -104.743153413129249
-34.557337308049505 -108.191913117936849 -104.387673111651580
84.194775454753199 11.884398180939115 -104.872049697214251
-7.859252882632222 -80.859769926625717 -105.266247634040042
-8.995045419032875 -81.280325561897158 -106.122054319048061
-7.353226300812008 -81.146708591678589 -105.861097410260214
-18.192262700736080 -90.121134225427994 -107.871541078139828
-10.314840135115961 -84.750997290552291 -108.648452015267623
-11.441541049304826 -81.347963333056839 -107.525680455048061
-32.278790178527800 -108.365289405508733 -107.095228964422333
-14.309285964383823 -84.481757429029216 -106.900364953207841
-9.480150234830985 -81.757935719977809 -107.774067158620483
-19.087209173278740 -90.014725303176348 -110.373211136568969
-12.904614938816819 -86.631977851905859 -108.770945028128082
-33.446919671049237 -105.677863528956280 -107.794302055529187
-17.785773680273895 -91.051401005540114 -110.532539895010785
-9.401084931965055 -82.838129935783982 -109.820521166064850
-8.775380083715078 -81.703781937004123 -109.347580656085881
-17.592324341172752 -91.092101996394192 -110.362384911905735
-14.346551677659200 -85.623663335732275 -109.779115852913378
-11.429513646995190 -85.443539237757420 -110.029967028848660
-10.127821210361803 -83.355378309384832 -111.250584594501078
-13.715428869607891 -84.789926177339780 -111.004476497198922
-8.754637720808912 -82.580491506135857 -112.402461563587210
-32.020090229767206 -104.460934830422971 -111.640988592565648
-9.778200384949360 -81.335286956830686 -113.047872646517760
-9.950266739303652 -84.512894496893679 -113.225419315263380
-8.638533036820812 -82.725190444676755 -113.985774346533589
-9.478859404261639 -82.489151119970657 -115.087471488415773
-31.729349879952405 -103.599642628305816 -114.536541038572594
-11.384183644285759 -82.858442400268743 -115.967904043327593
-32.497746391272642 -104.421741810709207 -115.602394544259184
-33.071060499826309 -103.964805658050636 -116.542607121821078
-22.316194636310353 -92.956638767323440 -115.325512900748379
-7.536293911093227 -82.265308610962663 -115.052940923202712
-9.139272596575440 -82.166773911801428 -114.678995448790545
-29.901851190548221 -103.810673792660609 -119.401292167265140
-25.727365313134023 -98.602743505579994 -120.843709319883871
-30.331702445738113 -102.768613462376791 -119.088504679722618
-29.049159255556944 -103.084535676670185 -120.744468649304125
-25.729009181068896 -99.026425328735002 -119.587152981422150
-30.481322418922545 -100.252662644266692 -121.822272092491900
-29.039166359422584 -101.577620205563704 -121.561847763299170
37.640791232581584 -36.656972702463641 -235.442745039979570
34.134466791670391 -37.218868440613981 -235.596478199018804
39.218639921120221 -33.565655490992370 -235.521932210844909
41.624480314952642 -30.794001866165893 -235.757493437048993
34.427789153506652 -37.583884295475237 -236.189014188007008
36.431237089999080 -36.518496531481240 -238.571498654266890
39.577777091022050 -35.057078587869007 -235.625484702413104
40.987987264923078 -32.451448622557557 -236.965948812425552
43.242229948327299 -29.700896652868021 -238.350146166895655
46.319113325796188 -27.407939522932672 -236.505975701508987
47.188747639856913 -26.924586095732881 -236.784458370094370
32.321310854044121 -40.097668173448724 -238.582224995789574
38.446518017638475 -36.068900402272632 -236.212744363361480
37.332903637632910 -33.970698966542912 -238.152619988158847
41.810419416688390 -29.642870999038035 -236.528499332297031
35.331435120496245 -40.772784635863935 -238.459433628394038
36.446560525345085 -34.915676033104873 -237.766762540613797
41.136871679874581 -31.768092215073676 -238.775084561537511
44.356821358971665 -30.824213332045794 -239.666318447991102
43.294205718270284 -29.855768804874295 -237.036969934929800
48.697281027675260 -24.204997713674182 -237.703853665927141
38.241012532894409 -35.960985327363893 -239.608044348457412
38.968377887334960 -33.139879131050392 -239.128631631190643
38.495963365859772 -33.794242837449048 -236.687718872926268
39.703697419245472 -31.740265792290234 -238.265129902513621
42.408714232541399 -31.566199752227142 -236.894616457778113
46.069326855632958 -26.101015133627243 -238.133987628379373
38.981611390849487 -32.481400833100352 -238.653384989767517
40.810421723353429 -30.731244909516821 -236.968313385614948
38.903305483419473 -32.701963484218687 -239.234544190560200
43.314942333249533 -31.661745899968547 -239.386027438967972
39.501203409590119 -34.899117935359541 -240.998081207778341
51.713122006936757 -21.639821208500067 -240.833041186047666
48.360870051402841 -24.356448023832716 -241.372011507245759
35.241090186233912 -36.190074152618287 -242.297195761933551
36.305935907071884 -36.599121314736607 -241.105434853669635
39.929393488180288 -35.392212886831075 -240.863180168069192
33.243898192460819 -39.467137645454187 -242.358180278910936
43.393709588297831 -30.627064372010899 -241.171117599817904
44.334280393535913 -28.978712692430907 -240.744698876322900
47.954130268944454 -25.244775459954056 -243.393913511718011
47.579563848521992 -25.905659426068876 -241.228688403957705
53.456842980644119 -22.465816957190601 -241.251570356600666
36.022665547236734 -39.493938288678081 -241.034083591817279
45.762034915891377 -25.073468138342747 -243.028783071245584
47.283028941401696 -25.316002048367320 -239.893888695881628
53.482448229030751 -20.758723029125640 -242.561065350743576
28.636938900835769 -42.682548628076965 -240.883718276351487
36.464274374096988 -36.260325018748560 -243.203735576096960
39.423162712825757 -33.981723417817769 -243.449065416366977
26.106560463199870 -44.662594603648813 -243.210522186600201
40.395142940125233 -33.661748225016822 -241.925032496653131
44.501297581792208 -29.074210321808952 -241.934106633302150
50.101334127814141 -23.038019953155285 -241.852248879655491
30.640483761668655 -42.380672264291597 -241.893425510507655
42.930567664499641 -30.527828925408794 -242.438207016116053
52.168259966257423 -19.681228925008071 -243.683330892044864
54.361330090727790 -19.247907396197018 -241.630963134060380
48.772294194560814 -24.851232912890492 -242.740484895335214
48.867885425366204 -22.221592191960969 -242.708824193541886
49.988652147424382 -22.662159908846796 -243.921695304794895
40.093942291804645 -32.103254337220122 -243.854480305301905
48.168626899017617 -24.497168153425473 -244.369126731814163
54.256228435915702 -20.120663269917657 -243.484130314434566
28.475191581774141 -44.862340395253341 -245.258476580440430
51.076100881243050 -23.978179723693398 -244.484540306242479
49.430945027565841 -22.614030008700162 -242.143451354251908
47.686560468974633 -26.359660102904776 -245.886588150313571
26.802897756512309 -45.916885091558882 -245.464084673587536
53.740972902824595 -18.027257616086153 -245.206394476356934
53.504274752534634 -17.798710879049764 -246.337991382784196
45.995245287668986 -25.828427958153384 -246.403790647222394
52.795452660236940 -19.627647112161291 -245.612274414036335
55.909668445510910 -16.179097774810241 -243.644359505058276
56.947436625271578 -16.571503725341987 -245.288264578534807
27.714259872686267 -43.647479313686667 -245.326046957061806
51.580740415050535 -18.950582729912227 -246.955161645923596
27.867030362699875 -43.561192207725050 -246.953729638766362
55.565837309187337 -16.472771038828743 -246.038275771512986
46.700729848479632 -28.152290667453496 -246.386701433565975
50.644652396938028 -20.638384964966374 -248.090724559761640
54.125160759483620 -19.137854711325843 -246.587944936619891
26.077322471887953 -46.316005764129166 -245.452765023098948
45.743120657304274 -25.428822600281176 -249.669478301556722
55.389563775129645 -16.998891696914093 -249.972040453193955
57.919772960948144 -15.652623715780821 -248.206642336991393
54.725113783995518 -17.419920917087236 -248.219960145575840
27.809030372081612 -45.108706603484926 -250.896529307727349
26.209237903255058 -44.376816203925969 -249.003518197814657
27.862141568697254 -47.365755742959777 -249.151864850122621
26.875934906712622 -45.738589245451863 -250.935055363066965
54.317944685008669 -20.188071380652470 -249.294731967108675
58.409596154195334 -14.312778268692838 -251.873159330919606
27.401348060105036 -44.584810988296972 -250.378133765684424
28.065619832554770 -44.304722492658719 -251.319380631732969
47.058320071717368 -27.553367234065913 -250.532208277798730
55.942177360980303 -16.586192378041936 -249.258638243677325
26.257137380132253 -45.568292686483460 -251.383399074919339
27.895968910919624 -44.614317249318361 -249.836287453131149
29.074275340880781 -44.802093824490321 -251.477528154869674
26.516667333666160 -45.521588546759268 -250.538542480219320
40.589133804533148 -30.472569219459889 -251.294579022920658
57.102328873315329 -15.082637392582171 -250.339953877416605
27.234870752781781 -45.011440694751848 -250.690199490374169
25.305512493152630 -46.910532550317264 -253.459590663232404
27.148240379201713 -45.191018277832917 -250.982226070445506
40.431912187771466 -31.762623649131971 -252.315659345124715
40.746106297937949 -30.015438146192736 -252.192534411842388
44.767222127967337 -27.227647820218298 -253.743171563722456
58.095435015959254 -15.177742164215708 -250.860736778479804
27.146117572110288 -46.449906189967074 -251.823591213401869
25.247005812205963 -45.620143303926419 -252.680807081969590
55.536330013039930 -18.524610040744623 -253.393248133467523
55.935050584022399 -16.878408129245408 -253.036336165737538
27.000154164515720 -44.746095636949121 -252.573071482405879
41.069614021305320 -31.816166714642229 -251.939123796888424
42.491506809287863 -28.373985252605660 -253.198887836635748
26.877531694263066 -46.133114223430965 -255.379222098747277
26.923537407203924 -45.726471091489870 -254.012364851797457
29.058468665341181 -46.067015716595400 -253.320956409466049
27.861105270731038 -43.946781073031588 -251.044717739061667
29.290522743625910 -44.594192671069457 -251.224914794216602
48.616519137410030 -25.436164485817834 -253.831391995731536
26.720000540034814 -46.806439876082891 -255.025839371664432
42.720967213872086 -30.928832788498042 -254.229015603145029
44.241760262646139 -24.853864738353977 -254.323274829519846
47.525401795304248 -24.972176940823232 -254.088361706746554
48.663020399838928 -24.051951047719342 -254.709359376931673
55.656644575509304 -18.307158296106000 -251.535121413899901
40.883375154232340 -29.792515079199646 -254.755807300061491
25.227431009643485 -47.131220340467671 -255.012973944364376
41.525866737436679 -32.872504984735606 -254.105680235606087
55.258167460434109 -17.651872354209942 -255.821531731660855
58.555548863810230 -14.176481559677557 -255.481812511625378
28.621529782973532 -42.381908619004690 -256.560100798087376
41.204794654543164 -31.886934972113572 -256.587748056382111
43.022421338662575 -27.512402986807103 -254.824000019243726
47.433712354438846 -26.292442629329546 -255.721102510586661
42.007239368953144 -29.838130966933395 -256.560601117553972
44.665168919371261 -26.319058306530565 -255.766307015222992
47.715547771902862 -24.139388891485250 -256.238996007003436
49.084303749742077 -24.818930409253323 -254.904290161857631
49.153362254787432 -24.430559367702841 -255.326660388368680
57.838856365747326 -15.253198025885570 -255.026482184229963
29.234978128371406 -42.741330814417637 -257.046228297443861
25.676678392724824 -47.131686572353225 -256.778091243810536
40.613015479359547 -31.508031923499853 -255.838087112065438
43.669886919761076 -27.379666249711882 -256.741446604998146
55.012195729968376 -19.329364009030829 -255.946807814045144
55.054500166565795 -17.090109219665791 -257.457173841659142
27.451553123462414 -45.436023574447461 -255.359530458112999
30.733412677000167 -42.779256412840894 -258.008658021074496
49.529516950698095 -23.955911225305371 -255.464725044556417
28.126600389776119 -43.625934116097170 -257.732572968210548
46.973361553306823 -26.625018370863351 -256.781418804442978
30.149595834849876 -44.413010392561866 -257.609951546865204
48.307540685113729 -25.172519684290531 -259.164441542075451
32.443929442351745 -41.339657265769645 -258.625966210927572
40.480435481951737 -30.740522374839934 -258.877009908505784
43.789926348367899 -27.711168258589879 -258.515640634453348
48.682064409329314 -24.774408042100589 -259.852676263375656
56.226717109836123 -16.970209624156713 -259.241655701074080
56.443532997210852 -17.632926866249434 -259.910927789286404
26.032795618132859 -47.140544293027460 -258.462480123060800
27.892248791469111 -45.047344484352209 -260.048189361243374
31.991058260738701 -41.844206396491948 -258.528576783028484
43.752077380768739 -29.009187606114008 -259.802808507338170
55.283431694248421 -18.764523951770734 -259.474798585785777
29.856615737048458 -41.360167382345963 -258.174055936636194
38.663999831801355 -32.083348153611134 -260.202320955641255
41.932377425893208 -30.488425050368591 -258.653856623524916
