# This PCD file was generated using the MATLAB® pcwrite function
# from Computer Vision Toolbox®.
# .PCD v.7 - Point Cloud Data file format
VERSION .7
FIELDS x y z
SIZE 8 8 8
TYPE F F F
COUNT 1 1 1
WIDTH 796
HEIGHT 1
VIEWPOINT 0 0 0 1 0 0 0
POINTS 796
DATA ascii
2.957284898921276 -105.721278269324344 -53.104314281404100
26.287734917238289 -79.971836976425166 -54.400223178267261
27.813443510399534 -73.129334234335587 -53.852514217676671
1.413030630615514 -105.280226021382035 -57.380038130763104
28.280678848665875 -77.030101568454683 -57.061548067278537
-1.464556917776881 -107.198324028948818 -56.398205717995907
-1.939126223017906 -106.922657588790102 -56.733084198757176
-6.359223286489606 -108.128568531940473 -57.052421168998016
28.863915502065158 -71.536693636352084 -55.467253897081164
31.476837198226079 -73.593251160853868 -57.253584865249287
33.583846789033451 -75.719444786029214 -57.440806533185452
30.953356481954621 -70.033471376130393 -56.817621188783029
-3.911602332521575 -109.641351986351125 -59.080070299206014
-4.646827441947146 -106.863372803610318 -59.514898323911176
31.088264153224173 -71.521313722585731 -57.173905769379168
-4.325878492981707 -110.205196446146246 -60.430130568036212
32.724200051585328 -69.153451691511023 -60.470321971411231
31.894719217977521 -70.002654989363734 -59.106119820647706
33.851768701827631 -69.313060054804581 -59.696293821616223
34.910935232762554 -65.460249594890769 -62.321423280404623
-5.993047432826629 -113.217731347187723 -63.057995251156882
39.516772670544711 -63.875418036865632 -61.999147810488438
38.409865803493261 -64.478000916486820 -65.434591514245824
-9.469230432168731 -112.568789358778091 -63.398984087181155
39.371327779287014 -63.690836079194540 -66.402138604916658
-8.243837576816286 -111.418022557285809 -62.709343483004332
40.282817390000638 -65.947175577296477 -64.705565778482438
-11.252494846630396 -114.642655526381105 -68.134058543691353
40.046456866974765 -63.449828215492033 -68.243678737254513
-12.279018522152475 -112.683038750623396 -67.852481334094108
109.635887738963106 6.168771037821469 -69.980328420311508
114.670791570815126 8.837702490702215 -68.077522185217845
107.831056088269747 1.348057807620125 -70.835868473931725
107.897935100693033 1.648076924167578 -71.917276874818668
110.622887864493038 5.948786080215324 -69.456090593474499
114.415672678677950 8.996161501409190 -73.117139125127039
117.266482496536383 12.304517595260693 -72.835099420938718
37.268667015827617 -64.278425583409444 -71.078437038864166
114.741045339262797 8.651277834155877 -71.258283676002890
106.316901156241457 -1.420018214680660 -73.890816527765324
107.403637386872290 4.070397662803162 -72.922630710358561
113.752339740827892 7.157157006525611 -74.375934829420984
112.916745725460913 3.310762818900441 -68.654705207831270
116.738314786696762 12.075835807123193 -73.788359627046830
114.217134470652823 12.901354314923887 -72.274307392506699
40.840192699727602 -67.382581825647065 -71.514444088595965
108.083037871578142 5.255917347019982 -71.283692643566667
-11.297321887410419 -114.980733373549498 -69.873078956111357
106.129159588729152 2.296975283415984 -74.604752284443421
115.468981200247129 13.620589309823073 -74.068996545571594
106.264582573689552 1.258718842004656 -74.483204611705887
117.422350129045171 11.197639137644853 -73.971777939860857
35.590142048107879 -68.757860126586948 -74.482924050398381
106.883625404595307 4.855391303276676 -75.760092700660351
-11.401181574644502 -118.296118534611836 -76.194165042393635
35.958813363742394 -66.153868490852005 -75.233427787893916
104.410426749565701 2.306515169776620 -77.912537301795055
-11.098638788552096 -116.712699862799653 -76.376567704188616
104.617350780495144 -0.505203751902805 -75.010498904982313
34.502256051666237 -68.402922305724715 -75.514412777670060
120.379761945465859 14.438087908839615 -75.639583999718738
-13.574217322763824 -115.312158340664340 -75.973369416146554
119.163897702195740 16.128380751838009 -74.417048746744413
102.906765612666717 -3.090779767249411 -76.173658011081884
26.325485768355339 -78.644282619684660 -76.657248872749037
25.674694685800144 -80.878634160247586 -77.230284904553599
32.624462682548469 -70.349232461661117 -78.068883549867351
118.212890492219074 12.765580497156463 -78.467585802974511
27.789795919708489 -71.852814101834142 -79.886445054359498
31.946908324411140 -72.454586009341938 -77.999352794894676
23.353575812883591 -80.498310818403894 -78.670741990654207
117.343106101845294 14.260196127664329 -79.490119795061077
121.478682900096189 12.773713928887201 -79.255444772168573
122.674061418702337 19.894811325064740 -78.104701382718304
120.770999647475207 17.271780700842683 -78.669448024603710
102.758123971309971 -0.303415136612185 -81.249592606545718
120.174302834556670 17.590728185101597 -81.216401409532423
122.547537544222493 18.524712357784889 -81.644443475799662
21.919524278264632 -81.941244387846467 -83.197860640336017
20.741361141950861 -82.011414171447655 -83.906134301815371
101.344410251242863 -1.880418291895158 -82.946528842690668
120.862510783953113 17.693393425574854 -79.634474990386565
21.460989322048448 -83.426259179337876 -80.811715188797720
120.814660474446271 15.009566231669972 -83.534996846497222
102.580840401084387 -2.856598698738016 -84.448555740429967
120.870344331688401 12.787436401770808 -84.557946485211133
17.141639988772496 -83.066248701356372 -82.435478186710299
-14.399881567481573 -116.988068508427077 -84.272908331532761
100.579197688511499 -2.009032174722519 -85.671572564279472
-11.549590440563065 -117.586431323784751 -86.022496381048157
-12.897382464290310 -116.562258860976868 -85.918242131433360
101.596727185420320 -2.388035551827645 -86.298089920291204
104.954864558865594 -3.483667326890926 -89.818427192854074
13.028031848488073 -89.450102735804663 -89.720558133465900
96.095185795692004 -10.758267398183527 -89.223533727750365
102.892193189259103 -0.307674838795292 -90.707940374490519
101.914016077934221 -2.307281206963231 -88.589077035140363
90.175877231499868 -13.751344572093259 -91.113877326942074
93.045462036708116 -12.372696367320467 -92.868645371553981
93.595380853988274 -9.671678413606307 -91.283426824649226
103.699808623305259 -1.298234060745809 -89.182172778380789
-14.290828543823345 -116.538989015262388 -93.032769007686127
87.140975599856816 -14.990594912021844 -94.157674976046820
103.409121124232087 -1.698302669640808 -90.302876188523712
103.715236559996512 -1.802497984713118 -91.769696172594479
86.344361792204964 -16.181927399590826 -92.541490273088257
120.904464621437384 16.914247775411727 -92.034034444242380
10.407705447968828 -95.998767186246255 -93.462726994283486
95.807586935190329 -9.547994699016403 -91.663664626498672
6.090176133768636 -97.292194077670473 -93.722774828643168
7.774399116651091 -96.977305480479657 -91.666617209300711
6.350778517922179 -94.496135366569078 -93.146200520785413
88.845057222388007 -13.062177868396443 -93.785562135979688
89.484676368051510 -14.747172408468222 -93.860390181854555
90.555445869611646 -10.510696963291897 -93.912175494486789
101.868008754279359 0.276303716968028 -93.165873110061469
8.823194028685322 -97.666118217767504 -95.067055458216331
94.072470577792672 -9.550369771538897 -93.515718463962187
4.995461016619853 -98.290058759219747 -97.079895997996758
89.241810669892317 -18.354487563946311 -95.488758717350720
87.298915552074135 -13.713258712201608 -94.317005940380412
86.230151619957653 -11.550573819814502 -94.053855459128656
102.273040125201561 1.929615258406445 -92.525067628700384
89.446799669433545 -18.763411418187960 -94.491995331068068
91.574871876597797 -12.474403862890988 -93.582113675975393
84.038916412565257 -19.194051097738708 -96.216074888147858
82.625655853420881 -19.748776475168423 -95.345087537531597
92.139620472764022 -10.117062013683313 -96.688032959746224
119.994699100507262 17.008337226807551 -96.555071798570793
103.762199525512017 -0.274884578451354 -96.169035332259938
-12.872819105028551 -119.036553077068646 -96.798011877876078
89.050727755756924 -13.855814163107338 -94.635848587644645
102.789000655007612 -2.666850424705444 -97.974675875878404
84.215118079331688 -20.783504910721241 -95.131549425398759
90.460209627897441 -12.666770587065932 -97.666839257544524
104.497523364227462 1.226475297099508 -97.910215133474438
104.281117406297085 1.420308213137657 -98.411567366519549
124.865085987628532 23.701924098257354 -97.886605159128138
126.188014563726639 21.552645293515774 -96.621148937310281
126.878839328948061 22.935987992655143 -99.888583297559862
92.894692482372932 -12.984820917660960 -97.630389914471465
110.077581013680600 5.034028140673962 -96.684471954511025
109.441728422730321 5.276205359542021 -97.169165749929491
85.001285475669633 -19.966994695608737 -96.261974739969574
85.423210864671731 -19.132895536641179 -96.592607372801353
111.158298999192780 6.246345436876521 -99.618443720145251
2.602903130380192 -101.881976889133711 -97.996420241597534
81.919878974215052 -22.827722905793788 -100.579215742442159
111.846092845534429 5.998086391510958 -98.574212593570394
127.989161874689827 22.359013340053277 -99.959257345353024
105.751404213057171 0.654751613834120 -99.514585319975993
105.745121605611459 3.645033718815268 -99.631474896979526
119.039551848717849 14.965166457961377 -98.399106348652168
126.270090174762487 18.869056410572441 -98.296817188547607
127.014255988344829 25.361823137442425 -99.512706361869860
106.628935459578017 2.970570563361197 -101.225806368859963
109.458153768343905 6.249593748728450 -99.535006652783508
113.005471678754361 7.154901143411127 -101.494028638216818
84.979723790023428 -20.005568976340566 -102.919364866402745
91.576731621902738 -11.084749952842985 -99.235454255138364
-14.198563994935183 -121.229480180129045 -101.360501867784890
2.412526684810278 -102.293571752001185 -101.640316692938896
106.416021751488628 5.074384996399793 -99.807567066290119
125.688101305136883 23.492038489230367 -102.384700378483899
127.530478772357924 21.094209830291494 -100.898403339368599
0.785293469288296 -104.792624436668390 -101.231855702047511
91.693585175955633 -11.792579010029504 -101.900181391473154
114.748969048194837 12.163211278502667 -100.786382181410218
116.567932939085182 11.650353384224841 -99.765917509297481
127.516588553249747 25.185117452308450 -101.726798462814202
-2.319215075864374 -109.397138681819200 -101.184008964641137
82.443160161539694 -19.363194604842565 -105.121646593871574
90.590374654885679 -15.294058021982352 -100.496070362939690
115.761292396510029 12.423939910005839 -108.021883690522358
126.204194336806268 21.240220819945019 -102.306875256352825
-14.012728662160010 -116.822768812573216 -102.595963088034210
82.129161086689351 -21.504588501240324 -101.463571745778879
125.788101984712682 22.856199690439919 -101.531335367352682
129.037896377528227 21.737784243167315 -104.002462499657611
82.100899311758738 -19.840062503153192 -102.609418341854294
124.619187772550561 21.119853571064084 -105.038595747062217
90.362659388829428 -14.044230977543933 -104.776714078439383
-16.841622818559173 -119.809404962242823 -105.557066529549047
-7.476328753956181 -108.954012924876125 -106.415412574616710
80.415484219345686 -21.432864276575526 -106.348151768849306
127.676965384903113 23.171936094689990 -105.767604548541129
128.823993686038222 26.199556509726055 -107.241331115130279
-14.174995267895280 -116.432887202753435 -105.700373509172223
-7.170078188301586 -112.319632270578353 -107.977295159921013
-8.226053927431447 -112.431537399811958 -105.183000802020544
79.904608850735741 -22.550039568947362 -104.459667260055042
-15.509481235757267 -118.793719990035413 -106.128496749805521
81.949259626370520 -24.946994747232470 -108.390830080881798
88.021156970238579 -15.925894470612780 -108.694434771417320
87.571887017978398 -19.385935222397169 -111.283556865535942
76.942046049289232 -28.574501416586962 -105.608023785780304
85.398652645425912 -16.577305192629954 -112.981379265965430
-7.341350978153202 -113.155586926173299 -111.219291990042905
-8.427331141387551 -111.097494318575272 -111.907130172476002
86.301669022755675 -17.318844200373903 -111.918011869576219
-11.374410857702573 -119.019693322574255 -111.737628023562209
88.175740405342765 -19.459093551999480 -112.337682718603077
127.153180358318025 23.554819334467261 -112.774809738823151
-9.046851608394430 -114.267369103979149 -113.542655769237712
85.305909977957015 -19.093092247820977 -112.538253672645354
85.562070439244991 -19.127079200056901 -112.376086070396227
127.262568452609685 25.526745768921263 -114.445107388830806
-8.748129710458533 -114.688453743470916 -111.499228724242840
76.856025737017390 -29.482602762713565 -114.602964981627963
85.549786334359951 -19.869054751957247 -114.128588246427199
86.521547421831599 -17.619337413165823 -116.915675133929454
80.328065096633907 -26.068899883339743 -119.175519972727145
81.483219344301844 -19.613381674244593 -117.490694965894974
-12.473881428206189 -117.829802619309902 -115.900480959170949
75.675776649282994 -30.454744457621224 -114.456997708153224
85.332222006870339 -16.922846849601925 -118.460341213887148
-13.036014270773867 -118.263679481618709 -118.637207002634838
128.630275086744632 24.702303282786300 -119.162619411706473
74.972782050731510 -28.968022150413091 -118.440013952575484
82.515097381718448 -18.466502567198440 -119.905063859624661
129.116645043464672 24.390606700526011 -121.775277666695132
130.157038903378066 23.385224180018721 -120.739683167056768
75.262454126125803 -29.629870850638593 -119.291478432606141
82.475030663786583 -22.685017694384623 -121.389728226768128
84.319673547103392 -20.827345186540221 -118.330880562389936
133.142074449185458 28.603002651333359 -121.129672073270100
76.980623626269235 -29.984687609899332 -122.386604711012211
75.943974672799300 -31.928984567896688 -120.540396553474025
81.556968764721148 -23.279580888949685 -119.362050068833824
129.445921643680691 29.581515347881282 -122.014324529074841
76.595021745541899 -26.534554641070244 -123.130366387537322
130.522714649724662 28.091266691141733 -123.352820056987952
72.330916589071762 -28.498898891040522 -123.426945796234733
76.407919252924771 -29.039050040832795 -123.626749546161776
128.817187805704378 22.880230695031379 -124.788711390573312
83.191314556578092 -19.709666245329668 -122.857378149837615
75.516609931435852 -32.794687822294236 -123.614138017207068
81.765311682189065 -24.676176469562506 -123.484732267103425
81.302490573404228 -23.685600317527587 -125.067522633246014
85.803393045792504 -20.903626970821573 -124.446799944693097
132.992165145201795 27.577712808300841 -123.362931459718666
72.768933383194408 -30.857405408396961 -124.732415532741840
75.728441035965403 -27.865190598527054 -126.938864947226477
130.277888015763182 27.226021470022040 -123.714259306421468
81.879163587019718 -21.810855442749887 -126.518116520648391
130.956460592209737 27.053407975054895 -130.303996202838988
81.523958391888641 -25.065089344185861 -127.469503360893313
129.335315415170015 28.023120937120041 -125.276010438543224
131.320991206176188 26.528829188137930 -128.711774228903096
73.390596269696701 -32.290134538503878 -126.543476348950563
82.466621805154119 -23.775259242481344 -130.280783126594713
129.265273737229904 24.674340019443573 -129.665239566443574
73.684047060711791 -31.448595860384227 -128.187063141110201
134.017453724351157 30.510891650384668 -128.963814041581230
82.281908240851706 -22.495581163267232 -133.819039767374761
72.930150067701405 -30.605513675700461 -129.559754596663652
76.819025383173752 -29.821923944478986 -131.682209185404361
127.981777969484384 23.355506131050106 -129.041251042297148
78.040740077617031 -23.653385772456410 -129.245466377957740
134.983032807188977 31.259506299859055 -130.547357918973120
72.917702714840075 -33.890842729668520 -130.177699402830058
75.735950272304351 -33.872510980183257 -130.220820891170035
81.191052380836467 -24.081828238941387 -129.056503039021976
132.707781622421521 27.299826197536390 -132.076179029969126
129.658130249425312 30.696947391945805 -132.929456064142187
12.372869719440814 -90.084703242544990 -133.001687832403348
11.945574103339265 -88.476520628035757 -132.351465733662167
14.896315814311992 -89.222153445336986 -132.071478717125501
79.310541997831137 -22.487428087300547 -135.176661724077434
82.174719104916420 -25.848346533142923 -131.386188450960276
131.153685052279855 25.463214322729275 -129.266427623224445
131.859737857903269 29.250701830032021 -132.583031019719471
132.061340663765947 29.779815916027388 -130.769258887312816
14.720413320652577 -92.498820171648873 -130.492515158265206
69.730661673158650 -35.905289824678540 -131.758267161177145
72.268372111106913 -33.000524854208585 -132.366611185753555
10.783136880813872 -92.250724077868597 -133.034437655686872
135.192781710268946 30.398420882172328 -131.632823548977655
80.750949065743384 -28.102483043036081 -136.363005150287080
9.398263231010556 -90.262441208824896 -131.886276740585259
18.579811386236887 -90.158668710934336 -134.113140237375490
130.263915127572062 22.122085337595628 -134.087175235796110
15.307166509617113 -87.566477778064282 -137.465938027925006
71.091036835049749 -32.693525131469208 -132.347019868031083
79.616496147609482 -24.408676353033641 -135.879513537587002
132.144953256116509 27.685149754031919 -136.058217151100564
71.379785913629149 -33.882989745675154 -136.173195113859180
79.666279462047456 -25.170290266602539 -135.164640116520786
13.001060276462944 -94.529636594423920 -136.907100359400260
15.020011200004339 -89.169825929687917 -135.362045647251591
130.224877350276728 28.584157717479947 -133.891784982981335
135.015567650751308 28.868524746738721 -136.387576181870202
12.662037443186092 -89.204587371691602 -134.729318164042184
15.330173319054504 -88.067807240542635 -133.566244404947810
13.808628836876316 -89.200543318198967 -136.618462043213214
77.863628678188235 -27.369579482076695 -138.309232119149584
-3.750484767961138 -102.572552509340923 -137.736667370101372
-0.791041708633226 -101.669710920278334 -135.551625882927453
0.878132562485132 -102.996033304727732 -136.374325030131303
14.007170382342066 -91.123032642150505 -138.032852287220521
15.225211190354448 -82.367452658160900 -137.596516534326412
79.708745090211110 -27.378463988904088 -137.979272807119713
12.565883049363141 -94.264465373289497 -137.306431492439572
16.348515682131612 -88.251096836315540 -138.353415710441197
73.266757519392215 -31.853563235170853 -137.569544674131180
-2.107911419448412 -104.468629761886802 -137.735549151400420
77.727029744610448 -27.044500398443574 -138.902922408546800
130.415178596569660 27.715007401746625 -138.476136935801378
1.682804139633246 -100.823161715958364 -138.822226370662889
21.081189310316628 -85.579019396160575 -139.097308744874425
-0.729359995271861 -105.726995490345971 -140.970851061473326
-0.543330114657155 -102.556792587675787 -141.535390195699108
72.754106220260311 -34.473105416849378 -139.648721478954684
4.974320971251290 -103.974427659792198 -139.825499151133897
20.628721174749398 -82.479820682896104 -143.686627235521513
79.162715451045287 -25.567670811012881 -138.138222325190497
68.551379097204347 -34.894362103076915 -139.899663382319517
-1.788951075022126 -106.928585240524825 -140.734688213304480
-2.613914040565203 -104.164815015815265 -140.166069993147119
13.364991068232715 -91.435544362898895 -142.876266145363758
19.773539981228549 -86.019255509493334 -137.923334104721448
70.473223105184502 -31.602898093362377 -140.502198325892550
132.130774602951476 29.942559515875914 -139.504578444376534
135.965058577894837 31.232118244741038 -139.430491085517588
68.671703510879311 -35.784236359322804 -142.404310957932893
11.319363471869821 -94.767283695549011 -141.425621197202872
19.187989043376351 -85.157247255309969 -143.300676804598396
76.626660313234680 -26.306692873213532 -141.008800256948263
130.646397870003028 25.791820374492112 -141.529600043175805
128.059606232510788 29.788177682020873 -142.693193705354844
3.266505456001610 -101.807535017917090 -140.967943474694181
14.833575986367780 -89.003204912809878 -140.267279939949333
132.353747888180635 28.674631931421615 -144.149458136979405
136.498154942123932 28.697416785868668 -142.899868371095494
19.430233719743395 -83.229197753985176 -142.941652706345508
70.266564923419480 -32.109978370932268 -142.462095679554494
21.775589542139176 -81.660741938180877 -143.648274769938013
3.373849312394451 -103.610478353833713 -141.880754603610967
18.752578259510138 -85.747396961265068 -144.042132344574952
71.146361513125328 -32.835475159884467 -147.240248241835872
76.850124396058376 -28.556881259996988 -146.760797687840466
10.917882291438341 -92.355722169074980 -145.757964051990740
19.623370612674840 -81.576351576388134 -143.877481218467722
68.847517606263338 -36.115310392132358 -146.120619606302711
19.169913504600807 -81.868893073574895 -144.981507126044505
131.517551463424752 25.196939902259153 -146.029891618254084
131.410768762371788 26.443823863633938 -145.265788475182404
14.670785667706879 -91.444792367479067 -147.492136981381293
22.288596098025863 -81.096795510625427 -145.040835627356358
-0.737454940058643 -106.597801481877738 -147.332501353906224
1.976152440937230 -101.600449289685400 -146.626811038749707
1.264945100056872 -101.040783412458040 -149.437949406265204
71.031412504100587 -35.338884980857770 -147.666551573275285
77.960643310765334 -24.326068272814425 -145.675301432577584
134.619296374765355 31.429143650362931 -147.572182259957373
2.685018232840920 -100.449738418243342 -149.470262982525355
23.350055749039637 -81.678008623672838 -148.521355596795956
67.773466058113669 -33.830274016650684 -145.277923726244381
74.491881579833759 -28.992260910878809 -146.345957853699701
75.030781790763101 -28.038656724246085 -146.696044880191948
136.008045364834942 31.137577460062865 -147.870713249985869
0.689985930358206 -102.122019142933368 -146.918674063276313
5.216409887938632 -98.428666326859428 -147.536371788342365
11.135986881700976 -89.105572747189186 -150.734613538035120
20.397165093859655 -80.877428569193597 -149.640421746281675
1.908434525864979 -101.514844236172095 -149.038270023376981
-1.973673368954903 -102.586059196571526 -149.890924401439833
4.425135374527783 -102.874065375762498 -149.536979696542687
15.434981381245450 -89.294159296910493 -152.978258558373369
4.606297902938896 -99.703048683515902 -150.247483940076961
77.973041207258760 -28.634264613343650 -152.997150709593399
130.001163820216448 28.305352205167249 -150.403954157822255
2.340860668329193 -103.994551058215919 -150.821839542095262
15.666577238875050 -87.797483396079969 -150.006737468822905
76.678421111301589 -26.357646664773533 -150.902671728618543
5.773500397091879 -96.345217038967547 -152.933153971485041
131.267413473896482 25.496792931579318 -153.290501545471415
133.396958171491065 28.313489056826548 -152.433542255691435
24.962002151658709 -82.192423946348654 -152.331276468009918
3.682614538662981 -99.223941652082530 -151.367083620991849
22.753022202460787 -83.060157061008113 -152.063219674264303
71.443147689792255 -29.186265364777029 -152.416532965967150
134.502481703378351 28.150387314728345 -152.531431514787016
16.878088923064176 -87.938126129334918 -151.608909569888311
22.597113386053195 -80.075946641904395 -151.850021402533230
25.410374888159083 -81.558836474150297 -153.793989497687619
65.562089800956940 -33.820082423577105 -151.819784186735802
0.163431217666232 -104.727452374414952 -151.726965860543260
60.468395569531644 -42.087635414290588 -153.962595808449521
61.089759641502425 -44.162293093759502 -150.881097507129425
129.257865951208203 23.278273548802122 -153.721756062929728
24.332628798681704 -82.796770790293962 -155.359312961141484
59.402921648970107 -42.787116209344269 -152.044923973201662
129.102944952366158 29.176475647121269 -152.805510987722727
136.093173811135983 30.623125756155957 -155.053819143430019
1.417028680964166 -102.495838252658274 -152.373450058579095
4.589378627104144 -97.827700733071069 -154.581952869886891
58.020843316119240 -46.350269175960307 -155.080240128655618
131.460523097874926 29.837366684713174 -156.065223141548358
54.870213384768050 -44.587331272196636 -152.568786650216680
74.063841289946055 -28.784857108790099 -154.942624360243542
130.071426319079137 25.439385865190022 -156.587111508095774
25.068454372396953 -82.127108380350933 -156.051246205584960
70.299599408888014 -35.046797321186318 -153.989886640872783
6.664254524036270 -96.086062550467290 -155.429145973126936
58.598591195786717 -42.598053172620247 -156.465779112078280
8.675468632143534 -99.153432723525043 -154.437983265663064
25.233467749768028 -78.574113901971316 -155.983274355929638
58.901281583281829 -42.423072389574415 -156.765868441789820
75.673778650947341 -32.974531723140380 -156.777979476849708
4.292832108841349 -98.725049260692657 -156.551300042420564
17.401726269403856 -86.718123956733166 -156.956182628189651
63.043361154109917 -41.870877946552142 -157.955101234935711
26.188131555242776 -78.526737151925303 -155.606544919965273
65.233424066236950 -34.664225423136486 -153.462055689029285
6.200511055651227 -100.633659929246321 -155.106393318393344
17.475519912434905 -85.556622155556909 -157.705414582512674
52.231822040535981 -50.122753904429644 -157.945750196271803
132.054323405164041 27.892239065874822 -154.907161467076435
9.129891606512272 -99.868235376123536 -156.070729972019649
74.108444195601393 -26.336337388390529 -157.152270677724943
4.014571514131457 -99.366626733486754 -157.235958874982174
54.865120469550355 -52.477608768356333 -156.490634342718351
68.694612126501326 -41.409844605236621 -157.417261223195567
129.897764054884163 21.641323995571092 -158.793036631006032
9.794970839134853 -97.148617683036449 -158.857371833498149
27.249344530224242 -74.292821204430012 -157.983822826100209
60.296040168874725 -43.665006999389249 -159.412045361320367
73.609615984874537 -32.049705515848771 -157.644313926961502
51.766288566066429 -49.329428191733328 -158.891261299927322
6.411745406023996 -100.775453369837606 -159.927175368505203
129.876323286556214 29.389371288144535 -160.538358196632316
1.269014174711424 -100.530979195587193 -160.311909363417868
20.514636352850559 -86.929215010522924 -157.157730405043367
20.115016025739553 -88.612693449005164 -158.021179258836128
31.668724114359271 -78.994128994270440 -161.244534541382080
59.001729740995209 -47.900364495086279 -158.545570212160243
67.339215737078050 -34.196556068843613 -160.021869005254416
133.463641192598629 31.748476339888281 -160.029030849507507
26.004668636468221 -75.865570902652891 -160.306990902753171
51.466966241806446 -51.665439268320405 -159.008447205710382
57.611196118273021 -44.958390872346904 -158.638177533862745
66.852817275792006 -37.583979380203040 -159.702294077894265
73.982994612783685 -29.944311477276546 -159.960346040591588
73.458193283824031 -29.884901275988685 -160.840181596496421
20.325798901541297 -85.297044575148178 -160.574168758829586
58.757037169536538 -45.713107739578355 -161.179329303573354
132.517721005284017 25.390669966879816 -161.662728670040536
28.189429824161095 -77.408792112676380 -159.360614604042780
50.459919141010715 -51.363387791106369 -163.373810969223030
8.445818631889400 -94.401593874279484 -162.397407606550530
128.114531625659566 24.554896511827884 -164.076268724099293
72.076121696256592 -31.423047364150932 -162.997203237769043
75.764890357363299 -30.339954539871808 -162.853305757263655
73.245669429443254 -30.486529822766599 -160.471785278472936
20.262856661042559 -90.220512256799424 -163.536578391662005
30.465046368458800 -76.236993829490700 -165.362266228093034
51.049165300718236 -53.291138074922451 -163.075115372106836
2.070220670801843 -103.201146847723635 -162.135332171766294
23.909510466636824 -83.227196436308986 -162.521671860297118
65.216582988678425 -36.336464303818389 -163.346971634040500
136.602214973225699 28.699376324101660 -162.873901687801663
2.920564849149846 -99.580442169634239 -165.005129727805439
22.275789011428632 -86.697833921683113 -162.535386399189008
55.622114179514035 -49.359971941629944 -162.794128511252097
20.049880384369754 -85.971421997032493 -164.322404849743748
19.809770217205678 -84.598765229249210 -165.298206104937321
27.281384415383798 -75.091346572582950 -165.709962768345633
51.853259611066406 -55.032116536330328 -163.785640902196178
7.492795578208400 -96.420612272832884 -165.284966307390732
56.553189227124562 -50.885919095765374 -164.244656734434329
67.453613688713475 -37.112731975070041 -166.498878886141512
73.602213694177394 -29.269448108347827 -162.297010272396250
24.512180505813877 -78.601853604932458 -164.170861214128166
54.205534962046386 -52.178477102504914 -165.851127547958441
31.832689874243794 -73.042441746138493 -164.761374714562464
51.367692856877589 -50.869090544279516 -162.817938555914822
131.639479838629939 26.584973475312779 -167.262685910997277
49.492639261381235 -57.183864063926158 -162.840446931121789
65.081359624573011 -37.062310657290482 -165.634092209420231
53.948858046381879 -50.654743381778324 -167.884154619730111
127.519223953884648 25.329018504351673 -168.029001703010039
132.544575379991670 25.413633782160176 -165.564834615807854
9.766404750430874 -95.437426035985524 -165.989695936998118
48.198834641532507 -54.196493735554853 -169.238045794577715
52.541142863574592 -51.369936274356014 -163.045450611850384
52.714649631358235 -51.622022714607724 -163.948318663595700
73.398273095784802 -29.432129817488509 -166.431344098928861
22.059169734067577 -83.635630258740818 -168.036126446012901
5.003952777226092 -97.242869627328361 -166.524455843526084
31.918067115977991 -74.362798529268090 -166.096274146457432
30.498772301766031 -73.105218860110242 -168.778221491399165
48.765483123391519 -51.763845411449928 -165.206174758547718
134.600973049422350 27.302196407978379 -167.014155281746156
20.994964093973220 -83.206456763044827 -168.553302308908883
50.602795334247112 -53.893161454024039 -166.211345949104327
51.004690000506237 -52.110109838660563 -167.972236848005963
66.221230487963410 -38.068457038132266 -168.347989465011551
4.543436381201186 -95.649134820662866 -168.119517288111894
9.217639495401157 -93.658148644903889 -165.839752543049627
29.104552987832790 -74.283714504254647 -167.849676492405678
72.875975603353510 -30.713686832702997 -167.136821300124069
130.527585013449254 22.907638502530510 -171.020652932991510
31.254115520272421 -73.259461087832051 -168.905106010568005
127.475546513423780 22.610570789563532 -169.759182801973509
8.756952013614029 -96.758076602825895 -167.426092363413915
23.014414329237024 -83.155415228487044 -172.064011115470691
62.346753031621937 -40.161972519733986 -168.653394973446154
69.271306094447155 -38.774836339285883 -169.398556129804973
131.146673001138453 28.163087736711475 -169.432023462755751
6.033516585643301 -98.768675833419877 -171.393494655127057
29.643562353404068 -72.378237711043795 -169.273601753669539
32.261826851184679 -72.303621985880852 -167.967788414403401
74.502136053986533 -31.939321400510462 -170.510706741980812
127.488743192051629 23.700564290502893 -169.940719419123269
128.931614930664693 25.716391085813850 -168.277798703846940
10.675167940456468 -95.746970269321423 -172.537751222150320
24.308703961046916 -82.844197016667167 -169.906719776603637
8.613744529782087 -95.805468942298816 -173.051429497947311
130.081998777169645 21.470944235335999 -169.923484477439558
12.235451392566929 -93.826860373069621 -171.322317473290298
129.708406470716653 26.938920898335940 -170.028352217076815
133.081120720863510 26.528959767409553 -168.403895595832211
6.932396693107342 -96.285374349182803 -172.299744721021312
6.456502194324717 -95.738077327804163 -171.264586062178239
11.241057449368078 -93.934521037725702 -171.825695559834514
35.576419409640344 -70.320130875663438 -174.238521716248357
64.050947476375796 -39.697528459443191 -169.612324623203051
71.926739008628459 -34.229873359725850 -171.979026892736414
9.221742340713320 -94.372631209652212 -174.643748246757525
25.004665169834897 -81.603600747286322 -170.479818768501985
32.880733002291436 -73.656204327023460 -173.554384218232997
132.718684996064297 26.731289910541172 -172.331344103731254
34.224426320250949 -71.724392434432659 -174.277714417901166
64.791565131676975 -37.082260294339996 -174.935189647065812
12.073858319211439 -96.521761993809207 -174.866470702051544
123.698440224253702 23.275222186364605 -172.532302085009803
23.155819383765650 -79.467697816110359 -171.978072505331539
26.126167325315219 -77.438317799178520 -175.014245097266155
72.885379031265572 -33.361432983764622 -174.628689329344496
130.829008329687525 24.850956738659175 -173.811613429366503
8.434419525252139 -92.778093145449361 -173.139459879568051
11.976858642246153 -94.764338801924723 -176.185387932183829
70.984320241358219 -33.465872408509220 -175.696728871710036
26.207126296855076 -76.133927363522375 -176.857552363103594
126.002596512272092 22.990416976639214 -177.290499070145046
10.627143774643624 -95.226768504031412 -178.126793257676695
33.713546891540169 -72.255380037296291 -176.089232612236913
-50.343590835642729 -156.774845496536273 -177.316209555784326
11.675675345200482 -91.357396892783811 -176.248469255671580
23.489639757513419 -81.439416726555734 -175.778809947482273
129.155017391369171 21.984809673559905 -173.802044633624320
-52.988514432421383 -155.959362772346850 -174.128795654172137
-53.112229597915814 -155.156999397309676 -175.559558839272739
124.903877080130215 24.225064471417888 -174.409959121728207
133.215130739613045 26.547143776477110 -178.218078910514890
-54.614245314709294 -154.211934948823085 -177.517296170461464
10.438853874134415 -89.287816362479688 -175.010757551097214
33.139453252003626 -67.582079458047986 -175.840186741545665
66.436036663743252 -40.283238119294339 -177.084058681487875
131.695425535907646 24.991956769194267 -178.181417531953571
9.622947781536954 -93.000416828014096 -178.735455528710162
62.700277912659914 -41.581640286227035 -178.578564599348596
-55.178017779859232 -157.327192040159133 -179.206006902210873
-52.738582978359020 -155.187517443641894 -177.397187783054221
32.867377346238229 -69.388166963580261 -179.807898726688620
34.698304838431795 -67.090064325225015 -177.928760716322188
71.666604551792631 -33.449722513394590 -177.522866678933582
71.308504508551650 -32.200815626903946 -178.084694590245164
-49.763705767520406 -156.626157509259116 -178.794287589062435
12.983480829557195 -93.075570621561724 -178.250458777917913
27.650253238838630 -77.051236497028697 -177.802814549648332
126.245008058155648 22.800481450261735 -176.541379020752373
129.625292897430000 23.999705546430210 -178.259779488999470
12.909400695009639 -94.485235408635091 -178.953949800087770
26.919376948400075 -78.791593921284303 -178.946503483552732
127.071158238884948 22.770005479694273 -177.465770898768710
26.407849754052982 -77.629036808142217 -178.124964126412152
35.648230890160605 -67.546973293389797 -182.083392934896409
65.042366761547271 -40.264325911199215 -178.112187832744013
131.901233990274193 26.089570449475865 -178.867115800581274
-50.631628944369318 -154.487596615218592 -179.752462381595706
14.326206081629550 -90.608934644452532 -180.143535905858130
64.672738687518503 -42.252160419358908 -181.706753032110498
70.860280569073637 -32.338379079076546 -179.407217204253925
125.916245730115833 20.889058559509465 -180.822242303789324
24.625375305580590 -80.191702367615605 -180.101324782165676
37.361511010396910 -69.035302118545872 -179.388699862981980
127.572866450799964 21.244792889734736 -178.208705999534914
130.179524361165960 24.957351701787378 -179.793997092746679
132.518211887671526 26.891557650717004 -180.711442990902725
12.962766796095295 -91.860889242525474 -177.731791268406454
128.467866302414535 21.946948252495233 -182.520550420312844
-51.447096870860847 -154.340741390788651 -180.541547586004640
13.044438678631515 -90.271458063502735 -179.685467315775014
128.694006292490798 25.132126044324227 -181.745428959746334
-52.537208690220282 -156.427391740644822 -179.578437812547264
-50.928189949174218 -156.892748475213153 -180.454148749102075
38.316689967642787 -67.332585193120764 -183.981329544480189
-54.217000442664364 -155.721784223242707 -182.720326297762000
-50.139598256087602 -153.500642422426722 -180.040210027837674
26.937427497669269 -76.974511636399313 -180.684732946783441
68.392147720798889 -34.296673561549170 -179.893426053424122
126.733691172685724 26.295190986581318 -181.209280070727146
-47.839175349509368 -157.242802281474582 -181.060378134014968
126.146263031567216 22.607377262340943 -181.715250299171515
131.131649395155847 23.952791287920764 -182.336095243734093
37.744758998085580 -70.682365650351116 -183.025862120561186
37.348267907273673 -67.320326789895290 -181.507208489702293
125.842278804047595 17.417787553629019 -185.509435372509273
61.576009016210911 -44.635407142713170 -184.347293840096881
-54.525022945310774 -156.177135393140816 -182.504657392327516
-50.585686182030372 -155.249338109988372 -186.454408898582216
30.582395094643594 -77.417735326701418 -182.500246810393634
62.123515563719671 -41.023978192336379 -184.454599164641706
-51.987050585131215 -154.075042041487535 -185.254728953184582
130.125346606390082 21.481974817144064 -181.392611578529994
35.365555781129743 -70.537011055263434 -186.037288292922455
129.858814945478031 21.514623968483853 -185.758407730519252
129.737967769254965 26.521132044704430 -186.158759626197309
-55.102872398656935 -159.566723235934660 -184.625343724124917
-46.884165377659357 -154.399848676530752 -184.476640556561705
38.059310985904268 -66.194291655377839 -182.023161454299611
28.795668915243098 -76.420597138041430 -183.364837951395970
38.682188330324401 -65.712877956357673 -187.595440182377217
128.731156826598209 28.001486144556853 -184.666793884277354
-54.736581007956964 -158.375802437755794 -187.146852109545250
-50.471935060529667 -158.086557249327228 -184.409018340725112
31.987107792824776 -74.139481948486150 -186.447600488779472
38.023663094590248 -66.840710136286333 -187.642119561518683
67.593032565220170 -36.462098089017779 -188.321703319496834
-51.185040734640637 -153.227361549474921 -186.885420169343149
38.989926604020091 -66.024726258472910 -187.990023615476446
71.849942755818674 -34.548667200131433 -186.350789406838658
127.593866518859613 23.329936746176191 -187.627760692429149
-53.443296899079094 -156.993382807019145 -186.890102544755507
28.342338981055516 -75.351420528440059 -186.720402862766548
37.431489714998385 -65.354994481598126 -185.714826601220921
59.458599470262158 -41.743305076183773 -187.291223431126866
62.610223446735425 -40.181936569537100 -185.317037338884376
27.980037859905213 -74.844091707991382 -186.232062505009168
122.671142106774241 17.077207742031007 -189.126575756112317
123.077960863842833 23.041433395721768 -185.566485935796692
29.825290920025171 -74.403062814025006 -188.360310895949766
39.357342429342772 -64.849548024486126 -187.631078174889353
127.292748081822154 23.009147358124860 -188.276212426844921
27.621703108781819 -77.063903199436240 -189.617950609375185
67.834161435979937 -33.170607116247204 -188.484533289475536
69.881151080620413 -32.597278276022493 -187.323788665992112
127.988600790542208 24.200247439029457 -190.060530053125149
36.413201725544894 -65.617257047839260 -188.518127082844501
60.877386149171365 -39.728305405387211 -188.903021530549552
123.186488649428995 17.740502153218472 -187.185814151258569
125.381671127567031 23.741987985692422 -191.171892209308453
30.890556488804446 -74.902748769691584 -189.377038900396229
31.963530616949171 -73.466679520964249 -188.901161163984796
62.234671303739873 -44.907176934956446 -191.946393224397497
131.396533162698915 24.054652970027245 -191.452727171793327
62.756571288692577 -43.173302622532646 -191.191029017938121
124.124669719569326 18.277647451739718 -190.470757319449007
29.441232739847340 -72.170465283102942 -189.308499044056020
125.235909536848922 21.966655898099997 -191.771346882487762
126.017071184395519 23.869789960801739 -190.200970709033527
32.216272776362366 -75.596302911539127 -191.524351771468048
32.139987983554775 -71.103454476618481 -190.927266496207352
37.803030322013122 -63.926152327866291 -192.371120994925320
42.252717611802069 -65.998271834726609 -193.596879333113407
125.317564509899157 19.751441579964148 -193.337837243881893
39.146697408881494 -65.507274346566206 -191.254890079955402
67.596882839263685 -37.147105930240613 -193.382653437947369
71.798154533896195 -33.015158533391840 -193.104585182579740
-50.707202369915038 -154.054106054724201 -193.735952241136488
42.344624966275838 -61.812502509351425 -193.579787717947653
30.571169745166515 -72.014279842046264 -193.399123293517647
62.434549495372217 -42.579111979102656 -192.512094209824539
124.555409473132485 20.502055277946969 -193.111187754709107
41.735265926303072 -64.177138722889097 -192.531262466196296
123.566625372081560 22.049927380772754 -192.701670350379175
-52.091461771551430 -157.963610281625677 -196.176070712976440
-48.676813346234809 -153.880730050817448 -191.713148846882234
119.471095107019650 14.480758398755652 -194.065218430404713
-47.765995327133098 -152.545624804172832 -194.425686783254008
66.793337094515863 -37.658584245806310 -193.622853571452140
28.644484157258773 -73.207945698874241 -193.118868004079673
33.830063424203040 -71.222349677472110 -191.574357242409121
36.310457804623034 -66.093046578353480 -195.784866695623037
33.813491483219160 -69.904769450651870 -194.422272814527645
41.379036151132922 -63.752263371656163 -194.818266781908022
61.502976161324753 -41.914334625015108 -198.552947835298824
67.383741198050515 -35.830884150408984 -196.837519002036004
125.832516433802496 22.086157944134563 -194.144697033245279
122.877926876456556 21.462293465937165 -194.733022545794654
33.483069925627149 -72.830452359053425 -195.675707769504896
31.987095984783945 -71.484180639095428 -198.470412846896465
40.795522338295740 -62.247884709172368 -195.911742812420925
119.456354459212861 18.147895427391898 -195.265743557296076
123.131349382239137 18.840238494720939 -196.201517667007494
41.950192407824424 -59.893721917001251 -195.314874940316315
-54.685393848590081 -160.152760267335367 -196.561171098705131
-39.848371313899605 -142.628652609367521 -196.911477390552676
32.948337995287297 -70.086450758383975 -195.713712167582230
-37.522259634485543 -141.010188526913510 -199.035515396949421
-35.610821570588229 -141.751351461187141 -196.012106391310823
36.008257493029056 -69.977147897119210 -196.500897407700904
122.450748884180229 14.710055583048751 -195.837293176309998
122.390081372749606 18.059826922108190 -197.723029791397607
124.297887768971705 20.589159441164018 -194.066564137903669
123.159872065709422 18.260597191493471 -199.521690894052767
-41.127367717517274 -147.067238410707716 -198.198370872689765
-35.249920896833281 -138.714986557691560 -196.667236439973777
-56.852357578400714 -162.062221333214211 -198.486382841455622
-54.016751575568698 -159.483507223531547 -196.933045825317834
-42.645537346680236 -145.729446879845568 -199.869230372963301
-40.226044883806573 -142.635561638900811 -194.427280355551204
120.227504766706360 14.825961857542703 -198.972741291090614
-40.067628777138239 -143.645016048873202 -201.169227930637305
-38.862097617119893 -143.295275275132838 -199.311504327063346
-34.337822538966527 -139.338697408013587 -199.972084568317229
-35.958047472220230 -142.352003146627197 -198.021241851941340
67.613485027133407 -40.349445050713705 -199.687307547203488
121.435919145202703 19.719464313233171 -200.373178262414257
123.624977031046043 18.130849469079884 -198.602013574271382
42.979799685117300 -63.747882191146466 -199.463943783997507
59.970974882125383 -42.863519265661324 -198.056501701715121
40.944517396364894 -58.517443808027295 -199.104754801782292
56.252447501201601 -47.163773352610534 -200.302203529840739
120.734008541791070 16.588454549140479 -198.810145609219859
122.226743345717736 19.384787441550237 -198.862127894747204
-55.714325660572555 -161.115048429082663 -199.809646283177216
124.290736783529852 19.273555746946208 -197.110625165430520
-44.983032498131855 -153.539172780341687 -200.541298433738945
36.682436681517032 -67.278978971621015 -198.044585989961575
118.969135937135889 13.461107762045128 -199.782702445637369
-41.217746535478298 -147.736528104543510 -199.268470186986832
-38.401605225573320 -144.367685148046377 -200.653344134205042
-38.005886738466849 -141.291727550201500 -200.582146179499148
-33.696635348847828 -138.811156207224769 -201.233356172754327
40.805879551610218 -62.214031011371034 -199.839757674801433
59.638532833467927 -43.239566460753032 -198.469413599294086
64.813220604691409 -37.727470403082172 -201.832492893116438
122.062098063512522 17.522468731784393 -198.639433083052580
-57.132795128482897 -158.285516510430142 -201.619888614602843
-55.275765281877781 -161.141877768969522 -201.758037109708852
-39.091419402525524 -144.872035821986515 -199.538453814555311
-33.898000781319077 -138.805167279572231 -202.455256516161398
116.210848343175698 12.648290835419582 -201.115199088473361
-36.376251309373409 -142.298103202295550 -203.020882411123068
-35.508342731584605 -140.363412516616052 -203.228784559626831
44.404778903506426 -64.313291454161032 -200.489201519308381
66.471803113592571 -37.912572000220443 -203.223489108550382
121.003312570078293 17.192199892228945 -203.304381707269386
124.329374265273998 17.961431446664193 -203.027635601349687
-48.560134772181463 -152.022801039495221 -201.071234503547686
-36.806490783432523 -141.459136975763926 -202.426272373182002
56.736054235762687 -43.346741678928808 -201.112073728636830
60.142951456088277 -44.370471905397672 -201.631899794821805
118.485042871158129 13.995529792773848 -200.921593466888737
-36.997029879290778 -138.202163944343852 -204.044077801122569
26.502476314408561 -77.577305100835829 -204.232890439565324
65.901088299784021 -38.439219992313973 -203.706288975568697
-46.522045806964528 -152.318497670405719 -204.522856531854330
36.480746613364410 -69.278134515494855 -206.312671985915756
35.058448069813188 -67.095870168236914 -206.217712132646312
-53.427947516980971 -159.122585737489658 -203.914896685438634
25.965033233148958 -79.773900096478457 -204.616463790594338
45.088727857080642 -61.611232789395267 -202.457034325337389
117.906534158644718 13.284946186973672 -205.038084829601388
121.129157678965498 15.349591266784492 -206.322689082702453
-55.786171013736769 -158.836533489144585 -202.359109322807143
-49.012700838473783 -153.577354210383390 -202.295424525788007
37.406504484122678 -64.989056416505790 -203.346487637125136
24.986003955603429 -76.099603380465510 -206.983831018865800
35.536857670996767 -65.815461742170157 -205.513491652720006
-53.550962535118011 -157.798010164297466 -206.183999382788670
47.005749618405616 -58.425003351922086 -204.146368081440727
115.113430443380906 13.850238809458569 -206.731582848031678
29.060372024158845 -77.727434844377967 -205.700415881867372
57.904457716279587 -45.181174625207504 -206.807525509595422
123.189622649181800 18.024536826583574 -205.600735006396519
27.770927666419421 -76.957109718869475 -206.429012648024354
37.892241445066183 -65.838031571322517 -205.037597046906427
45.566938018973239 -58.134529654022401 -205.742635765128284
116.174200359967088 11.269188705711267 -206.813031920628333
122.400450920002626 15.843396794997737 -205.977595101200052
65.472320338316393 -40.868233196735211 -209.089628497714500
117.042784335342432 15.298012307826699 -207.623539167085625
-54.709065807488244 -159.350389390659586 -210.421826702224905
28.771234081011620 -74.360882814984578 -207.442191136795657
39.342446733225820 -66.907653084357193 -209.700296276131127
49.064690210754634 -57.636002123331558 -206.309437650318131
120.083283036903637 16.542579126641652 -209.069293424550949
28.797139158322480 -75.801711315686987 -207.868707150206177
39.902951083447881 -62.472837604599377 -207.839566096773353
57.028222421796059 -48.225146127720095 -210.545670503161688
27.630636810208998 -74.046326149466353 -211.080203567165029
111.976802810133293 12.738001941415465 -209.737954034241682
