# This PCD file was generated using the MATLAB® pcwrite function
# from Computer Vision Toolbox®.
# .PCD v.7 - Point Cloud Data file format
VERSION .7
FIELDS x y z
SIZE 8 8 8
TYPE F F F
COUNT 1 1 1
WIDTH 795
HEIGHT 1
VIEWPOINT 0 0 0 1 0 0 0
POINTS 795
DATA ascii
39.567426798502844 -59.128260275823870 -65.061624897687949
-13.505256978240887 -112.971859086188346 -64.521647417519134
107.429964231451933 9.009806340485161 -64.606707258832017
-14.632548164950171 -112.720173983261091 -66.143577220751354
108.608672857408791 10.427431357948336 -65.012989239774839
111.731378101181633 13.902068933794173 -65.224881390246495
114.520482537377703 14.683583347277219 -66.659380958210136
-14.819080705356882 -114.121241528753046 -67.348277015279052
105.151554364437331 4.537903074786236 -66.526009864928554
106.195284366221244 5.769734039564385 -66.332993633516466
112.140634181104801 11.184949929120569 -66.670563487337418
103.410960557010071 6.291466104980887 -65.770103975567793
106.355149607925739 7.155169069399829 -68.155255918690017
108.330804498817258 9.662086780658839 -67.066945356963899
41.453771430292988 -58.338425520141648 -67.400196223968706
104.969136948396098 7.112977790093712 -68.080510251903007
112.251365537528386 10.198280757479203 -67.275364001512102
113.415635002382501 14.883650856203419 -69.600308039125409
40.201734386901386 -61.390356043855355 -68.770384861328154
116.910355894712154 16.660996184128585 -68.524110819835130
102.157011496135254 2.376559201745170 -70.317333276379031
38.882507009054692 -61.408100106239559 -68.944460570790980
102.540635050329641 2.412147288672163 -69.775042759008088
116.708254222337672 17.428591130380415 -69.417436471892174
101.197560278459491 3.305781926280150 -69.929744990205265
101.270187752332333 2.629222717989209 -73.330656077398189
117.573692631177749 17.335567880182811 -73.248188762713184
35.429320724229811 -63.933888782798682 -73.933051577655235
-16.009360486436123 -116.688320657371264 -74.006811642334782
33.668819999834191 -64.987987267290322 -75.836117593834317
98.461224244560626 -1.121832764373050 -75.259133709362487
121.109457387149618 19.625597920186426 -75.045205640285687
31.779192028715315 -69.170664154632703 -75.498346134133044
33.754622268666900 -67.150476005864988 -74.250956604016935
120.272026434953233 18.887119591118005 -75.050461491894566
23.423281287779368 -77.372244861709575 -76.708330072762891
119.265134860757826 16.434643437407882 -76.754808731789410
22.609294211730308 -76.683571658527725 -74.815030178389307
26.214290312131300 -74.696929139467798 -74.879949336105781
99.619921540000746 0.265640899010174 -75.754327564538343
33.367917514471451 -67.397102895972054 -76.407285196584354
26.491021331642600 -72.429108453875870 -76.864147862349284
119.920374456970691 19.520609641182155 -77.510423181725116
-15.820701790024438 -116.852444374278889 -77.791087609075646
98.808039953985357 -0.501869919379988 -77.273325296637722
120.883821122069136 20.051350041522248 -77.827274959497473
-15.831590377315054 -116.444856012664829 -78.983243344117156
122.231322451773494 20.110123343604151 -79.451249318811549
-17.154362475683762 -117.569299714872912 -81.332319300288674
17.586989152012730 -81.027911882214937 -83.196556858643419
120.841204920749789 19.956301593330217 -83.553461677604403
-17.703193294180075 -117.119160763658897 -83.576068742341960
-16.385452831353319 -117.883676142038439 -83.664458932052881
15.570273565366769 -83.287964192873247 -85.376989592142593
14.748941917013660 -83.804465700877188 -85.914349235136129
91.422614037406177 -8.769824428778765 -85.892881568689134
92.926315952759282 -6.998652167669897 -85.221913274739876
91.486903106381476 -9.212614849217566 -84.949717989868574
94.464443157658607 -5.471478318294815 -85.871884034422578
122.110483091557697 21.692376530143278 -86.854930033330376
12.947404934831718 -86.159570315194628 -87.203483798653807
91.310547283449466 -7.701611919935453 -87.146117858182933
90.159038997816481 -9.549803177012992 -87.973808350953504
90.006342322218117 -8.733940353801595 -87.649539337436082
94.396365673701979 -4.495486887529653 -85.510715491786684
-18.419962071254265 -116.236763424667743 -87.317947114349423
92.032766357794102 -7.656560614551397 -88.417879176799914
95.166433953976295 -5.764606804423580 -89.698890083082389
97.214381451755045 -0.722683326561817 -87.026628133521626
88.645544421211639 -9.845381548999137 -89.492050610585892
87.692679232992305 -13.358132823170221 -88.554766719994333
89.357307972052780 -9.755121669088412 -89.337637999454273
11.211171048030995 -89.500260110712702 -90.632912833305312
88.002620447319558 -15.650405595679899 -88.779794682736338
93.149301893587662 -8.926489011482726 -88.283316457371825
93.245796027427232 -6.958739273804315 -88.715153048266529
9.375283027398467 -92.464959166665267 -91.073642304680234
89.073901565930584 -9.275922757967528 -87.767518478053134
98.616259441928747 -0.743383672922989 -90.122047837205059
91.998848467771580 -8.105585611604431 -91.059338633850530
93.467702015879439 -3.553588187437276 -89.825336835254177
97.343623285663625 -2.100040118283117 -90.184139674564392
87.391427755774643 -12.480750432819468 -91.656573195070649
121.520840907626166 22.434664289155545 -90.747151344098711
4.142696036501841 -94.945787866707761 -91.041861945675265
84.222184886415775 -16.587855812225381 -93.452232047550183
86.362919401578566 -15.091716026329340 -91.855676516402411
4.526909942912376 -96.924819415841114 -94.199160345832567
99.950701061482349 -1.440384505032818 -94.007594929995378
91.649192631722372 -8.119877209443333 -94.640015234086675
93.125452210144019 -6.526910471919506 -95.482187329660661
85.456186889185545 -15.401398090884740 -94.806641170398507
98.616478607841401 -1.816826089377235 -94.257433585635880
90.936694535336230 -10.016510558131943 -97.306777170427395
120.223495159655712 21.918191198551987 -95.652617436559609
126.162730114568433 25.294488531688415 -96.416581416812946
-16.027925227549456 -118.986597815822492 -96.650666949400758
98.908962118099097 0.120939553416858 -96.860736843003266
120.157696739974639 20.008782786960310 -96.199313818857078
123.680013817274272 25.460566681222691 -96.340147747360547
89.059940487492810 -11.481118038557192 -96.358311862749176
124.066538889332492 21.865840278727060 -97.297606898085945
85.045969075814654 -16.475056328108625 -98.218545200770876
123.267138493728922 22.980111140777286 -98.407034082934601
80.583968486903359 -18.300704203273671 -98.793927625609001
90.612279391164108 -8.308823544375542 -98.264765650742859
98.570666247900846 -0.082591731976136 -98.963538311122917
125.584822363281191 24.751718294870123 -98.037355600123959
125.751145593013817 26.509929606169461 -100.695441564546670
-2.020639819702233 -103.856658447193496 -98.790427042876075
2.679919506753761 -94.962331256527818 -99.370042329372779
-4.927751452342092 -105.291427519082347 -100.263716652400902
3.491079652516991 -98.172776575543509 -98.639615427473800
81.015755452975696 -20.789678952066406 -98.866729075099713
83.585121438320101 -16.121306002514068 -99.661333289929061
100.943365132387399 0.753100033145226 -99.719448807449425
119.969621569218347 21.050579540413469 -101.442448686824662
127.068592355264556 26.150538492111206 -99.788972051543055
-17.804041717403951 -118.093491661017310 -101.040036863114864
80.554174792622561 -20.902935993272003 -100.237111958805713
93.128430014882923 -8.908864742724123 -99.074238819716143
-3.294897070984043 -101.044732970771818 -102.739338429270276
-1.770512953826974 -101.241207970073361 -100.007560957928035
-0.200649544853068 -100.618446443810001 -102.276972188638439
86.872253883948602 -11.690802165813517 -100.558785853078192
123.891888260602514 23.214459076423523 -102.242914418586750
102.669477165436078 2.436427633808124 -101.514124534307513
122.126901887088849 24.817238590753565 -100.148024708108295
127.600571569489205 26.915741406160450 -102.368903663575935
80.462173896279893 -19.186015695287882 -101.525443182831253
90.449176210450560 -11.721303499772805 -101.415576395843900
123.125460213565674 21.409328185114628 -101.606746639853881
127.325249110230089 26.048208173769130 -101.556935588157856
126.278512326242222 27.675506253849711 -102.893238568992402
81.377755007471961 -21.122264930608790 -102.253565780404244
109.439070096553294 8.285274845127095 -102.826075519111583
111.506922136789157 10.501873019259405 -102.218235169720600
105.663285374165426 5.066096528144238 -102.363503599207789
107.774697275143637 5.720982718711592 -101.131091703587401
110.610652257227059 10.190367870988158 -103.046781259672699
124.402610170530266 23.179985479836532 -103.188959794586665
86.818769245433700 -13.516525526244608 -104.108285520899955
108.029734526361992 7.599776491271385 -103.032500287539364
109.897112326021471 11.442830971202714 -103.987872928618089
115.443749009288936 14.262526102772513 -102.766647907586830
123.488248116746760 24.680849118228767 -102.341580862510355
130.217718318551562 27.511991183498115 -101.951975988351421
79.017181177718513 -23.230669935258330 -103.538468788930146
86.128693967101256 -12.645692116499680 -103.737005515889734
106.005796534813243 8.499248544991664 -104.583967940251853
113.046250185377389 13.577994688014384 -101.648404325535310
-17.384108138022693 -116.493933944572873 -105.272780086050219
126.043978358066042 25.014328828618616 -105.029856482923819
112.089720671532035 14.004379747147224 -105.399032552473912
111.969785907420345 14.083603579887399 -104.317862969942240
114.235552038387155 13.349068542551743 -105.802781867088214
127.413420897666185 25.170178690117456 -106.781578745726222
-10.477014006732832 -108.673336118034172 -107.102293300674759
124.914557213917433 22.364799691082336 -105.113500101693958
78.241306070412904 -20.689980410082633 -105.090452117272648
-8.955150825998485 -109.752684031493828 -105.598587658356948
86.303731590618980 -14.851807172190020 -104.706622648366420
86.391939105607051 -13.812257348629156 -107.330824820709509
124.828570368987087 24.021608673973663 -108.301615811621502
76.813166326038498 -20.701815925115874 -106.155701857426124
127.231799338310637 27.948205024366320 -106.324126499277526
127.442941973274756 25.973767810055463 -107.909479613920439
84.164653774699445 -15.051897406743841 -107.202492229312213
85.563550962719674 -13.717566654638922 -108.402238287489396
79.083713574926605 -22.065937126541336 -108.709350289324604
-11.028802693418385 -111.595643066556562 -109.275022362233173
88.662230050381993 -13.908649565717949 -109.505014788904035
124.483609387601120 25.270774738752355 -109.100528129333725
125.600779887811285 26.766246565499099 -110.473443811240273
129.035172106982202 30.004788409989768 -108.264537801929023
87.500988156116051 -14.097561686723274 -110.543845975550070
124.211377834893696 24.450387247837782 -107.575267127370807
82.855736737412713 -15.288226533290590 -110.267126180911461
86.348442031286638 -15.089050784265135 -110.469931990285488
127.502882831761738 27.678869713356146 -109.964260730931940
78.394389722684167 -23.324220617658494 -112.075344457003752
125.111573462192041 25.152533387762325 -112.435433532516484
76.965980931685721 -22.484307155284331 -113.166275284312889
129.814261334250176 29.035436028955026 -111.400690450192215
127.349316113444743 26.685371963961288 -112.314842686106701
79.779108874437966 -19.989484120223963 -113.517077788349738
81.848311245664945 -18.679714586900552 -111.619360350321557
85.620601271172063 -15.019320232925908 -111.718387722865685
-11.317711471331330 -112.192496469563395 -112.664926965714500
-5.823287044344310 -104.401049338933234 -114.254018381848695
78.147167724960497 -20.893693485951108 -112.597628702371921
-7.414417262358747 -104.976287401620354 -114.498926693333388
-6.987605023119288 -106.198097156263884 -113.493865262391722
81.367165372647676 -20.262362618828906 -113.036776408565103
127.128097465578904 27.304996694117531 -112.682063874597276
77.724863532846484 -22.786896643308850 -113.686051994644330
127.337984811521821 27.698412390050141 -114.954087742937077
126.204443591931366 27.377855112159143 -114.271056711338147
79.431015518299645 -20.386935659190446 -115.052181970909317
78.643485867286060 -19.428470458022669 -114.231877809951541
-6.880031193839903 -106.519680091199504 -115.224221577080257
-5.822116653004949 -106.210262574640339 -114.751430832930765
-3.937603860567000 -107.424515404000644 -114.893008035611174
-6.025418488311970 -105.889238776151885 -114.016208833743619
81.485047183172966 -19.644104574921450 -116.556728865512483
85.640809468950579 -16.991336090478455 -113.535373986860279
124.174513553132073 22.591021032443695 -113.152759686105284
128.177509870085458 27.347183988588853 -114.669674322372984
130.637336864378540 30.508068719072213 -114.720949669262680
-11.673015073478755 -113.684451530788820 -116.597153809007324
76.101464494202816 -22.734523719791227 -115.881900566005015
78.956746456164637 -22.717540996771419 -115.167248843799356
123.867435142846048 24.300598627765872 -116.522034036678988
-6.069706015179702 -106.882229821134047 -115.372546310344575
-6.027126710567632 -104.914192678272912 -115.709103438064446
74.369027985377286 -25.064129690301666 -115.794153727647767
82.863454883200347 -18.054743484788560 -116.350838827090200
126.911057591640343 27.587237799844836 -116.323446402987315
127.385001221184126 27.457544797016528 -114.657096262813198
127.624666086422721 27.917847835640217 -117.664108283902806
131.874004353925244 29.935474683388730 -114.339570776014753
-9.070161388423164 -108.081878113228925 -116.854635029977260
-6.316422856315692 -104.778139660745836 -116.092411067574560
-8.255335825834212 -108.439840361452184 -116.254173152490878
78.453053900534101 -22.569844428308539 -116.012783601996702
78.148067140113938 -22.205732876713654 -118.253411544437512
79.905534463987763 -23.230842782309505 -116.373224568246997
78.593749575158625 -21.253931315075789 -117.967449036095530
-8.931334852221401 -109.637907311040408 -116.895279741415294
78.610141552537186 -17.941930022182618 -118.625999874503293
127.239490122475203 29.038278835660588 -116.791177037009049
127.187361822043471 28.323031888428282 -118.011277258259170
-14.952753653571541 -114.582691296377945 -117.283262418585252
-18.592847706254474 -116.937262062380299 -118.280900061076295
-7.632592058406504 -108.455195805659969 -118.607398302980201
81.746990442015147 -17.182696170426233 -117.742452422744222
-6.281253106498764 -106.768658777596244 -118.412537920177215
-6.989330472095920 -104.091977457010572 -119.439465600152957
124.392514093848519 24.686685625905891 -118.349781617263446
74.822560183587740 -26.455171511200735 -117.885251578603132
79.746905041232836 -20.050847772949375 -119.494770593529466
-15.513891700817799 -115.189270050183595 -121.542150403048240
-10.309700921672958 -107.759559333728660 -120.235495507532292
-7.599539025397997 -106.937285298731581 -118.991234841924538
78.191662112622225 -23.051266643840226 -120.486995595232415
79.897704090554029 -19.619287430583100 -118.345303568801214
82.833969789044758 -21.521142902278058 -120.850077620969472
126.085504827743208 26.283946762307409 -119.125787096296449
-17.525766308998687 -116.635817502244350 -120.952334205467380
-17.438610756471938 -115.738286399009922 -118.516965384767602
126.908133506075714 27.408118620000991 -119.960401084742102
-8.072313427636557 -107.156449069000089 -118.473520264033056
-6.378818613580298 -105.109918720649404 -119.776862717261182
127.759459193005753 27.185635321228897 -119.273726396717109
73.763300465955453 -26.953780616183504 -120.442671720213127
76.125193268995133 -22.568931613991545 -119.774753473388841
78.529379858838837 -22.210314446331072 -121.568922866951738
130.807305017388046 32.055682757361382 -120.562569152628242
128.302342170228712 30.208146897159722 -121.175257983048994
131.038940663570713 30.651781739869680 -120.604732221840806
-9.801523596987417 -110.455397034160185 -120.838882039388579
-9.044937284719428 -108.256154410091284 -120.809401884715697
-7.475276922235358 -107.028992301261653 -121.572099986571445
80.230892905430608 -21.527128612634204 -121.817507683870843
128.839587086161089 27.433007826251245 -122.952744815158937
73.220110054289876 -26.241860161453324 -123.576482451302496
76.561446239168646 -23.676772484013956 -121.670449474125135
125.916046314178871 26.334977887401546 -122.239118921458655
131.889099585253035 31.551119814929738 -122.363594538370506
-8.368718031659908 -106.839963467776158 -123.109399249638898
79.929569148455641 -21.100956820960239 -122.572886813939547
-10.984229740452465 -108.948729897995321 -124.379769518323812
-8.248054073300336 -108.375901053684942 -124.106285818849400
-6.634608174732922 -107.534477699764238 -122.544713643984679
125.900476522991084 24.647014354783021 -122.721402557002563
74.336863982442935 -24.358075720878851 -123.360610818051370
-11.058669827351922 -110.572636216855912 -125.558200771858154
-9.893083772320148 -110.087577300339362 -123.339461503070382
-7.169629439515293 -106.122771832422487 -124.543844886327804
78.158490422350368 -24.107101159027131 -124.885284613731983
79.717486893034419 -21.046616231213100 -123.911320515169109
128.071760746716052 29.260616498479781 -123.539234096089189
-8.439411112867180 -107.547693035719334 -125.895322142180774
128.730737039726591 28.077352754206810 -123.548052094928167
73.446300260155127 -28.693496402414929 -125.828333180137491
74.719751356598451 -24.771615560946842 -126.618534747027923
-10.212372250836593 -110.629241258199926 -126.834106253501943
78.290693089388313 -25.240131779168173 -126.636341408334061
77.703072962140354 -24.412631877126614 -124.966788984866440
132.464255940673695 30.710557722555141 -125.946078494537474
-9.569332127512125 -108.326600301286533 -128.265243759119926
-9.259732190766236 -109.242518036950969 -129.257707784769138
10.134841478454620 -91.836558372143386 -125.648876918946371
-12.633963744153723 -111.151405141628203 -126.122656583581971
-8.697779396657001 -110.441684981232257 -127.044707322932354
127.698937262842691 26.751045153754152 -128.925623661608341
-4.870051258062301 -105.794455025999852 -127.429501590026874
-4.254057850721084 -104.427214923783609 -128.295607873174362
-1.866951862040743 -104.306683275191759 -127.853336802398985
76.797378679551557 -21.999704019700324 -126.767299691911674
132.482790233574207 30.811652861260065 -127.421000079063205
-12.354505378657141 -112.153005005732581 -128.450673403762721
-8.815226017255890 -109.240088667276993 -127.901229279489883
72.872099099438941 -28.572440634559644 -128.262418936115239
76.117036109394462 -25.056663049535761 -128.037448980629875
-2.375877994587195 -104.309138739853722 -130.140252447798929
11.776694847417197 -88.335933369405993 -130.923764063671257
80.423350196499072 -21.152496443515567 -128.707849504609754
73.730212366582606 -27.149470904329192 -129.476487965771128
75.973051267038130 -24.784950101914731 -129.102972883059465
-11.695393056263406 -110.201593256687531 -130.656010334978987
-6.132663738352051 -107.310496279621916 -130.502229777855121
-3.632093788647848 -105.947205618467365 -130.033302329426448
6.221630649679919 -92.659430933038308 -129.515637096640575
-12.731020559529378 -110.350746522237657 -130.641723752138290
71.816278872650315 -29.265162719820371 -130.914597163026855
73.469402816151600 -26.608286170809851 -129.071788589243141
8.871266572847343 -90.279505365066285 -131.725085862582290
10.506268156961744 -87.621902278515137 -131.207911986043854
12.877989420424173 -85.192297778166861 -129.820760883776643
70.191342026485756 -29.571274519276795 -131.314345524255828
77.858978140553674 -22.879477852322598 -133.110993561832061
72.810383283402160 -27.453610838802160 -133.052086988019795
8.531228198936571 -91.061036118052868 -132.411235904685583
12.641931543419231 -86.583341290853710 -132.159333439136589
16.957008587750423 -85.867635411848980 -133.264799613044659
126.116561473860529 26.138827757945045 -130.383368246979018
130.895213377214816 31.806653311714022 -132.150921883228449
7.897750248951549 -92.594156091372199 -132.685883178973683
75.570593094289833 -27.393367682619388 -133.388071776657341
76.016110632472490 -26.421389595920402 -132.541340857866686
127.443724867813486 29.495244887957782 -134.086479960836954
13.239367405131956 -87.891531244079417 -132.975000111364295
77.438334157708155 -23.072643217639687 -133.195976166704924
-0.267111061767771 -102.121565842240670 -134.798639746134569
71.608986092904104 -26.391222377672694 -135.656532511742654
74.468706960486969 -26.651486040849004 -132.926012961388125
-1.230549257680271 -101.650246322677148 -135.146196376992009
8.974688863764474 -94.552779798852555 -133.497609919364749
9.961746680365879 -90.168861889025052 -136.062609378462554
68.715584790115741 -29.158418045372244 -133.928764347049281
15.073281648167303 -85.355560653640580 -133.133427355513362
-5.466310810959890 -107.481051062255446 -134.606840748895138
7.123477323450134 -92.807938211867636 -134.765479526438696
16.272368227964943 -84.559539442487932 -135.303896668120615
128.876170575957502 25.379671080623027 -134.005508691640756
15.054320630465741 -86.583162084427130 -136.673652487646820
18.153458088216944 -83.908640240013469 -136.584252780766036
73.211129163422427 -27.236934781590126 -136.139355952292590
75.947460978061343 -23.168890519336404 -136.069246561049368
-4.044342840810817 -105.982946450431825 -137.528550502849725
8.588394824086834 -90.112542911582196 -137.204432566916552
70.013084812591188 -29.833169635007451 -135.525573884416929
72.129822300472583 -27.420694871087999 -137.016038296197735
75.031390175827980 -26.377832620247212 -136.887681812805198
-3.791738300690180 -104.447880474887683 -137.318400677459039
9.323357188203232 -93.555797106476874 -136.439225379657358
16.894674071002125 -84.011585963622807 -136.394181565367944
-0.274562825763573 -100.814084880405602 -137.677630932689880
132.362320531089438 31.380620507411514 -137.551266418994715
-3.589588420669762 -102.184044710275586 -137.992304956959345
8.326881460789116 -92.452585059518029 -138.540359733630567
76.138869244395451 -22.444730331036773 -137.894919644116612
76.515993257151919 -24.967535943709262 -138.075184023208152
-5.551312992535022 -107.408167974128048 -138.894479764149338
69.594486697323248 -27.837918490783728 -139.111490332337922
15.916986897760113 -83.535162247215482 -139.036467978184987
70.551084917538205 -31.768968757779408 -138.920043121428449
73.871238850996832 -26.484864987934738 -137.782079122067302
72.924497149410556 -24.204162432116373 -138.924869152104833
75.521275638591263 -27.895481311779800 -137.893961283009901
-5.318954983020934 -105.141689288127509 -140.052518837454272
-2.852236900614812 -102.625992037008373 -139.715710097122354
126.657886001580763 27.440460454847678 -139.402943394089192
75.707028566979929 -24.078014437967244 -139.953392880432204
-2.157732182353593 -103.561949352391096 -142.063217489996418
17.430981225545125 -82.449370411292563 -140.485446299544435
71.200196658902300 -27.396764090211935 -138.739251088964494
-5.073198993193308 -106.888058493757441 -142.662790662318770
2.034715880284577 -99.940117981430404 -141.259832585639288
8.367079324701724 -92.240506290192101 -141.621416598043169
74.816272424489142 -26.878106760643053 -140.837118301966342
9.726638015946824 -91.365338025537113 -141.240407508383839
133.363629005303693 31.831719319135093 -142.512669027731249
16.478842222892592 -81.112453596611275 -143.422116459251725
70.222228222032783 -30.039530815236279 -141.685285412688984
70.210853544110989 -29.806027850184808 -143.160656682775567
70.053317225707573 -28.151162363205955 -141.526084193437327
-2.974955397929600 -103.235060819990622 -144.251564764652244
-2.544055621035246 -101.721931166089050 -142.861381420751599
0.969421578458309 -98.378683449066401 -142.875983731543386
75.244003152889434 -23.881735199915678 -141.704959431715906
129.062203534554158 27.279422885352062 -141.813337906224632
-2.639955732036798 -104.005196442674801 -142.235317289061356
-1.940395278954598 -100.543500923056669 -142.782109438185330
11.994336386255414 -90.315614370600883 -142.133815215354588
71.951350990266846 -27.899222435485225 -141.452911964390381
75.301651298496552 -27.355743053876711 -142.041959390001097
8.615476205272023 -91.634039223806894 -144.012689499984759
76.293971164914410 -23.418050373000522 -143.474970617568999
126.742675741173272 26.307802802302888 -143.179305301447187
70.854966845606924 -29.679403126252890 -143.535660624239910
69.197188344867939 -29.628468551365195 -145.122287556027203
-3.843258583838106 -103.916139717983228 -142.967559012492018
2.839025817351358 -98.577313441844794 -146.264425981703710
15.232920586894096 -81.815444069974077 -143.459507887387957
0.266089684738161 -100.860386066442004 -144.464033634397140
20.315875710005603 -82.667057632448191 -145.581889879399199
-2.217442319283669 -100.039271004288324 -144.248113479683411
-0.984308086243787 -99.305755431217506 -143.597667468638093
3.116297606653188 -98.502324978469204 -144.007315683355159
9.995305219450511 -90.160935701392390 -146.135296325366198
18.823287595552866 -83.590007132568857 -146.258752117217085
67.264113273326785 -32.835336253298372 -146.716109424738164
69.570208485288347 -31.432399747848898 -145.664204519249751
73.870058858803759 -28.388650941838495 -144.545291034304228
0.524752800778002 -97.079138023517316 -144.951940481865535
10.268573395725216 -89.198142798914219 -145.030436151203332
69.372116634066131 -29.676266326053003 -147.347928030897691
72.263071620851107 -28.133421343171875 -144.779434303513824
74.080280566003779 -23.694419044991331 -146.152575393777056
127.647158019325246 28.145013945397682 -145.496015150159394
20.208878190190784 -80.746487869538456 -146.392603926963716
69.382900764902089 -31.347336041505798 -145.956259141632842
-4.229997346433398 -102.848598898328120 -146.252980224495786
-1.043012536403703 -100.336720454934763 -145.121140787376106
71.477055364394289 -28.132342206247472 -146.226850929009430
10.600857007207779 -88.943911526404378 -145.501604789836165
133.185908487979049 32.225233448705552 -147.538257089726244
1.967527038520987 -96.714848791128361 -148.255246773740737
17.983974717895283 -81.640273866886247 -148.276884459778955
65.984235749238238 -34.723760973445643 -148.183380287461347
73.113132668804539 -26.333565943430841 -147.303652866658553
9.725730838698368 -87.311199840895071 -147.793765509197812
16.119888435209731 -81.788376154845437 -147.798147363366780
59.945409616753551 -40.697419432252680 -148.787380363030223
61.567387163157711 -39.501788545175458 -148.971546786762502
72.937935386034553 -29.822629850416657 -148.700968529646588
62.533711416896914 -38.097750626339888 -149.444645241912497
68.644141257921106 -32.482671985687993 -150.259453826746835
68.886841784591226 -31.619000289492671 -148.333606025696326
68.939281892916767 -30.830703155947472 -150.359584576545075
11.139137923069757 -89.857131797539225 -148.415513396333438
20.947270792042108 -79.298493991452929 -148.929153969558143
59.270370711157319 -41.094816399803889 -149.075720546924089
58.874424662218516 -38.313554974196286 -149.346032070378584
66.612443132305216 -34.381945799451948 -150.473641463921467
69.184526828965843 -29.805763496384380 -149.682467416153230
70.070219494773951 -28.963574334694229 -149.305980218792740
59.363400202009409 -38.789633677329078 -151.412225397834561
62.689561777139247 -37.237212900373990 -150.113254049425592
128.027048672292011 29.480476246231095 -149.095137390988356
13.432319051256625 -88.243480388764084 -150.687206606016872
73.728584386136461 -25.592451270835433 -149.949268481181093
133.263840930239979 30.966277022748994 -149.998860090819534
61.419952193580947 -38.160094035523876 -151.160772878089574
65.879514175537295 -35.064767934917199 -150.277443654035324
68.957581197935170 -31.535049415118014 -151.074983363556044
72.181160924813312 -27.853663156532015 -150.883273527402849
-1.466585620833507 -103.372207081248803 -149.547858567093698
133.584627074620158 32.446431267881756 -150.750084645200133
13.777543437014957 -87.034394147678711 -151.530708853379849
71.794644081618671 -27.980486358818418 -150.659418533072397
72.373785714371124 -27.800411913412827 -149.808460272977442
18.197459148544151 -82.438074709632076 -151.363599860613817
22.360460051765340 -76.324956349367667 -149.886390149152646
0.299554676610462 -100.606866700856301 -151.907248985960109
3.509018927328718 -96.562549418568068 -151.408031819071567
21.601690923983455 -80.102798170827413 -151.204688312460547
74.458999185184936 -27.686246030594756 -151.232776343255665
55.242271290428569 -42.829874137914963 -152.576161018288929
62.459922504182821 -40.359138906297794 -151.910328178423072
64.765764337949577 -33.873882370333050 -152.301106795153117
127.411026620149585 27.790844974450998 -154.185942636849177
2.137465056231624 -97.375898520530129 -153.472496216439282
67.062315256860487 -30.715538276370307 -152.627785067828995
69.971070215433187 -29.050729203668251 -153.674484056324019
13.744990113771914 -86.785447438828911 -153.285352828799375
21.408785233514703 -75.235694463714452 -154.113333580255102
62.889918427033585 -38.546685628300366 -153.839073969686240
14.127114894547686 -85.428753061213911 -153.650820988341337
17.222497614834381 -83.148455125599085 -152.953436635744140
21.115922193473715 -77.457296574142461 -154.398804247230231
55.188317868082457 -44.756275273805556 -152.737363604934103
-0.187973997224632 -100.813190932857651 -154.431236143384893
0.613915165566522 -97.303860063427592 -155.502496054016262
14.298400453343055 -86.784006166437919 -154.473683804880693
19.341837364558071 -80.465430774929246 -154.412898862327836
55.157645397053422 -45.522078556553737 -154.683107847175648
71.732638804294766 -28.211680276754077 -155.117140614815412
61.011900712132459 -41.563217226738637 -155.198586772013556
127.801196583363776 29.417914973610984 -153.605051249704019
131.301152723133328 31.958496909684431 -153.675587093088183
15.201042705427019 -84.887190070801495 -155.420385118889243
23.331959502667711 -76.197421291496923 -155.853580794335073
0.957761379283398 -99.467355200911044 -154.635532578489318
2.039835717269507 -98.223212184033429 -156.072744169980894
66.006848713852492 -33.272997496018768 -154.879553788724081
67.331654859875670 -32.367828667832129 -155.123645688847034
69.764011558896485 -29.725838665512189 -157.484279755337923
70.995610637968468 -27.102619510256467 -156.007927268552606
3.690753689049660 -97.577000759147722 -155.880776412484721
18.845795839357013 -80.649495840537327 -155.504079430383342
61.359932221133832 -40.459648235579941 -156.744862027019281
16.456460862304521 -84.178875436690220 -155.212934712923413
20.690125454832724 -80.092357430078167 -156.687860998443227
64.211884768227549 -34.684205190476746 -155.055762353618576
0.988676169656972 -97.839623211912780 -156.461551267667630
20.229385862698965 -81.885768833597879 -156.775298837016777
20.540456762978476 -80.523983117679094 -157.286046596458249
24.575992356802498 -77.096727301380099 -156.034257000852818
67.209269778494686 -31.560171529356950 -157.009863516677484
74.541127230467666 -26.817643190267681 -155.788815895907788
17.250336512215107 -84.487250450946959 -157.533294728034519
125.470217194723659 27.344009128085357 -157.834672520384203
131.065058811597083 31.327256884598057 -158.268276386839716
25.060069313653354 -76.059321901970378 -157.204446034312696
63.018154228172691 -38.735923367555813 -158.147885404341707
2.144855230517576 -97.509783202247093 -159.002255413458954
2.838148168167373 -97.883298891876919 -160.327376714624364
16.868727322040453 -84.244190378727836 -156.557302216625544
18.364014682518189 -81.156662800973351 -158.769238271729591
53.138990775454054 -45.910592064252661 -157.473602131134072
58.498393363193529 -42.214708061731770 -158.197930384545089
59.808890421175427 -39.574529346713362 -157.940009412747401
64.337895586792499 -36.187887987718007 -157.917522240492872
128.081359031950598 29.072852521464121 -158.205467939415485
59.266389460316077 -40.729876546790479 -157.091867567594278
71.166533058378178 -30.104996004949786 -158.325048439238117
23.765984234648670 -77.397849548015685 -159.869854966941517
25.802779351781467 -74.940019311656783 -158.435457149336884
60.034680441327339 -39.053644144282451 -159.246894035477965
60.757982647918766 -39.460825932738551 -158.326138374014192
132.390241130823370 30.733532546085797 -159.047471506955645
2.163634580046963 -95.491185808976994 -159.596377694889526
18.748114494798529 -81.382787431408858 -160.148307070168528
60.264786295330971 -42.725541057944461 -158.955061829115039
66.564529787764528 -33.519472285449694 -160.268758777958908
3.804690094196663 -97.050368107955734 -159.272291660939118
20.072599781732151 -77.942062958501523 -159.098231771700029
21.788171299465287 -78.149965065553985 -158.420031819808258
23.632314863981321 -75.856889722970834 -160.016137982265093
59.641772336898313 -40.943791346376827 -158.960923413094946
56.169938342957423 -43.810776302066436 -158.782792470132335
64.272549290168428 -34.396717636871564 -162.105027394171174
74.524505983305829 -26.153339088647066 -159.807957826396063
50.507890794826579 -48.051026569285433 -160.910257437021471
53.955497213125462 -47.460584228169459 -160.108606470946910
53.296163464320692 -46.418593160193304 -162.508311307333912
72.843156841595842 -28.182683441656216 -159.681431878264704
132.609458674467191 31.506997791840842 -159.903185599648793
16.741315477787527 -82.210723272402930 -161.345607388870832
20.027883446896567 -81.146303602572701 -160.413033615338520
20.744986201751502 -78.480388818501638 -162.356384949974313
20.500379471604905 -77.867433883248921 -162.475821326838371
26.475809418951116 -74.367056509345687 -162.541762556260352
17.018857140346565 -82.263258975879495 -159.839921082799520
67.693649963290866 -32.035086295183611 -161.780422739157586
72.610579090889715 -28.602691727361677 -161.140066674049194
23.909361095775573 -76.140092668973338 -163.385376315659386
127.051034086488357 24.752484076198378 -165.411840043834275
21.792485996112880 -78.823952465464345 -164.461647492688286
21.883427556143531 -78.815129114054457 -162.827648397096624
64.663087594853195 -36.608982611436176 -162.880975548170653
64.154837256843990 -33.524224735311300 -163.940862032224430
131.499999291321444 30.375830249303409 -164.417905838107686
23.179017089935193 -76.259023807091395 -164.110968487174006
29.017452481141760 -74.668523259713481 -164.157115156968985
68.546294509464914 -31.741316549456403 -163.575156537727310
18.235400013081765 -80.929298659321233 -162.463990244354619
131.348302299715129 29.846997582217881 -165.703755496503078
23.390181192701185 -76.165204374212195 -166.126565055438476
26.428884985861007 -72.123712920901298 -166.222221051407871
62.015873881581797 -37.848548427794753 -165.142473547397032
70.254673126226450 -29.347883921442616 -163.828635140996255
129.444186632248915 30.553388993464399 -164.798607880033586
20.987094498335264 -79.858816258119518 -165.472807735500197
126.766161420590322 24.995723713597268 -165.329446145908889
131.121131231966729 29.392059733953111 -165.580971794299955
65.112227316268772 -35.622814933495384 -166.745474960346343
70.712831890849117 -29.169039072575437 -167.490227641426770
18.646910529201211 -79.659292552682331 -167.733472801698412
21.756527447322153 -78.761124858840816 -166.786158695583055
22.998227324219901 -75.088452538250266 -166.646217029049410
24.477385768768912 -75.530110373529752 -167.478818134006445
61.582291470677752 -36.837441383905322 -167.780961594068998
21.227387904952021 -78.833316298706293 -168.024712528785159
131.316924471407361 31.475712110071928 -168.466530507820607
26.126555899103035 -76.653880907373917 -168.311150322806384
29.381894577745303 -71.811038783167561 -168.438668081179117
66.118863672972253 -35.491085355749149 -167.937357626847387
19.412781047117587 -79.381061955569606 -167.720575120578559
68.414809142197427 -31.182459318531038 -167.352438517501639
127.419091358124433 27.057851184140056 -168.210562793646858
24.589923757144525 -77.259021332333020 -169.737025595087886
25.539513118283715 -75.640497037897973 -168.713541683681001
26.757733952080589 -74.682264307847262 -171.275889419001317
60.836265315852337 -36.739828182497455 -168.881260391235628
69.209758547661082 -29.007861048996659 -169.040956866730539
129.990603966796613 28.642343635623963 -169.231309406696226
22.841475265488448 -74.685972638668289 -170.374856175816177
124.681740710524025 25.747097755500821 -168.531236262360238
131.098081707275526 30.188439301722511 -169.907753492658117
26.565076131313749 -73.306488989440737 -170.763724000828716
70.252716541359987 -31.792924821048228 -169.248064559898467
24.375179866892413 -75.773962306414361 -170.094381088496789
29.907785821924485 -71.836873013739009 -169.911244661840925
63.439863730772728 -34.503884480092090 -171.889515594854998
126.636475214686030 26.943944239982059 -170.948605679544414
21.163571708636578 -78.655429203662734 -170.497959010159235
25.649149378805376 -74.640058097400754 -170.769915002599532
25.760625847773071 -75.723027358433413 -171.781966513218379
29.208743968722334 -70.327706132021206 -171.307734009657167
128.839198523625953 29.465170743612816 -173.880841558287017
128.977882064170814 31.361192345460648 -171.082862654259458
20.382946872854959 -79.018914819830400 -173.185826776208216
62.275627365438304 -39.807177768144420 -173.196530076491086
129.306313626119447 29.872399384244485 -173.101027720377687
26.205665840959632 -73.965104760368035 -172.331757897909426
64.609266475858703 -36.306888576575382 -171.830414749611521
128.008150348135956 24.779287311562545 -171.805837501256036
68.848930435066208 -29.254108666157475 -172.835635237851477
21.233119216131641 -76.373777387631833 -172.891691526166625
24.153763423584596 -76.187210478304380 -173.042245986040228
28.253010683569016 -74.015416432089509 -174.617020767231196
25.936124973684301 -73.412846147604199 -174.334470844141009
69.944197948139362 -29.223430524265726 -173.702518734924240
22.476038814666435 -74.910437895968272 -173.431089785909649
27.569715805671663 -73.630200383443295 -174.845881408084239
29.271741291970837 -72.589312809527613 -173.681120099962868
31.236695853707211 -69.922507794712729 -175.988916670762478
63.784248420879926 -37.080359451346318 -173.414851498115013
126.758479380890876 25.208252291294396 -173.933100122766405
22.604701609074716 -77.333376041673247 -172.808354869175474
24.398945306862093 -75.627396262536791 -174.560690088750675
125.640101930979398 26.944028750020387 -174.729269858594563
-55.091757384608478 -156.168743032402830 -175.818260958210573
-53.369139006592995 -155.908011599683050 -174.934068538716474
-53.955783051277876 -153.776143860331757 -175.535281000093988
64.185359126994499 -36.889022196630108 -174.842062910954525
68.065280506669339 -33.202543922906251 -177.070041423032393
71.345044218497449 -30.173666705720606 -174.126775118845188
130.879176857023992 29.670981863845395 -175.176472405864757
128.365025531054670 28.535904011479289 -175.736807898485665
28.381767580661375 -71.484519953859760 -175.595931718108091
31.479874412029901 -69.234418913938583 -174.914289278038211
60.852749425276194 -36.552919147790568 -176.270625337852522
-49.821587185898878 -152.041244803617786 -176.109707927859489
24.865141188301074 -76.291726772966669 -176.110067777731331
24.196733055266446 -73.026816325592364 -175.165078284285300
25.942677940649272 -72.042619256516161 -174.559399695450509
27.259416389495584 -71.658878019823405 -177.118902436969307
125.637536130262006 25.058936102344937 -175.593360256109492
-57.592040611594072 -156.770435421916460 -175.275253989354354
23.167096645039532 -77.295854219610206 -176.148995019082349
69.870178177611635 -32.830285841397128 -176.365351391926396
128.682261504861998 28.603089713127194 -177.053834276536918
-56.397450409583605 -158.396358992951576 -177.148972406575894
26.029212466390462 -75.781524996426398 -176.934310385685109
61.302991244211213 -37.566080780947694 -176.244915264090992
62.174956524075668 -37.044604165146673 -177.878053339546312
29.711510541099500 -69.646778699719462 -178.607515683815024
31.297645980816490 -69.551942358915312 -177.179208513983184
124.393274710744151 27.743663116181846 -178.163453815607681
26.314563489609505 -73.692426075876810 -176.761171334367162
26.434298463632793 -73.109301889648336 -178.834396416572304
27.073606592134905 -71.453938594307218 -177.467194453970421
125.277022157378155 23.577232931740902 -177.946719470976404
-50.853432720585772 -149.814020223018531 -179.847527301997161
24.636432988238919 -76.781572991396672 -178.834625859278418
32.854754394724807 -66.937500530149578 -178.344017324238848
33.875500123123430 -68.286026845178739 -178.325843969924335
63.558791888776128 -37.777977868185026 -179.814901571673403
68.939866536597819 -31.472994157583411 -178.123830664516191
126.161281728826737 28.567936326017371 -178.862086277109029
128.845043424551392 27.785905881450109 -180.339613680952198
24.321756974136292 -74.786060772377482 -179.087673957920941
61.635800005878984 -39.109590932161318 -179.619024872601557
32.146614114939908 -69.647216816572453 -179.087316503266180
-57.413271654585706 -157.571896605496107 -181.942179304760117
24.632911678447517 -75.755301244184537 -180.838985000565401
33.367166614367093 -65.633242768695325 -180.983065772428972
60.812196062284173 -38.640584441843075 -180.646915570395436
-59.261486751466983 -156.784954215714436 -179.194328358827022
30.534220222119085 -69.178179629818587 -182.577255560065737
30.717283675116544 -68.938882542437398 -179.863852683544820
123.900800310302870 24.738347950450013 -180.371753673800924
-57.369417279865900 -157.448559385423152 -181.157550801726671
62.202961456633588 -41.498506153002275 -181.487400311103897
24.126525081031485 -77.114982514739864 -182.343444380416031
28.112494302790726 -73.498253903346054 -181.759225576506083
27.201422915170859 -71.145580498620447 -180.453384916484111
28.986321712586847 -69.284508436345405 -181.509545017612680
66.925425198414899 -34.335542839965925 -181.775614738944142
68.953326430977398 -33.475642560131170 -182.045284755455810
126.328720276590204 26.332509963232020 -181.180714561106697
123.818098599484586 25.512394471743001 -182.365495744667129
126.052383651352628 27.322380535129259 -180.811461105166103
126.312474774837241 28.117281986759426 -182.871374477504446
-57.134848917885769 -159.647318963770459 -182.030561183716713
67.610847969332369 -33.029640774022710 -182.235406300217676
-57.633621282034099 -156.731187171677078 -184.330632059641545
33.144972366993599 -68.440556032595765 -181.945711157649953
34.242611092308195 -66.257823320004249 -182.940755139940194
59.200751660153593 -41.197030936104525 -182.292161544861756
69.432525767055367 -32.265817699603254 -182.760769387034259
26.880458110732423 -74.786574289316007 -182.263936492918560
124.313650958973582 24.607798583206826 -183.705968486963457
27.126599049240838 -72.203937964874015 -183.911101925800295
30.437385464889747 -70.833221429096469 -184.459832630047714
60.516780414503025 -40.271030681397150 -182.978688658520070
68.859115904672507 -30.847796603835992 -183.485034660532250
124.043514255337683 26.363226385503562 -184.225035654167698
-55.949850604634072 -157.599771597280039 -185.910200286169896
31.229667495826334 -67.817379733255478 -184.814586423795731
31.751276506259728 -66.817943771059873 -183.706201275760719
122.910611346713367 25.277755738218421 -183.542849391539249
-57.983744368187715 -158.467714348318822 -186.273073690740915
25.807605617534456 -73.120901571772819 -183.570529858054186
28.618793896408786 -71.013426157068821 -186.428469547256498
29.905186517261157 -70.690336857325221 -184.273273399576112
125.812842935106090 26.209218806437221 -184.142561637599783
126.559715628392283 27.484156613047105 -184.526318317287576
35.975850288939860 -67.070014328289687 -184.237400907347507
60.931135333656158 -38.205486263900802 -184.648902341621749
33.667536221991291 -66.392775286171272 -183.500265862527868
28.920174872782834 -74.046909652979878 -186.819420363862093
29.455754831439318 -70.813409701367092 -186.534920538723355
60.934350780085090 -38.603075237285864 -186.603846320040674
126.921296068344375 25.747314477397971 -187.907071341781574
59.344783636184282 -39.553778237528626 -186.196885521160738
123.163825306655369 25.705613735378456 -186.601662777562780
-56.661147068870378 -158.447386577887187 -186.549784995525243
-57.590560131601869 -157.208517740590651 -186.152621287473323
28.929432197318050 -67.144845630463564 -187.048196298876377
61.683715139832870 -38.864637535507285 -188.117225010962187
67.919779411798373 -29.612469573536018 -186.607644808772733
121.990396299093845 22.346170070591047 -186.958632514723320
126.146879026728925 26.726772091004733 -188.451064965721514
32.214771601019748 -68.216757565040197 -185.301558100757802
32.168819332290951 -65.620646998065382 -186.474843664520392
35.757324741447029 -64.481415746227967 -187.130882830359269
124.075147539213319 23.518235382973835 -187.986994211659436
66.996358212111943 -34.479979351599816 -187.544178879694016
127.729040896742831 24.513682810658700 -187.385806012289635
28.082931843438253 -72.429347984202664 -186.519560462709507
123.959393652679225 25.797717522134146 -188.286006648628103
-54.951769293170202 -157.250783210986128 -187.625947181655960
-52.269166637800346 -152.957747856816809 -188.487724213336691
30.233768937918619 -68.389799550906261 -188.014806897259547
60.781105663242826 -39.104580520353423 -187.802430132364350
-30.244812674407175 -127.893656041862229 -190.322691665274647
29.878112083102913 -68.581165789215262 -189.728921356331398
60.298085603892204 -39.659504264984605 -188.020516874296732
121.215328218549146 21.842899767626445 -189.885011506926787
125.830050739638082 26.327245428981385 -188.964158795191878
-52.985498224232522 -151.948044545227106 -191.335402389833860
37.830959158568469 -63.452298471915810 -190.981559391069482
57.887548157598872 -42.069715764991599 -190.593393403079546
65.997202347763277 -32.848618081468402 -191.087541672116998
122.118145904722837 19.794750656115422 -191.068233569021260
-29.860018821209952 -127.997781359111627 -189.368218267181447
65.653354497653652 -33.603613369802495 -188.565637258600049
125.212401678652469 26.169546405016067 -191.025591289281579
-56.213943699630256 -157.781373176791504 -190.641796418338402
34.934314083803208 -63.258086987336057 -190.662267171758629
121.055406695755252 22.474838495231712 -191.660334706680658
125.203398187736056 25.566933499024547 -191.551405579774297
37.972540640424469 -60.875569226499991 -191.545504686623786
68.315971633707036 -30.956312727096730 -190.452968859031813
123.217848935338935 22.671106408315250 -190.485670246756285
122.754775677812617 18.911539297751361 -191.608464538523947
30.939908080899173 -69.107063416050039 -192.669336255360605
38.374045811262441 -63.886273239046943 -191.196484500029356
38.099809600155218 -62.751746354107482 -192.540370150885224
65.015859057575454 -35.665555171913915 -192.417197922499952
-56.662510379186344 -155.983376643171056 -194.363309657256536
-29.363156946198760 -128.120321823383307 -193.483420071317596
124.962653376745294 23.146468264846352 -191.857050343138241
-58.194532560309362 -158.599526977587431 -193.103620620233556
29.149343148825341 -72.116006139819646 -193.943172686932854
121.101620380598789 21.964503109550620 -192.416203194344746
-60.968539646778289 -159.596706563120392 -194.192141837770947
-59.999024676879934 -158.107177663783119 -193.507348290464336
-57.730700053914759 -160.701235650997603 -194.621198849517071
-57.712495873473287 -155.896418589612381 -195.444049578557525
-51.575321755349854 -151.590103927904067 -193.311782411494875
-28.374056895984186 -127.176612174760479 -193.555512150443718
-26.888426051855564 -127.114799434471976 -194.987857231204316
58.188253607370527 -42.551663234566192 -190.926417831916666
-51.089427354256188 -151.039669600214751 -194.014614309390822
-29.049976413312564 -129.315032026177477 -193.928513804255914
123.189585303877010 23.870101816550772 -195.143623189311825
-61.944528002244148 -160.867677487951653 -193.431367390051406
33.054005201307682 -66.810911584669086 -195.288069517063775
