# This PCD file was generated using the MATLAB® pcwrite function
# from Computer Vision Toolbox®.
# .PCD v.7 - Point Cloud Data file format
VERSION .7
FIELDS x y z
SIZE 8 8 8
TYPE F F F
COUNT 1 1 1
WIDTH 785
HEIGHT 1
VIEWPOINT 0 0 0 1 0 0 0
POINTS 785
DATA ascii
2.841866405349203 -117.647371980688860 -102.581266310372698
4.909158320840858 -115.484832081303523 -102.628128403835561
5.449739837171599 -117.085685323307004 -102.582700365793954
4.527638212867488 -115.724456655798122 -103.689106096789146
38.278122435749545 -83.132741484578929 -188.798849544842454
37.518469425947991 -84.458916737020786 -189.824799330063144
35.708536980722577 -85.293572249353588 -190.632782298873167
37.075336690851472 -83.561198621419351 -190.742056187037520
35.527423395949263 -87.034201896742644 -192.153626057965823
36.490872272361990 -83.739944835226680 -192.563279349285636
33.383069331497637 -87.741132419664638 -192.286154716029131
32.980891827989829 -88.794748506881618 -193.171001701791795
35.194726889206336 -86.487515516665013 -193.016305981427365
34.686505987930921 -87.042235368853611 -193.484062671939000
31.227395491467238 -89.532555463162936 -193.926819364889553
32.871452879008636 -88.094874138265652 -193.067816494908271
34.650881577259057 -86.748182929693428 -194.251171878559660
29.687257774719047 -91.645959981769195 -196.133278658596964
30.054915907527519 -91.316645355034183 -195.302118421729688
32.619073793868012 -87.995867378616239 -195.376817018835681
29.374110253458319 -91.458923448055117 -196.296046447259869
31.785358639158691 -90.428588893794100 -196.479039168400988
28.029320749395179 -92.942526496899092 -196.995381299511507
29.569211942817191 -91.307218475043797 -196.727934449434912
30.743411134131463 -91.375702561458269 -197.464642215586224
32.152560586642018 -90.515641997663678 -197.026791989300648
29.756833488585908 -90.881134663562662 -197.964417776546782
26.563509190473098 -93.436685825274722 -197.297354327164612
28.366706533201587 -93.316139346007546 -197.857214119768315
29.019918730726573 -92.651781883490031 -197.695069015625393
25.587905968187961 -95.400347021642389 -198.834613706219329
29.276882979246245 -91.663555210592179 -198.588356366620417
25.130553600193945 -95.643568634089320 -199.454686613583959
26.807507011071394 -95.432901340142536 -199.411865358460346
25.277437180597929 -94.898113345881669 -199.612273477759345
27.664718830300885 -93.463625703326983 -199.497118355362574
25.878480279138024 -94.726619810632158 -199.998098379007700
26.341863700672207 -94.295875333122282 -201.495161170325275
24.756182434819362 -96.542697799343344 -201.170406250922127
25.542898510771380 -96.880033131393475 -202.078321645741340
22.716010643505051 -98.638193153918408 -201.948526707828847
23.328453957825385 -97.312665375313784 -202.381716037762459
61.664184484194436 -60.056047429382978 -258.853051339418300
62.214593372351750 -58.973473058127269 -260.034882887424089
63.946138740175130 -56.652829840358351 -260.491358862606717
61.898899882689534 -60.241866682136695 -261.313295164809801
63.091076686935480 -58.752901824756336 -260.585957275180021
65.755270927206226 -55.513442575542783 -261.425853196828939
64.679507555743967 -56.378089797881728 -261.224574922649936
62.475834402726043 -58.313216866527604 -263.207502034262575
64.284413006641870 -57.092523998674281 -263.573815678111714
65.585515189856849 -56.216356946300344 -263.466775480518265
61.076475586421594 -59.641948098575504 -263.932626941541002
66.216571977195315 -55.109711960823063 -263.404911152867442
63.927613725167575 -56.967872499660444 -264.416518756968742
-44.156376435391820 -165.107164108536750 -264.975350985274702
61.598167667436812 -59.302023803220514 -264.809010525922758
66.956962079206562 -54.084788270329938 -264.916593787006832
66.826702940683802 -54.315340365989833 -264.820057904121256
63.023055051651625 -57.869362418549315 -265.360904147161136
64.473532251312264 -58.150782558752937 -265.619209619960486
65.787270212871846 -54.369232339629114 -265.040228000216132
-44.473866150842497 -165.685074330686206 -266.789671913969187
-43.797155787072754 -165.124602669310661 -266.324381083375442
61.890933389767071 -59.493508357232955 -265.931385076835397
-42.675653277645011 -164.483349764055276 -267.568891432402154
-43.545687660835384 -165.322835960172512 -267.990027496318930
-44.988294347802778 -165.642433735355297 -269.770785542582473
-43.945525254790105 -164.619401941728455 -269.923177576333501
-46.255649962235019 -167.087318811924376 -276.863555386341318
-43.402778015461443 -164.976327619686060 -276.013845969931594
-43.746258567810578 -165.448220480027203 -277.277644772903670
-43.351947658748358 -163.311931273433402 -278.236425560440637
-44.074622840826386 -164.742616927110845 -279.438400649405253
-44.918437704645036 -166.340864694631250 -278.843617443248718
-43.092707876065418 -164.532022958455372 -280.166504497121252
-44.167343185608495 -165.361659528021278 -280.216655462175254
-44.334010244712722 -166.210041614268675 -281.943800052272024
-42.970770270841221 -163.876493569436889 -281.475674990447999
-43.465825021852872 -165.502773024286654 -282.787752308616405
-45.423013406092998 -166.183592719346279 -282.838107325769784
-44.350976771758468 -166.069884446034052 -284.207276011550334
-45.836559604892784 -167.004926053522638 -284.458507896488186
-42.743642240032329 -165.165279491854079 -284.511179063606903
-46.384350114668813 -167.128930403748512 -285.595617249919144
-46.859157010820724 -168.324581553522194 -285.163336429306867
-43.249875299872635 -164.147747069826067 -286.529794036405065
-46.229351482270111 -166.900662054292326 -285.978645876024757
-43.848356862813624 -165.363513991726535 -286.625448752653654
-42.346793499103526 -164.157967959183225 -285.911333309290569
-46.733544943945873 -167.524954520710054 -286.328323109642781
-45.089578946909157 -165.147205978154886 -286.465941912478002
-42.051891977223775 -163.460027867510746 -285.655456605165341
-48.616081001452649 -168.818160850171751 -287.066411037380590
-47.134760087190855 -168.939828702485130 -287.639169677898906
-45.921964944932448 -168.008391348729617 -288.216924764261080
-42.485988431313054 -164.065119419517885 -287.215030939773555
-43.226880677175139 -164.605601425455262 -287.732104067436921
-38.874707517160957 -159.929630221323634 -287.161452620763328
-46.668589148632996 -168.615199755281651 -288.053032216030886
-40.591316151305996 -162.826105445841193 -287.775806269456098
-39.898590565356869 -161.201291658427863 -288.152238895962910
-37.839813791478797 -159.775429264715569 -287.761164566298476
-47.723997745217240 -169.734408718715287 -288.863035382354894
-42.456852935448595 -162.453455250947798 -288.927547107843736
-41.357622702587406 -161.052274228337950 -287.684623452880885
-36.775041772653594 -156.474572073905620 -288.317880300036506
-43.124988349458071 -162.640985550904361 -288.955702439635445
-41.397689637569663 -162.051620130781600 -288.545043890373051
-36.571575784275801 -158.094598351035302 -289.214560746820212
-40.935677483084703 -162.471057116541914 -289.641236368313002
-38.103623491397769 -160.138415154315226 -288.268380372483762
-46.915559733067681 -169.549967768473238 -290.286045220437643
-46.513682822577302 -168.440282404042364 -289.822449256889513
-41.325578073550581 -162.474708760165100 -289.637919808689674
-46.870430998927262 -168.789137947349559 -290.603971204627896
-43.708829172210550 -163.930613806953346 -291.282317377280890
-42.569986726275744 -163.745648439524388 -290.328460056800054
-39.035418863630234 -160.952281373105279 -289.148532521199456
-38.608248505622427 -159.296299689502604 -290.756809010199049
-36.098923699927589 -157.133664856713665 -289.410575485423522
-47.112385365717998 -166.793259036106832 -290.959950732562959
-44.545061404663620 -166.672466293830752 -290.553186715264928
-44.114730217807391 -165.195002896937524 -290.896595157999627
-44.208818916842766 -164.399841636377204 -290.634465336539904
-41.954915723712524 -164.004443347531776 -290.397905858364936
-46.094703250889211 -166.585655627655115 -291.038780176688874
-46.097829607580685 -167.169922264094112 -291.407643649609327
-45.160480142832441 -166.874803146951479 -292.251866877637895
-42.634862487827405 -163.775819648732607 -291.322170497848617
-42.874302846409606 -164.208965358304340 -292.645163020987468
-42.679703123976658 -164.833042552994812 -292.352595646109478
-45.567227478977159 -167.734668194003262 -292.095533315882960
-44.141063800698134 -166.552487107722612 -293.794596215379215
-43.132466475578589 -165.638055235766103 -292.378739667116406
-44.591316367744881 -166.926861771211549 -292.598236843014888
-43.585848416689018 -165.551366849155585 -294.147617222150984
-45.844834302723513 -167.601580456787332 -294.417247798459698
-45.453655314989490 -167.593801706179590 -296.627351976783132
-46.032460115609645 -167.214567935465368 -300.122452516246085
-44.128218098014642 -165.883617530583280 -300.643561942022075
-45.639858827762595 -166.403755997054702 -301.179348375102734
21.821065597658947 -97.085034733243219 -79.029093666635944
18.906654113452593 -100.674134502998243 -79.511753551792907
22.225866302788749 -97.694268320591476 -80.506507098511946
24.200470853307213 -95.162058668231467 -80.094888633417682
17.503234021925920 -102.969084251985592 -81.269212948298744
14.954188313625270 -104.805787465153458 -80.457525757314073
16.787737693808189 -102.734743655114968 -80.813488273497370
18.987189101588413 -101.388922508336876 -81.462929291673490
22.003759002676329 -98.736253897544771 -81.229280459498113
23.322954286409036 -96.270582983404481 -80.690302841219065
25.242502432576568 -94.983439356070221 -81.154226212544387
15.470386715058810 -104.122530430467890 -80.724190099562705
19.828411263884320 -100.537537267356527 -81.975583585814590
23.761175103767265 -97.302392932635797 -82.168178007870480
13.018150719778253 -106.565086745483953 -82.148289145209617
17.556080831114141 -103.232600270044131 -81.993769684156462
24.315401376095814 -94.991577953933898 -82.227034584637650
24.922873144932179 -94.776556622185126 -83.531502370569044
12.569130399919079 -108.145066332173158 -83.718474819354725
12.421000382857022 -107.281870301046681 -83.439609888380019
15.514247740432646 -105.789495923417704 -83.823782084160044
14.673587064663058 -106.679631475221825 -83.827119459565907
14.098286373334384 -106.779285560146349 -84.451457943066544
25.680818952285996 -94.741289988243565 -84.502184752696678
10.253846222771189 -109.318918429106375 -85.266160169749483
25.356813110195827 -94.836187961786123 -86.169353528178604
8.762261124860517 -110.920516893661002 -87.459852978952597
25.054571968445373 -96.020823460475853 -87.966467195966345
8.373806645034062 -111.546317945054525 -87.660652332876552
9.992298788846405 -111.253478154182559 -88.439454099123466
6.506452018979559 -113.222113577951006 -88.987863275550978
8.268685839849365 -111.018508293747118 -89.532460058310591
7.413345382223979 -113.028935405960752 -89.286813365226351
7.527346137255726 -112.780461610273576 -90.955867522156282
5.693638608681010 -114.298939940066361 -91.432945635670137
21.880336998445294 -97.668234741945525 -90.190177570695070
20.983185933464451 -99.402082666959430 -90.972131379248410
20.886306910363256 -98.860974452382735 -92.479435593227805
19.753388985771188 -100.251871198567486 -92.755621205805411
3.183472260280441 -115.115014899190982 -94.250410290853821
2.601051047341940 -116.487603738427296 -93.740952542702075
2.941112976600687 -116.843578262067453 -94.907992367343155
5.431655808771309 -115.944356846780110 -95.628728533454122
16.585635160521480 -104.993036856499543 -95.658845910212236
3.307269414770721 -117.087989176121638 -97.534232344550091
1.654289548589389 -118.940179167364860 -98.540079185781224
2.980635641410666 -118.237546088689442 -99.673706694700812
7.585856920426896 -112.643581878102793 -100.020360931261948
7.846177901774916 -112.068444670565427 -100.360161751282845
7.137609143943498 -112.132796425834442 -100.245709898216020
9.737313403266199 -110.010361923662273 -99.776558076680516
11.623019262610537 -107.996675668833646 -100.501577476272587
1.260172880174575 -118.763495940792083 -101.546763274235374
7.088033168882068 -113.225558553916912 -101.105488346676680
2.633126620943928 -117.983592099194169 -101.580233236377140
3.048397261860693 -117.413922217020939 -102.614540234790923
3.613480659987471 -116.525087709074683 -104.468086867739132
2.584582769524609 -118.336643621677652 -105.702059157892151
4.130179368981914 -117.205369904890247 -103.963629237667703
43.509404771510539 -76.706414652900335 -183.886764973411545
41.895612192240606 -77.885408611829888 -184.785702517836000
42.522619961381622 -77.415607597187844 -185.159239460317366
40.270005227949447 -79.851289575996518 -185.402920071846211
40.583406978495560 -79.476976869326549 -185.619454677926939
41.106197984844243 -78.550925630298494 -186.044009490305939
42.974453415908535 -77.645020417964147 -185.855960866566818
38.785604554801068 -80.393322594849408 -185.580356418551531
40.139759396451794 -79.964370996760621 -186.824493808275633
40.635738454063933 -79.664834186874245 -187.208279923621035
42.549795100882868 -78.188731297890826 -186.370072051980287
37.157672802181288 -82.787401333432783 -187.096628768271785
35.791395527071465 -83.362032060133402 -187.998299914960484
37.781530690837350 -82.314838137817418 -187.703432817012981
40.132523592416860 -80.754148898188063 -188.555877550823084
40.901549636761111 -79.533984858284313 -188.629086345256866
36.471665859599689 -83.935114429395298 -188.587053046936859
34.752431628994415 -85.617062061295655 -189.306173140492319
39.445188725355798 -80.146556133526545 -189.367806451885713
38.974154569733550 -82.032041107181612 -189.710880322444979
38.180901255936931 -80.360102518885782 -189.872243229057858
33.692702341202221 -86.546536271415462 -190.331289911259631
34.984342099921591 -85.335473226322904 -190.358260611626918
38.675360307567765 -80.471350922251204 -191.300700647824527
33.573113311272579 -87.597462469844615 -191.568549921211769
31.957618961052134 -87.817927706030133 -192.400386088991496
37.231698205196011 -83.598476713342876 -191.986397934156400
36.088342029124654 -82.784143579334952 -193.179236689979149
31.051748860906802 -88.468011392567291 -193.462328065004499
32.008604427923210 -89.133260015805050 -192.657608897825583
35.897702075877440 -84.326366109387948 -193.707725746834598
29.651914263473831 -90.433586774264668 -194.262188329820617
35.610650448342199 -86.410532142868206 -195.089898908522116
31.082444173678265 -90.314385529070833 -193.678709616225547
34.364149060815336 -84.852703369852691 -195.368913118818739
28.024157595182047 -91.330165290458197 -194.912787581625707
32.913443132658898 -86.528217761138734 -194.856782325394732
27.327556899793311 -93.318350049119417 -196.653416629171574
32.792592931450706 -87.302098555942607 -196.338197134838197
26.979118104023453 -94.461489582043683 -197.013871194713857
32.244492357193899 -89.814412318849776 -198.245083470292258
24.273068803824941 -95.033625924623522 -198.941970722478487
29.731403713885392 -89.750912632296476 -198.042118984579957
23.091350310779436 -96.325417580863174 -198.907088192940762
28.866637274430300 -91.713376386763315 -199.234123692428824
30.302716709989244 -90.548693275870079 -199.562214224608709
28.618270434492992 -91.098329909565877 -200.102690599212480
22.357336469741139 -97.233589730322265 -200.234872758472363
22.937499593379258 -97.381989009733530 -200.830040156561523
27.267007275344312 -92.543548608378714 -200.897512799887068
21.188965913080306 -97.909477331545972 -202.057819463742106
22.777022578127092 -97.549160704221819 -201.630951271977864
26.777740861571541 -93.714092290945374 -201.959223496257323
25.979665934079296 -94.919400547194954 -202.569596239424840
20.298563934640423 -99.109472440659147 -201.648593566310126
25.160293680188119 -96.624542466366719 -202.503019069492353
25.096387169230148 -95.605291588444331 -202.487990304667449
20.205475286052405 -99.263126293338033 -203.592218714430004
21.488467268238701 -99.739176529710008 -203.832058992427761
23.632793025778209 -96.822781174947579 -203.028628328053571
24.031242362585701 -97.357799097731828 -203.328784033237781
19.286368137787790 -100.990938371047591 -204.166971999619449
23.302447274390822 -97.401465453376460 -204.059866384194265
18.578813778336883 -101.562022147961656 -204.881863659681329
19.595707630956671 -100.537759904534539 -204.219934576828393
21.469057098820109 -98.799958154109476 -204.069979148541364
22.236110984207013 -97.724612507236515 -204.175365694586901
16.646960653133089 -102.537738824400250 -205.326824180605087
18.654824435579499 -101.806806206327479 -204.712787882188508
19.779400786580563 -99.042132949149760 -205.919080219369590
21.072823401033496 -99.750884486700883 -206.175622423190021
17.571477011478123 -101.639120153421970 -206.959916600850278
-44.274469665699719 -163.822659431936927 -238.116459120405239
-44.772849427970051 -162.620119955351385 -238.161082468601876
-45.028412391738968 -163.689641918403851 -247.356000752314657
-44.437620100781018 -165.215165234581292 -247.598271399829713
-43.700467788841358 -164.399040346729777 -248.549927019303112
-44.234608642492738 -163.837416875997349 -248.258105632477736
-45.183774835934038 -164.461566160031339 -249.532290387896410
-44.192246529284176 -164.274489709593951 -250.253396904655034
-44.249602775874543 -164.012746744858902 -249.841972110645486
-45.280935291072034 -164.441218816012338 -249.802291486401231
-43.696489997832671 -162.899094761736734 -252.179397248787438
-45.555700085968276 -164.994343007843838 -252.920523267754334
-44.899185638800724 -164.469162138472598 -253.196098916963194
-46.860809996294392 -165.186436068056025 -253.853166053817830
-44.610560975497037 -164.747457477794143 -252.901649336494046
-45.479562193039172 -165.268278521027099 -254.227551416358921
-46.129264762302789 -165.733701804204458 -254.280256576412739
-47.878477937602369 -167.325951824936340 -255.395578660951429
-43.396284851014990 -162.812699908924941 -256.074330088037755
-42.363876796526100 -162.292676764442916 -255.529557915968155
-46.537818107185053 -165.695284628196760 -255.732478314877483
-44.734290735014667 -165.444922367731834 -256.069499179007323
-42.778369085797635 -162.748121703086497 -255.256900661478852
60.122244017340364 -60.056726123943925 -255.980396068934994
61.441309746092976 -57.824275960361945 -255.461583841844060
62.457380933795484 -57.503244401386098 -255.062736442738156
63.533113063144341 -56.810662152934377 -254.384699164568445
65.481446223896199 -55.350444216501437 -255.371167878752630
-44.510671690292853 -164.367741594699083 -254.984990708035809
-47.812289310299434 -166.067255513295976 -256.768583578744256
-46.436568940543403 -167.234803308807898 -257.185318342290202
-41.975285507729978 -161.718645937465595 -256.492339736697318
-42.181067266094843 -161.702550096210956 -255.777652465107053
58.519824099430934 -60.497930460136757 -256.967677507896894
-48.272234150986144 -167.983379635144644 -256.647687544019618
-46.455164093998043 -166.331194786187240 -256.680593561852618
-42.806137722144527 -162.021667115142861 -256.949616446978837
59.901283164160560 -59.557904280866765 -257.685270151366012
61.509355269159869 -57.502534289664858 -256.391808547234803
63.714555853446946 -56.394181641459006 -257.762561071459800
-43.610758773021146 -162.301358178372340 -257.229883965566728
-43.208831556687684 -162.633375973316845 -256.981085978468911
61.251890353899341 -59.751761556420178 -257.060520055151073
65.483085000793650 -54.830959877239273 -257.872607586825268
66.220267625496604 -54.082290006759571 -257.554217616472215
-46.908602828621021 -167.483557145292025 -257.968090967799299
-39.345777028166872 -160.437453447294615 -258.061474314847715
58.335019667341435 -61.189232714964561 -257.663928444480518
-37.550750773678352 -156.904002047152773 -258.575946187460886
57.668624336459587 -62.040194417782359 -258.464329237545769
59.264748945434299 -60.346340835633875 -257.498633762080090
-47.688953866172177 -167.851523510409578 -258.229417253903307
-38.192657186295520 -159.368053157605715 -257.882123771070553
-42.391057443573629 -161.233758060999463 -258.641912711063867
-36.901661359125583 -157.006575612941305 -258.667574880333518
59.699675336724560 -59.007801050422160 -259.304784336369607
62.838660375320494 -59.024243809304672 -258.564432246152421
62.898041399755314 -57.863798044783628 -259.056637081042709
-42.325541930537057 -162.195868468516153 -259.488800928533351
-41.656032177963702 -160.912189402886412 -259.445340924712013
-38.989008438861390 -160.264037349087999 -260.402887183997052
57.985883137802936 -61.924569133600471 -259.720443090919105
-39.475714325419681 -159.791444213851264 -259.798362952328944
65.987627304960611 -54.792447202721881 -259.864533332117844
-47.249802397761989 -167.567231446840566 -260.436542528204882
-46.523329157000177 -167.082748375574852 -260.886715392438930
-43.825946978954072 -162.916405798762753 -260.249691408286822
-39.311871689859643 -159.460312943865688 -261.114734039798918
-37.397720324205963 -156.830282066037228 -260.285490642410025
-42.964633192557464 -163.864820328480022 -260.046127794125368
-42.336989192366666 -162.481219046440259 -260.558021911617573
-45.905869624575175 -165.882982151102254 -261.231972630085693
-45.783408096052426 -164.877372753854445 -261.416358351311828
-42.003339702397653 -161.978341345571408 -260.509201869793912
-47.257999320505888 -167.342946655584569 -261.477219244510422
-43.985929961899231 -164.662285205812623 -261.915102303914409
-44.898523053702796 -165.848673581878757 -261.017238282650396
-42.978916722373782 -162.477849793415629 -262.552080309168105
57.803346661088995 -60.599913862273461 -261.371054323200269
61.084437450760227 -59.229187560957300 -261.420526083680215
66.773768066500665 -53.347465224060485 -262.302237972192074
-43.419639276412966 -163.114529733345734 -262.665991946632118
-43.046526906034821 -161.832266558351108 -262.186244232798458
58.783256915746072 -61.813393965103430 -261.678422949482638
-46.225835687476383 -165.724116093288387 -262.479725322865022
-43.128244839277905 -163.722610700530254 -262.208693245550478
59.572161499486214 -61.779365004287911 -263.893355544717224
61.731166827599210 -59.597350086302761 -262.532297707877376
-43.622317439019035 -163.834126900976827 -263.124933766811239
57.392635971883912 -62.917593251995413 -263.407652454369440
67.195633416580620 -54.546227850580657 -263.464995225981170
-45.225539291083798 -165.613652450644707 -263.975722747666566
67.025553945540253 -52.645578265568339 -263.690227205084568
-45.696036014766733 -166.662207586782955 -264.303327308597147
61.531479131008993 -58.227314940514162 -264.043644345224095
-44.103231111254196 -164.098616035466137 -264.818198606190208
59.184073594382163 -60.737800933926977 -265.121731868943186
67.438735203151182 -52.301823609633566 -265.024843671969279
59.334918948701194 -59.812921518961716 -266.500982930250530
64.503554183140679 -57.173515293706664 -265.879431805646334
67.943454604728274 -52.634914091298633 -266.625068240942710
65.370128126141182 -54.483066857571366 -266.658841960238476
66.651568360477654 -52.781085502284455 -267.188926994903227
-45.276702445901918 -166.049909253310602 -268.075119408829551
62.799182691296046 -58.073254505160541 -266.749488754700110
63.873237151701360 -56.917896340353330 -268.386266041050590
62.833389929455208 -57.614313692748482 -267.213217092385150
60.693720781688775 -58.571277700787242 -268.114270960779606
64.386031949414033 -56.200038980739123 -268.465441497972620
59.788013007435801 -60.113597315370775 -269.452896625270739
-45.757820200499843 -165.534071669495830 -269.761044522245129
-43.968063146493584 -164.186692970817063 -270.237408284122466
63.863077681639638 -56.895840520121915 -269.030075654091377
64.112949298828298 -56.368225649424694 -269.954533557364698
-45.538975893487660 -165.354650519210935 -271.231684250526769
-45.413469001223874 -165.347747223635025 -270.320509393790815
-44.590274564768293 -164.103270424212894 -270.794889093751124
-44.779673482748755 -166.030384681069620 -275.716660534715515
-42.982811472347436 -164.562254679998773 -277.651810795400991
-43.657291540037136 -163.599755495390241 -279.263574289690439
-46.365302462068243 -166.347621007363983 -279.975932391615572
-43.437011669700482 -163.768739860274849 -281.332050305505845
-46.507163375778617 -166.368505258007474 -284.121714426040739
-44.053130745052528 -164.103561987028399 -284.025745441854781
-42.049668490428552 -162.551111162856046 -285.833348968608220
-45.779338460206603 -166.737383509344738 -285.600295163089356
-45.606534464176370 -164.902618404707454 -287.598090041353089
-41.305733439297882 -160.663191009814028 -286.745042909380174
-42.424917110294899 -162.015819335924135 -285.946163766254813
-39.152891176923220 -161.098660646009108 -286.570932986034279
-37.261249897886877 -157.347799297478304 -286.753880680040993
-45.802156015946458 -166.499495594830591 -286.872695916704743
-43.893431863092331 -163.946374979201693 -287.861164406119656
-46.003603853192082 -167.230803099010217 -287.993522412988114
-37.075100837306550 -156.244717801944660 -288.347775130321395
-45.492800382419219 -167.025730687550492 -289.830913136367883
-40.551414848739896 -161.939158005291461 -289.858570138751588
-40.037633836511816 -160.353552046453530 -290.824401822851826
-47.990781963430791 -167.734193171431713 -291.042305979890216
-43.028910833817676 -161.497978489481511 -289.885313493877163
-47.357026691004315 -168.503436561778159 -292.682582975342939
-43.762057001519615 -164.356114757090268 -293.431485248815875
-47.440443387432168 -167.623262865397891 -294.317326517622348
-43.561464906377438 -163.748090633845436 -295.368799922326332
-44.043323320654345 -163.732847809069114 -297.909830978757782
-47.644239819682845 -167.224546500454579 -299.150385633305007
-43.137922741315037 -163.163863154639046 -300.707666847919825
-46.062431002070305 -167.520282289080825 -300.769998503233296
-44.565037410741745 -165.840419982035655 -301.885918659185847
-45.931580811065288 -164.728663841950691 -300.884500763023880
16.557891251531732 -101.925348287385319 -77.083798942224306
19.550795426197233 -98.067555059936794 -77.028231081007476
18.624326149714559 -99.964453844132791 -77.378732521149487
22.008432206021613 -97.374945585525055 -77.631838759513968
25.513267018263466 -93.236202107127582 -78.108730939056201
14.461088551872562 -104.751567266845015 -78.579858395381351
16.953958253185021 -102.443726909989977 -79.159472154083588
22.505605397905857 -97.791826337938190 -78.809510475966491
24.296059434700169 -96.186084183633227 -78.349478755368082
26.670285416839121 -92.477238785101562 -78.627440018074665
27.528518774270943 -89.437348755759714 -78.954076427195275
11.107376066898134 -106.795681404908066 -79.244118476838892
15.219370382706371 -104.386033948240097 -79.695364112810211
20.535140177797270 -100.243500259786884 -79.767787859711532
23.246780139166521 -96.021674311640211 -79.886644111409623
13.800650988290544 -105.745097575130870 -80.317653257502869
15.101883484459941 -103.327661376829369 -80.238186043363527
27.767979518230238 -90.306250266717782 -80.494942807847039
12.019167173723082 -106.556720533492609 -80.276292609619802
25.361722170164256 -93.237301275368210 -79.230590076197501
28.204653290588219 -91.436360598390308 -80.054345644543474
14.578140622831588 -104.356251345244601 -80.358058032373151
9.558661646311359 -108.433839764427447 -81.913538302914517
13.679640322027964 -106.965379307064254 -81.262013558658268
26.424528331758932 -93.046400227788737 -80.982325101799432
28.571895392023301 -89.920201135029473 -81.045619070803440
8.142369109415926 -108.627730319843167 -81.631819674277224
12.707587938006858 -106.781879295295639 -81.643609020732654
9.161425199516327 -109.864563673825117 -82.700588750899470
26.358229702076528 -92.554826870002103 -82.467846424917681
27.814199488491159 -90.233944502475524 -82.371470826522156
26.136381490121728 -92.216537448117037 -82.298273795993268
11.221568072037533 -108.669456295520504 -83.376942174777838
29.067648391008333 -91.156821835262576 -83.031460159457353
7.558544931976101 -110.913332854732317 -82.757460703998106
25.931980895418885 -92.967430398227052 -83.628442168473697
23.888635457157864 -92.326124605250143 -84.018140352892715
7.541540242840994 -111.524707570528022 -84.988746720154381
8.761302856326454 -110.976045398035424 -85.270547575865791
5.569688846579526 -113.332663590346840 -86.876616031040555
4.112956810319420 -114.583539742319900 -88.960631884204972
6.093598352708606 -113.221174392197398 -89.095366990682862
23.207532195142765 -95.555680387583635 -89.317038143495111
23.345358871280840 -96.186412021861955 -89.744971521063647
4.853233838298470 -114.029382805627975 -90.007212359106020
2.892083260863506 -115.425153480051904 -91.283527082784630
1.894107436213230 -116.299943898646077 -92.188455150155264
2.841641430412866 -115.502429429455219 -91.532349388721542
1.041069081142773 -117.456359613891351 -93.352682105526426
17.694808235368619 -100.822425025605867 -92.811026166573313
17.403687975728776 -102.301540057732083 -94.891798621800675
16.233361842922186 -103.456246072738764 -94.769913996420044
0.793807238811439 -117.620149378234061 -95.307940690289428
1.859999878389634 -117.196740544994157 -95.309871158395495
14.603074705436814 -104.165322775095007 -96.202701370807105
13.901714148875088 -103.237143535388029 -96.545285240227599
14.846682476207222 -105.031941357451458 -97.051702791744134
-0.213226211812774 -118.745963744273169 -98.181412101021692
1.584866443020770 -118.492075853302595 -98.476837624337165
13.907383793616454 -104.801505307871125 -98.526659005030652
-0.002416319808477 -118.611853429488875 -98.809553520335086
11.122070949118680 -106.873808465592106 -100.179344652209096
0.666958869331076 -118.972670990185861 -101.197449030476363
6.154753941645236 -112.653041883399084 -101.949841635846497
5.077569018098476 -114.084876624113079 -103.163887122334827
0.743240079924585 -118.525102996100856 -103.142683230417902
0.638981333686849 -118.336853458555908 -103.526824067763215
5.025021036983446 -114.744586798206100 -104.101525655945665
0.028558209958064 -118.087619569134489 -104.737452192741571
-0.299517974041157 -118.036408395553721 -105.710872973501637
1.448284350250377 -117.069066786142983 -104.929747079739840
46.016303300879279 -73.127328951608064 -179.533127269685735
43.551597327424190 -73.937552795679807 -180.721774314647831
44.784236614286741 -74.354149606215600 -181.163764140617815
45.923469106581152 -73.245085393111978 -181.762711146275564
41.734024738775652 -76.093478526563302 -181.094866782004999
43.095888459892876 -75.860806668658057 -182.411745495112370
45.079111267423933 -72.819287939743418 -182.171717695516861
40.641668567426585 -77.354249062607948 -183.193785449642320
44.974263209979746 -74.188236222906255 -183.156565499626197
44.857662493675356 -73.648112589318416 -183.494351829258676
40.949444060398363 -77.678286070286021 -184.644031870922845
39.476405741396633 -78.919855165939296 -185.245990564054722
43.955816299766262 -74.682123745438318 -184.267406493017717
43.181716680458237 -76.765127067510932 -184.419730416714259
43.673047394392086 -73.936213224957513 -184.576532520841937
38.755459963728256 -80.709483216998649 -185.960946102811903
43.368444526200577 -76.126152113275793 -186.129326238526716
36.735689530358073 -81.302672441245804 -186.308095064273004
42.757610120068179 -76.240497361038663 -186.200812823311111
41.803434925955322 -75.586770078937192 -186.567872666459095
39.725620869901867 -78.728279455798258 -187.793723014022248
39.758817919664907 -79.262500445590206 -189.649605540954752
36.958116819854332 -81.965795369340768 -193.029738585250271
30.060784434135741 -89.523377985666897 -192.410286877546525
35.325967448881464 -84.071402410230348 -194.003778463655692
26.932888633276431 -92.060106478103478 -195.845941289594634
29.994583595195120 -90.427840107176024 -199.579275577013220
18.842340078714702 -99.739569373092294 -202.421354014154645
17.966153459700845 -99.270956655453560 -201.321446589975807
16.897238714724281 -101.264573084107681 -203.899216132086281
15.859073315330075 -102.199702768717046 -203.681176284786318
15.238758565930459 -104.136576013871959 -204.702699550366020
21.379911111724756 -96.985733214881819 -204.468452285652177
14.744270008898301 -104.528833852798584 -205.990999606260146
14.031572136465639 -104.732866695680215 -206.500100478651802
19.750289903164767 -99.004490905993705 -205.774165616483771
13.337943978461492 -105.315179149305180 -206.870866005709019
16.069677896019517 -104.080687247646239 -205.850001969619825
12.569794817866054 -105.716603576636402 -207.805585011029592
17.207667268261392 -101.374123980992223 -208.404583877886495
-44.423664281317571 -163.283636776185574 -207.912130803575536
13.722460726612978 -104.923221575294093 -208.287441419603198
15.266917192655185 -104.091565678877657 -207.278530800679704
17.477905660538536 -100.626184461646247 -207.645221022780305
14.413201705109506 -103.073037241612980 -209.068518374390493
12.884995928558327 -105.789400045485635 -208.543297549494156
13.967844614373744 -104.058685183577708 -209.779976771797038
-45.384399794397957 -164.367276649069623 -218.770298986158053
-44.539072826366414 -162.706772737877031 -217.389272061097216
-46.206569913404522 -164.414683681492420 -218.763114957007161
-44.066803968727008 -162.479552452211948 -219.760990474794852
-46.128078884804033 -164.822717182747880 -219.836555748880329
-45.143356117874831 -164.068595877358462 -220.145777546218966
-44.267846007281335 -163.114798346116515 -220.801836545038299
-45.157843071619169 -164.599762984923700 -221.782860787172666
-45.568463864049633 -163.164589269137991 -223.356284555484109
-45.911388334412820 -164.365060940200294 -223.358525982171813
-45.834122452859177 -164.439146577418342 -223.367938357946116
-44.875515684568164 -162.894060101602889 -224.479277736001592
-43.350612736293272 -162.432700567985137 -224.263963837896398
-47.428020434230838 -164.885170877037325 -224.308873680501080
-48.586935205248714 -166.149154288968845 -226.130744949835730
-46.930772673423377 -165.061494478571262 -226.508294931023784
-45.764059824608736 -164.692612563883159 -224.889112677794998
-43.917060264823206 -161.330181691122277 -226.124333287681196
-45.766972560356685 -163.998656583944097 -225.721299395075960
-43.862241440980149 -162.689982451898345 -226.141028715976319
-47.013846232506452 -165.828872498769130 -226.728740371336983
-41.649489270562796 -160.409448249158686 -226.396047854566461
-47.563110434130635 -166.195366172254381 -227.244943055963034
-47.060477482876550 -164.962896355381218 -226.600222128210675
-46.553722795536395 -164.725493887674332 -226.998118681164584
-38.401685158805350 -157.927720603002399 -227.237531881971876
-47.351286757352497 -167.137981766092338 -227.566371040775209
-37.097623010494075 -155.651268133118833 -228.456422629308094
-47.013006583519640 -165.585350507059445 -228.326110523945289
-39.690261481794813 -158.767354657838808 -228.208875508562613
-37.587227309947487 -155.309972971180628 -228.665119639732325
-48.313568349171739 -166.212391407292216 -229.552248006978374
-47.210350752911268 -165.531037091115024 -230.083545279383600
-38.819297022305499 -157.446663468689735 -230.054793734700837
-44.267935113814161 -161.969871200516309 -230.723069705408534
-42.076693976727341 -162.168388309771728 -230.567641377254688
-47.831622978341734 -165.584131599691091 -232.001101100323552
-46.913206744099341 -165.472491439666157 -231.123975196247500
-47.353018400063483 -166.317734347326535 -230.899879802166708
-43.712946714090585 -162.096539427473431 -231.174248021575579
-44.347313932982871 -164.260181340140889 -231.456985190188504
-43.371481206952012 -161.855391903027339 -231.503676988430414
-44.384544399412839 -163.506579558392190 -232.620965884134620
-43.554260595083562 -161.463082595793537 -232.924510502889291
-46.546989960485760 -164.111819982974794 -233.220334218943094
-44.659760729160055 -162.635860497932526 -233.099139743309848
-44.208452750553946 -162.369993264562112 -233.790758820636569
-45.114977806633263 -164.218415104444716 -233.675385312611866
-43.829611629462065 -163.479877307475533 -235.266910375894213
-45.404616992953152 -164.634256549761318 -235.026477067875021
-43.647023638328186 -162.266388717901890 -236.508211071005974
-45.877745923650558 -164.678761490785178 -238.419411601191769
-44.593739977612863 -162.472752134126438 -238.269386170503708
-45.902655220132822 -164.701387320956769 -239.564101682810247
-44.759319792826645 -163.565045458700439 -239.704521046550838
-45.968167490733279 -164.805493952629831 -241.425246975517979
-45.320216115755201 -163.855964356211672 -241.236963752589844
-46.674092849501100 -165.073415686683319 -246.577156439959907
-44.983947933554667 -163.441593968148965 -247.164501564943237
-47.238381427473115 -165.131299970307452 -248.024847976298105
-43.868153906580822 -163.182561244163054 -249.422392913151526
-45.853419507789397 -165.659212333786797 -250.594409942502040
-44.683234204704455 -161.729643215657291 -251.455234771344550
-44.238316051893221 -162.921392433641671 -252.491938495567069
59.278851406498525 -59.087899587987010 -253.033243390517811
58.247834758580844 -59.489443346396349 -253.104861677139439
57.648036230066452 -60.570071649837075 -252.888586205242717
58.898221528744436 -59.593612996501378 -252.187137646465033
60.041240445545178 -58.317635703692389 -253.738637680705324
61.534470440794585 -56.549952825458313 -253.206736495675500
65.341440403036245 -53.774086027039651 -252.963136865746719
65.404157975913478 -53.044693371801038 -253.523530450870538
-43.915423283806788 -163.044639568392029 -253.823088198116864
64.747808916296677 -54.712242758255435 -253.837453706087786
61.060692937574579 -58.738941391826557 -253.950558934189104
58.679615704943906 -59.297248256512319 -255.155060650501440
59.570018291282508 -58.877356385324973 -255.520540379168409
65.948173217200079 -52.018605914012213 -254.449698938244438
67.418426452083452 -50.943082589272045 -255.008932274254306
-49.805773659215816 -166.586943378142536 -256.231260867429057
62.192047958834273 -57.592475301984130 -255.629219223497216
65.304428279475587 -53.670038023947264 -256.127011218831456
66.260214153398437 -52.098230162754497 -255.870564751687766
-46.354575146805239 -164.313788715694216 -256.346408286641804
-42.071063167454604 -161.701775255980380 -257.065926962654260
-46.308158789597478 -165.505524227711049 -257.072719113596690
-43.880313852229975 -162.524169891796362 -256.909142472484859
-42.101915992158560 -160.794104271050429 -256.857238259104122
-41.334681709258014 -159.536227446346714 -256.561700761143356
-37.914661027408030 -156.992127677052139 -257.090291103607854
-37.180912417673333 -155.584614209317692 -256.174654698954328
65.837012238685119 -53.863086861490082 -256.731413371889687
66.592204595307919 -52.637871388683905 -256.406403525916744
-37.201961657170102 -156.225470629403532 -256.557845908407160
-41.261189180963918 -160.773898520076017 -258.247230650452877
-49.415264204110905 -168.763078636981305 -258.241331228146692
-42.553606187800831 -161.370797168061756 -257.906565698246709
66.867770521759653 -51.487720618734677 -258.244740534793095
-47.211862219679098 -166.543647479037475 -258.153816643933681
-41.241041905262058 -160.384619224489597 -258.888388675623048
66.399542487019758 -51.536806004425621 -258.264493086514108
-43.483273584593668 -162.467224200010179 -259.133519238373310
-36.819516618770798 -155.518032170864871 -259.290091020622924
56.753843741334748 -61.789228324595548 -259.002917933013009
-48.872847717899212 -167.687416419546395 -259.718550883075693
-46.084959042366705 -165.786970240630694 -259.071319378690816
-47.014651721078351 -164.912005747180871 -259.194211557865515
-41.666329122684189 -160.504621844865909 -259.473344256951009
-36.897985943916126 -155.184323325159852 -260.377896007911488
-45.762010455633899 -164.667641138193090 -260.315050835202840
-44.794135675499170 -163.494442663085323 -260.848519306696630
-41.949602863712897 -160.671519204109444 -259.954161941015514
-40.792288302410419 -158.772413192770784 -260.246033409582026
67.771766689568452 -52.449138342889427 -261.447444937276543
68.298700145315607 -50.270839568651759 -260.670428681281351
56.241354258509510 -63.521312928424017 -261.535504053833392
-47.637633752982055 -166.771880075494465 -261.847944991360066
55.835628802525775 -63.492411480371238 -263.108396377948281
-48.575526419932487 -165.446397086511638 -262.529713075603411
54.980463160617198 -64.487921880857115 -262.600651519067014
-47.137144335628612 -166.704407210515683 -263.143571473310089
-44.438766763545026 -162.854580692024399 -263.406714967900882
67.331641693783766 -51.956185990095349 -263.931226429643914
68.626417196849005 -49.863220417200083 -264.565470354370234
-43.566312182834530 -163.644039566559002 -264.398844310702316
55.466054374026506 -62.580792583741335 -265.021290638671189
58.357955855321578 -61.259037485198405 -265.387862880771252
55.775337568263090 -62.128794938901351 -266.187215690172707
58.843475241489728 -59.741149086728335 -266.302412992286463
-47.227651457901707 -167.002559063639097 -266.588344786735036
-43.865067791903897 -162.167727425687502 -266.805706781259687
56.485875658501200 -61.097314244116141 -267.010081371459705
57.661513617076587 -61.847389463326103 -267.357730897128761
68.390939617547104 -51.210744796993630 -267.207957630913711
66.673623546275053 -53.154892732962999 -267.410845984384025
67.540087941507551 -50.777757564286901 -268.554745238571854
57.403856809901825 -61.701624832338418 -267.524477281432610
58.114951105591864 -60.713150698048857 -268.677566575198284
67.480423531598859 -52.435462441087687 -269.052745368414207
-43.778786391227939 -163.039711441816166 -268.624825459389626
64.776079609004839 -54.411740107042618 -270.005451404663233
-47.121760430406979 -166.304569843111437 -269.841638269558814
59.860380524679094 -59.413833681747775 -269.325009559920829
61.437798494061930 -57.979835129726204 -269.234638547080579
-43.205713188814343 -162.627836136952055 -269.797269120436795
60.200829218855560 -58.553027293277125 -270.414011246775317
58.445064503926304 -60.235892244389689 -271.629658459831603
62.744123173119270 -56.344378158554989 -271.576450002901936
65.361143947225287 -52.497985645600231 -269.772097949884994
62.235162972676292 -57.225058723246164 -272.058789773070259
64.009956695084085 -56.135687692601465 -271.146061733790248
58.394031469789795 -59.653616627351965 -272.485217171665909
59.141443653958355 -59.379537744199467 -272.372343162731738
63.687617003921460 -56.231207061069959 -273.652123869724051
64.161272839275028 -54.504809732262089 -274.445826730310728
-45.249406323955398 -164.023263048420432 -275.466811507892885
-47.377470739834855 -165.692390546489577 -275.942470252510873
-44.226006474097524 -163.707555067984714 -276.122211450513134
-47.626063779359882 -166.581366141098385 -276.693703239810247
-43.455290964314827 -162.558409455717424 -276.811362238872107
-46.118099228937254 -166.243131373015956 -278.711619560274357
-43.338276912160886 -163.053883638116275 -279.026342778159574
-44.218968077626343 -162.036462525905364 -279.944945789482915
-47.691874630274782 -166.614249153755679 -281.434085919087352
-43.228339660132399 -163.211674150923244 -283.163114192122862
-48.199504929271122 -166.576812587908279 -283.328321317940436
-43.862727768824250 -163.131153089599934 -283.579833885074038
-46.423499840579296 -166.823996367639751 -284.348410729561976
-43.090349147063726 -161.200142634880933 -285.503481803194575
-49.496875488366499 -168.060540886790079 -284.939720462037769
-41.960647899408144 -161.198396254484237 -286.159099596246392
-46.158505020077030 -165.319796191795490 -286.201371092798013
-37.542672820173294 -158.010140645533824 -287.218695254380464
-49.670057569098610 -168.345324571444792 -287.380237919402930
-45.654221095973035 -164.576156940605188 -287.544635928151138
-36.939968927694686 -156.080295756506814 -286.395937821366488
-36.878559242452781 -156.179185209855603 -286.790090859559541
-44.282898555310254 -163.809348889415020 -287.627955405611146
-49.442155716725765 -169.564966432400382 -288.394221648817734
-47.152010286402202 -166.487959608679546 -289.162674076311362
-36.266384964191531 -155.425906076187715 -287.825040619871061
-46.347522450435953 -165.600292089122149 -287.962280595149593
-44.930975230795035 -163.222368326164201 -289.534555548282526
-49.265676900567755 -168.395813283898093 -289.296447152433359
-44.535930510464972 -164.328937475410413 -290.232661510807191
-36.481848574121187 -155.786242895337722 -288.828378611896028
-41.791948046241323 -160.509471874682276 -291.111563085452417
-38.457173644049888 -157.710680890732448 -291.287662524161760
-49.707084458914203 -168.028602804660409 -290.590735444008999
-42.849993030050648 -162.458002641856126 -291.600571738442682
-48.908655926084116 -167.891912575375926 -292.417701634510308
-48.470930406952341 -166.597378994417170 -293.094993671431439
-44.418573603539969 -162.886515252648337 -292.947036084257491
-48.046843705664045 -167.216317428120107 -294.607486698966341
-43.942555292332017 -163.699080092856235 -293.801985309825568
-44.663220737037676 -162.967613185727629 -295.018709900876900
-43.855803368488154 -163.676285259482398 -297.482727829092653
-47.230190902740787 -167.311660438289749 -297.210919113248394
-44.997368242123748 -163.480851168132716 -297.730812454083321
-48.224646651615430 -166.910627212915273 -298.929006745169090
-43.944891176510659 -163.042099101555237 -300.256273938702293
-47.571007953516954 -166.277857819653917 -300.172279741518821
-44.097956476342361 -164.186780696052097 -300.120297150753572
-45.957724704440906 -165.617743654552640 -301.812164119136241
17.595198508179980 -101.213758903004290 -75.415112700206535
14.078374888521363 -103.720688419801078 -74.992241890815450
21.585450025365532 -94.724926869227886 -74.862863334057707
11.603472490181662 -105.579177030543548 -76.170920250388136
18.943244760255020 -99.338246545283496 -75.344507774920046
15.769639892422337 -100.808582778878716 -76.593827523800570
24.075306308704622 -92.188194648242600 -76.029238061785520
11.692833022525836 -105.252839211894226 -77.625544128510768
22.242680372210753 -94.861637966671452 -76.549876616052998
15.375370467270011 -101.924521326789773 -77.816574570897799
20.163756758380526 -98.299480353807638 -76.176271899779877
22.061720573421606 -95.892877915717406 -77.339131836368111
27.404848811523664 -89.507849635751455 -76.635607570391528
29.539107349427855 -87.047262839815971 -76.837235979486778
9.635042283397691 -107.334037657604824 -76.825867015753730
13.707702998351603 -104.378951151567520 -77.438083369002044
29.311063906938944 -88.120585975120818 -77.405743182715668
30.140039427494312 -86.608792588002913 -76.934969876028418
8.093010636798033 -109.522243787801969 -77.786857405965876
9.188752701535762 -108.016000107809688 -78.488161720921909
29.078330432265492 -89.004769555856626 -77.707340956752546
30.494942963197680 -86.725147273273024 -78.955220185413737
28.907838762373572 -88.342869673025206 -79.471029898038879
6.690572802142659 -109.850962064074707 -79.109481150597404
7.883120623964123 -109.900896330603615 -79.808462602520123
10.730885875781523 -107.605896357741216 -79.998967602646218
29.150315459302835 -89.878903163343296 -80.687722188543972
30.992827144738737 -86.254617721677576 -80.428063538582379
6.672952244148852 -110.194833409049451 -80.741025786931743
30.215206101966785 -88.056963465125236 -80.923595933654568
31.151722177672479 -86.330760752101810 -81.487493738940515
4.842250125765341 -111.966710544390764 -81.608549668948072
30.554714494631064 -88.565759714606088 -82.334650162319136
30.004836233394585 -87.680072427196336 -81.931638716622828
7.680958198344956 -110.634693337989304 -82.909724452358105
4.354762240936286 -112.845721004714278 -83.744978423194368
25.335678874618687 -92.073224306904748 -83.332792095044510
25.160776750408878 -91.021867696038186 -82.900311162503186
29.391641143230967 -86.742211090820831 -83.920152578311786
28.101430031479602 -89.167247645310297 -84.096760424314311
