-75.542434692383 -74.963180541992 -212.089950561523 1.048870086670
-17.622095108032 -75.744064331055 -219.306823730469 0.938133001328
-149.543609619141 -73.970146179199 -212.257492065430 1.171679973602
88.258644104004 -76.893898010254 -212.334762573242 0.854782521725
89.671669006348 -76.856437683105 -218.218826293945 0.752262890339
90.819488525391 -75.073608398438 -218.671798706055 1.520697474480
-101.448921203613 -73.511116027832 -223.123306274414 1.231693506241
-150.637115478516 -77.170455932617 -224.251098632813 1.233498811722
-19.457641601563 -75.698478698730 -220.908676147461 1.208129167557
78.891548156738 -75.833442687988 -223.684188842773 0.639358699322
-148.551330566406 -76.869445800781 -227.906951904297 1.826907396317
-26.241670608521 -75.791976928711 -221.653320312500 0.807269275188
-132.228286743164 -74.427200317383 -229.569213867188 0.727292537689
-12.590616226196 -76.793640136719 -227.689254760742 1.491370916367
18.022111892700 -75.952888488770 -221.657699584961 0.966268122196
19.111379623413 -76.311164855957 -231.614898681641 1.321057200432
-153.663940429688 -77.935501098633 -233.316619873047 0.994726598263
-124.748382568359 -73.649032592773 -233.483993530273 0.760383188725
-7.917708873749 -74.401313781738 -234.644393920898 1.507151246071
0.108843997121 -75.295707702637 -236.444686889648 0.772815942764
69.514633178711 -75.480751037598 -235.104446411133 1.047258973122
72.871391296387 -74.858657836914 -235.801788330078 0.518528878689
-0.347245007753 -75.874359130859 -240.260269165039 1.684276700020
17.167221069336 -74.140144348145 -239.037673950195 1.377730607986
-28.229816436768 -74.090827941895 -239.435897827148 0.340720802546
-35.353885650635 -75.059654235840 -240.429412841797 0.400191932917
-43.832656860352 -73.905204772949 -242.860397338867 0.462886661291
-37.190853118896 -74.119583129883 -242.661895751953 1.627882122993
-18.798957824707 -76.296295166016 -242.397994995117 1.925135731697
-53.008708953857 -74.339164733887 -243.384078979492 1.161257147789
2.289757966995 -75.056243896484 -244.715713500977 0.160896629095
-67.615348815918 -73.039916992188 -246.500549316406 1.736725091934
19.716140747070 -75.174903869629 -246.755844116211 0.894977629185
-146.535140991211 -76.029380798340 -247.528152465820 1.281111478806
-71.875595092773 -76.242378234863 -249.119338989258 0.982152819633
13.867467880249 -77.566902160645 -247.784530639648 1.182740569115
-161.441116333008 -73.846740722656 -250.527084350586 1.398573279381
18.241888046265 -76.518470764160 -251.128463745117 1.023943901062
-79.070236206055 -75.178833007813 -250.986099243164 1.312744021416
-74.026206970215 -75.692588806152 -251.832153320313 0.530587732792
21.587093353271 -75.616775512695 -256.099670410156 0.861494839191
-88.450790405273 -74.184951782227 -254.630722045898 1.682258367538
-125.255897521973 -74.318069458008 -256.770751953125 1.240396738052
-135.067764282227 -73.808242797852 -258.831024169922 1.233257412910
-133.106185913086 -75.123870849609 -258.895874023438 1.224610447884
-147.225692749023 -72.771522521973 -260.692749023438 1.697447180748
-141.416839599609 -74.212684631348 -260.075653076172 1.149325013161
-135.575241088867 -73.315605163574 -262.558013916016 0.360124617815
-161.305160522461 -73.917839050293 -262.365600585938 1.454368114471
-125.192199707031 -72.326400756836 -265.236114501953 1.493526458740
-133.450057983398 -74.705055236816 -262.825775146484 0.360657662153
-165.441162109375 -73.351196289063 -264.224060058594 2.066677331924
-158.200164794922 -73.024818420410 -264.421051025391 1.495752096176
-151.014114379883 -73.470382690430 -266.093811035156 1.481848597527
-146.609405517578 -73.939025878906 -266.431030273438 1.361534476280
16.142637252808 -77.300506591797 -277.622100830078 0.396446049213
-165.351989746094 -73.555183410645 -270.075744628906 1.794246673584
-152.303405761719 -73.299980163574 -274.384399414063 1.445244193077
-6.550303936005 -79.251380920410 -273.651763916016 1.773070693016
-160.452880859375 -73.421722412109 -269.582092285156 3.932624578476
12.816431045532 -78.349067687988 -279.525604248047 0.929758965969
-151.275009155273 -73.916511535645 -283.363739013672 1.488791346550
-161.907669067383 -73.738479614258 -287.363952636719 1.594200372696
-153.736206054688 -73.590492248535 -284.760864257813 1.902845621109
-165.698242187500 -73.943954467773 -286.621032714844 1.527637243271
2.945730924606 -75.040695190430 -287.819335937500 0.358761817217
7.696788787842 -76.881111145020 -285.129577636719 0.445045888424
-96.756263732910 -73.916542053223 -288.494903564453 1.956085085869
-150.243804931641 -73.610145568848 -288.481292724609 1.516442060471
-148.398300170898 -73.557563781738 -288.119689941406 1.494928598404
-109.130935668945 -73.598968505859 -289.334960937500 1.338333845139
-150.348800659180 -73.575332641602 -290.938598632813 1.526686668396
-148.416259765625 -73.578536987305 -291.315643310547 1.514299511909
-67.378273010254 -74.165100097656 -291.428222656250 0.911674857140
-162.181854248047 -73.993911743164 -291.365142822266 1.112745165825
-123.724098205566 -73.426612854004 -291.983062744141 1.147720813751
-43.380393981934 -75.178207397461 -291.327270507813 1.079724073410
-156.243881225586 -73.770431518555 -290.701293945313 1.217486023903
-135.536804199219 -72.015205383301 -293.872528076172 0.878708004951
-16.109321594238 -73.742805480957 -292.217071533203 0.504338622093
-126.044555664063 -74.143218994141 -294.701843261719 1.303372025490
5.449454784393 -74.937698364258 -293.019317626953 1.793302416801
15.943824768066 -74.361793518066 -292.447875976563 0.445326656103
-133.708328247070 -74.468971252441 -293.954559326172 1.422126293182
-145.702774047852 -73.767227172852 -295.781127929688 1.305186510086
-155.647552490234 -72.710159301758 -312.477905273438 1.500143289566
-73.349952697754 -73.075721740723 -52.165409088135 1.141072630882
-23.671239852905 -73.836166381836 -60.667896270752 2.085221052170
-22.104740142822 -75.478309631348 -65.167755126953 1.802004694939
74.188613891602 -75.258033752441 -73.924179077148 2.092501163483
91.445350646973 -76.655075073242 -74.803932189941 1.938148975372
-38.792530059814 -74.556953430176 -77.649909973145 0.925195574760
73.389991760254 -76.330192565918 -76.787559509277 1.824177742004
87.845283508301 -78.171920776367 -80.428321838379 1.771786093712
69.939178466797 -75.339935302734 -81.673286437988 1.761777639389
71.163871765137 -76.401985168457 -85.161743164063 2.191735267639
-49.878913879395 -77.735099792480 -88.523132324219 1.295761227608
-92.467201232910 -75.898551940918 -87.172691345215 2.092928171158
57.170101165771 -75.685935974121 -93.088699340820 1.597514986992
49.095252990723 -75.519256591797 -96.740737915039 1.650701284409
94.623855590820 -76.404327392578 -94.937561035156 2.222440719604
-94.897094726563 -74.092674255371 -102.473304748535 1.841430187225
84.146583557129 -76.646514892578 -96.663375854492 1.709006667137
74.601730346680 -75.630065917969 -97.306427001953 1.707147479057
91.759208679199 -75.709640502930 -97.855873107910 1.393442392349
81.863151550293 -74.610115051270 -99.624404907227 1.992293596268
86.097686767578 -77.644439697266 -97.042465209961 1.871563553810
-81.156517028809 -76.337402343750 -102.603721618652 0.663060247898
39.480884552002 -76.909049987793 -109.329139709473 1.273189783096
105.884353637695 -75.815284729004 -109.862335205078 2.118534326553
109.514213562012 -75.740219116211 -110.028549194336 1.740431070328
45.061092376709 -75.817733764648 -115.827407836914 1.338301181793
107.647781372070 -75.525611877441 -122.581672668457 2.984230279922
115.132804870605 -76.202789306641 -133.765991210938 1.638612151146
-52.988967895508 -74.773864746094 -134.638351440430 0.646470129490
26.396568298340 -75.049285888672 -133.652252197266 2.964087009430
39.528392791748 -75.406776428223 -132.940216064453 1.760442972183
25.681522369385 -73.488082885742 -143.671371459961 1.268878698349
112.977180480957 -75.365669250488 -139.746917724609 1.516232490540
111.962051391602 -74.931083679199 -133.524215698242 1.932592391968
-73.903396606445 -75.222915649414 -148.705368041992 1.931554913521
-44.791210174561 -75.248512268066 -146.901962280273 1.926154136658
-71.265380859375 -73.821617126465 -149.819747924805 2.091664791107
21.231315612793 -75.381462097168 -152.049423217773 1.427468061447
113.073608398438 -75.582893371582 -150.868072509766 2.232702732086
-53.108840942383 -74.839622497559 -149.423461914063 1.377833008766
-69.775695800781 -73.481651306152 -149.544876098633 1.611083030701
-38.591800689697 -77.344612121582 -154.454330444336 0.565807640553
33.225894927979 -73.054008483887 -151.915115356445 1.466532588005
111.826583862305 -75.261245727539 -151.811996459961 1.411486864090
112.911582946777 -74.994033813477 -157.861007690430 1.093560695648
-68.380874633789 -72.869926452637 -154.008453369141 1.253146409988
-69.232109069824 -74.489227294922 -163.158630371094 0.744451522827
21.290763854980 -75.592102050781 -162.911666870117 1.079959988594
-59.861152648926 -73.833152770996 -166.923370361328 1.303832173347
-33.479236602783 -75.456283569336 -161.190582275391 0.465025484562
6.607324123383 -74.929450988770 -162.443984985352 0.944243848324
110.857673645020 -75.642898559570 -161.409484863281 1.679462909698
4.311787128448 -75.310607910156 -164.754394531250 0.738266110420
-33.612308502197 -75.189727783203 -165.591857910156 0.676166236401
0.356786012650 -74.695129394531 -167.451477050781 0.700859427452
109.025581359863 -75.104011535645 -169.537704467773 2.127577066422
-40.899749755859 -72.759635925293 -169.013641357422 1.230084657669
27.304443359375 -72.871002197266 -170.103027343750 0.869756340981
110.573013305664 -74.930938720703 -171.959655761719 1.437865018845
-57.449249267578 -73.241058349609 -177.517059326172 0.743854641914
-28.825334548950 -75.119552612305 -173.325103759766 1.590064287186
105.015777587891 -74.388641357422 -173.131164550781 2.029296636581
28.672180175781 -74.768402099609 -172.557022094727 1.832458734512
112.373634338379 -76.834205627441 -173.551986694336 1.380555629730
-37.020282745361 -74.390762329102 -176.750762939453 1.329139709473
106.191146850586 -74.907531738281 -180.009155273438 1.152745246887
-59.686344146729 -74.526649475098 -178.160125732422 2.311266660690
-25.151750564575 -76.514762878418 -180.828048706055 0.434972137213
-144.747680664063 -73.412940979004 -183.187683105469 0.920326650143
-54.388168334961 -74.133895874023 -183.919799804688 0.451302468777
-146.639266967773 -74.160499572754 -187.953430175781 1.441906094551
-32.571109771729 -73.676933288574 -187.857574462891 1.166034936905
23.346918106079 -74.918441772461 -186.510665893555 0.613085031509
107.593276977539 -74.776710510254 -182.411788940430 0.450330018997
-30.211927413940 -76.328147888184 -187.284454345703 1.407667279243
11.860186576843 -75.448448181152 -190.642227172852 1.926804304123
19.283319473267 -74.557540893555 -200.503860473633 0.863217353821
-146.319122314453 -74.585494995117 -193.583663940430 1.119226336479
102.769790649414 -74.701858520508 -194.517227172852 1.019935727119
-17.974081039429 -72.536788940430 -193.971130371094 0.677126526833
102.605690002441 -74.769943237305 -189.660675048828 1.070741653442
14.468249320984 -74.021781921387 -187.942260742188 1.382660984993
-131.783706665039 -73.487731933594 -201.528137207031 1.017305374146
-140.445953369141 -74.765632629395 -201.774902343750 1.089238286018
97.199958801270 -74.699630737305 -200.576736450195 0.936351954937
-11.941148757935 -76.328018188477 -201.486434936523 0.763124108315
-14.698806762695 -75.959754943848 -201.087310791016 2.128442525864
9.399541854858 -75.391601562500 -207.307907104492 0.710934162140
-149.966567993164 -71.334419250488 -206.592391967773 1.434414505959
-145.668518066406 -75.223152160645 -206.933837890625 1.139655590057
98.653602600098 -74.631698608398 -202.615203857422 0.931777656078
-78.061790466309 -73.671875000000 -209.990829467773 0.816398859024
-37.151771545410 -73.796783447266 -203.903701782227 1.354767680168
16.935121536255 -75.024696350098 -210.594512939453 2.092837810516
-25.977581024170 -74.587158203125 -211.959396362305 1.598069667816
-78.803367614746 -73.537544250488 -211.993377685547 0.515096068382
91.208778381348 -74.744514465332 -210.496429443359 0.822144925594
-82.154441833496 -73.178123474121 -213.468658447266 0.470938444138
-146.063873291016 -75.148811340332 -218.885833740234 1.170432209969
-79.159492492676 -74.220169067383 -215.162826538086 0.524583816528
-15.489508628845 -73.084136962891 -213.885238647461 1.223352551460
-20.701822280884 -73.308319091797 -217.367294311523 0.314692974091
18.917623519897 -73.381843566895 -211.277770996094 0.375197619200
-5.769059181213 -75.257827758789 -215.834564208984 1.936905622482
-87.763740539551 -72.708320617676 -219.053115844727 0.721251189709
92.188308715820 -74.573768615723 -213.021636962891 2.366010189056
-95.459625244141 -74.528694152832 -216.941940307617 0.729452729225
-149.400283813477 -75.242103576660 -223.366439819336 1.209339976311
-18.920261383057 -73.303894042969 -222.608718872070 0.574200868607
16.130439758301 -73.794303894043 -216.692810058594 0.320384383202
-101.491180419922 -73.135139465332 -220.872299194336 0.828387081623
7.775699138641 -74.840103149414 -221.218048095703 0.266979545355
-23.046937942505 -74.814002990723 -217.554809570313 0.369780957699
83.872924804688 -74.579536437988 -222.951919555664 0.683164596558
-146.308914184570 -74.845916748047 -223.209075927734 1.844304203987
4.598949909210 -72.546867370605 -225.898605346680 1.403204917908
-9.259192466736 -75.803726196289 -222.593597412109 1.951037883759
17.399047851563 -72.808944702148 -221.043014526367 1.368744373322
83.392303466797 -74.608505249023 -221.336914062500 1.569679737091
-11.968976974487 -73.952400207520 -227.758789062500 0.951822102070
-130.441909790039 -73.324615478516 -226.905334472656 2.083609342575
-11.789544105530 -75.328269958496 -225.239242553711 0.266930550337
17.138168334961 -75.989700317383 -234.201690673828 1.868794560432
-124.807525634766 -74.095077514648 -228.537567138672 0.804667413235
-148.475570678711 -71.816833496094 -228.350906372070 1.197736620903
-140.986816406250 -73.219482421875 -229.647140502930 1.153114676476
-134.371246337891 -73.072525024414 -231.354782104492 1.051982402802
-15.504137039185 -74.446464538574 -227.230682373047 1.639735341072
72.029060363770 -74.333572387695 -229.651016235352 1.261029601097
-141.174545288086 -72.749023437500 -232.534378051758 0.468685775995
74.447898864746 -75.882873535156 -229.453262329102 0.666901469231
-19.048124313354 -75.691085815430 -227.530639648438 1.930985331535
-141.533126831055 -77.143218994141 -232.314071655273 1.351567983627
78.800537109375 -74.058639526367 -228.026519775391 1.437270641327
9.234382629395 -75.552360534668 -235.942245483398 2.272981643677
-143.698196411133 -77.988319396973 -235.041763305664 1.496463656425
-150.504333496094 -72.788085937500 -236.221145629883 1.247915387154
15.814511299133 -73.475395202637 -232.919677734375 1.416802525520
-2.795816898346 -74.097778320313 -235.681121826172 1.157096028328
-24.403423309326 -74.490913391113 -238.237503051758 0.973763644695
-1.527547955513 -72.331001281738 -239.962860107422 0.709876000881
-160.865768432617 -73.256988525391 -238.650894165039 1.340171098709
11.576412200928 -75.381141662598 -245.060150146484 0.292214602232
-164.284362792969 -72.664497375488 -236.705169677734 1.429351091385
-13.888905525208 -75.226112365723 -238.385574340820 0.429058909416
66.048194885254 -74.930267333984 -239.140106201172 1.811746716499
-12.065938949585 -74.477378845215 -240.889480590820 0.236793085933
-24.408470153809 -72.800155639648 -240.273635864258 0.401192724705
-25.694065093994 -73.653701782227 -242.257186889648 1.903729319572
-15.670901298523 -73.203994750977 -242.609649658203 0.255003005266
-145.933547973633 -72.963424682617 -236.408889770508 1.242644548416
8.760005950928 -74.608184814453 -243.932067871094 0.893530905247
64.749465942383 -73.911407470703 -241.892196655273 1.890792131424
13.545803070068 -73.970230102539 -245.225708007813 0.121472179890
-161.156982421875 -72.627410888672 -240.905136108398 1.882503271103
-48.479946136475 -73.195434570313 -244.449859619141 1.194961905479
2.506959915161 -79.675903320313 -247.166610717773 0.714952945709
16.843364715576 -73.725463867188 -245.974288940430 0.119266793132
-54.513214111328 -72.659629821777 -247.428604125977 1.315123796463
-3.850002050400 -73.208061218262 -245.754913330078 1.337032794952
21.700607299805 -74.737457275391 -246.763565063477 0.413187623024
-164.549224853516 -72.994422912598 -249.480392456055 1.413611412048
-70.688850402832 -74.790306091309 -247.368789672852 1.106555342674
-49.978515625000 -74.234153747559 -247.501464843750 0.814836204052
-78.319313049316 -74.307022094727 -249.670242309570 0.754447102547
-159.226577758789 -72.744224548340 -249.065460205078 1.328914523125
-150.516448974609 -73.272766113281 -253.291625976563 1.281466960907
-59.006881713867 -74.570785522461 -250.008728027344 0.638628304005
-68.575302124023 -73.979446411133 -252.314163208008 0.689777612686
-153.192047119141 -72.720329284668 -254.780517578125 1.348797202110
-151.529632568359 -72.736991882324 -253.743041992188 1.331083774567
-77.254730224609 -73.756294250488 -254.275695800781 0.760337531567
-92.924964904785 -73.070198059082 -253.941772460938 1.822765588760
-165.778533935547 -72.730728149414 -251.464706420898 1.624513149261
-155.567642211914 -72.814819335938 -258.576568603516 1.011698007584
-133.480453491211 -73.321815490723 -256.340942382813 1.206503868103
-82.492202758789 -74.381942749023 -254.509246826172 0.907162606716
-162.468200683594 -72.889030456543 -253.140808105469 1.617456555367
-141.764266967773 -73.330665588379 -257.474212646484 1.305489659309
-85.692192077637 -73.111167907715 -256.102569580078 0.689678132534
-95.110824584961 -71.222648620605 -258.995758056641 0.835418641567
-147.640151977539 -73.188285827637 -258.364471435547 1.023834109306
-94.683418273926 -73.008422851563 -257.561096191406 1.238052964211
-149.137695312500 -72.862228393555 -258.253143310547 1.226813673973
-99.628585815430 -72.984985351563 -257.975128173828 0.811859071255
-164.584732055664 -73.222702026367 -260.494598388672 1.467217206955
-160.024765014648 -72.925331115723 -260.308288574219 1.429586410522
-123.687110900879 -73.055374145508 -258.378295898438 1.139462232590
-150.008743286133 -72.505187988281 -260.423370361328 1.105448484421
-114.530677795410 -73.003364562988 -261.592620849609 1.189506769180
-14.546245574951 -74.464904785156 -262.104705810547 0.385340839624
-142.389236450195 -73.029670715332 -262.867065429688 0.746553897858
-123.787765502930 -73.250267028809 -261.230804443359 0.950609505177
-155.028671264648 -72.879081726074 -262.877838134766 1.403604626656
22.220876693726 -74.439346313477 -268.777679443359 0.303395062685
-146.651565551758 -74.119758605957 -278.695465087891 1.482589721680
-166.811935424805 -73.065170288086 -278.231658935547 1.202088356018
-6.539404869080 -76.171119689941 -279.363067626953 0.498928755522
-146.621109008789 -74.126441955566 -283.383483886719 1.285152077675
-7.153197765350 -73.652244567871 -282.892028808594 1.193526268005
13.363827705383 -73.182006835938 -285.317474365234 0.506345570087
-135.350677490234 -73.851821899414 -287.317443847656 1.547475576401
-71.033302307129 -73.597732543945 -286.910675048828 0.916811108589
-32.801548004150 -74.067794799805 -286.629791259766 0.563426673412
-113.105987548828 -72.594680786133 -288.141632080078 1.013799071312
-92.033798217773 -73.986282348633 -291.500823974609 1.349846243858
-90.659507751465 -73.031677246094 -292.027709960938 0.441398829222
-47.504032135010 -74.259590148926 -291.355010986328 2.480560064316
-115.305397033691 -73.475463867188 -291.798004150391 1.304085850716
-110.207374572754 -73.455429077148 -291.266387939453 1.506752014160
-31.470808029175 -73.309165954590 -291.767272949219 0.660184621811
-112.741569519043 -71.998817443848 -292.699554443359 1.655494570732
-124.386817932129 -71.893577575684 -293.307769775391 0.940279424191
-143.056015014648 -73.135414123535 -293.361846923828 1.446176409721
7.991789817810 -72.964424133301 -292.893981933594 0.435407578945
14.815169334412 -75.028686523438 -294.249664306641 0.411137580872
-156.635757446289 -73.419700622559 -295.112335205078 1.262376546860
-154.191390991211 -74.714218139648 -301.776062011719 1.045020580292
-143.897384643555 -73.635078430176 -312.571166992188 1.615179061890
-149.579162597656 -71.350646972656 -313.025390625000 1.154483914375
-151.593765258789 -75.991256713867 -313.397857666016 1.649297833443
29.250026702881 -74.143791198730 -16.717943191528 2.009854555130
24.285482406616 -74.094413757324 -16.550859451294 2.125685453415
21.099079132080 -74.238815307617 -22.607599258423 2.059159755707
27.815914154053 -73.988365173340 -39.487697601318 1.935333848000
-57.384773254395 -72.396789550781 -49.506118774414 1.824144840240
-66.332313537598 -72.541168212891 -50.045886993408 2.296423912048
-38.804302215576 -73.477668762207 -52.927783966064 0.668469965458
-81.463966369629 -74.371078491211 -59.232875823975 2.287178993225
82.199813842773 -76.287269592285 -72.004043579102 2.176533222198
-19.651285171509 -75.673027038574 -70.906127929688 0.670498669147
88.346763610840 -75.793281555176 -71.084403991699 2.022817373276
96.971183776855 -74.370178222656 -78.695968627930 1.438821315765
-93.794235229492 -73.223541259766 -79.480270385742 1.373389124870
69.954879760742 -74.306945800781 -80.054542541504 1.774188041687
-43.251750946045 -77.104316711426 -84.378860473633 1.031886935234
99.513847351074 -72.614341735840 -83.676658630371 1.810238599777
-53.177955627441 -75.165214538574 -89.797157287598 1.120919466019
52.530544281006 -74.361434936523 -90.206779479980 2.120445489883
72.035285949707 -75.536972045898 -91.704765319824 1.685339093208
57.571445465088 -74.819572448730 -97.167861938477 1.561828374863
52.747821807861 -76.198143005371 -97.998466491699 1.323423504829
72.561759948730 -76.048660278320 -94.687545776367 1.662927150726
45.141242980957 -75.243629455566 -100.292114257813 1.531040549278
103.901008605957 -75.253013610840 -98.362304687500 2.223955392838
106.741256713867 -75.763671875000 -104.029945373535 2.209773778915
83.366882324219 -71.669471740723 -102.465202331543 1.150753259659
88.459167480469 -75.503318786621 -100.816276550293 1.757558584213
101.741912841797 -74.607612609863 -97.315757751465 1.880704641342
108.502944946289 -73.892379760742 -102.336578369141 1.722653865814
39.026565551758 -75.858055114746 -105.433937072754 2.251031398773
110.825004577637 -72.869529724121 -119.483535766602 1.568356275558
112.536033630371 -75.294548034668 -117.364768981934 1.762597560883
33.159393310547 -74.571052551270 -121.924804687500 1.295500755310
44.934696197510 -74.895431518555 -119.872123718262 2.131354570389
115.088699340820 -74.310661315918 -126.467224121094 2.250556468964
39.598743438721 -74.667114257813 -126.378356933594 1.970158457756
112.403442382813 -74.492378234863 -128.301727294922 2.031816244125
110.099884033203 -74.456634521484 -121.580085754395 1.591268897057
25.385427474976 -72.874397277832 -138.209503173828 1.553584218025
-49.526103973389 -74.046173095703 -135.839172363281 0.480241000652
-52.170051574707 -73.201202392578 -136.386932373047 0.884410798550
111.096191406250 -73.573570251465 -133.633453369141 1.302963852882
-71.544242858887 -74.557640075684 -142.750289916992 0.595624923706
-74.870025634766 -74.726158142090 -140.928039550781 1.551274299622
-57.149063110352 -74.720153808594 -144.722076416016 2.659442663193
33.873310089111 -73.000724792480 -141.416503906250 1.052670001984
111.735961914063 -74.189682006836 -143.474899291992 1.478374004364
-68.015487670898 -72.855522155762 -146.675552368164 0.825090706348
-45.795337677002 -72.554626464844 -145.128387451172 1.145707368851
34.572097778320 -75.216743469238 -148.811843872070 1.613367319107
-67.618415832520 -74.465164184570 -148.635986328125 1.258829832077
113.733306884766 -74.234741210938 -143.208801269531 2.108426570892
112.962768554688 -73.880607604980 -156.490539550781 0.903068602085
116.440223693848 -75.251136779785 -150.168472290039 1.836081385612
-37.869850158691 -74.493705749512 -154.510925292969 1.696166992188
-65.733047485352 -74.602157592773 -163.172149658203 0.764008581638
-72.230903625488 -74.143287658691 -156.939712524414 0.783711373806
32.296760559082 -74.890792846680 -149.820327758789 1.871909856796
-1.831501007080 -75.279151916504 -162.598022460938 1.317013382912
108.109367370605 -75.640350341797 -159.402420043945 1.696578145027
111.469894409180 -74.033103942871 -153.505187988281 1.396206021309
111.915496826172 -73.612701416016 -156.008026123047 1.426270246506
-64.833808898926 -71.529830932617 -163.724746704102 0.704985916615
-45.753227233887 -74.888717651367 -162.026031494141 1.473721146584
-0.003412999911 -72.987686157227 -165.097671508789 0.517771899700
-26.071031570435 -73.011085510254 -174.985748291016 2.295259237289
106.843505859375 -74.518753051758 -165.567214965820 1.771157979965
-36.686702728271 -74.155349731445 -160.794082641602 0.998623132706
110.750366210938 -73.931648254395 -169.199752807617 0.942323505878
-41.358863830566 -74.646339416504 -172.951660156250 1.030518651009
110.026573181152 -73.834114074707 -165.990249633789 1.004913687706
-148.282043457031 -73.667030334473 -182.878326416016 0.829024910927
-28.447034835815 -72.513885498047 -175.976028442383 0.852591097355
-21.158319473267 -73.220367431641 -182.584945678711 1.002058982849
25.597017288208 -74.832389831543 -177.448516845703 1.649930000305
16.663427352905 -75.184516906738 -181.914993286133 1.152262330055
26.435386657715 -73.923339843750 -183.347473144531 1.636290192604
107.279251098633 -73.899635314941 -181.632080078125 1.148925304413
-150.628219604492 -72.780059814453 -188.052261352539 1.064857721329
-20.136905670166 -75.299400329590 -189.168838500977 1.300540208817
104.119873046875 -73.298950195313 -178.005249023438 1.187964439392
104.012268066406 -73.822494506836 -190.028244018555 1.063284397125
106.976318359375 -73.811531066895 -179.212844848633 1.219136595726
97.679435729980 -75.264839172363 -194.127395629883 2.868493318558
-151.602996826172 -76.350334167480 -195.177749633789 1.171697258949
101.129814147949 -74.974555969238 -203.419555664063 1.202247858047
-27.886192321777 -72.034103393555 -194.891342163086 2.317411184311
99.782806396484 -73.700492858887 -197.153625488281 2.349332809448
-124.268295288086 -73.266586303711 -198.642440795898 0.959073245525
-28.786272048950 -76.459739685059 -193.099502563477 1.426579594612
-140.478271484375 -72.290267944336 -199.314346313477 1.068018317223
94.737663269043 -74.371704101563 -199.512512207031 0.927551031113
9.542705535889 -75.309516906738 -198.123748779297 1.085306406021
23.172534942627 -74.375053405762 -194.112060546875 2.200760126114
-146.470046997070 -71.042297363281 -201.743347167969 0.922161400318
-140.599121093750 -72.082801818848 -202.221069335938 0.720555961132
-10.478193283081 -73.372825622559 -203.805999755859 1.341615080833
-124.076675415039 -73.515014648438 -201.929672241211 0.273758769035
-142.595626831055 -76.424385070801 -204.929702758789 1.121808648109
8.378152847290 -73.484313964844 -201.064529418945 0.779905855656
-21.233219146729 -75.142311096191 -202.769851684570 1.308227777481
20.439863204956 -74.272232055664 -203.804641723633 1.518731951714
8.834035873413 -73.811973571777 -209.878860473633 1.421329975128
90.098709106445 -74.921340942383 -207.243118286133 1.029051303864
-18.814458847046 -72.194557189941 -211.963287353516 0.525771141052
92.896011352539 -73.499122619629 -208.222839355469 0.852776229382
95.797859191895 -73.599342346191 -206.444686889648 2.568608522415
-149.760147094727 -72.427421569824 -216.887969970703 1.175323843956
96.537284851074 -73.775253295898 -210.959075927734 1.048792719841
6.760022163391 -74.635910034180 -209.311004638672 1.483331441879
5.817483901978 -75.253410339355 -214.386810302734 0.699156522751
-34.099735260010 -73.267974853516 -209.175064086914 2.149505853653
-88.954490661621 -72.705001831055 -214.241851806641 2.058026790619
-27.756893157959 -72.969558715820 -212.595367431641 0.683748722076
84.938194274902 -74.592773437500 -214.751434326172 1.985730767250
87.690780639648 -73.487968444824 -218.759063720703 0.741930484772
-32.133613586426 -73.506408691406 -213.594650268555 1.735464096069
-84.945091247559 -72.426445007324 -217.080429077148 1.133561015129
-2.123156070709 -75.228752136230 -217.598114013672 1.928691625595
87.871398925781 -73.537773132324 -214.951202392578 1.663453817368
-150.390441894531 -72.118789672852 -223.762893676758 1.198848605156
-164.455032348633 -71.936485290527 -215.487808227539 1.457055091858
-159.083892822266 -71.889640808105 -224.226104736328 1.265429019928
-20.469438552856 -72.572792053223 -226.895706176758 1.381147027016
-152.001281738281 -71.834449768066 -224.510101318359 1.237716078758
-7.255397796631 -75.501892089844 -225.547058105469 0.589255452156
8.169615745544 -72.934455871582 -218.219604492188 1.413977980614
-163.316619873047 -72.109886169434 -225.635269165039 1.303959012032
-161.059463500977 -72.934524536133 -227.166091918945 1.296820521355
80.633773803711 -74.749794006348 -229.767456054688 2.242220878601
3.473754882813 -71.645362854004 -227.897018432617 0.802493274212
-154.115310668945 -71.847320556641 -226.831558227539 1.235917806625
-141.456054687500 -71.977943420410 -227.399490356445 1.194659233093
-19.361516952515 -74.114158630371 -224.476882934570 1.119137287140
2.776335000992 -76.804573059082 -225.380966186523 0.683817207813
81.029182434082 -73.623550415039 -223.156860351563 1.893788099289
-161.077529907227 -72.133575439453 -229.103652954102 1.343228816986
-146.653121948242 -72.213150024414 -228.963485717773 1.188219904900
-123.374229431152 -72.360862731934 -230.553863525391 0.518615245819
80.620536804199 -72.915405273438 -227.063461303711 1.196884155273
-114.670349121094 -72.052742004395 -229.647293090820 0.944910049438
-149.526443481445 -72.508979797363 -230.107269287109 0.893954992294
-148.803771972656 -71.854957580566 -231.592468261719 1.212037444115
-146.985290527344 -72.716972351074 -231.392288208008 0.762853741646
-155.300476074219 -72.006217956543 -230.153198242188 1.257664442062
-164.761062622070 -72.169952392578 -231.121780395508 0.976054012775
-134.630325317383 -71.143051147461 -233.687469482422 0.721630454063
-132.714324951172 -73.463127136230 -233.453948974609 0.427778661251
-154.385971069336 -71.949089050293 -232.866729736328 1.260296702385
-144.462356567383 -70.740547180176 -236.154479980469 0.772534847260
-151.954208374023 -72.027305603027 -235.820281982422 1.168357372284
74.539176940918 -73.518341064453 -230.337478637695 0.569236397743
68.392150878906 -72.775939941406 -237.468139648438 1.822588562965
-158.964370727539 -72.172035217285 -236.580276489258 1.113475799561
70.737754821777 -72.530792236328 -233.095489501953 0.526826381683
-17.827243804932 -73.841758728027 -237.186416625977 1.035099625587
10.396238327026 -73.164726257324 -235.225692749023 0.163176611066
6.311531066895 -74.135276794434 -236.213455200195 2.334173440933
-151.712829589844 -72.342773437500 -245.916137695313 0.895605087280
13.357928276062 -73.154647827148 -240.683029174805 0.135796397924
64.434448242188 -73.808647155762 -236.633316040039 0.454795032740
14.507122993469 -72.737319946289 -237.348831176758 0.841411709785
7.248604774475 -74.424110412598 -241.953247070313 0.919474899769
-5.486072063446 -73.813301086426 -241.606781005859 0.644802033901
-19.268466949463 -72.952423095703 -242.882354736328 1.072731733322
0.265266001225 -72.913902282715 -243.988906860352 0.297300964594
3.143250942230 -74.332992553711 -243.109497070313 0.803380131721
58.204929351807 -73.517684936523 -242.290481567383 1.550713181496
-55.774173736572 -72.573799133301 -245.098480224609 1.043089509010
19.174066543579 -72.706588745117 -246.082260131836 0.730361819267
-60.851497650146 -74.120529174805 -244.846130371094 0.673848688602
-7.887572765350 -73.026817321777 -247.587081909180 0.639111459255
-63.950988769531 -71.617683410645 -250.265899658203 1.683953166008
-85.710113525391 -73.909370422363 -252.204940795898 1.296634078026
-82.256134033203 -72.300285339355 -250.034225463867 0.988668441772
-11.662482261658 -72.801826477051 -252.261917114258 0.257765382528
-123.709091186523 -71.825996398926 -256.068389892578 0.875793635845
-13.462628364563 -74.155311584473 -255.426864624023 0.538305461407
-116.278968811035 -72.961624145508 -258.085510253906 1.080355048180
-113.695617675781 -72.406982421875 -259.034545898438 1.062569856644
-102.346351623535 -72.338661193848 -260.105590820313 0.548728048801
-144.088088989258 -72.507286071777 -265.260040283203 1.044528961182
-144.887756347656 -71.590515136719 -266.634399414063 1.339035511017
-167.112319946289 -72.172554016113 -265.476562500000 2.786577224731
17.303119659424 -74.582687377930 -279.700439453125 1.229596257210
-53.577400207520 -72.339065551758 -286.308898925781 0.772490620613
-64.775001525879 -72.080558776855 -286.483245849609 0.853896975517
-41.152126312256 -73.806167602539 -286.378601074219 1.800313830376
-29.073167800903 -74.200553894043 -285.409912109375 0.422555118799
-96.345390319824 -72.314445495605 -287.495910644531 1.998357772827
-28.529413223267 -71.882972717285 -287.649383544922 1.061091780663
-3.985626935959 -73.790321350098 -287.246826171875 0.450598150492
-166.621307373047 -71.667350769043 -289.798248291016 1.575908303261
-10.671474456787 -73.648101806641 -286.955963134766 0.500686764717
8.687062263489 -73.794754028320 -288.136657714844 0.329578310251
15.230029106140 -74.394882202148 -288.805450439453 1.032827138901
-55.930942535400 -72.396286010742 -291.326263427734 0.824845671654
-29.226163864136 -71.731628417969 -290.872283935547 2.107082366943
14.877062797546 -72.000045776367 -291.846588134766 0.835116982460
-68.834541320801 -72.658500671387 -291.695983886719 1.210503101349
-36.055870056152 -72.267410278320 -291.224517822266 0.685783505440
-16.594547271729 -71.745262145996 -291.132385253906 0.558232426643
17.121934890747 -73.960052490234 -290.096649169922 0.887954294682
-9.736211776733 -72.776229858398 -292.036956787109 1.094303250313
4.004117012024 -71.781112670898 -292.131103515625 0.450573772192
14.844884872437 -72.631202697754 -293.516571044922 0.411443918943
-133.945007324219 -71.273689270020 -295.417449951172 1.422727108002
-143.770309448242 -73.667617797852 -302.045013427734 1.739068984985
-146.222061157227 -73.880332946777 -313.836425781250 1.114404320717
40.124752044678 -73.398986816406 -13.002873420715 1.714559316635
30.488239288330 -73.483528137207 -12.137752532959 2.339608669281
37.747707366943 -73.572143554688 -16.129184722900 2.747496128082
20.373096466064 -73.193450927734 -19.938743591309 2.537712574005
43.720199584961 -73.575149536133 -20.997755050659 2.061510562897
24.299718856812 -74.229034423828 -22.411222457886 1.870348811150
23.882448196411 -74.130821228027 -29.101734161377 2.012155056000
21.841295242310 -74.231422424316 -34.359703063965 3.118527173996
42.782878875732 -73.246711730957 -30.579973220825 2.599501371384
26.665208816528 -74.112785339355 -34.590457916260 2.442688941956
41.696247100830 -73.548622131348 -34.576564788818 2.408855438232
31.259479522705 -73.988525390625 -36.865417480469 1.973273277283
35.879276275635 -73.835479736328 -36.829048156738 1.993068456650
31.192518234253 -74.130630493164 -39.809104919434 1.947170138359
41.067584991455 -73.508819580078 -39.753948211670 1.528297305107
35.481224060059 -73.789085388184 -41.283367156982 2.151303291321
-38.935703277588 -70.612007141113 -49.964908599854 1.138807177544
-31.221084594727 -70.184616088867 -51.868541717529 2.434894084930
-88.099494934082 -68.760299682617 -57.343959808350 1.719948530197
-87.523056030273 -74.031394958496 -65.300529479980 1.433421373367
79.134475708008 -74.870635986328 -69.712234497070 1.843756198883
84.053520202637 -75.239242553711 -71.563301086426 1.617819190025
-17.895401000977 -71.953598022461 -71.577415466309 1.252323746681
-88.714462280273 -75.671371459961 -71.757499694824 2.010138273239
-25.531192779541 -73.862594604492 -77.081710815430 0.612664759159
-50.041381835938 -73.328544616699 -85.832099914551 1.291507482529
65.711677551270 -70.206024169922 -85.479034423828 1.729329109192
53.670063018799 -73.735130310059 -91.817222595215 1.516577005386
99.470085144043 -73.217353820801 -90.468009948730 2.080326795578
70.163589477539 -73.243141174316 -95.470413208008 2.060165643692
-65.541267395020 -75.976867675781 -94.467002868652 1.535799026489
-66.009849548340 -74.361839294434 -96.921089172363 1.638628125191
45.115886688232 -75.288398742676 -96.875579833984 2.002902507782
77.404182434082 -73.593429565430 -102.039146423340 2.001432895660
53.374187469482 -76.332511901855 -104.004486083984 1.563823223114
100.441009521484 -73.345756530762 -97.554527282715 1.790355682373
-96.053604125977 -72.095603942871 -107.549827575684 2.652021408081
37.347537994385 -74.965583801270 -112.120361328125 2.060617446899
106.318748474121 -73.497665405273 -106.396636962891 1.834188580513
47.284740447998 -72.928550720215 -110.362045288086 2.078058719635
103.049873352051 -73.421806335449 -106.842788696289 1.727309346199
-86.610725402832 -74.243789672852 -112.908111572266 0.424746334553
36.264808654785 -75.143318176270 -109.999130249023 0.952070236206
105.487800598145 -74.117416381836 -115.891365051270 1.909625291824
104.696632385254 -72.367103576660 -114.101821899414 1.449222922325
107.997795104980 -73.681541442871 -114.008689880371 1.614326357841
109.533096313477 -73.796020507813 -114.500648498535 1.890551567078
37.993152618408 -72.385742187500 -112.900993347168 2.115207433701
31.516349792480 -74.800651550293 -119.521896362305 1.213002562523
43.625362396240 -73.295288085938 -116.288581848145 1.321502089500
109.442779541016 -73.443473815918 -122.054588317871 1.422677278519
38.560840606689 -72.989471435547 -125.539283752441 2.747154951096
108.026130676270 -73.715087890625 -130.357299804688 1.459457516670
112.519432067871 -73.029525756836 -129.860671997070 1.828963518143
33.538845062256 -73.029251098633 -123.498550415039 1.209809541702
-77.206138610840 -71.558921813965 -129.530288696289 1.295533776283
116.125106811523 -73.600486755371 -134.120925903320 1.528070330620
-56.576747894287 -73.065277099609 -136.689193725586 1.652245402336
36.581268310547 -73.839935302734 -135.346176147461 1.368691325188
-72.851112365723 -73.311317443848 -138.605743408203 0.629093170166
29.095441818237 -73.155891418457 -134.146865844727 1.493059277534
-77.617500305176 -72.671051025391 -141.678131103516 2.139586687088
-45.230255126953 -75.033081054688 -142.173019409180 1.146084904671
-71.743354797363 -71.037696838379 -137.914688110352 1.963881492615
111.779151916504 -73.095634460449 -137.532394409180 1.017717838287
112.997772216797 -73.148643493652 -141.175415039063 1.281098604202
116.513961791992 -75.151939392090 -143.378860473633 1.221226930618
-72.431610107422 -70.710784912109 -144.710723876953 0.917931854725
10.024498939514 -71.089859008789 -150.865417480469 0.669065833092
-54.179935455322 -73.640510559082 -152.155151367188 1.290369153023
-49.117900848389 -73.137832641602 -156.282333374023 1.020632266998
108.355873107910 -73.079421997070 -158.193283081055 1.338733673096
-42.539516448975 -73.110389709473 -151.095123291016 1.128763318062
13.140880584717 -73.082000732422 -156.546646118164 1.080571413040
22.079870223999 -73.367401123047 -157.997650146484 1.719279289246
115.173889160156 -74.754760742188 -162.882461547852 1.252300500870
29.002201080322 -73.784744262695 -163.184143066406 0.744878768921
-1.028465986252 -73.643875122070 -163.027069091797 0.472849249840
31.680440902710 -74.076263427734 -161.424880981445 0.868574023247
-68.003715515137 -71.217605590820 -160.535522460938 0.728574395180
-64.575958251953 -71.893020629883 -159.658050537109 0.934067726135
-67.538551330566 -73.348136901855 -165.105117797852 1.587760806084
115.133087158203 -72.291061401367 -160.014511108398 2.077412366867
-44.272876739502 -72.511550903320 -163.230606079102 0.679836153984
20.167722702026 -73.668853759766 -166.162292480469 0.775508642197
-63.996501922607 -73.111778259277 -169.659698486328 1.629092693329
-60.504379272461 -72.961235046387 -171.510391235352 0.600816011429
-38.514930725098 -72.348602294922 -159.648239135742 0.701682925224
-31.630262374878 -72.542221069336 -170.315841674805 1.258753657341
113.802200317383 -73.923469543457 -170.091339111328 1.899107336998
-36.411922454834 -72.489242553711 -176.827011108398 1.288982987404
16.034307479858 -73.910812377930 -174.324676513672 2.376129388809
111.154418945313 -74.666275024414 -180.672698974609 1.297744274139
-148.166915893555 -73.350296020508 -176.967834472656 0.727663099766
-145.067016601563 -73.047302246094 -176.985565185547 0.494783490896
-151.218826293945 -71.920158386230 -178.344024658203 1.122784018517
-142.782669067383 -71.656417846680 -181.391723632813 0.877492249012
-30.195768356323 -72.665321350098 -186.789337158203 0.575938463211
-22.522991180420 -72.172889709473 -186.409149169922 1.374598503113
22.947175979614 -72.915611267090 -188.960678100586 2.234221458435
-142.362884521484 -71.762222290039 -187.865295410156 1.065281748772
-146.048370361328 -72.232177734375 -189.036117553711 1.095377087593
-19.862812042236 -70.380043029785 -188.309326171875 1.498751282692
13.760196685791 -74.424591064453 -182.380111694336 1.599909424782
-147.704452514648 -72.519920349121 -193.222518920898 0.915441691875
-31.284437179565 -74.698265075684 -186.103958129883 1.646092057228
100.901550292969 -72.946678161621 -187.763916015625 3.145504236221
108.138908386230 -74.356117248535 -189.132354736328 1.717491865158
23.256101608276 -71.741661071777 -193.386306762695 1.684125900269
-18.063644409180 -73.702644348145 -188.736129760742 1.777665853500
-26.003185272217 -74.148895263672 -194.530960083008 1.391871094704
-153.461837768555 -71.319427490234 -196.781860351563 1.151047468185
-131.866699218750 -72.754951477051 -197.845138549805 0.770205020905
-124.026214599609 -71.528808593750 -196.474731445313 0.997124552727
-122.040267944336 -70.812210083008 -198.731231689453 0.925242722034
-23.039602279663 -70.549156188965 -198.116607666016 0.813370704651
10.615345001221 -73.260070800781 -193.023818969727 1.605688214302
94.823204040527 -72.756576538086 -200.465255737305 0.991870164871
-147.666046142578 -71.101181030273 -198.228500366211 1.230022668839
-145.950729370117 -71.490905761719 -199.439163208008 0.587822437286
-149.122985839844 -70.720016479492 -199.628219604492 1.119963765144
-154.722549438477 -71.084480285645 -200.180816650391 0.914170563221
-25.665208816528 -73.613357543945 -199.786529541016 0.998296082020
-14.060503959656 -75.327789306641 -196.437057495117 1.084529876709
-148.247528076172 -71.535743713379 -201.893508911133 1.008199691772
-15.427634239197 -72.479141235352 -199.469299316406 1.410518884659
-162.220184326172 -71.293670654297 -199.724822998047 1.220134139061
-133.550231933594 -72.290908813477 -200.682693481445 0.252503156662
17.301317214966 -71.921150207520 -207.261093139648 1.094509720802
-163.569854736328 -71.372940063477 -204.777740478516 1.241381168365
-145.286132812500 -71.861549377441 -207.070358276367 1.150448203087
10.873671531677 -72.539985656738 -200.432098388672 1.901689648628
-153.278808593750 -71.163764953613 -204.233688354492 1.005607843399
-22.853361129761 -73.361793518066 -200.570632934570 1.306377649307
102.965385437012 -72.940071105957 -199.395202636719 1.977418422699
-155.593154907227 -71.531784057617 -216.470413208008 0.752856075764
-164.306732177734 -71.820037841797 -210.896926879883 0.550666034222
-78.200218200684 -71.666213989258 -211.643234252930 0.134127557278
88.418746948242 -72.799804687500 -210.166641235352 0.808493137360
-3.262830018997 -71.330795288086 -216.318298339844 0.244866192341
-150.846038818359 -71.333129882813 -214.064163208008 1.566147089005
-87.810691833496 -71.181762695313 -215.420608520508 1.113997936249
-7.924551010132 -73.136451721191 -212.136169433594 2.015632152557
15.295618057251 -73.218208312988 -222.841308593750 0.217780679464
-145.745193481445 -72.458396911621 -219.617874145508 1.005190610886
-2.468772888184 -73.059272766113 -221.185577392578 1.716071963310
-21.853597640991 -71.173377990723 -221.418426513672 0.625698447227
-14.258181571960 -70.566818237305 -219.182739257813 1.559799551964
88.675575256348 -73.000930786133 -215.534027099609 0.772292256355
-21.525806427002 -71.989219665527 -218.403457641602 0.744090318680
-28.397071838379 -72.390747070313 -216.147750854492 1.710012674332
-106.767135620117 -71.725830078125 -224.184814453125 0.786747753620
-15.019060134888 -71.957984924316 -222.510025024414 1.307550668716
90.395431518555 -71.795387268066 -218.828887939453 0.657537102699
81.732551574707 -72.874786376953 -218.410171508789 0.702767491341
5.612639904022 -73.451675415039 -220.694747924805 1.186374664307
-10.161320686340 -73.396133422852 -225.468994140625 0.639840185642
78.342590332031 -74.276283264160 -222.462249755859 1.102435588837
-123.422096252441 -71.776443481445 -225.760269165039 0.883642137051
-22.995096206665 -71.771896362305 -222.860458374023 0.293639510870
-99.258438110352 -71.182891845703 -224.844772338867 0.751184225082
-104.833587646484 -71.974586486816 -227.088211059570 0.650968849659
-134.405410766602 -72.743957519531 -228.566970825195 1.096211791039
82.137680053711 -72.232284545898 -224.176834106445 1.337208747864
-123.503730773926 -71.580108642578 -227.944854736328 1.003862500191
6.063600063324 -73.014335632324 -228.147583007813 0.482790172100
80.574851989746 -72.364212036133 -223.858001708984 1.896068334579
-14.019989013672 -72.704383850098 -225.961334228516 0.419077217579
-11.666912078857 -72.824485778809 -231.078567504883 1.186439275742
-4.459150791168 -73.458946228027 -230.017761230469 0.209809064865
8.682257652283 -72.594390869141 -227.058258056641 0.487227767706
86.355018615723 -73.373420715332 -224.409561157227 1.049183249474
11.559641838074 -72.061370849609 -232.204330444336 0.179582864046
3.814687013626 -73.798843383789 -229.173187255859 1.432400226593
-8.477412223816 -72.865310668945 -230.400955200195 0.525457918644
-6.315450191498 -72.055709838867 -233.708801269531 0.193992480636
17.092138290405 -71.895164489746 -231.765197753906 0.849152982235
-11.799118995667 -72.339561462402 -234.172042846680 0.220820143819
71.837188720703 -73.295738220215 -237.881713867188 0.503498733044
-7.557522773743 -71.106338500977 -237.942581176758 0.187454447150
18.987380981445 -73.777236938477 -235.986526489258 0.658786118031
-165.919906616211 -72.195739746094 -242.762939453125 1.390591144562
-4.362833023071 -72.163955688477 -239.371475219727 0.177364408970
-8.880013465881 -71.040992736816 -242.196533203125 0.595537662506
-167.441329956055 -70.716552734375 -252.661010742188 0.972557902336
-9.919589042664 -72.703865051270 -245.500015258789 0.220570936799
17.372682571411 -71.895416259766 -246.641662597656 0.984161257744
-146.066558837891 -73.252830505371 -252.936431884766 1.041364431381
-68.384086608887 -70.456230163574 -248.469680786133 1.249266624451
-60.152584075928 -71.535003662109 -247.161758422852 1.516432285309
54.537719726563 -73.069549560547 -246.702560424805 2.210905313492
-76.770896911621 -72.058975219727 -248.681121826172 1.961909532547
18.865659713745 -73.610099792480 -249.220748901367 0.634363412857
-73.007225036621 -70.628814697266 -252.860534667969 1.703772425652
-13.939712524414 -72.883941650391 -251.268890380859 0.784490644932
-145.281188964844 -72.287940979004 -253.944076538086 1.144642114639
49.326206207275 -72.647979736328 -248.491333007813 1.014114260674
-77.970756530762 -70.834426879883 -254.442230224609 1.274122357368
-101.442237854004 -71.110939025879 -255.335021972656 1.451931834221
-97.124778747559 -73.097717285156 -255.770324707031 0.688864707947
-116.913009643555 -72.824943542480 -256.289489746094 1.215406894684
-104.776565551758 -72.722953796387 -257.661621093750 1.180647492409
-106.458122253418 -72.675559997559 -260.076232910156 1.040454983711
