-146.544677734375 -82.752571105957 -284.532501220703 1.064658880234
-149.245056152344 -83.989936828613 -301.991119384766 1.239719033241
-47.206119537354 -81.550025939941 -71.373466491699 0.479637593031
-68.996383666992 -80.965507507324 -69.243667602539 1.302057266235
-42.305831909180 -80.612228393555 -68.379867553711 1.099626660347
-34.161933898926 -81.779525756836 -76.624168395996 1.076703906059
-75.533760070801 -80.194664001465 -70.433471679688 2.226378917694
-31.667036056519 -81.108062744141 -78.846809387207 1.240935206413
-47.122642517090 -78.808372497559 -86.029548645020 0.792176961899
-55.934326171875 -79.452087402344 -93.805252075195 0.845167458057
-62.472599029541 -84.321136474609 -95.989295959473 0.573279321194
-65.538833618164 -81.129379272461 -99.954437255859 0.808844149113
-87.660713195801 -81.553344726563 -106.862457275391 1.172385334969
43.833274841309 -80.755393981934 -117.315177917480 1.063928127289
37.884159088135 -81.821464538574 -126.033859252930 1.429637193680
-42.697158813477 -80.180999755859 -162.768096923828 0.672520041466
-39.361198425293 -80.693359375000 -162.803436279297 2.769250154495
-7.811297893524 -81.282829284668 -170.643569946289 1.233192563057
-61.734016418457 -80.068466186523 -170.513275146484 0.694172620773
-58.086841583252 -80.520851135254 -178.246505737305 2.564616203308
-58.020282745361 -80.655525207520 -174.456802368164 0.850280821323
-31.856119155884 -80.280036926270 -172.632049560547 0.968182146549
-52.521324157715 -81.085433959961 -181.538803100586 0.697287619114
-25.898674011230 -80.143325805664 -182.177734375000 0.497056782246
-147.229980468750 -81.402099609375 -186.747360229492 0.764132618904
-50.390796661377 -80.940750122070 -183.249679565430 1.054663538933
-42.457160949707 -80.849227905273 -193.974029541016 0.689217925072
-32.211814880371 -80.650169372559 -186.894699096680 0.660835742950
-34.404598236084 -79.642181396484 -189.901062011719 2.603432178497
-31.479457855225 -80.040031433105 -191.756317138672 1.455734014511
-25.458776473999 -80.517295837402 -188.688858032227 0.554475665092
-46.154079437256 -81.163604736328 -195.831008911133 0.739297986031
-144.597869873047 -80.288131713867 -195.282913208008 0.932520687580
-39.608982086182 -79.779411315918 -196.159439086914 0.662190318108
-40.252124786377 -81.200210571289 -198.402801513672 0.721250593662
-43.286125183105 -80.913078308105 -199.957397460938 0.327853262424
-45.707317352295 -79.409324645996 -199.159896850586 0.694481551647
-133.842803955078 -80.114112854004 -200.224685668945 0.670413613319
-136.472579956055 -80.481986999512 -201.833862304688 1.125405907631
-47.447330474854 -82.041984558105 -203.054565429688 0.576010048389
-59.768329620361 -80.845825195313 -203.303741455078 0.766422510147
-38.120105743408 -80.908531188965 -204.971679687500 0.698418200016
-144.945831298828 -80.961257934570 -205.482452392578 1.195473670959
-69.064788818359 -79.544052124023 -207.093139648438 0.491014361382
-34.116462707520 -80.794639587402 -207.554275512695 0.691162526608
13.678952217102 -80.045524597168 -205.603652954102 0.689797222614
-74.101173400879 -80.602622985840 -214.013442993164 0.865862309933
-30.821390151978 -79.872322082520 -213.569274902344 1.428920984268
11.776135444641 -80.791854858398 -217.354248046875 1.189873814583
-150.591506958008 -80.740325927734 -218.532623291016 1.301568746567
11.104926109314 -81.475326538086 -227.149200439453 0.864785015583
13.684554100037 -80.974624633789 -222.236709594727 0.612795531750
15.298907279968 -80.572807312012 -228.415847778320 0.707261085510
-135.350158691406 -81.622322082520 -227.585342407227 0.738195657730
-146.262008666992 -79.436683654785 -229.828720092773 1.015506625175
9.497117042542 -81.616096496582 -237.852355957031 1.127789974213
16.084344863892 -79.527954101563 -237.525451660156 1.923635482788
12.075338363647 -80.433448791504 -236.550994873047 1.482712388039
-150.648864746094 -81.424568176270 -240.933120727539 1.778463602066
-145.597656250000 -82.265251159668 -240.604049682617 1.412479162216
14.571071624756 -80.555442810059 -239.004699707031 0.617288887501
-35.563484191895 -79.511352539063 -244.217697143555 0.656798005104
18.046958923340 -80.464050292969 -247.787628173828 0.621609926224
-40.780467987061 -79.804344177246 -244.147888183594 0.695927619934
-146.053344726563 -81.921264648438 -254.273941040039 1.501075148582
14.648535728455 -80.360931396484 -253.048385620117 1.728007435799
-143.873870849609 -81.995231628418 -256.885253906250 0.943639576435
-151.131942749023 -81.653503417969 -254.296081542969 0.985261261463
17.987079620361 -79.368263244629 -257.368713378906 1.371142625809
-9.034030914307 -78.890838623047 -253.442749023438 1.372390508652
-8.231305122375 -81.859130859375 -261.351135253906 0.674375951290
-146.849884033203 -81.543998718262 -258.826995849609 1.253327012062
-155.338256835938 -77.829460144043 -260.714965820313 1.840108156204
-146.291778564453 -82.415832519531 -264.004638671875 0.821532845497
-151.695007324219 -77.962471008301 -265.122589111328 1.503717064857
-151.324523925781 -82.243057250977 -271.051818847656 1.971236824989
-9.543466567993 -79.968856811523 -267.477966308594 1.446508765221
-3.114351987839 -81.262535095215 -273.250640869141 0.794020175934
12.773930549622 -82.578704833984 -269.634002685547 0.950524270535
8.384776115417 -79.308319091797 -280.367340087891 1.344185948372
5.395563125610 -80.153793334961 -280.923309326172 0.861639618874
-137.529388427734 -77.412193298340 -291.755340576172 1.930371522903
-143.976364135742 -80.258872985840 -291.732177734375 0.942065060139
-61.377674102783 -80.486846923828 -65.932853698730 0.846211850643
-42.153762817383 -79.310287475586 -64.061119079590 0.816196560860
-51.949535369873 -80.396202087402 -66.196273803711 0.702539145947
-47.212261199951 -79.589111328125 -65.056541442871 1.549731135368
-69.240684509277 -79.748344421387 -65.617347717285 2.181277275085
-79.796569824219 -80.053337097168 -73.838722229004 1.423167467117
-31.711706161499 -79.575225830078 -80.415397644043 1.470368623734
-40.672927856445 -80.162139892578 -85.452308654785 0.681292593479
-48.931461334229 -80.831855773926 -88.278022766113 0.905056297779
-87.082458496094 -79.895660400391 -87.600364685059 2.375857591629
-78.371742248535 -80.910186767578 -104.630889892578 0.768157839775
42.614700317383 -80.649551391602 -109.309501647949 1.193988800049
-85.696350097656 -80.383079528809 -110.492790222168 1.805654287338
39.887165069580 -81.691444396973 -118.398536682129 1.199497580528
40.087585449219 -80.867706298828 -126.251197814941 1.067505717278
34.409385681152 -80.601539611816 -120.860374450684 1.150819182396
31.640745162964 -80.255783081055 -125.968826293945 2.353896856308
35.105571746826 -80.780799865723 -137.348114013672 1.045353531837
25.081640243530 -79.422882080078 -145.347229003906 0.877367794514
-46.925609588623 -79.979522705078 -152.079681396484 1.835251688957
31.772787094116 -80.680351257324 -147.505157470703 1.350947618484
24.308956146240 -80.283447265625 -158.935714721680 0.964983522892
-45.708133697510 -80.102661132813 -155.327072143555 0.680388927460
28.047311782837 -80.778793334961 -156.376327514648 0.982266366482
-44.875144958496 -78.376892089844 -164.216445922852 0.787180840969
25.444484710693 -80.410285949707 -166.902008056641 0.563947737217
-59.339790344238 -79.947448730469 -169.876876831055 1.975072860718
-8.869326591492 -81.804885864258 -174.329040527344 1.729406118393
-36.073333740234 -80.092277526855 -173.805114746094 1.360280990601
-16.471729278564 -81.883445739746 -175.817459106445 0.424849331379
-55.149654388428 -79.859580993652 -175.176589965820 0.683819830418
21.730489730835 -79.985076904297 -173.473571777344 1.628923535347
-15.097949981689 -80.228164672852 -181.248016357422 1.310412883759
-22.805828094482 -79.883110046387 -186.480941772461 0.186342656612
-55.145931243896 -79.313980102539 -186.165817260742 2.346385717392
-29.322950363159 -80.235588073730 -184.872039794922 0.220458671451
19.274761199951 -79.167404174805 -188.749511718750 1.296009540558
-149.795883178711 -80.241249084473 -188.273666381836 0.786514401436
-27.626302719116 -80.050201416016 -189.457458496094 0.649530887604
-47.691112518311 -78.934089660645 -190.558685302734 1.748380899429
-150.560440063477 -81.614974975586 -196.059539794922 0.702241301537
-142.656829833984 -81.368942260742 -197.620681762695 1.278832793236
-22.558765411377 -80.031845092773 -196.874114990234 1.862400412560
-19.224897384644 -80.066680908203 -196.800537109375 0.457789689302
-46.719749450684 -79.667312622070 -197.719253540039 0.749050974846
-23.097187042236 -78.951316833496 -199.176300048828 2.183618545532
-49.300971984863 -79.506034851074 -202.461532592773 0.604284107685
-44.625480651855 -79.164855957031 -200.884231567383 0.692835152149
-56.731929779053 -79.082496643066 -202.971084594727 0.778985500336
-19.253690719604 -78.459152221680 -206.003295898438 1.654207825661
-149.824722290039 -81.341979980469 -211.047042846680 1.131513476372
-60.006572723389 -78.186424255371 -206.519241333008 0.875909864902
-55.889007568359 -79.335891723633 -206.612030029297 1.691738128662
-32.042961120605 -78.861251831055 -205.398971557617 2.087968111038
-16.330787658691 -79.744613647461 -205.222183227539 2.315138339996
-38.433177947998 -79.801696777344 -206.866561889648 0.693392097950
-79.007629394531 -79.792083740234 -211.526504516602 0.756727993488
-144.964691162109 -81.076866149902 -211.185943603516 1.410409450531
-32.484233856201 -80.323463439941 -207.208465576172 1.416485667229
9.608425140381 -79.575462341309 -210.467041015625 2.174794197083
-63.061908721924 -80.182380676270 -210.769409179688 1.162052392960
-69.996963500977 -80.450164794922 -213.101943969727 0.389571517706
-26.406240463257 -79.475906372070 -215.566253662109 0.605195462704
-11.782109260559 -79.906517028809 -211.288543701172 1.042689442635
-24.782257080078 -78.595909118652 -220.240234375000 0.345005631447
15.239880561829 -79.897583007813 -217.944595336914 1.007610082626
-150.606521606445 -80.999542236328 -224.711853027344 1.539125323296
-9.537199020386 -79.974693298340 -219.174667358398 2.127896308899
-153.358398437500 -81.235290527344 -228.384307861328 1.409155249596
8.700669288635 -80.680953979492 -229.658416748047 0.620216965675
12.599430084229 -79.605850219727 -228.254623413086 1.310251951218
-4.954492092133 -80.184471130371 -224.047271728516 1.173811912537
17.106119155884 -78.941284179688 -227.211700439453 0.588935136795
-135.518096923828 -80.784797668457 -231.504852294922 2.047870397568
9.712721824646 -78.763229370117 -225.581176757813 0.649284183979
-153.312377929688 -80.518440246582 -231.284057617188 0.537844479084
-145.647506713867 -81.895790100098 -233.779800415039 0.795701742172
-3.199590921402 -80.186096191406 -223.195983886719 1.227473855019
18.671735763550 -78.971595764160 -235.487533569336 2.301460027695
-32.371688842773 -79.756469726563 -240.596603393555 1.479366183281
-145.426086425781 -77.698905944824 -240.952926635742 1.391400933266
-39.813640594482 -79.741882324219 -241.596176147461 0.784984886646
-45.713928222656 -79.307136535645 -242.713027954102 1.623656034470
-28.798139572144 -79.644721984863 -241.990005493164 0.767951548100
19.655029296875 -80.287750244141 -242.285964965820 1.702578186989
-49.381935119629 -79.188041687012 -244.750350952148 1.511985301971
12.012142181396 -80.347137451172 -246.752319335938 1.030645012856
8.079559326172 -79.428657531738 -241.561889648438 0.627458930016
10.379888534546 -81.403038024902 -247.038696289063 0.568559587002
-44.723167419434 -78.849884033203 -246.144287109375 1.073663234711
21.365997314453 -80.289245605469 -247.931518554688 0.611690938473
-145.775054931641 -78.209304809570 -249.079864501953 1.446864962578
20.044092178345 -78.831504821777 -247.921035766602 0.601281344891
1.184643030167 -81.771629333496 -251.011962890625 2.114183902740
11.108985900879 -79.543838500977 -249.383529663086 1.114387154579
-151.605133056641 -77.553138732910 -253.526962280273 1.508101820946
-148.412033081055 -81.964408874512 -261.138946533203 1.624745488167
-143.110900878906 -79.085281372070 -261.755554199219 0.739726960659
-153.830535888672 -78.448883056641 -263.453186035156 1.589718103409
17.996606826782 -78.790939331055 -267.857696533203 1.359605312347
-151.603408813477 -78.198005676270 -270.809143066406 1.480515003204
-5.435747146606 -79.696540832520 -275.862976074219 0.806042969227
-149.717636108398 -77.279190063477 -275.859741210938 1.640371799469
-146.382827758789 -78.435729980469 -277.039733886719 1.125246047974
-151.800750732422 -78.218490600586 -277.576721191406 1.356251120567
-155.580627441406 -78.542091369629 -286.631072998047 1.723059773445
-135.803405761719 -78.501266479492 -288.572784423828 1.313354372978
-151.084320068359 -79.745216369629 -288.309906005859 1.740705609322
-147.990936279297 -82.404327392578 -290.400451660156 1.654244661331
-146.998672485352 -79.799545288086 -295.053344726563 1.107826113701
-152.473281860352 -78.586402893066 -295.161712646484 0.900070428848
-147.994476318359 -77.285972595215 -295.607238769531 0.821651339531
-152.739440917969 -78.485961914063 -300.364013671875 1.355805635452
-147.227432250977 -79.048324584961 -301.055664062500 1.716170907021
-150.328353881836 -78.544334411621 -302.310729980469 1.506040930748
-56.324459075928 -78.525321960449 -59.904670715332 1.250594973564
-62.338691711426 -78.994209289551 -61.707042694092 2.615682125092
-48.590095520020 -78.972274780273 -61.992019653320 2.613841533661
-28.918457031250 -79.570518493652 -72.630844116211 0.936914265156
-52.772018432617 -80.701713562012 -92.376953125000 0.732828259468
-87.336700439453 -82.171478271484 -101.782554626465 0.514225959778
47.927860260010 -80.081436157227 -106.189613342285 1.191474199295
-80.360603332520 -82.513046264648 -106.705162048340 0.334464758635
39.300296783447 -80.795814514160 -113.552062988281 1.916252970695
38.371547698975 -79.681365966797 -119.371360778809 1.516105175018
37.747142791748 -79.658584594727 -126.313507080078 1.983418464661
37.892269134521 -79.003364562988 -135.197647094727 1.661119341850
31.093828201294 -79.686103820801 -136.170822143555 2.523277044296
33.637325286865 -79.593475341797 -137.119308471680 1.605106949806
28.742591857910 -79.386894226074 -149.750442504883 1.201563000679
-44.660087585449 -79.136375427246 -149.237365722656 1.887798547745
27.259870529175 -80.680290222168 -142.144363403320 1.114068746567
-67.255439758301 -77.419532775879 -154.641632080078 1.275545120239
-40.587726593018 -80.073348999023 -156.329040527344 1.075909018517
-63.462158203125 -79.499893188477 -165.365173339844 1.413433194160
-42.023986816406 -78.653717041016 -159.374755859375 1.782838940620
28.984237670898 -78.626121520996 -156.261276245117 1.231041073799
-35.650859832764 -80.156333923340 -164.261077880859 1.691972374916
-4.853291988373 -80.701156616211 -169.311050415039 0.510798692703
29.665342330933 -79.547393798828 -160.992919921875 2.321483373642
-8.867365837097 -79.569892883301 -169.343978881836 0.517316758633
-61.288803100586 -79.008056640625 -165.119186401367 1.354756832123
-35.196968078613 -78.449691772461 -169.151687622070 0.647409677505
-29.330038070679 -78.856468200684 -172.302032470703 1.982564330101
25.085000991821 -79.605087280273 -174.385604858398 0.544277846813
-55.578433990479 -78.441680908203 -178.315002441406 1.675894498825
-32.156688690186 -78.675872802734 -176.440307617188 2.784122705460
22.337722778320 -79.675323486328 -180.174850463867 1.399946928024
-50.238597869873 -78.569297790527 -185.178909301758 0.923335552216
-26.602277755737 -78.273063659668 -186.429107666016 1.045880913734
-53.547809600830 -78.569602966309 -183.593750000000 1.550940990448
-41.090423583984 -79.746154785156 -194.536117553711 1.287847876549
-30.349302291870 -78.580101013184 -188.384521484375 0.742953240871
-44.244384765625 -78.650367736816 -196.828048706055 1.980919241905
-24.450351715088 -78.762153625488 -191.043136596680 0.633193135262
-135.663726806641 -80.592880249023 -197.671508789063 0.940905869007
16.792995452881 -79.419166564941 -198.742538452148 0.627903163433
-134.065658569336 -76.031265258789 -199.259048461914 1.070638895035
-23.029830932617 -77.865509033203 -196.456085205078 1.594425797462
-19.467138290405 -77.895835876465 -197.473587036133 0.619559884071
-41.212844848633 -78.679580688477 -197.628021240234 1.362143635750
16.437746047974 -79.203544616699 -192.330993652344 3.496222257614
-15.894223213196 -78.894508361816 -198.443466186523 1.399682164192
-61.999958038330 -78.953598022461 -205.086837768555 0.855519890785
-35.779064178467 -78.374549865723 -205.626998901367 1.101808547974
-67.431808471680 -77.277359008789 -207.944839477539 0.784752845764
-69.773750305176 -76.235115051270 -210.220886230469 0.723870337009
16.730379104614 -78.842750549316 -209.119415283203 1.411265134811
-84.702011108398 -78.455337524414 -214.771270751953 0.560064196587
-30.396118164063 -78.454490661621 -216.232177734375 0.914014041424
-79.907402038574 -79.147621154785 -215.498489379883 0.637860834599
-145.481399536133 -81.571311950684 -217.945068359375 0.801821291447
-8.394594192505 -77.957672119141 -216.651123046875 0.315915256739
-12.437526702881 -78.845130920410 -218.093826293945 0.952541947365
12.075802803040 -78.587875366211 -215.666076660156 1.044294118881
12.906908988953 -78.882858276367 -221.093994140625 1.029570341110
-3.375132083893 -78.916099548340 -231.325454711914 0.656199812889
-134.825942993164 -76.688789367676 -228.194946289063 1.184189081192
-148.763687133789 -81.520927429199 -231.262512207031 1.432307839394
-147.891662597656 -78.239532470703 -231.527923583984 1.350692629814
9.026780128479 -78.370254516602 -234.209091186523 0.628690481186
0.462505012751 -78.939559936523 -235.713287353516 0.632733106613
-23.961452484131 -78.754554748535 -240.156738281250 0.787962615490
-150.851547241211 -76.958152770996 -240.900100708008 1.420644879341
10.708032608032 -78.423561096191 -245.592514038086 0.883513212204
-24.454729080200 -78.103462219238 -242.807037353516 0.887479245663
18.102697372437 -77.388282775879 -239.662628173828 0.580036818981
-55.563781738281 -78.002815246582 -244.902282714844 1.401889681816
-51.428108215332 -78.253463745117 -247.366821289063 0.484048396349
-146.389053344727 -82.139213562012 -246.847564697266 1.067323446274
-64.365440368652 -77.023063659668 -247.403503417969 1.462494969368
-4.680898189545 -76.360237121582 -247.378524780273 0.659584045410
-10.566037178040 -79.086837768555 -258.564514160156 0.749094307423
-148.417892456055 -81.959373474121 -257.177307128906 1.491377353668
-135.221969604492 -77.880020141602 -258.575897216797 1.549623012543
-136.900695800781 -76.595252990723 -261.759063720703 1.705484271049
19.106740951538 -78.779121398926 -262.219543457031 0.873640537262
-146.243591308594 -78.711723327637 -271.522949218750 1.313181161880
17.042411804199 -79.671241760254 -270.376983642578 1.424721956253
-150.007644653320 -77.202629089355 -272.454132080078 0.826867461205
1.501250028610 -81.072601318359 -278.311767578125 1.418360114098
-146.538940429688 -78.954940795898 -283.207031250000 1.164139151573
3.915148019791 -78.176002502441 -284.086608886719 0.787507593632
-151.913314819336 -78.473556518555 -282.719268798828 1.388806700706
-143.064331054688 -77.378585815430 -286.850524902344 1.432681560516
-138.641418457031 -77.106163024902 -287.179504394531 2.066211223602
-149.150802612305 -83.851806640625 -291.201354980469 1.755504965782
-19.596509933472 -77.438644409180 -290.041931152344 0.808084189892
-154.934265136719 -79.149314880371 -292.734069824219 1.792324423790
-150.799697875977 -77.198287963867 -295.662475585938 0.901237547398
-149.532089233398 -77.057563781738 -311.834991455078 1.746898174286
-57.979343414307 -78.002799987793 -58.188209533691 1.107808589935
-39.593666076660 -78.135894775391 -61.898994445801 1.501284837723
-77.015769958496 -78.077430725098 -64.336166381836 2.134528160095
-27.654693603516 -78.147857666016 -69.034111022949 1.338198781013
-25.477895736694 -78.771682739258 -73.763137817383 1.057050704956
-84.877105712891 -79.964790344238 -82.220764160156 1.573642134666
88.174995422363 -78.885803222656 -85.417266845703 1.801841020584
-37.792762756348 -78.460868835449 -83.180953979492 2.967763185501
81.186302185059 -79.293411254883 -85.833244323730 1.551510810852
75.642356872559 -78.175575256348 -87.805099487305 2.048242568970
84.810592651367 -78.756401062012 -90.686195373535 1.536333322525
80.334564208984 -78.975181579590 -92.439979553223 2.238479614258
91.444129943848 -78.611404418945 -92.058715820313 1.564560651779
-92.467658996582 -76.353309631348 -96.136161804199 2.391416788101
50.804866790771 -78.773521423340 -105.802947998047 1.608318567276
-90.633079528809 -76.393531799316 -115.692840576172 1.047085523605
40.946788787842 -78.865242004395 -112.275810241699 1.149174451828
48.236248016357 -77.851371765137 -113.925125122070 2.369413137436
42.840934753418 -79.420303344727 -116.141532897949 1.667307496071
30.207984924316 -78.563774108887 -133.404907226563 0.962824344635
25.816158294678 -79.020111083984 -140.296676635742 1.045051932335
22.935781478882 -75.262817382813 -145.215667724609 1.509884476662
32.130962371826 -78.476280212402 -145.383789062500 0.900485992432
-49.558742523193 -78.687164306641 -154.024627685547 1.023010611534
-46.085720062256 -78.069152832031 -151.513824462891 0.377570658922
-42.211318969727 -78.092521667480 -154.956222534180 0.661902129650
26.565296173096 -78.779243469238 -150.675262451172 1.283050537109
23.556772232056 -78.309120178223 -167.798110961914 1.622709512711
-34.885482788086 -77.862342834473 -166.450836181641 1.041171073914
-35.281204223633 -78.267318725586 -160.827789306641 0.656463325024
-45.642013549805 -78.074951171875 -157.454071044922 0.657842099667
2.702718019485 -78.080657958984 -164.669326782227 0.254269987345
22.908878326416 -79.164939880371 -156.049865722656 2.675411224365
30.669797897339 -78.218734741211 -162.040237426758 0.576351583004
26.647253036499 -77.645355224609 -168.678894042969 1.240595221519
-11.016490936279 -78.138862609863 -170.765609741211 2.220738649368
-0.793705999851 -77.310874938965 -169.851150512695 1.128693580627
-57.234817504883 -78.456047058105 -170.215011596680 1.309597969055
-60.938789367676 -77.563209533691 -169.436706542969 1.089285492897
-39.975807189941 -78.726501464844 -171.439453125000 1.412199258804
-39.731266021729 -77.931297302246 -167.709213256836 0.678100526333
22.996992111206 -78.093460083008 -174.448242187500 2.130666017532
-20.299240112305 -79.895507812500 -177.740249633789 0.355565547943
-34.608592987061 -78.727638244629 -180.103118896484 0.930705666542
-60.178066253662 -78.166625976563 -179.062896728516 0.824329793453
105.058288574219 -78.303070068359 -181.906723022461 1.561485886574
20.075237274170 -79.151329040527 -171.598052978516 1.158662676811
-27.293506622314 -78.028129577637 -180.669479370117 1.887219786644
-49.748245239258 -76.793449401855 -182.108428955078 1.582761168480
-18.289470672607 -77.471298217773 -180.033203125000 0.623849809170
108.557609558105 -78.476615905762 -178.111755371094 2.090936660767
-49.805110931396 -79.046295166016 -181.970184326172 0.707644402981
16.763408660889 -78.530090332031 -185.074188232422 0.659614801407
25.183391571045 -78.160934448242 -180.590896606445 0.693734288216
-56.239074707031 -77.642211914063 -180.347640991211 0.671392202377
-22.756912231445 -77.759826660156 -182.033508300781 0.617245197296
-56.190868377686 -77.591651916504 -175.997695922852 0.912012517452
-35.494354248047 -75.937004089355 -182.354156494141 2.766372442245
-28.926574707031 -77.672439575195 -187.023162841797 1.330369353294
22.394439697266 -78.275909423828 -187.314315795898 0.661381661892
-51.485092163086 -77.371032714844 -187.440872192383 1.684130787849
104.341491699219 -78.431457519531 -190.126922607422 0.968723356724
-52.619895935059 -76.631134033203 -190.593566894531 0.670828104019
10.738517761230 -78.235954284668 -200.886581420898 2.069947719574
18.914497375488 -78.161102294922 -200.506759643555 0.449512839317
-47.647411346436 -76.730552673340 -190.776092529297 0.658292472363
-21.916463851929 -78.084869384766 -190.489196777344 0.728816509247
102.988746643066 -77.954780578613 -196.330673217773 0.919718623161
101.038215637207 -78.412460327148 -197.162384033203 0.859843790531
-46.728240966797 -77.456466674805 -190.208023071289 0.741177916527
-147.454437255859 -80.369354248047 -197.551147460938 0.984852850437
-46.277362823486 -77.809936523438 -199.195999145508 0.681652963161
-145.707183837891 -78.913490295410 -199.357650756836 1.115166425705
-137.241287231445 -76.345352172852 -202.349685668945 1.107240200043
-43.289966583252 -77.204200744629 -198.925582885742 2.142118930817
11.237985610962 -77.925178527832 -209.302108764648 0.303438901901
-17.292078018188 -77.683036804199 -204.417877197266 0.617683649063
15.104760169983 -77.610549926758 -202.945922851563 0.817631006241
92.098037719727 -77.836532592773 -209.076248168945 0.747480869293
-38.111995697021 -77.395484924316 -201.172668457031 1.233793497086
-10.325116157532 -78.646835327148 -208.563430786133 0.808441340923
-11.648751258850 -77.800918579102 -211.003112792969 0.855530679226
-38.176803588867 -78.332717895508 -208.704254150391 1.623013377190
10.802296638489 -76.958122253418 -205.841201782227 0.586790502071
-75.549041748047 -75.162528991699 -210.134582519531 0.134105131030
14.689446449280 -77.705352783203 -212.691162109375 0.585638344288
-35.868015289307 -77.479522705078 -207.557342529297 1.023687601089
-144.848724365234 -76.858261108398 -210.631149291992 1.200666546822
-146.044113159180 -74.510223388672 -212.333587646484 1.681522130966
-86.644592285156 -77.225524902344 -213.626007080078 1.246885776520
-35.960250854492 -76.611076354980 -211.855880737305 2.621587514877
-25.053174972534 -78.556121826172 -213.507400512695 1.115153431892
-29.541879653931 -77.423431396484 -213.054336547852 0.988247931004
-92.412956237793 -76.047340393066 -217.336074829102 1.391087174416
-88.901359558105 -76.999084472656 -216.736907958984 0.657636821270
9.058976173401 -77.786659240723 -221.128829956055 1.946064114571
-150.671310424805 -76.535911560059 -216.907623291016 1.203800678253
-12.568552970886 -77.732810974121 -214.008972167969 0.618362426758
7.806595802307 -79.345001220703 -218.151962280273 1.593295931816
-145.434799194336 -76.631546020508 -218.212326049805 1.097977519035
-20.271036148071 -78.315307617188 -220.226104736328 0.921391487122
-3.960230112076 -78.263252258301 -222.620391845703 0.179713457823
-3.637482881546 -78.836601257324 -219.122253417969 1.933178186417
-152.904037475586 -77.119842529297 -225.003433227539 1.335260033607
-137.760589599609 -76.377822875977 -227.103195190430 1.253990888596
-7.362741947174 -77.941299438477 -222.450515747070 1.010800838470
-149.730545043945 -81.071029663086 -228.708633422852 1.564664840698
1.317049980164 -76.936477661133 -231.153106689453 0.969533622265
16.145719528198 -78.114158630371 -232.788665771484 0.714327573776
-0.735352993011 -77.155342102051 -233.864334106445 2.349074363708
0.888298988342 -76.636009216309 -236.938690185547 1.287210941315
6.777548789978 -78.899566650391 -232.287643432617 0.890779078007
-150.905136108398 -76.802032470703 -235.624954223633 1.349528193474
-19.899938583374 -77.091384887695 -238.708282470703 0.696814119816
-35.554664611816 -78.138183593750 -239.771575927734 1.631212830544
5.678487777710 -76.222999572754 -232.312438964844 1.149231791496
-1.078366994858 -77.778755187988 -237.341705322266 0.630338609219
3.692933082581 -78.216064453125 -235.627975463867 1.813300132751
-54.194465637207 -76.190002441406 -243.292984008789 0.455701410770
-149.626632690430 -76.678466796875 -246.268341064453 0.525579750538
-151.543685913086 -78.068092346191 -248.499786376953 1.273430824280
8.728439331055 -78.522766113281 -246.853897094727 0.633357346058
20.812185287476 -77.460182189941 -248.734802246094 1.182294726372
-60.266716003418 -77.030456542969 -248.977554321289 0.920734763145
-145.792495727539 -78.099891662598 -253.331817626953 1.498628854752
-153.542526245117 -78.091926574707 -254.764236450195 1.530341386795
-150.158691406250 -82.089225769043 -258.199188232422 1.167253375053
-142.300170898438 -76.073234558105 -261.169494628906 1.656676530838
-137.388305664063 -76.166587829590 -257.138824462891 1.541553258896
-12.590276718140 -77.445220947266 -257.306182861328 0.740463912487
-144.186721801758 -78.023399353027 -264.026275634766 1.409604907036
-11.883872032166 -78.301513671875 -263.766876220703 2.204168319702
-147.689788818359 -76.750808715820 -277.073913574219 1.633561491966
-147.514511108398 -77.140312194824 -282.848388671875 1.672115087509
-151.058578491211 -76.945396423340 -282.571166992188 1.691951274872
-3.778186082840 -75.160484313965 -285.013427734375 0.468077272177
-142.861892700195 -73.625282287598 -286.930877685547 1.553061723709
-32.049617767334 -76.378440856934 -287.456207275391 1.025652647018
-32.770946502686 -77.021255493164 -288.599090576172 1.456669092178
-17.912979125977 -76.965927124023 -289.003326416016 0.923069179058
-10.032714843750 -76.786628723145 -288.277832031250 0.927985310555
14.379583358765 -78.078697204590 -292.064697265625 0.535835087299
-125.920669555664 -76.025215148926 -289.522064208984 1.316514134407
-56.729053497314 -76.231391906738 -289.334533691406 2.673279047012
-38.877632141113 -76.864837646484 -289.428649902344 0.884270489216
-32.030166625977 -77.408721923828 -290.105560302734 1.071071028709
-10.025362014771 -76.930610656738 -290.372161865234 0.923635005951
4.345888137817 -76.844123840332 -289.362487792969 0.888826429844
-144.186233520508 -78.929382324219 -293.210327148438 1.726589560509
8.149231910706 -77.356239318848 -291.131378173828 0.583163678646
-151.776687622070 -76.354240417480 -301.083160400391 1.691222786903
-149.602294921875 -77.090782165527 -301.515655517578 1.836601495743
-152.829406738281 -76.515632629395 -311.147186279297 1.442161083221
-146.949859619141 -76.314704895020 -311.519958496094 1.487210988998
-50.075992584229 -76.666984558105 -56.330287933350 1.547547459602
-57.106101989746 -77.227241516113 -56.829689025879 1.642587065697
-63.750030517578 -76.947448730469 -56.713104248047 1.037503242493
-43.531028747559 -77.661857604980 -59.135410308838 0.671083271503
-37.762622833252 -76.975585937500 -59.713535308838 0.991482973099
-22.705556869507 -76.728454589844 -67.946151733398 1.064571142197
-83.104354858398 -77.259651184082 -68.572334289551 0.857203304768
81.461563110352 -78.397415161133 -78.810722351074 1.598836898804
-89.525321960449 -77.074104309082 -82.792747497559 1.123125910759
83.269378662109 -79.014450073242 -82.505500793457 1.928550720215
85.038681030273 -78.367187500000 -83.844177246094 2.228588819504
92.571464538574 -77.624641418457 -86.205619812012 1.018182396889
-58.966506958008 -81.382781982422 -95.259918212891 1.706409096718
83.383491516113 -77.068382263184 -94.749122619629 1.492948770523
79.100563049316 -77.987838745117 -93.457008361816 2.253491640091
86.996757507324 -79.206375122070 -90.673690795898 1.958010792732
-63.626571655273 -80.683174133301 -97.831771850586 0.817508816719
53.077278137207 -77.817405700684 -97.482635498047 1.809317827225
45.758884429932 -78.509033203125 -107.086967468262 1.846217513084
41.661708831787 -78.422302246094 -105.523269653320 1.194574117661
38.404029846191 -77.962898254395 -109.230209350586 0.976840317249
-91.069290161133 -77.315345764160 -112.958549499512 0.720465183258
36.363174438477 -78.252586364746 -117.884162902832 1.302690386772
-84.845291137695 -78.265136718750 -111.281913757324 0.720566987991
43.055625915527 -79.606224060059 -123.070571899414 1.615546107292
34.529125213623 -78.576110839844 -123.048706054688 1.046742200851
33.436546325684 -76.738822937012 -122.519645690918 1.794125914574
42.450660705566 -78.557350158691 -120.629333496094 1.595593452454
39.150863647461 -78.613822937012 -127.189262390137 1.805849432945
-53.743621826172 -75.284629821777 -136.229721069336 1.104062914848
35.870456695557 -78.116432189941 -136.287429809570 0.968863844872
36.314170837402 -77.325241088867 -142.277206420898 0.929846405983
-51.676143646240 -74.799224853516 -139.759216308594 0.653142809868
-48.259346008301 -77.042564392090 -141.337234497070 2.240128517151
34.618804931641 -79.023872375488 -144.342849731445 1.419645905495
111.492485046387 -77.643196105957 -142.938980102539 2.347604513168
113.815017700195 -77.759513854980 -142.055603027344 1.754042029381
26.589479446411 -78.103790283203 -145.102584838867 1.283932328224
-42.223003387451 -77.554794311523 -149.136688232422 0.667380511761
111.518661499023 -78.117996215820 -155.324462890625 1.237435698509
-41.100349426270 -76.872070312500 -154.270889282227 0.651606857777
-68.244438171387 -77.928581237793 -158.217880249023 0.689221501350
110.617065429688 -78.327407836914 -162.863006591797 1.181987762451
22.742486953735 -77.172531127930 -163.050125122070 0.688628315926
-0.095293998718 -78.663932800293 -163.631149291992 0.351314216852
112.873405456543 -78.212112426758 -157.852386474609 1.466879606247
-64.282058715820 -76.750144958496 -164.405548095703 0.752572238445
-36.894176483154 -76.101440429688 -160.446899414063 1.245162487030
113.293457031250 -77.235328674316 -165.068923950195 2.139867544174
29.650316238403 -77.414253234863 -159.137252807617 0.806185960770
-63.881198883057 -75.575492858887 -167.241897583008 0.651763081551
110.932708740234 -78.458564758301 -167.791915893555 1.352789759636
-64.783370971680 -78.637985229492 -168.789596557617 1.433809399605
-52.073089599609 -77.744598388672 -178.237762451172 1.400161981583
106.351135253906 -76.737060546875 -172.573928833008 1.085630416870
-60.099155426025 -75.794990539551 -169.481933593750 1.402685284615
110.853218078613 -78.014373779297 -174.708999633789 1.101904511452
-59.757694244385 -77.511054992676 -174.075927734375 0.862103760242
-13.651556015015 -76.886253356934 -177.961624145508 0.221329137683
-13.125772476196 -78.319168090820 -179.219284057617 1.724740147591
107.949966430664 -78.200393676758 -173.227920532227 1.064337730408
20.572385787964 -77.251197814941 -172.973968505859 1.904061198235
28.124874114990 -77.738571166992 -171.772155761719 0.453562229872
-55.853889465332 -76.425148010254 -177.070068359375 0.654352903366
19.525863647461 -77.306037902832 -182.918365478516 0.662471711636
-57.930576324463 -76.097686767578 -177.493682861328 1.200339913368
-50.894805908203 -76.447761535645 -186.378524780273 1.325024008751
15.026477813721 -76.847061157227 -183.341537475586 1.295127749443
-58.721736907959 -77.005554199219 -181.843322753906 0.674176394939
107.769493103027 -77.962509155273 -185.332962036133 3.072085618973
22.908206939697 -77.122901916504 -181.255844116211 1.838169813156
-31.620742797852 -76.430259704590 -189.161483764648 0.619594693184
-42.150402069092 -76.374481201172 -193.112762451172 0.644780933857
11.080939292908 -76.350738525391 -195.196868896484 0.393840700388
-17.851711273193 -77.796455383301 -192.260360717773 1.586441397667
-50.642986297607 -77.461311340332 -193.775543212891 2.555308818817
103.862350463867 -78.086585998535 -185.842239379883 3.022843122482
16.400335311890 -77.101264953613 -191.633895874023 1.802378535271
-135.304885864258 -76.156211853027 -197.630249023438 1.161315560341
-41.501644134521 -78.026557922363 -193.380523681641 0.932033300400
97.436935424805 -77.926086425781 -199.821289062500 1.132381796837
-147.463256835938 -80.685081481934 -201.741790771484 1.120170593262
18.295839309692 -77.151359558105 -194.302047729492 1.981909036636
-41.616374969482 -76.275451660156 -205.233901977539 1.889811992645
-32.441772460938 -77.467308044434 -204.143463134766 0.648912489414
-37.070983886719 -76.410209655762 -206.110473632813 1.504517078400
-43.096084594727 -76.473304748535 -197.043502807617 0.817029654980
99.463890075684 -78.121353149414 -202.176940917969 2.563847541809
-19.473434448242 -76.743263244629 -203.599075317383 0.611844956875
-150.236038208008 -76.401870727539 -205.599624633789 1.204915046692
16.262132644653 -76.855339050293 -206.793777465820 0.585919380188
-76.012474060059 -79.143348693848 -209.292938232422 0.645516514778
-150.535202026367 -76.307273864746 -209.911346435547 1.226487278938
96.670219421387 -76.453857421875 -210.115844726563 0.845883488655
-32.560676574707 -76.397514343262 -207.807235717773 0.646585583687
-28.929559707642 -76.492835998535 -215.254928588867 0.989764630795
7.424610137939 -78.072219848633 -212.000305175781 1.367087841034
-71.024375915527 -77.203567504883 -213.224151611328 0.995295107365
-29.634389877319 -77.167526245117 -211.037322998047 1.241564273834
-4.534685134888 -76.572738647461 -214.857025146484 0.953433811665
-75.105575561523 -78.562545776367 -214.869598388672 1.245990395546
-14.742116928101 -76.834648132324 -217.725296020508 1.733189463615
8.261046409607 -76.040580749512 -214.513519287109 1.209771752357
17.206680297852 -77.729560852051 -219.823974609375 1.997643351555
-147.659881591797 -76.099777221680 -216.121688842773 0.812445521355
-7.233463764191 -76.641143798828 -215.439941406250 1.389649748802
-94.441856384277 -73.756126403809 -220.935485839844 1.048385739326
-21.615316390991 -76.011756896973 -220.731811523438 1.563313961029
92.026435852051 -77.957702636719 -212.395629882813 0.756692528725
5.817547798157 -77.181037902832 -227.932189941406 0.445164889097
15.960523605347 -75.897010803223 -217.409622192383 0.563118815422
81.986961364746 -76.816604614258 -222.281661987305 0.670982539654
0.905115008354 -76.076164245605 -227.019790649414 1.807093143463
86.382492065430 -77.430450439453 -218.365951538086 1.446572661400
-16.540029525757 -76.983505249023 -222.286285400391 0.635943770409
14.811090469360 -77.775466918945 -220.836074829102 0.607606053352
-145.389999389648 -77.298126220703 -223.816818237305 1.284209132195
-18.903305053711 -77.711936950684 -224.667861938477 0.911223649979
1.427682995796 -78.477134704590 -227.370590209961 2.030023336411
-154.786300659180 -77.759407043457 -228.407165527344 1.068504571915
-136.171173095703 -74.972763061523 -228.651504516602 1.246685862541
8.022274971008 -76.961151123047 -226.845199584961 0.582988858223
-4.242383003235 -77.183570861816 -233.077362060547 0.700191378593
-135.849670410156 -75.531623840332 -231.728973388672 1.397017836571
-145.487167358398 -77.101394653320 -235.224838256836 1.089309096336
-146.577789306641 -75.583091735840 -236.519790649414 1.360756397247
-33.247020721436 -76.673530578613 -239.144012451172 0.949285268784
-146.681381225586 -75.351112365723 -242.081573486328 1.395219087601
20.784025192261 -76.391563415527 -242.421173095703 1.657855868340
4.553285121918 -76.987365722656 -243.232727050781 1.190923929214
-149.997177124023 -75.343284606934 -235.875122070313 1.575235366821
-148.835235595703 -76.531410217285 -242.862152099609 1.325318336487
-47.737453460693 -76.748405456543 -241.916763305664 1.107910394669
-31.377313613892 -77.524406433105 -244.239898681641 0.772696197033
5.359127998352 -78.903945922852 -247.063980102539 2.211807966232
-39.261600494385 -76.692008972168 -245.770828247070 2.039024829865
22.913181304932 -77.558647155762 -248.077560424805 0.582258462906
-5.008254051208 -78.778915405273 -249.150573730469 1.060060977936
-150.452102661133 -75.758453369141 -252.699600219727 1.487911820412
-7.352239131927 -78.469421386719 -251.483886718750 1.326935768127
-146.966522216797 -76.083801269531 -252.387634277344 1.465751528740
-68.087699890137 -76.559745788574 -249.587921142578 1.206358313560
-150.144439697266 -81.756217956543 -260.308746337891 1.560844063759
-125.926094055176 -75.099311828613 -259.369659423828 1.504637598991
-149.106002807617 -72.584915161133 -261.225830078125 1.521893501282
-13.388357162476 -75.173492431641 -265.874786376953 0.766423881054
-146.637252807617 -77.199050903320 -265.390502929688 0.604524970055
-150.581024169922 -76.151496887207 -265.714202880859 1.574757933617
-10.067689895630 -78.437828063965 -270.304229736328 0.542678356171
-147.374740600586 -76.376762390137 -271.528350830078 1.593622207642
-3.762902021408 -77.326545715332 -279.981353759766 0.800940513611
-46.682521820068 -76.276077270508 -287.441589355469 2.736667156219
-133.989654541016 -75.705467224121 -288.722412109375 1.625729918480
-133.044937133789 -74.578605651855 -286.362762451172 1.594379663467
-126.717338562012 -75.222702026367 -287.150024414063 1.627416610718
-53.701625823975 -75.631889343262 -287.138946533203 1.113271951675
-115.705108642578 -73.365959167480 -288.828460693359 1.435038924217
15.259044647217 -76.680404663086 -289.922119140625 0.704046964645
-60.497295379639 -75.730857849121 -289.321929931641 1.397312402725
-142.205902099609 -74.623542785645 -290.514251708984 1.205763697624
-62.279075622559 -75.352035522461 -290.420532226563 1.183901309967
-142.901947021484 -76.975517272949 -291.221313476563 1.653740048409
-117.925949096680 -75.304100036621 -290.294189453125 1.207056164742
-47.737335205078 -75.625846862793 -290.924743652344 1.100647807121
-35.675762176514 -76.588150024414 -291.188720703125 1.342722535133
-133.852676391602 -75.589431762695 -291.158599853516 1.635418057442
-10.947429656982 -76.598190307617 -291.445953369141 0.772453665733
0.471282005310 -76.689567565918 -291.731689453125 0.834553360939
6.042844772339 -76.657257080078 -292.410400390625 0.807925581932
14.686914443970 -76.933586120605 -293.932556152344 0.863898992538
-149.957962036133 -75.321243286133 -295.979522705078 1.658856391907
-148.514663696289 -75.040412902832 -300.056945800781 1.689151883125
-69.840461730957 -77.860527038574 -60.219268798828 1.332688689232
87.135841369629 -76.797363281250 -75.490699768066 1.649520158768
78.585350036621 -77.458580017090 -76.478637695313 1.552722215652
-26.340171813965 -77.582908630371 -77.372985839844 0.923685669899
84.704597473145 -76.649871826172 -77.313743591309 1.816912174225
-35.284797668457 -77.086891174316 -80.708236694336 0.970170795918
87.994087219238 -78.333068847656 -78.995903015137 2.046691894531
92.690597534180 -77.765594482422 -82.660659790039 1.634956479073
-65.232543945313 -71.530487060547 -93.313552856445 0.604999184608
75.684532165527 -77.176872253418 -93.899520874023 1.665060162544
80.772781372070 -77.343032836914 -97.362457275391 1.972373247147
91.665618896484 -77.525413513184 -94.502746582031 1.712260127068
55.160453796387 -77.071563720703 -98.821556091309 1.305379033089
-76.219589233398 -79.606277465820 -101.914825439453 1.549883961678
-75.090003967285 -72.422843933105 -102.113769531250 0.876110792160
48.806838989258 -77.796958923340 -106.110534667969 1.659236311913
-91.280426025391 -78.064109802246 -105.868354797363 0.725038647652
44.668117523193 -77.533355712891 -117.352188110352 1.143953800201
110.509963989258 -76.733856201172 -118.507980346680 1.482262015343
112.017471313477 -77.534095764160 -132.564224243164 1.395428895950
27.134820938110 -76.531288146973 -139.167190551758 1.019855260849
110.282997131348 -76.964897155762 -127.074485778809 1.439888358116
26.588893890381 -77.423294067383 -135.188568115234 1.980077266693
113.844841003418 -76.702568054199 -129.410812377930 1.692503333092
38.707000732422 -77.513374328613 -135.027160644531 1.675473213196
-50.993785858154 -78.060455322266 -144.381149291992 1.955268859863
34.695526123047 -75.414924621582 -142.015136718750 0.911739826202
109.746429443359 -76.164909362793 -138.877777099609 1.941749811172
-50.740882873535 -76.639755249023 -145.199203491211 2.105437040329
32.163612365723 -77.481712341309 -148.306838989258 1.942886590958
-55.982463836670 -75.655906677246 -139.593795776367 0.997952818871
-52.833221435547 -77.603935241699 -148.272888183594 1.225213170052
-50.287357330322 -76.940757751465 -149.992691040039 1.057217001915
-65.013397216797 -77.172454833984 -156.795288085938 0.627920627594
115.116622924805 -77.313613891602 -149.374069213867 2.244951248169
-50.595726013184 -76.926750183105 -155.800338745117 2.593728065491
21.499782562256 -77.266052246094 -155.075653076172 1.819646358490
110.001533508301 -77.376251220703 -157.314514160156 1.126802444458
-66.996353149414 -75.399627685547 -157.173278808594 0.648157596588
-47.862400054932 -77.006622314453 -156.253524780273 2.333898067474
8.107427597046 -75.064544677734 -155.595596313477 2.288086891174
-67.111030578613 -75.336715698242 -160.424163818359 1.334387063980
-61.089893341064 -76.219070434570 -162.093002319336 0.972919702530
-1.381662011147 -76.738868713379 -162.556884765625 0.403752326965
-41.268531799316 -76.771263122559 -167.551971435547 2.345611095428
31.015813827515 -75.698776245117 -164.577728271484 0.554141342640
-61.919971466064 -76.389717102051 -165.903442382813 1.094004273415
-57.498878479004 -76.353523254395 -168.976943969727 0.648922026157
19.897701263428 -76.753738403320 -161.731399536133 1.273289322853
-31.395158767700 -76.828933715820 -169.990783691406 1.783763885498
-30.548418045044 -77.518226623535 -167.881637573242 1.579524636269
17.062086105347 -76.786705017090 -175.062667846680 1.209699034691
-40.214996337891 -76.945037841797 -173.306930541992 1.307750940323
-12.194813728333 -76.170204162598 -173.573913574219 1.092641949654
-59.910957336426 -75.420433044434 -173.134933471680 1.679979681969
-5.125676155090 -75.034545898438 -171.557891845703 0.866263210773
-23.345321655273 -77.006797790527 -180.078384399414 0.623107910156
23.884277343750 -76.283973693848 -181.371612548828 0.670861780643
-39.084068298340 -75.608947753906 -172.489181518555 1.671090364456
18.110912322998 -75.859466552734 -178.921264648438 2.507340192795
-22.987258911133 -74.127540588379 -183.447769165039 0.588398694992
-32.474617004395 -76.765235900879 -182.501480102539 0.622360885143
-147.150100708008 -75.876953125000 -186.354598999023 1.010629415512
-22.187803268433 -76.809501647949 -186.766098022461 1.327857136726
-144.536758422852 -75.392227172852 -188.317184448242 1.038350939751
-149.694839477539 -74.419494628906 -187.519912719727 1.068940877914
-47.299331665039 -75.361038208008 -187.031951904297 2.737016916275
98.219696044922 -76.572830200195 -195.051773071289 2.024575471878
-144.621032714844 -75.609497070313 -193.502227783203 0.936235666275
-153.301300048828 -76.453071594238 -196.942550659180 1.128325104713
20.921258926392 -76.465202331543 -198.524612426758 1.949891209602
-135.614318847656 -74.180953979492 -198.372985839844 1.063100814819
18.945554733276 -75.849800109863 -198.625152587891 1.761987924576
-140.860122680664 -74.144165039063 -198.059448242188 1.090568542480
12.932577133179 -75.942955017090 -196.846466064453 1.610041737556
-135.449096679688 -74.399192810059 -201.606079101563 1.423264265060
7.613091945648 -76.618164062500 -207.500518798828 0.581637024879
-149.325210571289 -74.789909362793 -206.561584472656 1.191509127617
93.164581298828 -76.480789184570 -204.284378051758 0.814661204815
-14.861699104309 -77.050621032715 -202.667938232422 1.074345350266
-30.330717086792 -75.581390380859 -207.177932739258 0.631307303905
-9.847685813904 -76.613739013672 -206.320068359375 1.458950877190
-149.485046386719 -75.219787597656 -212.246780395508 1.241817831993
-35.454372406006 -75.956939697266 -206.550689697266 0.942336916924
-81.491149902344 -76.982963562012 -210.922424316406 0.837208211422
-26.835657119751 -76.621566772461 -210.471115112305 2.089317321777
18.527925491333 -76.017692565918 -209.803100585938 0.762640237808
-147.989898681641 -75.870048522949 -213.073394775391 1.220787167549
-91.294120788574 -74.828659057617 -214.675476074219 0.658457398415
-30.073455810547 -75.087905883789 -213.291427612305 1.878126621246
-25.630334854126 -74.610038757324 -218.636260986328 1.149298191071
-14.520359992981 -76.279418945313 -214.146591186523 1.595254302025
-27.586338043213 -75.428245544434 -213.256057739258 1.485093116760
-81.045394897461 -75.149536132813 -216.727447509766 1.173882722855
-86.289344787598 -76.046417236328 -218.033996582031 1.056077241898
-24.182552337646 -76.032798767090 -219.524032592773 1.305393695831
-2.298687934875 -75.862457275391 -221.762954711914 0.587683200836
-149.483886718750 -74.611732482910 -217.330825805664 1.255568861961
-2.475419998169 -77.158409118652 -218.784622192383 0.597425937653
