-65.130455017090 -85.775207519531 -93.787322998047 1.887607932091
-76.511314392090 -85.930870056152 -94.563362121582 0.840797007084
-71.657157897949 -85.885787963867 -96.090583801270 0.643629670143
-80.818984985352 -86.031700134277 -99.912292480469 1.998574495316
-70.356620788574 -86.024559020996 -98.868904113770 0.888678729534
-79.898925781250 -84.976577758789 -102.753868103027 1.365095019341
-43.372898101807 -85.194229125977 -195.463455200195 1.822997927666
-38.259376525879 -85.306938171387 -193.153366088867 2.339223861694
9.258567810059 -84.800239562988 -261.904418945313 1.310085535049
3.390187978745 -85.279479980469 -259.035491943359 1.780647635460
-147.936111450195 -85.326660156250 -284.733978271484 0.875911951065
-139.702239990234 -85.200172424316 -289.054199218750 1.747007727623
-139.011581420898 -85.391235351563 -291.335174560547 1.176133513451
-144.197692871094 -85.125312805176 -291.957733154297 1.311119318008
-146.845870971680 -85.463783264160 -294.610748291016 0.622884273529
-146.827072143555 -86.228363037109 -299.096374511719 1.435691833496
-54.596992492676 -84.265007019043 -80.453376770020 1.142787218094
-63.223091125488 -84.047615051270 -80.687843322754 1.109560132027
-69.164596557617 -83.597404479980 -81.384384155273 0.520098030567
-72.807266235352 -84.477104187012 -87.362525939941 2.119151115417
-78.853340148926 -84.081779479980 -90.716590881348 2.163628578186
-76.054389953613 -84.493499755859 -99.662277221680 2.023196935654
-35.583225250244 -84.140106201172 -188.632003784180 1.295083403587
-47.438171386719 -85.282402038574 -198.990554809570 1.750022411346
-147.698104858398 -84.278427124023 -251.548049926758 1.848100662231
-0.080940999091 -83.878555297852 -253.813613891602 1.901286721230
9.207986831665 -84.324928283691 -255.448318481445 0.846658527851
-134.038940429688 -83.468925476074 -260.121307373047 1.585592985153
3.979826927185 -83.965332031250 -254.769180297852 1.937191247940
-1.661363005638 -83.841377258301 -257.581878662109 1.917719602585
-149.859329223633 -84.159942626953 -260.773834228516 1.447048664093
2.200607061386 -84.449844360352 -261.023345947266 1.847240090370
-146.243316650391 -84.296821594238 -263.822021484375 0.450924754143
-146.799362182617 -85.217346191406 -269.298767089844 0.480892509222
4.293323993683 -85.258506774902 -263.294799804688 1.617813467979
7.715077877045 -83.106719970703 -271.601226806641 1.996459960938
-147.676422119141 -85.139221191406 -278.516418457031 1.612267971039
-145.805328369141 -85.074157714844 -285.890106201172 0.872097730637
-148.451370239258 -84.927299499512 -287.583892822266 1.133008718491
-143.520614624023 -84.882232666016 -287.855499267578 1.669101595879
-134.146453857422 -84.663642883301 -289.856323242188 2.076157331467
-150.603134155273 -85.323303222656 -292.215850830078 1.335974454880
-144.819717407227 -84.550895690918 -301.647735595703 2.792889118195
-66.905937194824 -83.221183776855 -79.227218627930 1.774371147156
-50.263156890869 -83.569915771484 -80.304496765137 1.591947793961
-53.644969940186 -83.514976501465 -78.720199584961 1.630660653114
-46.319149017334 -83.127136230469 -82.045600891113 1.091796755791
-54.682456970215 -85.007659912109 -87.936592102051 1.903486013412
-80.374450683594 -82.638366699219 -87.806648254395 1.857127666473
-84.445304870605 -82.116043090820 -91.084388732910 0.769540131092
-19.091934204102 -82.698310852051 -177.627136230469 1.196957945824
-29.259126663208 -84.446342468262 -186.174896240234 1.498672962189
-40.502662658691 -84.039093017578 -196.859237670898 1.906655311584
-52.163192749023 -83.910240173340 -199.337417602539 2.528918743134
-50.136035919189 -84.132644653320 -202.694656372070 2.192622184753
-55.510837554932 -84.353324890137 -202.626480102539 0.964560031891
-53.573612213135 -81.717788696289 -205.620208740234 1.090173482895
-60.710781097412 -83.958518981934 -205.494827270508 1.384308576584
-66.484886169434 -82.975112915039 -208.535934448242 0.875342547894
-147.868698120117 -83.035240173340 -218.342254638672 1.732410907745
-144.859283447266 -82.259368896484 -225.756195068359 1.473699808121
-140.340377807617 -82.553581237793 -228.994613647461 1.705977797508
-145.863494873047 -83.139152526855 -233.791290283203 0.737447559834
-147.090164184570 -84.046760559082 -239.149963378906 1.698928475380
-145.889755249023 -82.768714904785 -243.083877563477 1.858956098557
-145.681686401367 -84.002601623535 -251.758132934570 1.820757269859
6.866193771362 -83.622550964355 -251.925460815430 2.058665990829
-148.452468872070 -84.079673767090 -256.590698242188 0.649341106415
-144.796279907227 -83.798751831055 -257.983856201172 1.607813358307
-140.830993652344 -83.665275573730 -258.338989257813 1.508262395859
-152.387863159180 -83.113761901855 -261.399566650391 0.630299627781
-144.458526611328 -83.940460205078 -261.803161621094 0.750115096569
-139.339248657227 -84.175697326660 -261.316253662109 1.994095206261
0.010350000113 -83.604270935059 -264.691223144531 2.206761837006
10.116715431213 -83.693710327148 -266.108215332031 1.562487959862
0.521403014660 -83.321929931641 -269.135559082031 2.159609079361
-149.653839111328 -83.432769775391 -285.340240478516 1.402327895164
-147.114730834961 -82.975517272949 -287.958190917969 1.531478285789
-59.565052032471 -82.576370239258 -76.427055358887 1.735669732094
-44.652328491211 -82.518905639648 -78.336967468262 1.055130124092
-71.263038635254 -82.512069702148 -78.467453002930 1.001236557961
-49.451011657715 -82.299644470215 -82.486007690430 2.989441871643
-66.292991638184 -84.536102294922 -95.902725219727 2.300492763519
-65.937599182129 -82.979278564453 -97.934051513672 2.530817508698
-76.572303771973 -81.708831787109 -101.164115905762 2.001120567322
-84.385025024414 -84.122116088867 -104.854003906250 0.946525752544
-21.554922103882 -81.258262634277 -177.259582519531 1.395105957985
-31.248317718506 -84.060470581055 -185.846221923828 1.732152462006
-30.650789260864 -84.027389526367 -189.586059570313 1.397240281105
-25.263896942139 -81.831069946289 -186.823562622070 1.948234558105
-33.948535919189 -82.277473449707 -186.316162109375 1.337098717690
-46.732933044434 -82.746261596680 -195.078643798828 1.097263097763
-145.315307617188 -81.870498657227 -203.580383300781 1.489252567291
-60.957736968994 -83.127960205078 -208.016250610352 1.398404002190
-148.188598632813 -82.878967285156 -227.172073364258 0.661609113216
-143.357528686523 -82.800132751465 -228.185104370117 1.820503950119
-150.652221679688 -83.101623535156 -228.674530029297 0.905458211899
-144.387084960938 -82.256996154785 -231.078918457031 1.665802359581
-137.286666870117 -83.173416137695 -230.954498291016 1.132239341736
-150.504684448242 -83.097595214844 -232.944839477539 0.789225399494
-147.409393310547 -83.459495544434 -247.536026000977 1.675720095634
13.687005043030 -82.317672729492 -244.490844726563 2.250839948654
-1.264341950417 -82.376625061035 -250.409072875977 1.970603108406
-142.198699951172 -83.488517761230 -262.247131347656 1.655173778534
-3.660095930099 -81.412895202637 -267.887695312500 2.188050508499
12.267082214355 -84.129875183105 -264.547668457031 1.288052439690
-3.180246114731 -83.831733703613 -262.291107177734 0.996879100800
-144.517181396484 -83.328552246094 -271.656707763672 2.240587472916
-142.272583007813 -83.590660095215 -287.816253662109 2.442682027817
-141.970794677734 -84.727333068848 -292.055541992188 2.179960727692
-144.784042358398 -84.270576477051 -294.686920166016 2.326399803162
-149.986709594727 -83.868865966797 -301.925384521484 1.792471170425
-69.358161926270 -80.949394226074 -73.027503967285 1.845889449120
-64.019256591797 -81.509971618652 -73.486129760742 1.913421034813
-46.917041778564 -81.489967346191 -75.184799194336 1.216562271118
-39.006828308105 -81.140914916992 -76.844261169434 1.474988937378
-75.916160583496 -80.898323059082 -76.164924621582 2.604973316193
-51.257110595703 -83.501144409180 -85.441940307617 2.758031368256
-57.373901367188 -83.547111511230 -91.758338928223 1.773429155350
-69.718238830566 -83.617126464844 -99.952499389648 2.146620035172
-13.862654685974 -81.984024047852 -174.628448486328 1.673602461815
-20.055839538574 -82.887184143066 -181.389053344727 1.427047967911
-50.859848022461 -80.779335021973 -184.801696777344 1.141208648682
-146.811965942383 -82.510688781738 -191.367782592773 1.233425140381
-44.495227813721 -81.116767883301 -193.434265136719 1.367088198662
-146.471008300781 -81.869491577148 -196.432342529297 0.690466463566
-137.384063720703 -82.450454711914 -200.342544555664 1.731971025467
-37.602886199951 -82.540382385254 -195.617584228516 1.262432575226
-144.251693725586 -81.395835876465 -201.009918212891 1.315861105919
-142.514892578125 -81.046165466309 -202.683883666992 1.214594483376
-53.693496704102 -81.218727111816 -199.026107788086 1.323486447334
-150.132598876953 -81.904167175293 -200.161087036133 1.131431937218
-60.031223297119 -82.716606140137 -203.054229736328 1.145311474800
-148.491531372070 -81.993644714355 -203.780181884766 1.150210261345
-63.098670959473 -81.653511047363 -209.902374267578 1.727106213570
16.324552536011 -81.737640380859 -235.438613891602 2.055202960968
13.364571571350 -82.048538208008 -234.056213378906 1.779075860977
-149.373764038086 -82.342704772949 -234.466766357422 1.579939484596
19.707187652588 -81.881881713867 -245.003738403320 1.227458357811
16.840396881104 -82.548530578613 -245.271972656250 1.937834620476
10.745001792908 -83.246704101563 -252.180328369141 2.100039958954
13.559514999390 -81.591957092285 -251.897979736328 0.969038248062
-151.401748657227 -83.703063964844 -257.925231933594 1.679125070572
-135.184371948242 -83.024459838867 -262.072326660156 2.131518840790
15.798119544983 -82.000587463379 -262.910705566406 1.412204861641
-146.842590332031 -84.073982238770 -272.918762207031 2.292881727219
-145.829177856445 -85.017616271973 -277.611083984375 0.816183865070
6.556141853333 -81.479156494141 -274.899719238281 2.084614515305
-144.498657226563 -83.366744995117 -279.024566650391 2.342742443085
-135.693374633789 -84.014030456543 -288.078765869141 0.527279496193
-145.805816650391 -83.430503845215 -288.899993896484 2.107294797897
-148.915954589844 -83.845291137695 -291.036804199219 1.679429769516
-153.951293945313 -79.863113403320 -291.390319824219 1.367518067360
-134.770477294922 -84.098487854004 -292.030303955078 2.479294776917
-149.538711547852 -84.370475769043 -294.752014160156 2.213859081268
-60.697921752930 -79.746131896973 -67.955032348633 1.956762194633
-58.880603790283 -80.773887634277 -71.396919250488 1.421102881432
-44.465377807617 -80.309524536133 -71.579551696777 1.695269465446
-82.330657958984 -80.845733642578 -82.759017944336 0.977988600731
-41.215812683105 -81.739364624023 -81.260803222656 2.079723596573
-44.953479766846 -81.132843017578 -83.990440368652 2.140828609467
-84.908218383789 -84.161445617676 -101.139205932617 2.928148984909
-75.557807922363 -78.066375732422 -101.761474609375 1.151316285133
33.390319824219 -80.274543762207 -124.102890014648 1.873614668846
28.599298477173 -80.105796813965 -141.776290893555 0.911630749702
-12.116479873657 -80.420104980469 -176.455780029297 2.538999080658
-18.254468917847 -81.210784912109 -181.533523559570 1.814137220383
-28.973543167114 -81.160087585449 -182.637130737305 1.443291544914
-38.714122772217 -81.235649108887 -189.622283935547 1.687832593918
-52.588214874268 -80.289154052734 -186.242019653320 1.109231352806
-31.580429077148 -81.074760437012 -191.497787475586 1.784085750580
-144.595352172852 -80.050949096680 -188.873992919922 1.840789794922
-149.601821899414 -80.519500732422 -196.057144165039 1.601354598999
-152.396408081055 -80.974357604980 -201.123046875000 1.222178459167
-149.561965942383 -80.437011718750 -205.561340332031 1.613186001778
-68.709350585938 -82.144500732422 -207.816040039063 0.976509213448
-60.985576629639 -78.508895874023 -208.653244018555 2.062203645706
-147.136108398438 -82.554565429688 -212.440689086914 1.362426757813
-73.671920776367 -81.381431579590 -210.158889770508 1.789131522179
-71.166961669922 -81.590301513672 -211.676223754883 2.055588960648
-78.430503845215 -79.883003234863 -213.324722290039 0.868404448032
-142.220428466797 -81.014472961426 -227.833419799805 1.780162096024
-141.945358276367 -82.270996093750 -232.322677612305 1.405618906021
-149.295059204102 -82.865959167480 -248.305526733398 1.576911091805
16.190559387207 -80.563331604004 -244.760894775391 2.300183057785
7.825667858124 -80.873977661133 -247.730117797852 1.006039500237
-135.079742431641 -82.709091186523 -258.003540039063 0.984598636627
15.702710151672 -81.975753784180 -254.661270141602 2.358906745911
12.847627639771 -83.381866455078 -258.517456054688 0.750546097755
-149.311843872070 -83.670097351074 -264.531616210938 1.791417837143
-149.646438598633 -83.308090209961 -278.079010009766 1.833665490150
0.865096986294 -82.243972778320 -271.841156005859 2.536470890045
11.107805252075 -80.566040039063 -275.448822021484 1.326961040497
-151.799346923828 -84.911247253418 -288.558227539063 1.188867211342
-144.509292602539 -83.426750183105 -285.473754882813 1.424694538116
-146.830673217773 -84.816596984863 -302.975372314453 2.607268095016
-49.733261108398 -79.964408874512 -70.271820068359 1.779920697212
-71.566909790039 -79.493759155273 -68.609420776367 1.408335685730
-44.903259277344 -78.973937988281 -67.182495117188 2.094392061234
-36.579284667969 -80.156814575195 -75.242668151855 2.382436513901
-78.081893920898 -78.771385192871 -69.943710327148 2.189142227173
-34.041648864746 -79.487808227539 -77.417144775391 2.266144275665
-49.354194641113 -77.336875915527 -84.944137573242 2.462912082672
-57.994693756104 -78.094062805176 -92.899650573730 2.741415500641
-64.456611633301 -83.019081115723 -95.183174133301 2.033638477325
-67.456382751465 -79.876808166504 -99.237670898438 2.591533184052
-89.423576354980 -80.487167358398 -106.609802246094 3.007943630219
42.256053924561 -78.983596801758 -114.276939392090 0.739239692688
36.499931335449 -80.153327941895 -123.111106872559 1.596013545990
-43.290462493896 -79.282371520996 -161.558212280273 1.525680422783
-39.951576232910 -79.775009155273 -161.518737792969 1.666736364365
-8.239236831665 -80.236785888672 -168.682937622070 0.944799244404
-62.158699035645 -79.344322204590 -169.706115722656 1.260286331177
-58.345382690430 -79.835258483887 -177.356399536133 1.680393695831
-58.358619689941 -79.939918518066 -173.565185546875 0.957657992840
-32.241786956787 -79.393547058105 -171.188903808594 1.223635315895
-52.707942962646 -80.392204284668 -180.525329589844 1.172727823257
-26.083656311035 -79.295738220215 -180.606857299805 1.847083568573
-147.281036376953 -81.316612243652 -187.738983154297 1.601372122765
-50.542400360107 -80.248138427734 -182.191726684570 0.825247585773
-42.383243560791 -80.192886352539 -192.745758056641 1.168002367020
-32.292037963867 -79.877197265625 -185.452499389648 1.367694020271
-34.426246643066 -78.905876159668 -188.512603759766 2.535555839539
-31.460062026978 -79.300674438477 -190.302185058594 1.094287157059
-25.503273010254 -79.717910766602 -187.104003906250 1.447835445404
-46.037960052490 -80.543891906738 -194.678176879883 0.764458596706
-144.474609375000 -80.253608703613 -196.225357055664 1.707383871078
-39.495525360107 -79.123138427734 -194.878677368164 1.446599245071
-40.082553863525 -80.565246582031 -197.123840332031 1.088766694069
-43.084438323975 -80.308441162109 -198.744659423828 1.267151355743
-45.530746459961 -78.813026428223 -198.010665893555 1.079343318939
-133.618087768555 -80.053810119629 -200.939102172852 1.103968024254
-136.210891723633 -80.449981689453 -202.600738525391 1.629634857178
-47.172225952148 -81.486396789551 -201.920349121094 0.968167901039
-59.491897583008 -80.366012573242 -202.440307617188 0.930557668209
-37.813106536865 -80.312126159668 -203.648101806641 1.179637193680
-144.601730346680 -81.008460998535 -206.424316406250 1.782983183861
-68.713119506836 -79.149566650391 -206.436248779297 0.983366429806
-33.756195068359 -80.194442749023 -206.146026611328 1.237026810646
13.981788635254 -79.143959045410 -203.188018798828 1.670311570168
-73.595001220703 -80.292304992676 -213.453201293945 0.862878441811
-30.339422225952 -79.299423217773 -212.096908569336 1.476016283035
12.333576202393 -79.993423461914 -214.970031738281 0.786163270473
-149.969894409180 -80.923278808594 -219.592636108398 1.898205041885
11.874732971191 -80.757400512695 -224.771286010742 1.473642110825
14.346388816833 -80.202903747559 -219.809310913086 1.835106849670
16.089368820190 -79.839706420898 -225.955810546875 1.831743001938
-134.534667968750 -81.784690856934 -228.312744140625 0.853658616543
-145.408905029297 -79.682014465332 -230.804351806641 1.868048667908
10.495665550232 -80.991394042969 -235.504684448242 1.475350260735
17.062189102173 -78.861358642578 -235.054702758789 1.104861021042
13.038713455200 -79.783203125000 -234.158355712891 1.117283821106
-149.547058105469 -81.782806396484 -241.983184814453 1.656091690063
-144.499176025391 -82.590637207031 -241.540374755859 1.910819768906
15.586710929871 -79.909416198730 -236.557525634766 1.498300075531
-34.430931091309 -79.206275939941 -242.840911865234 1.307864069939
19.247932434082 -79.865821838379 -245.265182495117 2.362376928329
-39.646423339844 -79.529945373535 -242.879470825195 1.121921896935
-144.666168212891 -82.356178283691 -255.219161987305 1.293588519096
15.961569786072 -79.824142456055 -250.597518920898 2.594186782837
-142.431274414063 -82.437484741211 -257.782989501953 1.735386490822
-149.744613647461 -82.119010925293 -255.351135253906 2.205855131149
19.385368347168 -78.845291137695 -254.853775024414 1.760654568672
-7.715419769287 -78.499000549316 -251.505798339844 1.204058408737
-6.727492809296 -81.524124145508 -259.371551513672 1.848372578621
-145.367919921875 -82.019264221191 -259.790924072266 1.841051936150
-153.835708618164 -78.370475769043 -261.887969970703 1.838037729263
-144.694793701172 -82.928153991699 -264.948486328125 1.920876264572
-150.098876953125 -78.516098022461 -266.216125488281 1.426520824432
-149.577514648438 -82.840576171875 -272.101989746094 2.215915441513
-7.920091152191 -79.689659118652 -265.539642333984 1.942550301552
-1.362290978432 -80.989868164063 -271.164184570313 2.266795396805
14.452911376953 -82.182594299316 -267.201019287109 0.685451030731
10.273961067200 -79.022483825684 -278.050659179688 1.811113476753
7.302214145660 -79.890159606934 -278.663177490234 1.133492588997
-135.373718261719 -78.089065551758 -292.545898437500 2.531801700592
-141.803054809570 -80.974029541016 -292.636901855469 2.096709489822
-64.023223876953 -78.943641662598 -65.141647338867 2.522592544556
-44.850616455078 -77.637413024902 -62.871955871582 1.854925751686
-54.592296600342 -78.798606872559 -65.205734252930 2.013225317001
-49.885101318359 -77.954292297363 -63.972217559814 1.871232390404
-71.895332336426 -78.249786376953 -64.998878479004 1.070028543472
-82.272102355957 -78.682182312012 -73.439636230469 2.799761056900
-34.061885833740 -77.967567443848 -78.998443603516 2.131341695786
-42.910442352295 -78.647453308105 -84.219490051270 2.067279815674
-51.103000640869 -79.388656616211 -87.214340209961 2.883137702942
-89.264587402344 -78.675636291504 -87.353546142578 2.823038101196
-80.188041687012 -79.770996093750 -104.186874389648 2.275402069092
40.866970062256 -78.822509765625 -106.299995422363 2.244760990143
-87.389320373535 -79.333557128906 -110.206825256348 1.217638373375
38.339382171631 -79.951683044434 -115.436294555664 0.555570125580
38.701889038086 -79.188125610352 -123.289222717285 1.470236539841
32.908920288086 -78.913864135742 -118.022346496582 3.176336050034
30.247535705566 -78.624603271484 -123.190948486328 2.159461259842
33.956485748291 -79.217735290527 -134.489669799805 1.025183796883
24.097131729126 -77.982391357422 -142.710128784180 2.757364511490
-47.746276855469 -79.022727966309 -150.963851928711 0.793225467205
30.839845657349 -79.216583251953 -144.715576171875 2.243925571442
23.618511199951 -78.953681945801 -156.304687500000 2.644730806351
-46.459342956543 -79.163940429688 -154.183593750000 1.615866303444
27.304435729980 -79.406623840332 -153.662719726563 1.800594210625
-45.447628021240 -77.502700805664 -163.066726684570 1.244925737381
24.923852920532 -79.135940551758 -164.243850708008 1.158959388733
-59.779289245605 -79.204002380371 -169.020065307617 1.466873407364
-9.215622901917 -80.793945312500 -172.385757446289 0.901085793972
-36.434131622314 -79.240211486816 -172.452606201172 1.347785830498
-16.784080505371 -80.929641723633 -174.034439086914 1.992914676666
-55.478019714355 -79.132453918457 -174.230224609375 1.232589125633
21.347986221313 -78.784317016602 -170.895874023438 1.676564693451
-15.304825782776 -79.308639526367 -179.447601318359 1.883473396301
-22.901597976685 -79.050628662109 -184.845413208008 1.069436430931
-55.243858337402 -78.672698974609 -185.220886230469 3.193050861359
-29.449287414551 -79.429534912109 -183.372375488281 1.755902051926
19.212835311890 -78.100715637207 -186.226470947266 1.463831663132
-149.820617675781 -80.183097839355 -189.328536987305 1.796156048775
-27.656652450562 -79.269821166992 -187.922088623047 1.418631434441
-47.699676513672 -78.282501220703 -189.457504272461 1.276693940163
-150.411483764648 -81.622154235840 -197.117736816406 1.164116501808
-142.478042602539 -81.341011047363 -198.512771606445 1.496797680855
-22.432786941528 -79.279060363770 -195.229492187500 1.058660626411
-19.101089477539 -79.293357849121 -195.084945678711 1.551578879356
-46.572059631348 -79.065811157227 -196.589813232422 1.077067136765
-22.928424835205 -78.219787597656 -197.551086425781 1.633816480637
-49.052780151367 -78.957038879395 -201.386917114258 0.752357721329
-44.413940429688 -78.575561523438 -199.713546752930 1.100154995918
-56.473567962646 -78.581993103027 -202.057312011719 1.285067319870
-18.943595886230 -77.757965087891 -204.298706054688 1.281356334686
-149.358917236328 -81.461837768555 -212.087951660156 1.425308942795
-59.677204132080 -77.733283996582 -205.681137084961 1.156762599945
-55.551975250244 -78.858764648438 -205.677444458008 0.927800714970
-31.740266799927 -78.231903076172 -203.962631225586 0.704556882381
-16.030525207520 -79.019760131836 -203.445602416992 1.285870552063
-38.092258453369 -79.222023010254 -205.557937622070 1.170991420746
-78.557853698730 -79.491752624512 -211.077423095703 0.993332803249
-144.498657226563 -81.168731689453 -212.125823974609 2.057598352432
-32.134456634521 -79.710815429688 -205.769424438477 2.222506284714
10.012901306152 -78.736282348633 -208.140228271484 0.552469670773
-62.629829406738 -79.780639648438 -209.979171752930 0.876000404358
-69.512054443359 -80.108161926270 -212.456100463867 0.659644305706
-25.885198593140 -78.892196655273 -214.002868652344 1.709841370583
-11.353049278259 -79.201805114746 -209.412628173828 1.200349926949
-24.167371749878 -78.039024353027 -218.648193359375 1.406887054443
15.803825378418 -79.083076477051 -215.493850708008 1.864447951317
-149.852035522461 -81.230842590332 -225.768554687500 1.796269655228
-8.940641403198 -79.318145751953 -217.248565673828 1.319204926491
-152.523803710938 -81.511741638184 -229.496566772461 1.323130726814
9.519777297974 -79.997062683105 -227.337158203125 2.068852424622
13.381492614746 -78.887702941895 -225.859573364258 1.567730903625
-4.254240989685 -79.538536071777 -222.021057128906 0.876919746399
17.861047744751 -78.188034057617 -224.726593017578 2.162667036057
-134.624114990234 -80.978828430176 -232.241455078125 2.391930580139
10.433747291565 -78.041526794434 -223.254714965820 1.186795115471
-152.420333862305 -80.817298889160 -232.400283813477 1.434258818626
-144.696243286133 -82.168190002441 -234.721862792969 1.457770347595
-2.517853975296 -79.522994995117 -221.132751464844 1.157956123352
19.602392196655 -78.273612976074 -232.966842651367 1.710258483887
-31.315460205078 -79.403984069824 -239.151107788086 1.730022192001
-144.346817016602 -78.026214599609 -241.921768188477 1.913709998131
-38.734439849854 -79.441764831543 -240.308395385742 1.137633204460
-44.612083435059 -79.051086425781 -241.553573608398 1.249553680420
-27.713809967041 -79.281730651855 -240.469238281250 1.495378255844
20.737630844116 -79.636924743652 -239.732238769531 1.956049084663
-48.236583709717 -78.969871520996 -243.669113159180 0.852239072323
13.191892623901 -79.776962280273 -244.359100341797 2.219044446945
9.144578933716 -78.841529846191 -239.260696411133 2.126494646072
11.572270393372 -80.844818115234 -244.671646118164 1.834974646568
-43.551284790039 -78.614730834961 -244.966567993164 1.678375124931
22.568208694458 -79.672279357910 -245.340026855469 1.986450791359
-144.519958496094 -78.602157592773 -250.049972534180 1.989830255508
21.237916946411 -78.222434997559 -245.369171142578 1.816354036331
2.465866088867 -81.299484252930 -248.836013793945 1.173911452293
12.340215682983 -78.999656677246 -247.015151977539 1.948825955391
-150.257904052734 -78.015670776367 -254.624801635742 2.135805368423
-146.878082275391 -82.467063903809 -262.132080078125 2.073484897614
-141.581893920898 -79.561149597168 -262.658935546875 1.327088713646
-152.266525268555 -79.002235412598 -264.588562011719 1.005233526230
19.614511489868 -78.349868774414 -265.344451904297 1.866537690163
-149.885040283203 -78.795494079590 -271.897399902344 0.611884534359
-3.636703014374 -79.458251953125 -273.837524414063 2.267971992493
-147.897705078125 -77.904884338379 -276.913970947266 0.759872198105
-144.531890869141 -79.050621032715 -278.013763427734 1.784361243248
-149.938339233398 -78.870018005371 -278.667236328125 1.660596489906
-153.522933959961 -79.286972045898 -287.796905517578 2.605854034424
-133.709487915039 -79.142890930176 -289.318939208984 2.138092279434
-148.985031127930 -80.476226806641 -289.370391845703 1.333497405052
-145.832473754883 -83.133018493652 -291.373657226563 1.599540233612
-144.756713867188 -80.558761596680 -296.024993896484 2.046392440796
-150.234741210938 -79.379302978516 -296.259063720703 1.307852864265
-145.755126953125 -78.055603027344 -296.619812011719 2.632447957993
-150.390838623047 -79.321105957031 -301.466491699219 1.033071279526
-144.862182617188 -79.855842590332 -302.036590576172 2.708065032959
-147.938613891602 -79.380241394043 -303.361114501953 2.503829240799
-59.110797882080 -76.904861450195 -59.023395538330 1.392409443855
-65.082527160645 -77.423820495605 -60.949157714844 0.713794887066
-51.331340789795 -77.321792602539 -60.942604064941 1.110889196396
-31.434827804565 -77.885330200195 -71.156677246094 2.162246465683
-54.856243133545 -79.313529968262 -91.394721984863 2.017642498016
-89.204040527344 -81.063652038574 -101.519424438477 2.471503973007
46.109210968018 -78.198242187500 -103.072723388672 1.975343465805
-82.122993469238 -81.401885986328 -106.290084838867 1.869821906090
37.644409179688 -79.021751403809 -110.610618591309 1.940246582031
36.833110809326 -77.958374023438 -116.456970214844 1.342298030853
36.356304168701 -77.993560791016 -123.410758972168 0.921284973621
36.686443328857 -77.406898498535 -132.294738769531 1.045920014381
29.914316177368 -78.137916564941 -133.406463623047 0.917778432369
32.476818084717 -78.037475585938 -134.301467895508 2.250982761383
27.850589752197 -77.958877563477 -147.034835815430 1.243392944336
-45.546634674072 -78.143859863281 -148.080886840820 1.011301994324
26.214063644409 -79.201675415039 -139.451889038086 1.535462737083
-68.031608581543 -76.604598999023 -153.976684570313 1.303902626038
-41.319049835205 -79.111793518066 -155.076934814453 1.009136438370
-63.999172210693 -78.745910644531 -164.600494384766 2.024260997772
-42.698478698730 -77.724624633789 -158.163604736328 1.155252456665
28.226158142090 -77.247550964355 -153.544921875000 2.465718984604
-36.214275360107 -79.227180480957 -162.901550292969 2.097504854202
-5.313661098480 -79.627021789551 -167.292633056641 1.834098935127
29.013048171997 -78.201660156250 -158.253585815430 1.291731357574
-9.332645416260 -78.520103454590 -167.419662475586 1.878643274307
-61.834438323975 -78.239166259766 -164.312377929688 1.931388139725
-35.666465759277 -77.556106567383 -167.794815063477 1.518567085266
-29.731618881226 -77.952339172363 -170.816680908203 1.840777993202
24.718858718872 -78.391395568848 -171.739532470703 0.663923740387
-55.848232269287 -77.741706848145 -177.388183593750 1.469428539276
-32.470661163330 -77.821006774902 -175.015289306641 2.760393142700
22.095727920532 -78.523292541504 -177.585021972656 1.606660366058
-50.363033294678 -77.890960693359 -184.136047363281 1.065669775009
-26.707597732544 -77.462989807129 -184.886901855469 1.368146538734
-53.705139160156 -77.898696899414 -182.621490478516 1.019603729248
-41.011310577393 -79.086082458496 -193.287460327148 0.591133296490
-30.410356521606 -77.807716369629 -186.918869018555 1.255623817444
-44.122161865234 -78.027130126953 -195.654403686523 1.336849808693
-24.455261230469 -77.975204467773 -189.450210571289 1.458932280540
-135.490066528320 -80.523513793945 -198.421401977539 1.594518661499
16.945573806763 -78.445388793945 -196.267578125000 2.032464265823
-133.885192871094 -75.964950561523 -200.010833740234 1.085928559303
-22.925233840942 -77.112388610840 -194.838760375977 0.948879241943
-19.341598510742 -77.129325866699 -195.780197143555 1.510184049606
-41.074180603027 -78.044441223145 -196.389633178711 1.542641639709
16.452856063843 -78.181816101074 -189.866928100586 1.513439774513
-15.743120193481 -78.114135742188 -196.666107177734 0.965401887894
-61.696090698242 -78.501167297363 -204.285293579102 0.887685537338
-35.473449707031 -77.769371032715 -204.273727416992 1.601664423943
-67.075622558594 -76.879859924316 -207.271087646484 0.873710334301
-69.374679565430 -75.869468688965 -209.604492187500 0.893922984600
17.100214004517 -77.950431823730 -206.647689819336 1.305966377258
-84.189651489258 -78.214515686035 -214.452758789063 0.842438042164
-29.865898132324 -77.899917602539 -214.761352539063 1.291479110718
-79.376716613770 -78.883735656738 -215.072586059570 1.045190572739
-144.868682861328 -81.719039916992 -218.890243530273 1.455130934715
-7.863698959351 -77.274658203125 -214.717437744141 1.543936729431
-11.869815826416 -78.197555541992 -216.238494873047 2.218756914139
12.584454536438 -77.774581909180 -213.293426513672 1.577435731888
13.532464981079 -78.106971740723 -218.699981689453 1.645822525024
-2.527925014496 -78.317619323730 -229.273941040039 1.243259310722
-134.026336669922 -76.853019714355 -228.950225830078 1.637994647026
-147.867355346680 -81.792343139648 -232.274307250977 1.947442531586
-147.009002685547 -78.507957458496 -232.547195434570 1.896606326103
9.929100990295 -77.720069885254 -231.898086547852 1.440307378769
1.402194976807 -78.352371215820 -233.579055786133 1.943317174911
-22.922449111938 -78.348320007324 -238.540908813477 1.173578977585
-149.776397705078 -77.317565917969 -241.989913940430 0.898763418198
11.852248191833 -77.852226257324 -243.242507934570 1.561770558357
-23.363054275513 -77.720916748047 -241.206161499023 1.422665953636
19.113033294678 -76.726402282715 -237.165512084961 1.628322124481
-54.420597076416 -77.822906494141 -243.961547851563 1.038741946220
-50.232078552246 -78.068031311035 -246.335739135742 0.854136168957
-145.158386230469 -82.518119812012 -247.800079345703 1.609817028046
-63.172649383545 -76.915443420410 -246.656600952148 0.944790303707
-3.506988048553 -75.895088195801 -245.370864868164 1.941273570061
-9.137033462524 -78.744171142578 -256.657165527344 1.962835192680
-146.968185424805 -82.431114196777 -258.171630859375 0.417605549097
-133.769485473633 -78.283882141113 -259.322326660156 1.636416077614
-135.387619018555 -77.034088134766 -262.550476074219 2.587230205536
20.604450225830 -78.287361145020 -259.684295654297 1.024591684341
-144.508346557617 -79.282669067383 -272.493225097656 2.592326641083
18.719228744507 -79.255523681641 -267.876342773438 1.160031318665
-148.260482788086 -77.803459167480 -273.515991210938 1.970955252647
3.358676910400 -80.811843872070 -276.127655029297 2.452723026276
-144.553833007813 -79.618911743164 -284.178680419922 1.603707671165
5.877893924713 -77.946044921875 -281.872802734375 2.100408792496
-149.940078735352 -79.165924072266 -283.808837890625 2.082444906235
-141.011795043945 -78.050292968750 -287.760040283203 1.735975861549
-136.584548950195 -77.753967285156 -287.997283935547 0.920435786247
-146.966613769531 -84.593627929688 -292.187469482422 1.027341365814
-17.505746841431 -77.396011352539 -288.331176757813 0.378684312105
-152.743469238281 -79.937965393066 -293.879791259766 1.011360526085
-148.559005737305 -77.985153198242 -296.735229492188 1.857040762901
-146.948715209961 -77.963172912598 -312.877838134766 1.900183439255
-60.804813385010 -76.378875732422 -57.346626281738 1.462086319923
-42.343936920166 -76.430862426758 -60.665405273438 2.073671817780
-79.705490112305 -76.615501403809 -63.896209716797 1.223659038544
-30.256114959717 -76.427070617676 -67.545349121094 1.628216147423
-27.975681304932 -77.074775695801 -72.222038269043 2.123446464539
-87.173728942871 -78.689544677734 -81.927993774414 2.034686565399
85.898025512695 -76.599433898926 -81.461479187012 1.049206018448
-40.089160919189 -76.911277770996 -81.901123046875 2.643937349319
78.922248840332 -77.052116394043 -82.022354125977 1.683379650116
73.415054321289 -75.982925415039 -84.120178222656 1.719403386116
82.645698547363 -76.531333923340 -86.801445007324 2.136252403259
78.209312438965 -76.790603637695 -88.647987365723 2.122481822968
89.305961608887 -76.357353210449 -88.034049987793 2.120883941650
-94.487640380859 -75.232383728027 -96.029487609863 1.744204044342
48.969688415527 -76.870140075684 -102.635505676270 1.253177285194
-92.237533569336 -75.414382934570 -115.541923522949 2.376344203949
39.252136230469 -77.071449279785 -109.315086364746 1.060512185097
46.568988800049 -76.026863098145 -110.817405700684 1.642306447029
41.231235504150 -77.645339965820 -113.135238647461 1.318492054939
28.963357925415 -76.999336242676 -130.668945312500 1.291425585747
24.721759796143 -77.535781860352 -137.648483276367 1.881985425949
21.924783706665 -73.834342956543 -142.657135009766 2.357726573944
31.140008926392 -76.993904113770 -142.604675292969 1.911868095398
-50.344947814941 -77.761390686035 -152.974395751953 0.176202848554
-46.929740905762 -77.103012084961 -150.395477294922 1.883622765541
-42.982963562012 -77.130065917969 -153.754623413086 1.651986718178
25.689947128296 -77.371513366699 -148.010421752930 1.302218437195
23.043418884277 -77.053184509277 -165.196426391602 2.419288158417
-35.415885925293 -76.945823669434 -165.092712402344 2.426360130310
-35.928691864014 -77.309226989746 -159.476303100586 1.508736133575
-46.359828948975 -77.152549743652 -156.324737548828 1.579933404922
2.126585960388 -76.925148010254 -162.512619018555 1.245559453964
22.150917053223 -77.821067810059 -153.458160400391 2.278858184814
30.031787872314 -76.875228881836 -159.289871215820 0.573227524757
26.148010253906 -76.377822875977 -166.016708374023 2.566958665848
-11.459356307983 -77.113113403320 -168.897888183594 2.111334562302
-1.263313055038 -76.216819763184 -167.773391723633 2.159277677536
-57.676319122314 -77.702720642090 -169.325286865234 0.995892286301
-61.401134490967 -76.826019287109 -168.632827758789 1.004704475403
-40.393898010254 -77.879379272461 -170.181167602539 1.111711025238
-40.233345031738 -77.053611755371 -166.453018188477 1.526952981949
22.623891830444 -76.892829895020 -171.858444213867 2.046168327332
-20.581357955933 -78.979743957520 -176.053695678711 1.992181539536
-34.843803405762 -77.916061401367 -178.728759765625 2.168498754501
-60.432445526123 -77.500045776367 -178.235641479492 1.646751642227
104.825042724609 -76.669349670410 -177.572677612305 3.137366533279
19.648412704468 -77.945877075195 -169.062561035156 1.420074105263
-27.522525787354 -77.177207946777 -179.145355224609 1.778432726860
-49.948406219482 -76.088279724121 -181.070037841797 0.736274480820
-18.537441253662 -76.561531066895 -178.322677612305 1.645672678947
108.243850708008 -76.792289733887 -173.703063964844 0.896493494511
-49.995086669922 -78.340270996094 -180.915161132813 1.388018608093
16.620252609253 -77.449760437012 -182.610412597656 1.783306002617
24.940734863281 -76.995193481445 -177.952606201172 0.688826143742
-56.470149993896 -76.962112426758 -179.440658569336 1.154247045517
-22.959596633911 -76.892417907715 -180.414947509766 0.734940469265
-56.514724731445 -76.877281188965 -175.091217041016 1.524787783623
-35.697738647461 -75.148445129395 -181.020156860352 1.898456573486
-29.022195816040 -76.880950927734 -185.534881591797 1.660886764526
22.296058654785 -77.179382324219 -184.732543945313 1.568987131119
-51.568111419678 -76.717887878418 -186.433380126953 1.170303344727
104.283912658691 -76.866226196289 -185.804946899414 2.715614318848
-52.639926910400 -76.009445190430 -189.615219116211 0.991145431995
10.931258201599 -77.315231323242 -198.548889160156 0.568309068680
19.096742630005 -77.188461303711 -197.996337890625 1.917163252831
-47.664192199707 -76.080513000488 -189.691421508789 1.125544786453
-21.937705993652 -77.278457641602 -188.848052978516 2.277802705765
103.060600280762 -76.446136474609 -192.039581298828 1.978763580322
101.130889892578 -76.921966552734 -192.908828735352 0.758053243160
-46.753093719482 -76.796447753906 -189.098236083984 1.301814436913
-147.281768798828 -80.369651794434 -198.552947998047 1.596429586411
-46.109199523926 -77.217414855957 -198.071533203125 1.085982084274
-145.505020141602 -78.917503356934 -200.333480834961 1.382023215294
-136.992523193359 -76.322181701660 -203.165557861328 1.644347906113
-43.131801605225 -76.591705322266 -197.742645263672 1.484822273254
11.607696533203 -77.067222595215 -206.954132080078 1.610184907913
-17.020681381226 -76.957763671875 -202.678253173828 1.528353810310
15.336579322815 -76.679801940918 -200.520050048828 1.010264635086
92.442802429199 -76.492660522461 -205.013824462891 1.677212119102
-37.906204223633 -76.769523620605 -199.877792358398 1.228684544563
-9.961672782898 -77.912178039551 -206.667297363281 1.902706980705
-11.238046646118 -77.093284606934 -209.141143798828 2.171031713486
-37.805431365967 -77.765937805176 -207.401367187500 2.023144960403
11.092911720276 -76.075782775879 -203.511032104492 1.959920287132
-75.156639099121 -74.830841064453 -209.649246215820 0.675523936749
15.129085540771 -76.853202819824 -210.270858764648 2.109205007553
-35.526550292969 -76.889999389648 -206.212554931641 0.944013714790
-144.419082641602 -76.945297241211 -211.602188110352 1.666140198708
-145.591644287109 -74.617835998535 -213.348175048828 2.490046977997
-86.163269042969 -76.987442016602 -213.358749389648 1.034820199013
-35.532440185547 -76.055732727051 -210.518844604492 2.033291101456
-24.581583023071 -77.948272705078 -211.923141479492 1.679504275322
-29.085422515869 -76.838966369629 -211.574401855469 1.208469510078
-91.858222961426 -75.872833251953 -217.199569702148 1.275193333626
-88.354675292969 -76.798828125000 -216.518524169922 1.257757067680
9.679826736450 -77.034133911133 -218.825134277344 1.201988697052
-150.108688354492 -76.706855773926 -218.003128051758 1.206544637680
-12.094120979309 -77.054168701172 -212.166290283203 1.612297058105
8.373538017273 -78.576644897461 -215.863235473633 1.739519357681
-144.845153808594 -76.781326293945 -219.195663452148 1.799707412720
-19.659177780151 -77.731315612793 -218.540588378906 1.282100200653
-3.301736116409 -77.600311279297 -220.588699340820 1.492440938950
-3.050095081329 -78.144371032715 -217.080062866211 1.805986046791
-152.165374755859 -77.367362976074 -226.139587402344 1.964140772820
-136.985290527344 -76.551116943359 -227.923477172852 1.297845005989
-6.708908081055 -77.297416687012 -220.493591308594 1.414294719696
-148.890884399414 -81.328300476074 -229.745147705078 1.687890887260
2.147931098938 -76.308654785156 -229.017807006836 0.625262022018
17.014625549316 -77.410263061523 -230.329055786133 2.088223934174
0.154936999083 -76.560966491699 -231.770141601563 2.123063325882
1.840528011322 -76.055961608887 -234.813385009766 1.211720466614
7.642649173737 -78.247817993164 -230.020645141602 2.183415889740
-149.943023681641 -77.120574951172 -236.718505859375 1.620863080025
-18.902393341064 -76.649604797363 -237.019866943359 1.603884577751
-34.524623870850 -77.798385620117 -238.406646728516 2.018930196762
6.528803825378 -75.578147888184 -230.089996337891 0.808696985245
-0.110440999269 -77.213569641113 -235.248947143555 0.986761868000
4.625813961029 -77.608901977539 -233.430969238281 0.747813820839
-53.096378326416 -75.989418029785 -242.337997436523 1.263547182083
-148.439270019531 -77.072494506836 -247.333007812500 1.829291939735
-150.300338745117 -78.490959167480 -249.593521118164 2.200206518173
9.900527954102 -77.973136901855 -244.544769287109 1.942906498909
22.015140533447 -76.852935791016 -246.177307128906 1.565968751907
-59.041419982910 -76.910591125488 -248.143234252930 1.261721491814
-144.447647094727 -78.526069641113 -254.302062988281 0.912832856178
-152.165390014648 -78.575698852539 -255.898574829102 2.181809425354
-148.686096191406 -82.579376220703 -259.229156494141 1.304073452950
-140.801345825195 -76.539825439453 -262.079742431641 2.323331594467
-135.975814819336 -76.572280883789 -257.945159912109 0.769104063511
-11.197085380554 -77.104927062988 -255.455123901367 1.915860891342
-142.615356445313 -78.523498535156 -264.960327148438 2.225603342056
-10.348524093628 -78.007415771484 -261.892395019531 1.892402887344
-145.847610473633 -77.373870849609 -278.089019775391 2.353267431259
-145.547348022461 -77.807411193848 -283.855224609375 1.095179080963
-149.097595214844 -77.631561279297 -283.654754638672 2.481067895889
-1.811421990395 -74.983970642090 -282.986480712891 2.463331460953
-140.829544067383 -74.296585083008 -287.865844726563 2.418489217758
-30.016967773438 -76.390228271484 -286.018676757813 0.868662357330
-30.710088729858 -77.046257019043 -287.171447753906 1.039871931076
-15.847455978394 -76.905128479004 -287.260864257813 1.051457285881
-7.985570907593 -76.672988891602 -286.369812011719 2.913849830627
16.508823394775 -77.848403930664 -289.627624511719 1.200259566307
-123.823371887207 -76.615203857422 -290.077972412109 1.271633625031
-54.651340484619 -76.405624389648 -288.421173095703 0.875164747238
-36.798564910889 -76.932891845703 -288.131561279297 1.287037491798
-29.935207366943 -77.441040039063 -288.658752441406 1.950194835663
-7.932858943939 -76.833274841309 -288.462310791016 2.628001928329
6.412932872772 -76.652862548828 -287.148712158203 1.889327287674
-141.989181518555 -79.657409667969 -294.129699707031 2.541620731354
10.255938529968 -77.155990600586 -288.832427978516 1.047307729721
-149.425430297852 -77.189338684082 -302.181945800781 1.917450785637
-147.238067626953 -77.916198730469 -302.562347412109 1.578025460243
-150.263000488281 -77.435630798340 -312.264434814453 1.880811691284
-144.378128051758 -77.202423095703 -312.514007568359 2.548095703125
-52.950649261475 -74.981285095215 -55.332138061523 2.546538591385
-59.965175628662 -75.587509155273 -55.976085662842 0.981727719307
-66.611595153809 -75.346603393555 -56.002681732178 2.038092613220
-46.341854095459 -75.958831787109 -57.989810943604 2.137541294098
-40.566551208496 -75.242576599121 -58.450878143311 2.400827646255
-25.339567184448 -74.969612121582 -66.363952636719 1.736070513725
-85.707298278809 -75.867309570313 -68.266937255859 2.181976079941
79.042938232422 -76.099655151367 -75.002906799316 0.458699494600
-91.825485229492 -75.831291198730 -82.621368408203 1.999511122704
80.932449340820 -76.734703063965 -78.653488159180 1.070788264275
82.726020812988 -76.087333679199 -79.959434509277 1.903540492058
90.302848815918 -75.318161010742 -82.166381835938 2.496786832809
-60.983978271484 -80.054183959961 -94.402938842773 1.221401691437
81.295486450195 -74.883682250977 -90.906997680664 3.048403263092
76.991477966309 -75.818641662598 -89.698768615723 2.633440017700
84.833679199219 -76.968093872070 -86.738998413086 0.266571402550
-65.592308044434 -79.402595520020 -97.078529357910 2.638726472855
51.059104919434 -75.835479736328 -94.276718139648 1.571017622948
43.950683593750 -76.645912170410 -104.028335571289 1.116655945778
39.820758819580 -76.571502685547 -102.552627563477 2.773352622986
36.639999389648 -76.160583496094 -106.331367492676 2.834756374359
-92.726394653320 -76.317405700684 -112.810272216797 1.862660169601
34.785293579102 -76.530075073242 -115.024085998535 1.197359800339
-86.534019470215 -77.216789245605 -110.994499206543 1.896064996719
41.594253540039 -77.884094238281 -120.056465148926 1.650450944901
33.063362121582 -76.904907226563 -120.223648071289 1.682756543159
31.949108123779 -75.070121765137 -119.732482910156 1.205996155739
40.931434631348 -76.819816589355 -117.637008666992 2.104591846466
37.772220611572 -76.947288513184 -124.264808654785 2.112169265747
-54.926902770996 -74.245079040527 -135.299835205078 0.921340703964
34.683128356934 -76.540634155273 -133.434173583984 2.575466156006
35.249458312988 -75.793609619141 -139.419265747070 2.449323177338
-52.787719726563 -73.774887084961 -138.788421630859 1.264831185341
-49.325149536133 -76.009986877441 -140.275741577148 1.490547776222
33.608306884766 -77.518447875977 -141.506881713867 2.373040676117
110.425437927246 -75.666587829590 -138.483688354492 1.277303934097
112.729309082031 -75.762100219727 -137.550338745117 1.401825547218
25.591726303101 -76.652420043945 -142.444030761719 2.161593198776
-43.121486663818 -76.546974182129 -147.941101074219 1.104652047157
110.717674255371 -76.237960815430 -150.861663818359 0.476515531540
-41.893932342529 -75.897666931152 -153.055587768555 1.672795534134
-68.941375732422 -77.147483825684 -157.568954467773 1.700997948647
109.977767944336 -76.511642456055 -158.415740966797 0.756068229675
22.121782302856 -75.884437561035 -160.475967407227 1.792489647865
-0.689422011375 -77.517044067383 -161.529418945313 1.204506278038
112.126373291016 -76.343704223633 -153.359451293945 1.754127144814
-64.855278015137 -75.993713378906 -163.680343627930 1.514223814011
-37.561973571777 -75.150131225586 -159.146911621094 0.870690405369
112.694046020508 -75.420822143555 -160.572982788086 1.886296272278
28.946161270142 -76.054222106934 -156.415649414063 2.295210838318
-64.401054382324 -74.838874816895 -166.516784667969 1.299632191658
110.398880004883 -76.679405212402 -163.335647583008 1.215663552284
-65.252281188965 -77.918708801270 -168.058914184570 0.964457571507
-52.349437713623 -77.023063659668 -177.242141723633 1.775537490845
105.910057067871 -75.022766113281 -168.227279663086 1.909809589386
-60.571033477783 -75.053215026855 -168.674270629883 0.883498966694
110.463867187500 -76.289741516113 -170.256164550781 2.053101301193
-60.122009277344 -76.803039550781 -173.246231079102 1.155536770821
-13.948096275330 -75.932556152344 -176.157882690430 1.064076662064
-13.387364387512 -77.372077941895 -177.392700195313 0.622892260551
107.530914306641 -76.481575012207 -168.835571289063 3.123870372772
20.163631439209 -76.053611755371 -170.442657470703 1.787213563919
27.691572189331 -76.486351013184 -169.077087402344 2.389322996140
-56.161819458008 -75.717193603516 -176.165420532227 1.199166893959
19.329084396362 -76.192390441895 -180.406265258789 1.840285062790
-58.230903625488 -75.405494689941 -176.635559082031 1.172329902649
-51.005928039551 -75.782821655273 -185.366104125977 1.064614415169
14.837115287781 -75.763679504395 -180.928421020508 1.056518077850
-58.924121856689 -76.352027893066 -180.993667602539 1.117326736450
107.606437683105 -76.339332580566 -180.943222045898 1.861775994301
22.674198150635 -75.976028442383 -178.673873901367 1.930828809738
-31.677484512329 -75.671661376953 -187.739654541016 1.355843663216
-42.120910644531 -75.709800720215 -191.913711547852 1.175499320030
11.141670227051 -75.383613586426 -192.868347167969 1.207397460938
-17.837966918945 -76.979553222656 -190.534820556641 0.607291042805
-50.591022491455 -76.852600097656 -192.747833251953 1.937297821045
