-67.649421691895 -75.020355224609 -156.045730590820 1.332985758781
-48.522689819336 -76.619461059570 -154.974533081055 1.086745023727
7.441734790802 -74.679008483887 -153.952499389648 2.468907833099
-67.741592407227 -74.996139526367 -159.297851562500 0.522802352905
-61.709278106689 -75.899314880371 -160.914352416992 1.487534999847
-1.999392986298 -76.434539794922 -160.958847045898 1.688366889954
-41.850765228271 -76.519775390625 -166.229080200195 2.463806390762
30.411548614502 -75.423988342285 -162.767700195313 1.378787040710
-62.513023376465 -76.115188598633 -164.728149414063 1.389916539192
-58.070766448975 -76.116340637207 -167.771194458008 1.271048426628
19.273750305176 -76.443122863770 -159.986022949219 1.382178544998
-31.960775375366 -76.608131408691 -168.598648071289 0.589159548283
-31.128814697266 -77.272407531738 -166.475646972656 0.830520153046
16.530406951904 -76.634376525879 -173.335250854492 2.437735319138
-40.757492065430 -76.762252807617 -171.974121093750 1.328149199486
-12.735939025879 -75.995323181152 -172.056427001953 2.094983577728
-60.453792572021 -75.232429504395 -171.956588745117 0.547920703888
-5.680632114410 -74.836914062500 -170.005203247070 0.849369645119
-23.841396331787 -76.907463073730 -178.627471923828 1.453954696655
23.396202087402 -76.207962036133 -179.602371215820 1.642523884773
-39.631916046143 -75.416709899902 -171.164535522461 1.116650819778
17.606130599976 -75.753341674805 -177.197265625000 1.333582520485
-23.459318161011 -74.068595886230 -182.028335571289 1.306023597717
-32.953651428223 -76.693252563477 -181.116394042969 1.281919121742
-147.599533081055 -75.831832885742 -185.773223876953 1.276558995247
-22.637598037720 -76.790023803711 -185.308898925781 0.497770875692
-144.972549438477 -75.370948791504 -187.723312377930 0.533609628677
-150.135787963867 -74.387931823730 -186.973403930664 1.297224879265
-47.746330261230 -75.340644836426 -185.765731811523 1.455980420113
97.824401855469 -76.672096252441 -192.763427734375 2.949917078018
-145.021011352539 -75.649932861328 -192.905868530273 1.068453073502
-153.677490234375 -76.532974243164 -196.395889282227 1.018286824226
20.551856994629 -76.592964172363 -196.772094726563 2.302419662476
-135.980453491211 -74.280998229980 -197.730850219727 1.053265213966
18.577049255371 -75.978462219238 -196.893615722656 1.170278310776
-141.228302001953 -74.239608764648 -197.454071044922 1.077434659004
12.551889419556 -76.049430847168 -195.155609130859 1.399661302567
-135.792938232422 -74.537757873535 -200.959884643555 0.906695663929
7.306057929993 -76.850593566895 -205.837417602539 1.437897562981
-149.634536743164 -74.985153198242 -206.006301879883 1.047526001930
92.833290100098 -76.689170837402 -202.031234741211 2.189141511917
-15.201732635498 -77.221725463867 -201.155654907227 1.033105850220
-30.638820648193 -75.803726196289 -205.789764404297 1.158154368401
-10.162467956543 -76.829200744629 -204.777954101563 0.313560664654
-149.755157470703 -75.482673645020 -211.686935424805 1.037383556366
-35.766784667969 -76.170928955078 -205.193572998047 0.353995561600
-81.772483825684 -77.241279602051 -209.871231079102 1.102855086327
-27.121322631836 -76.883636474609 -209.046066284180 2.427141427994
18.236707687378 -76.279403686523 -208.071411132813 1.418328285217
-148.254486083984 -76.142990112305 -212.495376586914 0.651578962803
-91.548721313477 -75.130195617676 -213.717407226563 0.928173422813
-30.339153289795 -75.383132934570 -211.906768798828 0.729711115360
-25.859048843384 -74.969696044922 -217.226043701172 1.462953209877
-14.780809402466 -76.587333679199 -212.640060424805 0.745115876198
-27.852424621582 -75.723442077637 -211.850143432617 0.428295999765
-81.286125183105 -75.477195739746 -215.694442749023 1.088492870331
-86.521133422852 -76.388702392578 -217.026473999023 1.247177124023
-24.405513763428 -76.403167724609 -218.086776733398 0.466365575790
-2.506643056870 -76.263145446777 -220.176086425781 1.315457105637
-149.718673706055 -74.935211181641 -216.777725219727 0.956653058529
-2.704293966293 -77.523506164551 -217.183822631836 1.330618381500
83.986488342285 -77.200561523438 -221.761077880859 1.149604320526
-142.966400146484 -76.969024658203 -224.689743041992 1.209156513214
-10.090360641479 -77.418739318848 -222.842727661133 1.255221366882
-141.943710327148 -76.250045776367 -226.378936767578 0.956603765488
-147.390319824219 -81.501983642578 -226.886795043945 0.653351962566
-7.178973197937 -75.196540832520 -228.910400390625 1.337902069092
15.516523361206 -76.062660217285 -220.824371337891 1.107182383537
-141.418502807617 -75.349540710449 -229.162368774414 0.813339650631
-15.633023262024 -76.094390869141 -228.367599487305 1.186746120453
78.051963806152 -77.006156921387 -226.026016235352 1.723175764084
76.723541259766 -76.312194824219 -229.538955688477 0.915487051010
7.779899120331 -76.523658752441 -230.230606079102 1.336270689964
-26.873201370239 -77.674591064453 -237.018768310547 1.465224027634
-18.515607833862 -77.762969970703 -239.150360107422 0.967365562916
5.697912216187 -75.449539184570 -241.971130371094 1.361850380898
-48.193584442139 -75.551055908203 -240.984375000000 0.853407382965
-23.618974685669 -76.512489318848 -241.885452270508 1.092259883881
7.714778900146 -76.581207275391 -242.586013793945 0.599992275238
-63.779624938965 -76.120941162109 -244.564025878906 1.698406815529
-31.048608779907 -76.067993164063 -242.649932861328 1.914348840714
-43.373489379883 -74.539184570313 -244.141876220703 0.738779604435
-150.461868286133 -75.786941528320 -246.034851074219 0.751939535141
-47.271129608154 -77.045288085938 -246.034362792969 1.029832959175
-53.882934570313 -76.542518615723 -247.541427612305 0.784230947495
-67.127311706543 -76.503814697266 -250.002517700195 1.660904169083
-11.107343673706 -76.334701538086 -250.132293701172 1.381449580193
-81.430564880371 -75.520332336426 -251.756988525391 1.003005504608
-155.047058105469 -78.455932617188 -256.488769531250 0.354605346918
-142.242126464844 -77.067741394043 -256.525085449219 0.741083741188
-125.716133117676 -75.694313049316 -261.035369873047 0.755858540535
-153.564102172852 -73.215591430664 -264.044281005859 0.696575820446
21.112031936646 -77.591644287109 -261.847808837891 1.515417218208
-12.525882720947 -77.313491821289 -267.003662109375 1.172044396400
-150.547637939453 -77.260063171387 -271.006072998047 0.897024929523
-150.676925659180 -77.958923339844 -277.170471191406 0.501498699188
-144.106033325195 -79.617233276367 -284.233886718750 1.318196415901
-57.600002288818 -75.055015563965 -285.035980224609 1.922461509705
-38.317161560059 -76.451683044434 -285.550109863281 0.929821670055
-25.559907913208 -74.973358154297 -285.527984619141 1.091710567474
-12.649704933167 -76.762107849121 -285.767242431641 2.001038789749
-65.294982910156 -76.484573364258 -286.545593261719 2.251125812531
-78.989051818848 -75.306625366211 -286.479766845703 1.486912727356
-3.830881118774 -77.242942810059 -286.611724853516 1.441851496696
8.423734664917 -76.764511108398 -286.918029785156 1.392600655556
-135.608306884766 -75.535980224609 -290.087463378906 0.794997572899
-77.672981262207 -76.115554809570 -288.403137207031 0.516698420048
-147.493713378906 -76.015434265137 -288.523101806641 0.631493806839
-93.928947448730 -75.413673400879 -288.273071289063 1.872155785561
-78.221656799316 -75.883071899414 -288.860839843750 0.989736020565
-83.483314514160 -75.161026000977 -290.184356689453 0.920238971710
-59.678459167480 -75.925277709961 -289.798889160156 0.729058265686
-26.064212799072 -75.626815795898 -290.797363281250 1.524300098419
-3.474250078201 -76.288269042969 -291.121246337891 1.729278326035
-153.568054199219 -74.459144592285 -294.193359375000 0.581040918827
-151.744155883789 -75.803588867188 -299.629882812500 0.779535412788
-145.924484252930 -77.032821655273 -300.873443603516 0.480261117220
-154.587753295898 -75.921241760254 -307.112274169922 0.574268162251
-58.781970977783 -74.745285034180 -54.025375366211 1.800615668297
-46.486820220947 -73.322982788086 -52.299518585205 1.884623527527
-39.940727233887 -73.902282714844 -54.702503204346 1.761642336845
-76.862785339355 -74.550949096680 -57.962818145752 2.150818586349
-29.743083953857 -74.617744445801 -61.065437316895 1.214659452438
-31.532312393188 -75.262054443359 -78.118698120117 0.830646932125
74.633987426758 -75.995300292969 -78.240219116211 1.728149533272
74.451919555664 -77.162109375000 -80.209602355957 1.836614131927
74.142738342285 -76.567077636719 -82.566268920898 1.127062201500
95.022644042969 -75.344284057617 -87.805915832520 2.048583984375
72.372314453125 -76.381019592285 -88.016258239746 2.374203443527
52.583259582520 -75.193138122559 -91.479026794434 1.284896135330
46.477474212646 -77.296852111816 -97.720565795898 2.424684047699
-68.585853576660 -75.367614746094 -98.785354614258 1.993372797966
-72.779205322266 -69.248115539551 -100.669952392578 1.244354248047
44.092105865479 -76.176467895508 -101.900794982910 2.086551427841
-83.460075378418 -77.451118469238 -107.668197631836 1.560660839081
-94.658096313477 -73.719253540039 -111.886405944824 1.697337150574
49.796134948730 -75.088806152344 -103.920501708984 1.353164315224
106.614097595215 -75.174026489258 -107.891052246094 1.066784024239
31.330560684204 -76.913627624512 -118.187339782715 2.925341367722
44.991294860840 -75.824501037598 -117.355957031250 0.851839244366
41.799327850342 -76.970207214355 -124.380241394043 0.970123529434
28.711221694946 -76.169311523438 -124.073799133301 1.926749944687
107.845352172852 -75.755813598633 -116.810111999512 2.589305162430
38.626968383789 -75.771835327148 -126.756271362305 2.651068449020
29.023317337036 -74.591201782227 -129.036468505859 0.759440600872
-47.863162994385 -75.641059875488 -143.639099121094 1.588629961014
-73.243782043457 -74.799797058105 -145.246627807617 0.912239909172
-55.656028747559 -73.791450500488 -142.920425415039 1.444852232933
-71.341003417969 -74.682312011719 -145.351318359375 0.820790290833
-42.640983581543 -73.578201293945 -145.887420654297 1.502218246460
108.199562072754 -74.040985107422 -148.144424438477 2.528696537018
-72.625862121582 -75.298484802246 -154.097351074219 2.259654045105
23.433082580566 -75.220016479492 -148.263931274414 1.614061832428
32.673469543457 -76.506034851074 -151.782608032227 1.107821464539
114.191955566406 -76.497215270996 -156.725158691406 1.993260502815
8.112385749817 -74.944099426270 -157.946029663086 1.281880974770
30.536623001099 -75.327346801758 -153.886856079102 1.788182497025
-66.004478454590 -74.297065734863 -157.974914550781 0.998875141144
-44.553359985352 -75.517471313477 -167.219055175781 1.997626662254
17.964050292969 -73.885795593262 -161.934783935547 1.657375097275
-64.378128051758 -74.103096008301 -163.221832275391 0.744262278080
-68.678047180176 -75.596923828125 -164.154861450195 1.038442969322
106.753639221191 -76.217468261719 -164.005798339844 1.644524693489
-7.841550827026 -74.915916442871 -167.550140380859 1.717265486717
-62.112117767334 -75.691566467285 -175.847198486328 1.579464435577
-28.621101379395 -75.289665222168 -169.675170898438 0.850887656212
-56.251857757568 -74.235618591309 -173.070053100586 1.473010659218
27.036026000977 -75.902114868164 -167.257736206055 3.178179025650
109.258117675781 -75.890113830566 -170.847534179688 2.266192674637
102.317359924316 -76.533966064453 -181.623352050781 2.298723459244
106.846282958984 -76.783683776855 -187.242446899414 1.336545348167
106.874954223633 -75.751907348633 -176.231628417969 1.994625210762
-54.298980712891 -75.293800354004 -186.489135742188 2.798826217651
-52.285289764404 -74.059318542480 -181.388168334961 0.820928514004
24.952888488770 -76.784645080566 -181.356430053711 1.042658567429
-50.672451019287 -73.853935241699 -187.979873657227 1.138040184975
-20.529567718506 -76.286529541016 -183.673477172852 1.579718470573
-51.214481353760 -75.262702941895 -190.647796630859 1.129878878593
-150.442337036133 -74.994132995605 -193.052642822266 1.600125670433
101.222869873047 -75.864707946777 -191.539474487305 1.406199812889
-45.733264923096 -74.165512084961 -191.553848266602 1.139353871346
-17.801904678345 -76.572624206543 -195.985702514648 1.290773510933
-141.369918823242 -76.437957763672 -196.632385253906 1.096066117287
-46.202068328857 -74.126907348633 -194.988693237305 1.863430500031
103.015869140625 -76.746635437012 -195.912872314453 0.599647581577
105.307487487793 -75.819068908691 -184.714569091797 1.881884098053
-46.960746765137 -75.448646545410 -196.619186401367 0.459324598312
-24.781373977661 -76.683891296387 -194.863952636719 0.186037674546
-149.639144897461 -79.960250854492 -198.932434082031 1.642919898033
-25.445791244507 -77.050529479980 -197.707839965820 0.769151687622
-154.517990112305 -76.334602355957 -199.178298950195 1.136933803558
-153.328216552734 -77.213752746582 -201.971710205078 0.804802000523
-141.505920410156 -76.382858276367 -201.443115234375 0.829065203667
-38.757797241211 -75.479919433594 -197.152282714844 1.436717271805
99.855735778809 -75.753112792969 -197.426208496094 2.156913757324
-39.813613891602 -74.170173645020 -198.358703613281 0.696406185627
-145.038772583008 -77.491371154785 -204.688552856445 1.102328181267
-38.949298858643 -74.154037475586 -205.206604003906 0.790962696075
-19.126638412476 -76.755134582520 -208.697143554688 2.175430774689
95.460418701172 -75.762840270996 -202.466430664063 1.699558734894
92.396492004395 -75.730850219727 -209.149261474609 1.385199666023
-30.949050903320 -75.073432922363 -215.899124145508 0.612004160881
-86.729682922363 -75.299446105957 -211.547805786133 1.131940603256
-76.027786254883 -74.849327087402 -210.911590576172 0.593446910381
-18.094623565674 -75.801635742188 -218.003921508789 1.968293905258
-150.026840209961 -73.743705749512 -211.237579345703 0.999880671501
87.770233154297 -77.036277770996 -210.808700561523 1.899090647697
89.194908142090 -77.067703247070 -216.690002441406 1.724981665611
90.346420288086 -75.291908264160 -217.160858154297 1.679178237915
-101.910156250000 -73.482322692871 -222.012207031250 1.052659273148
-151.101715087891 -77.078056335449 -223.196289062500 0.919157505035
-19.926935195923 -75.771362304688 -219.609848022461 0.912884175777
78.427207946777 -76.090034484863 -222.188018798828 2.037622928619
-149.008255004883 -76.821739196777 -226.851165771484 2.325742959976
-26.709621429443 -75.862800598145 -220.366882324219 0.906758785248
-132.678161621094 -74.423767089844 -228.508529663086 1.191400170326
-13.048283576965 -76.953941345215 -226.363906860352 0.770842671394
17.553777694702 -76.092277526855 -220.281387329102 0.678794085979
18.662109375000 -76.565078735352 -230.231704711914 1.572088003159
-154.111877441406 -77.941131591797 -232.258560180664 0.976862013340
-125.189338684082 -73.701599121094 -232.416976928711 0.674928545952
-8.357922554016 -74.647850036621 -233.336395263672 0.527849912643
-0.329250991344 -75.575012207031 -235.110473632813 0.724027574062
69.073387145996 -75.852302551270 -233.630187988281 1.955136537552
72.432479858398 -75.243347167969 -234.327835083008 1.973525881767
-0.778725981712 -76.196174621582 -238.920150756836 1.539675712585
16.735998153687 -74.475326538086 -237.682449340820 2.152765274048
-28.660032272339 -74.360252380371 -238.171524047852 1.044775605202
-35.783641815186 -75.329246520996 -239.168151855469 0.992304086685
-44.255783081055 -74.189300537109 -241.628921508789 0.912190735340
-37.614727020264 -74.411697387695 -241.414779663086 1.897364497185
-19.226827621460 -76.613754272461 -241.089660644531 1.767163157463
-53.431453704834 -74.614967346191 -242.165908813477 1.148908734322
1.868337988853 -75.432701110840 -243.379333496094 1.306347608566
-68.029869079590 -73.328514099121 -245.325942993164 1.865588068962
19.298500061035 -75.601448059082 -245.383316040039 0.871085643768
-146.952072143555 -76.207252502441 -246.476577758789 0.702670335770
-72.289962768555 -76.553855895996 -247.916748046875 0.680035650730
13.448118209839 -77.995903015137 -246.396469116211 1.835056066513
-161.848663330078 -74.035682678223 -249.529693603516 0.765342533588
17.830762863159 -76.992210388184 -249.743362426758 0.716452062130
-79.479232788086 -75.500396728516 -249.809738159180 1.539386153221
-74.434356689453 -76.031524658203 -250.639877319336 0.387282460928
21.187173843384 -76.152107238770 -254.717803955078 1.563633322716
-88.851013183594 -74.533378601074 -253.484039306641 1.401275873184
-125.651985168457 -74.633766174316 -255.695648193359 0.578900456429
-135.458969116211 -74.132133483887 -257.781036376953 0.549378275871
-133.499328613281 -75.451454162598 -257.827087402344 0.547024786472
-147.611557006836 -73.097763061523 -259.678588867188 0.774376809597
-141.806198120117 -74.540824890137 -259.033660888672 1.076959848404
-135.958312988281 -73.680992126465 -261.514404296875 1.034911274910
-161.689483642578 -74.241172790527 -261.366363525391 0.678911566734
-125.568473815918 -72.738281250000 -264.182861328125 1.566100597382
-133.834793090820 -75.076675415039 -261.762176513672 1.416175723076
-165.820907592773 -73.689231872559 -263.239349365234 1.194007873535
-158.579040527344 -73.376312255859 -263.425598144531 0.690558135509
-151.390411376953 -73.851936340332 -265.078918457031 0.591710269451
-146.985794067383 -74.331184387207 -265.402038574219 0.551709532738
15.782520294189 -78.071250915527 -276.230560302734 1.018397212029
-165.720535278320 -73.959671020508 -269.088134765625 1.217864871025
-152.663085937500 -73.773521423340 -273.373443603516 0.531973659992
-6.921242237091 -79.941864013672 -272.283508300781 1.186867833138
-160.822204589844 -73.828208923340 -268.586273193359 3.973403692245
12.458428382874 -79.136177062988 -278.128662109375 1.371675491333
-151.617965698242 -74.493392944336 -282.343170166016 0.495981901884
-162.242431640625 -74.344253540039 -286.366271972656 0.527711927891
-154.075881958008 -74.179412841797 -283.748779296875 1.005938410759
-166.034774780273 -74.535423278809 -285.628631591797 0.484191238880
2.609306097031 -75.906753540039 -286.478973388672 1.337506175041
7.352156162262 -77.723915100098 -283.759094238281 1.597029566765
-97.089279174805 -74.635986328125 -287.365539550781 1.531366109848
-150.576202392578 -74.246650695801 -287.461822509766 0.450168937445
-148.731323242188 -74.192825317383 -287.097167968750 0.423034638166
-109.461753845215 -74.308792114258 -288.233764648438 1.095393776894
-150.676284790039 -74.239532470703 -289.919555664063 0.421679228544
-148.743011474609 -74.250000000000 -290.292663574219 0.406602352858
-67.705986022949 -74.963249206543 -290.237396240234 0.651284277439
-162.509124755859 -74.644592285156 -290.364868164063 0.571005523205
-124.049377441406 -74.143875122070 -290.912689208984 0.913582503796
-43.709972381592 -76.012298583984 -290.077270507813 1.154692530632
-156.572128295898 -74.422798156738 -289.691772460938 1.264407992363
-135.856109619141 -72.735694885254 -292.841522216797 0.690180301666
-16.434978485107 -74.629295349121 -290.929046630859 1.507392644882
-126.365600585938 -74.887664794922 -293.627746582031 0.672023057938
5.123435020447 -75.866577148438 -291.674774169922 1.886060237885
15.617548942566 -75.300483703613 -291.089019775391 0.681277275085
-134.031326293945 -75.193061828613 -292.892089843750 0.318739265203
-146.021041870117 -74.493492126465 -294.750335693359 0.368302553892
-155.931198120117 -73.610359191895 -311.477783203125 0.280336469412
-74.147613525391 -71.152618408203 -51.014667510986 0.844698786736
-24.453489303589 -72.086296081543 -59.409160614014 1.824199080467
-22.880702972412 -73.781761169434 -63.886993408203 1.129264712334
73.429962158203 -73.809829711914 -72.453804016113 1.855281591415
90.686180114746 -75.243469238281 -73.283348083496 1.623511433601
-39.542385101318 -72.976119995117 -76.411964416504 1.659066319466
72.635299682617 -74.913139343262 -75.306434631348 2.429134130478
87.094833374023 -76.818397521973 -78.897331237793 1.155289649963
69.195678710938 -73.972984313965 -80.209922790527 2.040767431259
70.425575256348 -75.076400756836 -83.683677673340 1.848076224327
-50.612289428711 -76.260154724121 -87.270500183105 1.912420868874
-93.200218200684 -74.342475891113 -86.025672912598 0.637851893902
56.448604583740 -74.428596496582 -91.646057128906 2.234215736389
48.381244659424 -74.290817260742 -95.315803527832 0.800028204918
93.904762268066 -75.225875854492 -93.412162780762 1.800465345383
-95.597114562988 -72.706398010254 -101.350563049316 3.136180400848
83.430541992188 -75.471389770508 -95.155952453613 0.917099952698
73.888580322266 -74.447517395020 -95.829467773438 1.034618377686
91.046966552734 -74.559875488281 -96.343849182129 1.797747850418
81.156158447266 -73.465148925781 -98.144409179688 1.562072157860
85.380813598633 -76.476562500000 -95.519828796387 1.988672018051
-81.859840393066 -74.973724365234 -101.428207397461 1.933001756668
38.789539337158 -75.808326721191 -107.906745910645 0.403155952692
105.195564270020 -74.823478698730 -108.320220947266 1.191002964973
108.825859069824 -74.755920410156 -108.480056762695 1.108251929283
44.384254455566 -74.799385070801 -114.405853271484 2.058507919312
106.984519958496 -74.680732727051 -121.038497924805 1.458107233047
114.490501403809 -75.496223449707 -132.199508666992 2.038413763046
-53.626773834229 -73.817016601563 -133.422409057617 1.351165533066
25.756135940552 -74.204139709473 -132.275344848633 3.684293031693
38.885955810547 -74.573860168457 -131.533187866211 1.199102759361
25.063297271729 -72.755500793457 -142.312927246094 1.899189591408
112.347991943359 -74.723617553711 -138.193801879883 1.108966708183
111.321281433105 -74.216957092285 -131.978469848633 1.339212894440
-74.514106750488 -74.393112182617 -147.525009155273 0.890338897705
-45.405609130859 -74.443328857422 -145.663513183594 0.875724613667
-71.871711730957 -73.008621215820 -148.649948120117 1.449922561646
20.626646041870 -74.736824035645 -150.677825927734 1.653721213341
112.466003417969 -75.067039489746 -149.311569213867 1.950228691101
-53.717601776123 -74.050170898438 -148.206039428711 0.759276568890
-70.382034301758 -72.667869567871 -148.375976562500 1.284713745117
-39.194625854492 -76.634498596191 -153.179306030273 1.602241516113
32.624576568604 -72.426574707031 -150.546035766602 2.348291873932
111.221343994141 -74.754180908203 -150.261566162109 1.394145250320
112.318687438965 -74.557235717773 -156.311050415039 0.735616981983
-68.977455139160 -72.108940124512 -152.843414306641 0.203493148088
-69.813194274902 -73.830535888672 -161.976333618164 1.274483680725
20.707176208496 -75.070678710938 -161.536834716797 1.321117043495
-60.433815002441 -73.231681823730 -165.729629516602 1.964948296547
-34.065830230713 -74.830566406250 -159.926345825195 1.711102604866
6.023900985718 -74.380035400391 -161.105895996094 2.024619817734
110.270759582520 -75.243095397949 -159.856018066406 1.674686670303
3.732326984406 -74.783798217773 -163.416397094727 1.566297531128
-34.189807891846 -74.613708496094 -164.330612182617 1.362935662270
-0.216377004981 -74.192810058594 -166.128143310547 1.524221181870
108.455551147461 -74.793540954590 -167.993453979492 2.065419912338
-41.466667175293 -72.211280822754 -167.794204711914 1.825803995132
26.739288330078 -72.440574645996 -168.746597290039 1.257457733154
110.008018493652 -74.650329589844 -170.414123535156 1.829023957253
-58.000102996826 -72.763442993164 -176.324523925781 0.841547548771
-29.387493133545 -74.638610839844 -172.054611206055 0.645712196827
104.453964233398 -74.112747192383 -171.602752685547 1.845772385597
28.108877182007 -74.367790222168 -171.176193237305 1.195571660995
111.808784484863 -76.574310302734 -171.981201171875 1.622698545456
-37.574520111084 -73.936012268066 -175.504608154297 1.898100972176
105.642074584961 -74.711380004883 -178.472061157227 2.321411132813
-60.237941741943 -74.052780151367 -176.957427978516 1.972702980042
-25.701322555542 -76.124458312988 -179.533950805664 1.278826713562
-145.287353515625 -72.864440917969 -182.166458129883 1.028473258018
-54.927810668945 -73.733535766602 -182.710632324219 1.295668959618
-147.170715332031 -73.663047790527 -186.927185058594 0.903488516808
-33.102340698242 -73.355010986328 -186.609924316406 1.554037690163
22.810903549194 -74.667739868164 -185.137817382813 1.607697963715
107.049133300781 -74.609977722168 -180.873245239258 0.971650779247
-30.748460769653 -76.003204345703 -186.002105712891 0.337714105844
11.331521034241 -75.226760864258 -189.285934448242 2.558230161667
18.775470733643 -74.459182739258 -199.142257690430 1.712180137634
-146.840133666992 -74.152328491211 -192.551589965820 1.145172715187
102.249649047852 -74.664878845215 -192.988327026367 1.844260692596
-18.491516113281 -72.306838989258 -192.706970214844 1.426440119743
102.075874328613 -74.677658081055 -188.131637573242 2.123743057251
13.936493873596 -73.773620605469 -186.597137451172 1.388189673424
-132.287384033203 -73.167190551758 -200.479064941406 1.009412884712
-140.951110839844 -74.434394836426 -200.728561401367 1.048903703690
96.691780090332 -74.722717285156 -199.058532714844 1.022564768791
-12.449743270874 -76.192352294922 -200.166793823242 0.819975078106
-15.207600593567 -75.815315246582 -199.777374267578 1.514996886253
8.903827667236 -75.355010986328 -205.956054687500 1.886056542397
-150.456817626953 -71.043273925781 -205.603561401367 0.801367521286
-146.164215087891 -74.942283630371 -205.892364501953 1.031035900116
98.149543762207 -74.680145263672 -201.094741821289 0.282257944345
-78.549240112305 -73.530418395996 -208.832260131836 0.600023567677
-37.651546478271 -73.649650573730 -202.662750244141 0.387657463551
16.446439743042 -75.037055969238 -209.231613159180 1.799117803574
-26.462751388550 -74.548583984375 -210.686721801758 2.456933021545
-79.286659240723 -73.417648315430 -210.837677001953 0.958407521248
90.720108032227 -74.870765686035 -208.988967895508 1.545096158981
-82.634246826172 -73.069778442383 -212.323593139648 0.916565060616
-146.535888671875 -75.002807617188 -217.845199584961 0.931611001492
-79.637603759766 -74.135597229004 -213.999877929688 0.789219319820
-15.968553543091 -73.083724975586 -212.608596801758 0.903363406658
-21.174339294434 -73.339294433594 -216.098266601563 1.162113785744
18.432861328125 -73.405128479004 -209.929504394531 1.493750810623
-6.247705936432 -75.294418334961 -214.513839721680 1.521980285645
-88.231781005859 -72.654632568359 -217.924163818359 0.809370100498
91.704879760742 -74.730171203613 -211.514007568359 1.019052267075
-95.934661865234 -74.439033508301 -215.807800292969 1.568047881126
-149.863616943359 -75.141716003418 -222.331085205078 0.911791682243
-19.382444381714 -73.397041320801 -221.335845947266 1.126165390015
15.655714035034 -73.874618530273 -215.345046997070 1.461622476578
-101.956268310547 -73.080787658691 -219.765701293945 0.785507559776
7.308279037476 -74.958717346191 -219.874755859375 1.388607978821
-23.521442413330 -74.843376159668 -216.273361206055 1.025303721428
83.409095764160 -74.835624694824 -221.460098266602 1.572883725166
-146.771926879883 -74.748558044434 -222.172073364258 1.497290611267
4.144368171692 -72.713760375977 -224.587310791016 1.671130418777
-9.725359916687 -75.911499023438 -221.273178100586 2.496149778366
16.934442520142 -72.940605163574 -219.703613281250 1.377174019814
82.925247192383 -74.845535278320 -219.845840454102 2.253542423248
-12.422047615051 -74.114639282227 -226.464401245117 0.901786208153
-130.895309448242 -73.293823242188 -225.853775024414 1.298679471016
-12.249743461609 -75.462142944336 -223.929077148438 1.221326112747
16.694507598877 -76.269905090332 -232.825897216797 0.746048569679
-125.258926391602 -74.091453552246 -227.465942382813 0.833519876003
-148.923690795898 -71.774604797363 -227.352188110352 0.851639986038
-141.434616088867 -73.203445434570 -228.617553710938 0.808314859867
-134.815460205078 -73.086097717285 -230.313598632813 0.764284372330
-15.959013938904 -74.597213745117 -225.937759399414 0.829654216766
71.578857421875 -74.647277832031 -228.185104370117 1.787866711617
-141.615905761719 -72.765449523926 -231.510314941406 0.713759899139
73.994865417480 -76.197982788086 -227.964996337891 2.184688091278
-19.504354476929 -75.839668273926 -226.230651855469 1.414349317551
-141.981811523438 -77.156311035156 -231.240936279297 0.733781695366
78.347541809082 -74.364433288574 -226.550354003906 1.580365657806
8.794865608215 -75.840087890625 -234.587005615234 1.850631237030
-144.142837524414 -78.028923034668 -233.963165283203 1.164641737938
-150.938446044922 -72.831863403320 -235.214950561523 0.498912602663
15.372276306152 -73.739181518555 -231.575088500977 2.596353530884
-3.233525991440 -74.364013671875 -234.366302490234 0.314616262913
-24.836643218994 -74.752647399902 -236.961044311523 1.101020812988
-1.954046010971 -72.647850036621 -238.665267944336 0.816574275494
-161.295806884766 -73.312232971191 -237.659820556641 0.850183725357
11.155130386353 -75.775848388672 -243.701583862305 1.444138765335
-164.717285156250 -72.692436218262 -235.727752685547 1.576575756073
-14.323021888733 -75.505752563477 -237.079864501953 1.129220247269
65.615776062012 -75.342231750488 -237.678695678711 1.049123525620
-12.493947982788 -74.788269042969 -239.588470458984 1.179974913597
-24.835020065308 -73.085075378418 -239.016220092773 1.068802237511
-26.118041992188 -73.959060668945 -240.992523193359 1.103849291801
-16.093507766724 -73.528892517090 -241.330108642578 1.137786746025
-146.367584228516 -73.016395568848 -235.391601562500 0.810742914677
8.337723731995 -74.985801696777 -242.587951660156 1.295988917351
64.324081420898 -74.352622985840 -240.444747924805 0.373721271753
13.127058029175 -74.369964599609 -243.879211425781 1.402944207191
-161.581588745117 -72.707801818848 -239.921646118164 1.168688535690
-48.898807525635 -73.490402221680 -243.235549926758 1.040193676949
2.083115100861 -80.080169677734 -245.777282714844 1.354596138000
16.426469802856 -74.138801574707 -244.623947143555 1.431932568550
-54.925342559814 -72.979057312012 -246.232177734375 1.263739228249
-4.266451835632 -73.586914062500 -244.451614379883 1.796162128448
21.283664703369 -75.167198181152 -245.392044067383 1.674114465714
-164.957489013672 -73.166732788086 -248.498916625977 0.793157994747
-71.104393005371 -75.083877563477 -246.180404663086 1.242544054985
-50.392990112305 -74.561317443848 -246.278167724609 0.995453298092
-78.729530334473 -74.614898681641 -248.502365112305 0.663013756275
-159.635284423828 -72.920097351074 -248.076263427734 1.456496953964
-150.917694091797 -73.509986877441 -252.278839111328 0.742580175400
-59.416915893555 -74.912376403809 -248.799407958984 0.935308277607
-68.979827880859 -74.332397460938 -251.130447387695 0.706175148487
-153.589462280273 -72.970321655273 -253.779190063477 0.674991011620
-151.929138183594 -72.977798461914 -252.738296508789 0.672206521034
-77.655006408691 -74.118057250977 -253.111633300781 0.653621017933
-93.324775695801 -73.403961181641 -252.816680908203 1.809383153915
-166.182464599609 -72.923652648926 -250.488525390625 0.961756706238
-155.957717895508 -73.104156494141 -257.578674316406 1.526087045670
-133.875793457031 -73.619972229004 -255.293502807617 0.559980809689
-82.892990112305 -74.738204956055 -253.348495483398 0.400366216898
-162.869094848633 -73.106063842773 -252.156127929688 2.067530632019
-142.157379150391 -73.628845214844 -256.443084716797 0.224488526583
-86.087837219238 -73.480621337891 -254.962478637695 0.817090213299
-95.497764587402 -71.610435485840 -257.895629882813 0.562252104282
-148.031250000000 -73.487472534180 -257.346557617188 0.190648272634
-95.075996398926 -73.380485534668 -256.439941406250 0.482360601425
-149.528503417969 -73.157852172852 -257.241912841797 0.605420827866
-100.020294189453 -73.354095458984 -256.864044189453 0.494654953480
-164.971649169922 -73.519790649414 -259.509857177734 0.715049445629
-160.411590576172 -73.227394104004 -259.317871093750 0.682128965855
-124.078056335449 -73.391807556152 -257.314270019531 0.512491941452
-150.394714355469 -72.824089050293 -259.417785644531 0.803517937660
-114.915237426758 -73.390403747559 -260.510742187500 0.501595973969
-14.932405471802 -75.012435913086 -260.807373046875 1.099242091179
-142.771224975586 -73.388031005859 -261.840209960938 0.556375384331
-124.173393249512 -73.618858337402 -260.164581298828 0.492406159639
-155.410369873047 -73.218009948730 -261.877838134766 0.628596007824
21.847797393799 -75.119438171387 -267.407043457031 1.524451017380
-147.004058837891 -74.650863647461 -277.663696289063 0.397361963987
-167.163619995117 -73.559875488281 -277.251983642578 1.104460358620
-6.894246101379 -76.926567077637 -278.029327392578 1.356103062630
-146.964370727539 -74.710731506348 -282.351257324219 0.902086496353
-7.497124195099 -74.446907043457 -281.587829589844 2.083920717239
13.025356292725 -74.035957336426 -283.977600097656 0.711788177490
-135.685791015625 -74.498176574707 -286.265655517578 0.858695089817
-71.369018554688 -74.339057922363 -285.733886718750 0.820034503937
-33.138675689697 -74.865097045898 -285.371612548828 1.107903003693
-113.437568664551 -73.284896850586 -287.059814453125 0.490935504436
-92.361007690430 -74.747100830078 -290.361083984375 0.207494631410
-90.984191894531 -73.800659179688 -290.895996093750 1.131576538086
-47.832099914551 -75.087677001953 -290.123626708984 1.569699048996
-115.631149291992 -74.203659057617 -290.710327148438 0.803106904030
-110.534164428711 -74.185493469238 -290.168823242188 1.379542112350
-31.796623229980 -74.166809082031 -290.514709472656 0.988787889481
-113.063232421875 -72.741294860840 -291.623443603516 0.662233233452
-124.707077026367 -72.624931335449 -292.255981445313 0.579468488693
-143.378051757813 -73.838401794434 -292.333099365234 0.362928420305
7.668613910675 -73.895950317383 -291.566772460938 1.381740689278
14.491402626038 -75.986007690430 -292.885406494141 1.461497783661
-156.954757690430 -74.121482849121 -294.107269287109 0.948202013969
-154.499298095703 -75.495239257813 -300.751037597656 1.057793378830
-144.182342529297 -74.554466247559 -311.537170410156 0.314391702414
-149.859619140625 -72.266540527344 -312.028564453125 0.353267341852
-151.880767822266 -76.907943725586 -312.352416992188 0.871302604675
28.380487442017 -71.977645874023 -15.353368759155 1.207964301109
23.415706634521 -71.918701171875 -15.196730613708 1.851917386055
20.241025924683 -72.126808166504 -21.257768630981 1.076323151588
26.991510391235 -72.078109741211 -38.126228332520 1.281287550926
-58.186660766602 -70.468299865723 -48.331489562988 1.057172536850
-67.133331298828 -70.604942321777 -48.887386322021 0.833917021751
-39.601196289063 -71.616661071777 -51.703723907471 1.390740990639
-82.249702453613 -72.515441894531 -58.083126068115 2.307267427444
81.435729980469 -74.829635620117 -70.506195068359 1.863449096680
-20.416248321533 -74.045318603516 -69.617904663086 1.802066802979
87.581626892090 -74.334777832031 -69.579994201660 1.969361782074
96.223258972168 -73.011390686035 -77.190025329590 1.368492126465
-94.538215637207 -71.578399658203 -78.366714477539 0.708250820637
69.209815979004 -72.921737670898 -78.602958679199 1.246177315712
-43.992324829102 -75.592689514160 -83.120468139648 1.924873232841
98.778488159180 -71.316062927246 -82.185226440430 1.822568058968
-53.904773712158 -73.699760437012 -88.580123901367 1.880104541779
51.805461883545 -73.064331054688 -88.788566589355 2.103736639023
71.311248779297 -74.286956787109 -90.234336853027 2.340194225311
56.859352111816 -73.609146118164 -95.733970642090 2.219377517700
52.035213470459 -74.989570617676 -96.558494567871 1.435088992119
71.842796325684 -74.833244323730 -93.210075378418 1.787657260895
44.434680938721 -74.049346923828 -98.877929687500 1.696655035019
103.190437316895 -74.127822875977 -96.831268310547 1.242359757423
106.041053771973 -74.707077026367 -102.487098693848 0.820205330849
82.670097351074 -70.559226989746 -101.015350341797 1.866966485977
87.753097534180 -74.382011413574 -99.312957763672 1.493612289429
101.030303955078 -73.467254638672 -95.796401977539 2.635371685028
107.802337646484 -72.819442749023 -100.811546325684 0.919420480728
38.329193115234 -74.712547302246 -104.024612426758 2.321228265762
110.159797668457 -71.994621276855 -117.964340209961 0.895946323872
111.862838745117 -74.398117065430 -115.814826965332 2.694724082947
32.496570587158 -73.603477478027 -120.540649414063 0.890596926212
44.267284393311 -73.922790527344 -118.461006164551 2.183907508850
114.434989929199 -73.521415710449 -124.922752380371 0.754126012325
38.944530487061 -73.759979248047 -124.980003356934 2.237772464752
111.753067016602 -73.719764709473 -126.760414123535 1.137583374977
109.436317443848 -73.604263305664 -120.044212341309 1.543080091476
24.757398605347 -72.079483032227 -136.858947753906 2.217862129211
-50.160411834717 -73.108345031738 -134.624511718750 0.957465231419
-52.801944732666 -72.265541076660 -135.187057495117 1.497827172279
110.457771301270 -72.859428405762 -132.104812622070 1.431185960770
-72.165657043457 -73.664024353027 -141.573165893555 1.382643103600
-75.495292663574 -73.806732177734 -139.755752563477 1.239741325378
-57.766895294189 -73.871162414551 -143.514343261719 2.127695560455
33.251377105713 -72.255294799805 -140.047424316406 1.844390749931
111.115982055664 -73.588043212891 -141.937347412109 2.080082416534
-68.626502990723 -72.011978149414 -145.510437011719 1.392940998077
-46.409004211426 -71.727966308594 -143.922592163086 0.962497353554
33.961261749268 -74.556076049805 -147.415786743164 1.353120565414
-68.228096008301 -73.644348144531 -147.451721191406 0.807285785675
113.112716674805 -73.633171081543 -141.666778564453 1.554880976677
112.368927001953 -73.428428649902 -154.953186035156 1.211125850677
115.831748962402 -74.732582092285 -148.609085083008 1.322624802589
-38.468090057373 -73.785537719727 -153.266769409180 0.642349660397
-66.314292907715 -73.949020385742 -161.981613159180 1.940062403679
-72.823692321777 -73.409477233887 -155.767700195313 1.317154288292
31.688432693481 -74.238052368164 -148.432418823242 1.762775659561
-2.415143013000 -74.718391418457 -161.272735595703 2.351547718048
107.518508911133 -75.213546752930 -157.854583740234 1.525978803635
110.869926452637 -73.544754028320 -151.969284057617 1.572404980659
111.321121215820 -73.153442382813 -154.475830078125 0.866235911846
-65.409149169922 -70.884559631348 -162.567199707031 1.254207611084
-46.337245941162 -74.253501892090 -160.792587280273 1.814012289047
-0.578534007072 -72.458244323730 -163.794555664063 1.061156034470
-26.626615524292 -72.553367614746 -173.733566284180 2.571496009827
106.266571044922 -74.159934997559 -164.034194946289 2.317092418671
-37.272026062012 -73.520256042480 -159.550979614258 0.825542628765
110.181503295898 -73.620094299316 -167.665374755859 0.741177499294
-41.920974731445 -74.141792297363 -171.711502075195 0.831521391869
109.451538085938 -73.485069274902 -164.458633422852 2.450271844864
-148.822708129883 -73.109542846680 -181.861267089844 1.293036460876
-28.999877929688 -72.063751220703 -174.734146118164 1.838183999062
-21.699264526367 -72.856376647949 -181.320114135742 1.815442204475
25.043266296387 -74.482452392578 -176.072769165039 1.293725609779
16.117956161499 -74.871353149414 -180.552719116211 1.237072706223
25.894689559937 -73.641632080078 -181.979965209961 0.985295414925
106.734954833984 -73.723632812500 -180.104141235352 0.446000844240
-151.157287597656 -72.277641296387 -187.049591064453 1.114376544952
-20.668142318726 -75.011482238770 -187.877990722656 1.669036865234
103.569381713867 -73.076980590820 -176.490661621094 1.669338703156
103.484657287598 -73.736610412598 -188.507141113281 1.099192976952
106.427391052246 -73.607650756836 -177.686676025391 1.809360027313
97.157661437988 -75.215522766113 -192.602249145508 2.362428188324
-152.123626708984 -75.926948547363 -194.136093139648 1.165791869164
100.626800537109 -75.035926818848 -201.890243530273 1.424802541733
-28.400993347168 -71.799278259277 -193.652526855469 1.199405789375
99.269447326660 -73.688835144043 -195.641830444336 2.084279775620
-124.777336120605 -72.924980163574 -197.581115722656 1.007898092270
-29.311553955078 -76.202919006348 -191.812454223633 2.422533512115
-140.984405517578 -71.931251525879 -198.296295166016 1.057830810547
94.227912902832 -74.378929138184 -198.002990722656 1.821271777153
9.029015541077 -75.169052124023 -196.773147583008 1.367365241051
22.652360916138 -74.210281372070 -192.745208740234 2.157394886017
-146.969406127930 -70.701622009277 -200.751190185547 0.798591911793
-141.099197387695 -71.756561279297 -201.205398559570 0.990302979946
-10.977577209473 -73.265907287598 -202.516799926758 1.324408650398
-124.579627990723 -73.210952758789 -200.864929199219 1.158526778221
-143.097167968750 -76.125473022461 -203.868637084961 1.039637804031
7.873129844666 -73.375503540039 -199.736740112305 1.095108151436
-21.737392425537 -75.006881713867 -201.482055664063 0.915808677673
19.938964843750 -74.213096618652 -202.443740844727 1.067593455315
8.345872879028 -73.803764343262 -208.545867919922 1.566947221756
89.603355407715 -75.008987426758 -205.736083984375 1.997991442680
-19.295886993408 -72.167274475098 -210.703475952148 1.599108219147
92.404808044434 -73.602294921875 -206.726303100586 1.906400561333
95.302986145020 -73.686836242676 -204.941360473633 2.970210552216
-150.231826782227 -72.253227233887 -215.885665893555 0.955766141415
96.051033020020 -73.915054321289 -209.451980590820 1.863251566887
6.269452095032 -74.617988586426 -207.972839355469 0.890363931656
5.335953235626 -75.291534423828 -213.043182373047 2.047042846680
-34.588298797607 -73.185348510742 -207.933670043945 0.887771785259
-89.432006835938 -72.594924926758 -213.115615844727 1.873755455017
-28.238262176514 -72.935546875000 -211.344528198242 0.615190923214
84.458168029785 -74.757553100586 -213.257904052734 2.678256750107
87.220390319824 -73.702507019043 -217.272308349609 1.353069901466
-32.613842010498 -73.476913452148 -212.346359252930 0.449252158403
-85.416587829590 -72.354774475098 -215.949188232422 1.483467340469
-2.598292112350 -75.290985107422 -216.270339965820 0.733582496643
87.393417358398 -73.709426879883 -213.463775634766 1.091455578804
-150.848068237305 -72.021575927734 -222.764862060547 0.901124477386
-164.928649902344 -71.723709106445 -214.520385742188 1.498887419701
-159.540222167969 -71.784225463867 -223.247955322266 0.948338747025
-20.922018051147 -72.712181091309 -225.633911132813 0.587419092655
-152.457000732422 -71.743217468262 -223.518463134766 0.900091767311
-7.715277194977 -75.646263122559 -224.225875854492 0.927880406380
7.699275016785 -73.019813537598 -216.897323608398 0.586930811405
-163.770507812500 -72.013877868652 -224.662933349609 0.965096235275
-161.511627197266 -72.859306335449 -226.179824829102 0.940861523151
80.183120727539 -75.078109741211 -228.279708862305 1.950830817223
3.024530887604 -71.833236694336 -226.598052978516 1.973059058189
-154.566452026367 -71.779136657715 -225.843826293945 0.896648049355
-141.906326293945 -71.935783386230 -226.385055541992 0.845496952534
-19.821287155151 -74.227745056152 -223.195587158203 0.391046166420
2.314052104950 -76.962501525879 -224.025085449219 0.887230455875
80.567268371582 -73.877616882324 -221.681518554688 1.295753240585
-161.524627685547 -72.080345153809 -228.126358032227 0.906965196133
-147.100662231445 -72.180656433105 -227.956619262695 0.838281035423
-123.818939208984 -72.382423400879 -229.498916625977 1.033772706985
80.167434692383 -73.213172912598 -225.596694946289 0.882869899273
-115.116386413574 -72.077529907227 -228.578582763672 0.716998517513
-149.972183227539 -72.484985351563 -229.102691650391 0.488071680069
-149.245559692383 -71.848960876465 -230.593765258789 0.827207148075
-147.428817749023 -72.711463928223 -230.380203247070 0.435112714767
-155.745315551758 -71.973838806152 -229.165802001953 0.877628087997
-165.204223632813 -72.133895874023 -230.151275634766 0.959279656410
-135.066909790039 -71.182792663574 -232.668502807617 0.639346241951
-133.155014038086 -73.503028869629 -232.404891967773 0.718608081341
-154.825378417969 -71.948890686035 -231.877975463867 0.850100159645
-144.893402099609 -70.793052673340 -235.159469604492 0.872903823853
-152.387924194336 -72.064346313477 -234.825607299805 1.217462658882
74.091606140137 -73.843765258789 -228.875762939453 1.054573535919
67.959815979004 -73.172721862793 -236.026596069336 2.668541193008
-159.396789550781 -72.206825256348 -235.597854614258 0.856180608273
70.297180175781 -72.881660461426 -231.652359008789 1.348218321800
-18.261535644531 -74.101806640625 -235.904312133789 1.599273443222
9.959053993225 -73.446281433105 -233.895248413086 1.377736687660
5.874783039093 -74.421646118164 -234.880081176758 2.392584323883
-152.127136230469 -72.494606018066 -244.916748046875 1.272577166557
12.931509017944 -73.502655029297 -239.346450805664 1.399302482605
63.998855590820 -74.189773559570 -235.187988281250 1.886411905289
14.074783325195 -73.049339294434 -236.014907836914 2.036991596222
6.822716236115 -74.776962280273 -240.614349365234 1.852555751801
-5.911643981934 -74.142555236816 -240.300155639648 1.574458479881
-19.690130233765 -73.274856567383 -241.612823486328 1.343037724495
-0.154216006398 -73.279121398926 -242.680877685547 1.002983450890
2.719798088074 -74.692611694336 -241.779708862305 0.800172686577
57.780967712402 -73.953308105469 -240.860473632813 2.100446462631
-56.190757751465 -72.864868164063 -243.905685424805 0.615945637226
18.758977890015 -73.124824523926 -244.738830566406 1.578468203545
-61.270992279053 -74.400779724121 -243.645935058594 1.045741915703
-8.300113677979 -73.420196533203 -246.293762207031 1.110742449760
-64.355857849121 -71.954734802246 -249.099868774414 1.670303821564
-86.114692687988 -74.234565734863 -251.056106567383 0.810524761677
-82.662475585938 -72.606315612793 -248.896896362305 0.937664031982
-12.065442085266 -73.242370605469 -250.978332519531 1.159424901009
-124.102661132813 -72.136291503906 -255.018463134766 0.523474276066
-13.861468315125 -74.628852844238 -254.131301879883 1.293016314507
-116.670372009277 -73.306213378906 -257.007812500000 0.503298878670
-114.084281921387 -72.766365051270 -257.957946777344 0.492029666901
-102.732833862305 -72.727752685547 -259.007110595703 1.074720621109
-144.464553833008 -72.890174865723 -264.242340087891 0.541208624840
-145.260055541992 -71.987800598145 -265.628601074219 0.533360302448
-167.487762451172 -72.522277832031 -264.508422851563 1.779000878334
16.951362609863 -75.378967285156 -278.337249755859 0.879052698612
-53.912384033203 -73.100677490234 -285.111694335938 0.765845656395
-65.109199523926 -72.826828002930 -285.311218261719 0.662165343761
-41.489315032959 -74.587707519531 -285.140014648438 1.544302105904
-29.412921905518 -74.989791870117 -284.142913818359 1.186762213707
-96.677864074707 -73.023300170898 -286.383941650391 1.826519131660
-28.861116409302 -72.698585510254 -286.407440185547 0.496782839298
-4.321195125580 -74.639244079590 -285.934448242188 0.955060660839
-166.947998046875 -72.293556213379 -288.833251953125 0.653149902821
-11.007369995117 -74.483383178711 -285.658538818359 1.290653824806
8.353200912476 -74.673377990723 -286.798950195313 1.401424288750
14.896523475647 -75.291175842285 -287.447906494141 1.314867377281
-56.256114959717 -73.211120605469 -290.132751464844 0.748855113983
-29.551271438599 -72.582702636719 -289.633209228516 1.723141193390
14.553315162659 -72.930427551270 -290.516662597656 0.756672799587
-69.159362792969 -73.457534790039 -290.525146484375 1.780417442322
-36.381103515625 -73.111869812012 -289.992919921875 0.938713371754
-16.919202804565 -72.618835449219 -289.868011474609 0.981538832188
16.791650772095 -74.873939514160 -288.740203857422 1.108048081398
-10.060726165771 -73.670608520508 -290.747192382813 1.841218113899
3.681308984756 -72.697898864746 -290.825286865234 0.935797810555
14.523438453674 -73.580413818359 -292.179443359375 1.333212733269
-134.260101318359 -72.014205932617 -294.391540527344 0.308773458004
-144.076065063477 -74.467887878418 -301.011077880859 0.411981761456
