11.910022735596 -71.773735046387 -225.319808959961 0.892443180084
-133.383956909180 -70.389595031738 -225.155151367188 1.051748275757
-116.707450866699 -71.150978088379 -225.623703002930 1.060934424400
15.956789970398 -71.313949584961 -222.349929809570 1.433911919594
76.592681884766 -72.534393310547 -224.783828735352 1.561980724335
7.795007228851 -70.686004638672 -223.421752929688 0.861558437347
-111.542762756348 -71.044273376465 -230.444442749023 1.206131219864
77.062019348145 -72.593582153320 -228.623245239258 1.543124437332
81.443000793457 -72.757896423340 -229.847702026367 1.221430182457
-123.134033203125 -70.653884887695 -232.552017211914 1.062946796417
-113.873741149902 -71.155479431152 -231.743942260742 0.821963191032
-11.181647300720 -71.498443603516 -231.183288574219 0.912158191204
72.011993408203 -73.422149658203 -228.997726440430 1.232334733009
64.885871887207 -73.119140625000 -235.092666625977 1.352021813393
75.337631225586 -72.355537414551 -231.546005249023 1.374208927155
-133.062225341797 -69.584259033203 -235.079177856445 0.944503307343
72.034820556641 -72.886154174805 -235.596954345703 0.939357161522
67.052070617676 -72.310127258301 -236.197708129883 1.933295488358
-166.337432861328 -70.462043762207 -229.427841186523 0.774889290333
0.431618988514 -74.298767089844 -239.151779174805 0.566837966442
17.209535598755 -72.232124328613 -240.602432250977 0.742753565311
-5.742825031281 -71.145904541016 -239.555969238281 0.541465044022
13.722785949707 -71.048301696777 -239.686965942383 0.706751644611
64.690498352051 -73.167686462402 -239.163528442383 1.318239688873
11.477026939392 -71.929580688477 -241.477600097656 0.909996986389
-9.674691200256 -68.181938171387 -242.175781250000 0.434926688671
1.699118971825 -70.440483093262 -241.175537109375 1.024716496468
65.214187622070 -73.377403259277 -243.348953247070 1.522165536880
5.872922897339 -73.382812500000 -243.208236694336 0.300343066454
-8.498271942139 -72.232231140137 -243.553390502930 0.445323467255
13.719090461731 -72.090629577637 -244.983169555664 1.012578725815
-167.215332031250 -69.373985290527 -241.684936523438 0.963423430920
59.120140075684 -71.070884704590 -247.813110351563 1.482509970665
52.176982879639 -71.216247558594 -247.751052856445 1.394686937332
55.745067596436 -73.145454406738 -242.645538330078 0.918152689934
-11.912811279297 -71.972175598145 -248.300918579102 0.968660354614
57.535400390625 -73.413200378418 -247.331756591797 1.983119249344
-72.661476135254 -70.331741333008 -248.509429931641 0.194470152259
51.797515869141 -72.674667358398 -249.973937988281 1.097186565399
-90.722084045410 -71.738533020020 -252.227157592773 0.918931424618
-125.468299865723 -71.659660339355 -254.713226318359 1.227995157242
-133.082443237305 -69.742362976074 -254.572769165039 1.317982435226
44.085731506348 -72.692070007324 -252.976867675781 1.169547319412
-135.689392089844 -71.131057739258 -256.161987304688 1.154010534286
-110.411643981934 -71.142127990723 -257.381927490234 0.892180442810
-113.539283752441 -69.003601074219 -257.187957763672 0.658374369144
-82.556335449219 -71.520462036133 -255.547424316406 1.319306015968
-111.696487426758 -71.839126586914 -261.301757812500 1.485456466675
-123.792518615723 -71.695075988770 -262.431640625000 1.301453471184
-145.057312011719 -68.613761901855 -266.444244384766 1.538959383965
-15.318650245667 -71.559143066406 -262.415466308594 0.143283277750
-167.688781738281 -69.586761474609 -264.246520996094 0.777094423771
-13.988348007202 -72.280357360840 -272.248413085938 1.125192403793
-159.560485839844 -68.743186950684 -267.924468994141 1.915196776390
-152.547119140625 -68.822593688965 -275.681304931641 2.025997877121
-168.170623779297 -69.835304260254 -277.719635009766 2.265121221542
-12.532431602478 -70.451927185059 -275.343536376953 1.069753289223
-133.654113769531 -71.053581237793 -284.255065917969 0.443489909172
-159.720855712891 -69.509971618652 -286.473663330078 1.804895520210
-145.324081420898 -69.679168701172 -282.208557128906 1.298033118248
-134.860580444336 -72.644859313965 -285.171539306641 1.457603454590
-8.112719535828 -69.810874938965 -285.410858154297 1.717070937157
-125.349601745605 -73.003257751465 -284.827545166016 1.409024000168
-141.501083374023 -70.718605041504 -285.618896484375 1.329667687416
-116.398033142090 -70.224624633789 -286.492492675781 0.624130010605
-75.594230651855 -71.023094177246 -286.748138427734 0.819020807743
-62.359737396240 -69.862327575684 -287.752685546875 0.992301702499
-5.370820045471 -71.537704467773 -288.465576171875 0.583657741547
-52.744747161865 -70.493728637695 -289.672882080078 0.837279975414
-57.897884368896 -69.934234619141 -289.009704589844 0.625504434109
-68.834945678711 -69.713165283203 -290.791320800781 0.862649559975
-86.479370117188 -71.145210266113 -291.731719970703 1.098355174065
-98.047477722168 -68.121597290039 -291.282501220703 1.590347886086
-162.043395996094 -68.159942626953 -291.700469970703 2.266637325287
-162.505065917969 -70.694572448730 -292.569549560547 1.515253901482
-125.534095764160 -71.238052368164 -295.158966064453 1.837351560593
-145.149185180664 -70.916168212891 -296.448608398438 1.699237585068
-155.602172851563 -71.100906372070 -301.371978759766 1.699788570404
-147.309738159180 -69.743644714355 -313.572235107422 1.697326421738
47.228195190430 -72.549926757813 -17.885522842407 2.009424448013
19.814880371094 -74.075912475586 -27.252689361572 2.093573331833
41.145092010498 -73.229667663574 -34.130935668945 2.284572124481
-16.961656570435 -74.797164916992 -67.239089965820 1.636428594589
82.190025329590 -72.909751892090 -65.683799743652 3.109975576401
85.718139648438 -71.952873229980 -66.269287109375 1.894344449043
76.624687194824 -72.815727233887 -66.484214782715 2.592969179153
73.887977600098 -73.104148864746 -68.531677246094 2.451605081558
91.601402282715 -76.425636291504 -73.423904418945 2.380281448364
-93.628021240234 -70.331459045410 -70.604171752930 1.887213826180
70.670219421387 -74.508666992188 -76.211448669434 2.491162776947
-36.814098358154 -70.340667724609 -77.088783264160 0.816304147243
100.138725280762 -74.186233520508 -87.001686096191 2.015325307846
59.783714294434 -73.068550109863 -90.522178649902 1.830774664879
106.154197692871 -75.012413024902 -96.298873901367 2.442822217941
104.905052185059 -73.452369689941 -97.958129882813 0.328684628010
70.490859985352 -72.387130737305 -99.554939270020 1.900002717972
-77.370964050293 -73.824691772461 -99.621337890625 1.393129229546
54.169902801514 -74.335662841797 -101.848510742188 0.891785740852
105.266342163086 -73.199592590332 -105.092880249023 1.999539375305
48.868717193604 -74.876251220703 -109.991149902344 1.576746344566
80.407699584961 -72.655174255371 -104.276123046875 2.505059957504
42.047492980957 -72.539749145508 -106.692420959473 1.903809189796
106.945877075195 -72.578918457031 -103.705955505371 2.022606849670
47.831054687500 -71.655410766602 -107.902450561523 1.474744677544
109.339385986328 -73.616729736328 -111.383697509766 1.423143386841
109.102729797363 -72.946762084961 -113.880065917969 1.200665116310
-78.228729248047 -71.045448303223 -114.158378601074 0.913352847099
-82.326782226563 -71.188682556152 -117.669212341309 1.682175874710
44.293861389160 -74.117294311523 -120.983375549316 1.137929558754
114.125946044922 -73.777648925781 -118.743141174316 1.147486209869
114.321403503418 -71.960678100586 -124.006690979004 1.569567799568
-84.297065734863 -70.874473571777 -127.650115966797 1.385398268700
107.516372680664 -72.909378051758 -123.719535827637 2.600986242294
-58.771045684814 -72.614509582520 -131.750045776367 1.293904900551
-86.026954650879 -70.879974365234 -126.409202575684 1.355636835098
-75.387084960938 -70.106300354004 -128.099594116211 0.812392175198
-57.487873077393 -68.549491882324 -126.849777221680 0.968815803528
31.063684463501 -71.366111755371 -129.211624145508 2.221687078476
39.474063873291 -73.869285583496 -132.981964111328 1.597386837006
-75.769721984863 -70.765655517578 -137.431182861328 2.027272701263
28.692880630493 -72.265205383301 -132.935516357422 1.437988996506
109.951225280762 -72.826629638672 -139.958465576172 1.237048506737
-43.233116149902 -70.744438171387 -146.382369995117 0.641176164150
25.726932525635 -69.954376220703 -147.919448852539 1.112249851227
115.303146362305 -72.016532897949 -145.704895019531 1.618412494659
34.817314147949 -71.828826904297 -143.555892944336 1.496373295784
111.449058532715 -71.825790405273 -142.926162719727 1.711795926094
-53.232028961182 -72.424377441406 -149.064575195313 1.338353037834
-67.605369567871 -70.560165405273 -150.151702880859 1.318347215652
-51.107677459717 -71.494209289551 -155.229812622070 2.409027814865
-41.055240631104 -71.406509399414 -165.006896972656 2.375536203384
6.733753204346 -70.520919799805 -156.258056640625 1.316008329391
111.612274169922 -71.795906066895 -154.505722045898 1.194906711578
110.025848388672 -72.520477294922 -157.836883544922 1.592819094658
8.690093994141 -70.227165222168 -158.637680053711 2.118907690048
5.551745891571 -72.994003295898 -162.802459716797 1.014108300209
16.064399719238 -73.104598999023 -157.218872070313 1.483844995499
25.170587539673 -71.161071777344 -155.852493286133 1.362549304962
111.217361450195 -71.680221557617 -166.231185913086 2.254622459412
107.526069641113 -73.570236206055 -168.178665161133 0.836819469929
23.912294387817 -70.199172973633 -171.749755859375 1.367417216301
26.391023635864 -71.255950927734 -161.887924194336 1.437891840935
113.519844055176 -71.895202636719 -161.912963867188 2.014127254486
-27.680288314819 -70.776878356934 -174.515579223633 1.699100375175
109.750198364258 -71.947746276855 -168.529937744141 0.840075552464
17.137390136719 -72.225547790527 -171.980865478516 1.175907611847
22.212116241455 -71.214729309082 -165.554824829102 1.276827454567
109.604156494141 -71.810920715332 -173.568115234375 2.643749475479
25.732114791870 -71.194503784180 -171.167617797852 1.283222436905
110.151931762695 -73.120986938477 -181.716262817383 1.390780806541
-37.553039550781 -70.137947082520 -174.944061279297 2.387407779694
27.073650360107 -70.609985351563 -173.996597290039 1.546539545059
107.093757629395 -71.892120361328 -182.639663696289 1.253360748291
24.101667404175 -71.895935058594 -181.182388305664 1.059468984604
-152.552780151367 -69.353263854980 -187.356781005859 1.112322568893
-28.469108581543 -69.405715942383 -188.396224975586 1.419262886047
25.477052688599 -71.220993041992 -184.530288696289 2.207102060318
-110.825904846191 -69.842407226563 -191.346267700195 1.648630261421
-109.019248962402 -69.539825439453 -189.236343383789 0.646669685841
22.090543746948 -71.343109130859 -189.870132446289 0.681602895260
13.293714523315 -71.955978393555 -185.758392333984 1.040968537331
-26.442207336426 -70.913345336914 -189.887893676758 0.874301731586
-30.541114807129 -71.724899291992 -189.190231323242 0.882090628147
-26.330047607422 -70.773399353027 -185.618621826172 0.816439867020
18.016592025757 -71.048919677734 -179.914443969727 2.227106094360
-150.774856567383 -69.655494689941 -193.844924926758 1.164116144180
-143.569366455078 -69.994773864746 -194.007751464844 0.808680951595
-140.807449340820 -69.961181640625 -196.760925292969 1.107315421104
-21.547719955444 -70.379776000977 -191.407211303711 0.804041862488
12.612863540649 -71.006423950195 -199.440673828125 1.485224843025
99.730316162109 -72.448554992676 -194.780029296875 1.843947887421
-113.802543640137 -70.032447814941 -198.407379150391 0.785559773445
21.568321228027 -71.642578125000 -199.422622680664 1.502730607986
-17.672220230103 -70.661239624023 -196.882369995117 0.611572384834
-18.272651672363 -69.543724060059 -199.216583251953 1.583130359650
100.223495483398 -71.909408569336 -198.677536010742 2.022654294968
9.473342895508 -70.977096557617 -201.162780761719 1.121338963509
-21.405895233154 -69.704895019531 -196.226516723633 0.572532176971
-122.365058898926 -71.139419555664 -201.321075439453 0.798618197441
-133.505737304688 -69.148605346680 -203.662750244141 1.012443184853
-113.525093078613 -69.098594665527 -203.374893188477 0.614634871483
-141.900970458984 -70.039657592773 -203.948120117188 1.117689847946
18.883438110352 -70.848693847656 -197.688613891602 1.924481034279
95.866676330566 -71.551666259766 -205.163391113281 2.206739664078
-166.504730224609 -67.874595642090 -203.900344848633 1.282101273537
99.924858093262 -72.515617370605 -203.517517089844 1.362440586090
-18.733400344849 -71.039352416992 -207.471221923828 0.539201259613
94.611404418945 -72.695236206055 -212.855041503906 1.305583953857
87.952903747559 -71.307991027832 -214.971801757813 1.615251660347
14.755266189575 -70.763404846191 -210.541198730469 2.156989336014
18.353706359863 -71.724105834961 -210.716491699219 1.586721062660
12.139240264893 -70.565666198730 -207.350845336914 1.796781301498
-10.702295303345 -71.341201782227 -220.634292602539 0.908043026924
-95.272789001465 -69.417785644531 -217.025863647461 1.054612278938
-7.475464820862 -71.238433837891 -214.241607666016 1.537926793098
91.031738281250 -71.184753417969 -214.741378784180 2.548050165176
-92.054191589355 -69.968765258789 -219.807144165039 0.962021887302
-103.023643493652 -70.258056640625 -220.160125732422 0.782609879971
-91.552192687988 -72.407600402832 -220.531875610352 1.842492222786
86.844665527344 -71.188362121582 -221.425140380859 1.383767485619
-134.314590454102 -68.975135803223 -225.362930297852 0.459775030613
-134.340805053711 -68.430183410645 -225.359451293945 0.495632052422
-116.801467895508 -68.910652160645 -225.278762817383 0.875486850739
-112.546989440918 -68.108428955078 -226.200378417969 0.705400764942
-134.222732543945 -69.986106872559 -226.347930908203 1.158966183662
-109.110328674316 -71.679801940918 -226.615310668945 1.468768477440
-113.598533630371 -70.663238525391 -227.791320800781 0.803900182247
-6.440501213074 -71.114456176758 -226.127685546875 0.982137739658
-17.058925628662 -70.682640075684 -223.484481811523 0.579791128635
-1.125779032707 -70.825683593750 -231.771667480469 1.464199542999
-10.361797332764 -70.062232971191 -227.567855834961 0.509692728519
14.959394454956 -70.981361389160 -232.965072631836 0.846923947334
-16.409614562988 -70.439575195313 -228.927551269531 0.166013866663
-166.725311279297 -68.008537292480 -225.110916137695 1.325443267822
-1.962509989738 -69.421783447266 -233.208618164063 0.566624104977
80.495262145996 -71.372528076172 -229.891693115234 0.959307491779
9.395087242126 -71.336715698242 -234.644821166992 0.900596082211
-6.639313220978 -70.162429809570 -234.132904052734 0.511941432953
-156.365829467773 -67.852668762207 -237.810577392578 1.498559951782
-140.584915161133 -68.955436706543 -233.732589721680 0.905768394470
65.219268798828 -70.280761718750 -235.148147583008 1.544267296791
-5.705433845520 -71.575263977051 -235.973312377930 1.719893455505
6.570932865143 -71.626403808594 -233.568664550781 0.822440147400
69.333358764648 -71.431808471680 -235.306045532227 1.404755353928
77.171447753906 -73.094200134277 -234.191879272461 1.224131822586
70.113502502441 -72.010086059570 -240.062820434570 1.384105920792
-0.933122992516 -71.204597473145 -237.584609985352 0.283316880465
57.268676757813 -71.440010070801 -240.370010375977 1.781304001808
-18.441015243530 -71.120803833008 -239.330780029297 1.588494181633
-16.678365707397 -70.765785217285 -241.718429565430 1.156028747559
8.985325813293 -70.930412292480 -241.124481201172 0.486813873053
66.130020141602 -72.127449035645 -240.270263671875 1.315852046013
62.262702941895 -71.234107971191 -239.782684326172 1.612630248070
51.195495605469 -70.899940490723 -247.191879272461 1.989460468292
61.486732482910 -72.378501892090 -243.372543334961 1.510196089745
-15.840076446533 -70.999954223633 -251.108535766602 0.368958622217
-83.056068420410 -69.634170532227 -250.548049926758 1.120248436928
-76.662322998047 -69.137962341309 -252.086151123047 2.544021129608
44.694023132324 -71.954010009766 -249.493774414063 1.060362815857
-144.666381835938 -68.731994628906 -252.276931762695 0.813929140568
37.207187652588 -71.815307617188 -255.326751708984 1.138917207718
-91.472595214844 -69.616142272949 -252.222045898438 1.675330281258
-154.637634277344 -68.156532287598 -256.061096191406 1.646371603012
-141.049987792969 -68.781974792480 -255.633850097656 0.759776830673
48.228553771973 -72.009956359863 -253.021713256836 1.034468889236
-123.992530822754 -66.908378601074 -257.129577636719 0.764659345150
-115.483665466309 -67.999938964844 -256.822448730469 0.858708083630
-93.468757629395 -68.098381042480 -258.122070312500 1.190442800522
-14.638912200928 -70.607124328613 -254.734481811523 0.348286986351
31.568878173828 -71.184272766113 -259.077270507813 0.796995520592
24.936473846436 -70.193618774414 -260.728210449219 0.935285568237
-157.026916503906 -68.546707153320 -259.556396484375 2.082691192627
-115.000511169434 -71.073410034180 -262.979156494141 0.926364779472
-14.593343734741 -69.883026123047 -262.004425048828 0.307839065790
-134.124404907227 -69.468276977539 -265.064270019531 1.512598156929
-13.419921875000 -69.708915710449 -270.796875000000 0.136485084891
-166.879394531250 -67.867073059082 -274.905059814453 1.862797260284
-9.338333129883 -71.141349792480 -281.642242431641 0.281822651625
-162.291168212891 -67.904457092285 -288.470275878906 1.885320305824
-162.223907470703 -67.583808898926 -277.827178955078 3.575100183487
-143.114288330078 -68.431037902832 -285.810607910156 1.152695417404
-167.722595214844 -68.952186584473 -285.264404296875 1.939803361893
13.316935539246 -70.556167602539 -287.152038574219 0.432646960020
-103.243377685547 -69.518531799316 -287.201629638672 2.902184247971
-86.444427490234 -69.351081848145 -287.313903808594 0.951476156712
-166.363662719727 -67.703330993652 -285.815948486328 2.814617156982
-90.869766235352 -68.270233154297 -288.057495117188 1.193032026291
-150.376800537109 -68.366851806641 -287.939056396484 1.740803122520
-72.885337829590 -68.804992675781 -288.967742919922 1.698296308517
-68.258590698242 -69.381843566895 -289.086334228516 0.745627462864
-81.265182495117 -68.745895385742 -290.817077636719 2.007478713989
-4.095576763153 -67.207344055176 -290.870910644531 1.070258140564
-84.482055664063 -69.497329711914 -291.373138427734 1.694841504097
-98.691131591797 -68.891815185547 -292.217834472656 1.130557656288
-113.753875732422 -69.626205444336 -292.739685058594 1.359861254692
-116.451026916504 -68.967414855957 -292.963287353516 0.709609150887
-134.231292724609 -66.656158447266 -294.182800292969 1.976080656052
-143.673751831055 -70.034553527832 -301.444488525391 1.248592972755
-143.851119995117 -70.113189697266 -311.701568603516 1.811793446541
23.714084625244 -73.206855773926 -16.846483230591 2.042701005936
31.106744766235 -71.951774597168 -17.838180541992 1.191358089447
28.948257446289 -73.144050598145 -19.345752716064 1.743990302086
43.448036193848 -73.316757202148 -22.707233428955 2.953615665436
26.870786666870 -73.134452819824 -32.079319000244 0.747936367989
-74.886344909668 -68.691116333008 -48.284511566162 1.520839929581
90.133201599121 -70.814559936523 -64.383575439453 2.694827318192
-14.998167991638 -72.557662963867 -68.972434997559 1.461146593094
100.357078552246 -70.497016906738 -72.169914245605 2.166345834732
97.301437377930 -74.740493774414 -75.978988647461 2.788825511932
69.084480285645 -74.168670654297 -78.289535522461 2.424626350403
67.665542602539 -73.152763366699 -83.884765625000 2.491556882858
-45.017345428467 -72.950912475586 -83.740867614746 0.449983119965
62.085708618164 -71.720039367676 -84.696289062500 1.833089232445
-95.749290466309 -70.655258178711 -87.747772216797 1.300253391266
-51.521766662598 -69.571655273438 -87.067153930664 1.287312388420
-55.068088531494 -76.684547424316 -91.903030395508 0.479496717453
98.775588989258 -74.351440429688 -96.425491333008 2.245629310608
57.970050811768 -73.748016357422 -95.406303405762 1.993171811104
63.776519775391 -71.417831420898 -91.721969604492 2.058812141418
-97.356346130371 -68.131378173828 -96.887092590332 1.290058135986
107.660545349121 -72.610374450684 -96.501289367676 1.109686136246
46.678173065186 -71.299247741699 -98.918975830078 2.052346944809
100.204284667969 -72.316810607910 -98.204429626465 1.181420922279
106.081726074219 -72.172492980957 -105.706420898438 0.974579215050
103.079238891602 -72.502418518066 -106.329956054688 1.327984929085
73.398757934570 -71.580741882324 -103.623397827148 2.048733949661
87.913742065430 -73.283409118652 -104.883232116699 2.192274808884
49.465179443359 -73.415405273438 -111.725418090820 1.343274950981
110.769844055176 -73.654266357422 -106.021148681641 1.710215091705
44.173038482666 -71.186805725098 -107.586860656738 2.000503778458
43.726352691650 -69.853752136230 -101.302406311035 1.653309345245
111.754974365234 -71.880348205566 -110.514915466309 2.384614706039
-78.980316162109 -70.181221008301 -111.377700805664 1.587899804115
46.910068511963 -71.781509399414 -113.501548767090 1.531442046165
37.152988433838 -71.275123596191 -114.008483886719 1.112432599068
104.696411132813 -70.998870849609 -109.685035705566 1.981758594513
42.423259735107 -69.399818420410 -111.836685180664 1.939570546150
-89.330184936523 -69.275733947754 -115.997406005859 0.978805601597
-96.165611267090 -69.486198425293 -116.062133789063 0.454233974218
107.056777954102 -71.462928771973 -118.322921752930 1.739632248878
-94.589126586914 -71.976676940918 -118.861030578613 0.472736418247
38.241371154785 -70.428550720215 -122.271667480469 1.709313273430
37.604339599609 -70.326515197754 -118.439872741699 0.859939038754
-81.020599365234 -69.122085571289 -125.274208068848 1.257980585098
31.093633651733 -70.085075378418 -136.173049926758 1.541642069817
108.877571105957 -73.163024902344 -131.424804687500 0.948527991772
-51.686012268066 -69.562271118164 -132.942077636719 2.362667798996
-88.691116333008 -69.629234313965 -129.922454833984 1.338591217995
37.439205169678 -71.695541381836 -133.983413696289 2.035726070404
-92.400787353516 -67.510215759277 -135.359008789063 1.095737457275
-90.025199890137 -69.484474182129 -138.298553466797 0.777741789818
-48.854454040527 -72.527397155762 -138.108123779297 0.333597958088
-70.438934326172 -69.614662170410 -140.966751098633 1.883308649063
-50.626079559326 -68.886291503906 -135.437835693359 0.620884716511
112.841064453125 -71.020965576172 -139.267135620117 2.165507078171
-75.134834289551 -69.703620910645 -140.627105712891 1.321592211723
35.055908203125 -70.157524108887 -132.828369140625 0.775690793991
-78.860893249512 -70.440437316895 -139.218399047852 0.387764126062
-74.758583068848 -68.642555236816 -136.941116333008 0.402651906013
-87.501701354980 -68.431282043457 -137.752212524414 1.174146175385
-51.803470611572 -70.744194030762 -149.676483154297 1.978450298309
31.390916824341 -69.947006225586 -145.918090820313 1.706907868385
27.935695648193 -69.213714599609 -150.776184082031 1.965747833252
17.570474624634 -69.492713928223 -144.583084106445 1.106094837189
113.426460266113 -71.551330566406 -146.881591796875 1.285167813301
-96.856117248535 -68.564765930176 -154.284088134766 1.744322776794
16.021717071533 -72.012329101563 -152.895172119141 1.437214136124
-72.230308532715 -69.313705444336 -151.407730102539 1.163786172867
23.140724182129 -71.164428710938 -151.162567138672 1.381102442741
-48.741222381592 -69.527679443359 -155.912048339844 2.054627180099
9.265969276428 -69.810325622559 -152.731857299805 1.200848937035
12.701574325562 -71.257568359375 -157.768630981445 1.167944312096
19.005741119385 -71.887832641602 -164.398391723633 1.371078610420
-45.907333374023 -70.311241149902 -161.607620239258 0.524236440659
-40.007316589355 -70.209236145020 -154.419464111328 0.924332439899
-44.684238433838 -68.935028076172 -159.700073242188 0.786161065102
-104.205413818359 -68.711334228516 -170.785018920898 0.502766311169
21.692323684692 -70.141166687012 -173.189437866211 2.424420595169
-36.181747436523 -68.944007873535 -173.240127563477 0.907934904099
15.464610099792 -71.053550720215 -178.680969238281 1.138674378395
-145.298019409180 -69.611541748047 -175.492507934570 0.990545094013
-33.138565063477 -68.865112304688 -173.719543457031 0.577539622784
-152.906677246094 -68.250686645508 -177.433288574219 1.216571807861
21.600280761719 -69.995956420898 -182.476837158203 2.734594345093
-31.066982269287 -69.208045959473 -173.502120971680 2.221086978912
-108.787284851074 -69.232368469238 -180.682907104492 1.995820045471
-107.276374816895 -69.183593750000 -182.727508544922 0.592878401279
-28.974435806274 -68.813850402832 -184.735885620117 0.392745167017
-22.581878662109 -70.814117431641 -182.405166625977 0.809560477734
16.311897277832 -69.864959716797 -190.033859252930 1.046562910080
18.496160507202 -69.935104370117 -195.173843383789 1.660202622414
14.896293640137 -69.104209899902 -186.620544433594 1.050322055817
-143.214370727539 -69.417556762695 -188.687805175781 1.041669249535
18.013292312622 -69.533355712891 -190.644699096680 1.073423385620
10.297223091125 -71.100028991699 -197.079086303711 1.070801377296
-139.982650756836 -67.998451232910 -196.200637817383 1.043487191200
-116.581542968750 -68.905364990234 -195.855178833008 0.766232728958
14.896577835083 -69.894165039063 -197.791976928711 2.614205360413
-112.985588073730 -69.178138732910 -196.893447875977 0.888737082481
-107.904754638672 -68.709884643555 -191.968338012695 2.647768974304
-163.133255004883 -68.963935852051 -197.966842651367 1.080237269402
-24.082641601563 -70.146881103516 -200.530746459961 2.594789743423
16.099216461182 -69.956657409668 -201.467071533203 2.049811363220
-139.919677734375 -67.911750793457 -203.807403564453 0.838242053986
-132.829437255859 -67.457679748535 -205.231781005859 1.009831428528
-17.565778732300 -69.460945129395 -206.726303100586 0.551618993282
-11.053622245789 -71.084236145020 -203.676635742188 1.169010639191
-16.100517272949 -69.111457824707 -206.418380737305 0.683470308781
-143.784179687500 -68.457344055176 -207.092041015625 1.155902624130
-15.242896080017 -71.020721435547 -213.289596557617 0.779095470905
-12.366285324097 -69.507019042969 -214.188110351563 0.564136564732
16.922494888306 -69.817878723145 -211.026504516602 1.538289070129
-11.516603469849 -69.470222473145 -211.384994506836 0.589779973030
10.911202430725 -68.774215698242 -211.818542480469 1.364780664444
-9.137885093689 -69.474433898926 -216.568008422852 0.634565651417
-17.359413146973 -69.841873168945 -212.871795654297 1.088605523109
14.274889945984 -69.972854614258 -221.802536010742 1.139624953270
-0.115823999047 -71.485443115234 -221.088378906250 0.359916865826
11.473134994507 -69.259109497070 -222.692077636719 0.979936659336
-5.136292934418 -69.542617797852 -225.104049682617 1.290619850159
-156.159072875977 -67.323646545410 -223.408401489258 1.649410009384
81.450752258301 -71.227455139160 -221.348251342773 1.643666744232
-134.335769653320 -68.021911621094 -225.327819824219 0.616102457047
-134.420700073242 -68.020660400391 -225.356948852539 0.618278384209
-8.812784194946 -70.144126892090 -225.814834594727 0.536208033562
11.578515052795 -70.379646301270 -231.985992431641 0.806241989136
-154.646118164063 -67.518730163574 -227.121597290039 0.496101617813
86.063835144043 -70.714820861816 -220.435714721680 1.679260134697
-2.807945013046 -69.572814941406 -225.102371215820 0.605025053024
0.678570985794 -70.624214172363 -225.833786010742 1.782533407211
74.306526184082 -71.380622863770 -227.501632690430 2.746349334717
1.418740987778 -69.618782043457 -233.129699707031 0.604750514030
-15.904698371887 -71.741065979004 -230.830657958984 1.596950411797
-124.738883972168 -70.053062438965 -235.287017822266 0.631198287010
-2.509844064713 -69.841369628906 -235.705444335938 0.555950284004
2.589193105698 -68.950942993164 -234.948928833008 1.071928024292
66.115669250488 -71.052444458008 -239.155181884766 0.753732502460
-158.202713012695 -66.800621032715 -239.812362670898 1.532655000687
-11.010467529297 -71.274948120117 -243.888687133789 0.396890163422
-167.036392211914 -68.068931579590 -238.549972534180 1.143745660782
9.092795372009 -71.193374633789 -243.495346069336 0.474787592888
-165.730514526367 -66.686454772949 -239.403137207031 1.742518663406
-161.495544433594 -67.503440856934 -244.750289916992 1.605134248734
55.786800384521 -69.278343200684 -246.335098266602 1.374994158745
64.404388427734 -69.997848510742 -244.010360717773 2.188309669495
57.371623992920 -70.043304443359 -243.166076660156 1.541034817696
52.531265258789 -70.138114929199 -248.860427856445 1.112772822380
-158.545547485352 -66.873176574707 -245.782897949219 1.574464321136
-156.568832397461 -68.233459472656 -251.184585571289 1.674447059631
-14.180295944214 -68.841049194336 -249.818832397461 0.615858733654
-152.006057739258 -67.938636779785 -245.909133911133 2.081569910049
22.192495346069 -72.729026794434 -251.966247558594 0.771325647831
-167.233337402344 -68.337715148926 -250.686187744141 1.545719504356
-165.354003906250 -66.636505126953 -245.573181152344 1.849623322487
-81.739875793457 -68.425895690918 -251.679290771484 1.801921010017
-167.308425903320 -68.123794555664 -262.591430664063 1.581009507179
-85.438247680664 -68.063117980957 -254.953186035156 1.715154647827
42.224990844727 -70.049148559570 -253.216293334961 1.638260126114
23.299545288086 -72.583656311035 -255.498764038086 1.524152517319
-159.371780395508 -67.252319335938 -260.014282226563 1.674746155739
-99.916488647461 -66.955780029297 -259.319396972656 2.046489238739
38.678237915039 -71.218360900879 -257.864624023438 1.926646232605
-101.319961547852 -69.535316467285 -260.468963623047 0.684125363827
-154.532669067383 -63.079875946045 -263.583526611328 1.273301720619
-106.692504882813 -67.160186767578 -261.321380615234 1.061710238457
-165.316741943359 -67.016632080078 -260.119995117188 1.862570762634
-112.680862426758 -69.276168823242 -262.695892333984 1.889076709747
-152.474792480469 -68.632156372070 -265.160430908203 0.582062304020
-156.989196777344 -68.598808288574 -264.902282714844 1.700938582420
-166.236358642578 -67.450592041016 -263.823089599609 1.812675356865
-161.849624633789 -66.415122985840 -262.515350341797 1.664566755295
-165.255508422852 -67.333465576172 -267.693298339844 2.018565177917
-161.064468383789 -67.523849487305 -266.900146484375 1.789920449257
24.780799865723 -70.850593566895 -265.338195800781 1.280115962029
-152.048187255859 -67.519645690918 -265.369720458984 0.875955522060
-146.901199340820 -66.753273010254 -282.887939453125 1.820043683052
20.264577865601 -72.059715270996 -278.220550537109 0.528956353664
-10.319752693176 -68.791809082031 -274.723266601563 2.442035913467
-126.313064575195 -69.047317504883 -284.057617187500 1.366364836693
-135.954559326172 -69.765075683594 -285.745391845703 0.907643795013
-135.408187866211 -66.450103759766 -287.311370849609 1.262281060219
-124.685005187988 -69.006858825684 -286.262939453125 1.412364959717
-116.120742797852 -67.543449401855 -287.179840087891 1.267171502113
-106.837402343750 -67.360801696777 -288.013854980469 1.181586265564
11.800492286682 -70.390777587891 -289.334228515625 0.407395750284
-85.711509704590 -68.215049743652 -289.093750000000 1.073651552200
-149.400680541992 -68.251846313477 -291.199218750000 1.530381202698
-100.389656066895 -67.248168945313 -290.521545410156 1.206145405769
-124.273254394531 -66.217269897461 -291.227722167969 1.160189867020
9.177385330200 -72.260360717773 -289.723541259766 0.446190863848
-113.315071105957 -67.369598388672 -292.159637451172 1.410731077194
0.980072021484 -69.664695739746 -292.593994140625 1.049986958504
-142.871520996094 -67.191749572754 -292.166748046875 1.542297482491
-153.575042724609 -68.692710876465 -297.319244384766 1.825715065002
-155.717987060547 -68.497795104980 -310.617828369141 1.751922369003
-153.946487426758 -68.905792236328 -313.076354980469 1.829209923744
50.079296112061 -72.408523559570 -24.680093765259 1.668221473694
21.270177841187 -73.039955139160 -33.497066497803 1.852088809013
33.755348205566 -73.103080749512 -37.220897674561 1.548322319984
-48.519344329834 -70.871627807617 -48.172592163086 2.675763607025
-15.177803993225 -70.722717285156 -61.355030059814 2.014093637466
93.557449340820 -73.825683593750 -69.606033325195 2.693964242935
69.325714111328 -71.156433105469 -71.158752441406 2.469893932343
-22.429542541504 -72.266548156738 -74.983917236328 2.464664220810
-94.557968139648 -72.047698974609 -83.701126098633 0.552573323250
-41.988483428955 -71.275909423828 -78.766731262207 1.454854846001
66.401809692383 -70.438804626465 -83.659202575684 1.311255812645
58.581329345703 -71.917205810547 -88.121299743652 0.535489857197
56.345359802246 -70.534469604492 -87.736526489258 1.891188740730
-58.003673553467 -68.964782714844 -89.760093688965 1.702061057091
65.936820983887 -70.442672729492 -89.828269958496 1.815148949623
44.947311401367 -72.239181518555 -97.227272033691 0.983597099781
67.431571960449 -71.106422424316 -94.494483947754 2.494536876678
-64.788177490234 -68.552001953125 -95.344985961914 1.330632448196
48.578590393066 -72.576843261719 -95.722778320313 1.505386948586
44.246200561523 -70.706573486328 -99.162872314453 1.805497765541
103.551040649414 -71.307785034180 -97.977546691895 1.194208860397
-68.426002502441 -69.765983581543 -99.899627685547 1.328275799751
109.175308227539 -71.399368286133 -101.652763366699 0.719645023346
-78.901412963867 -68.918663024902 -100.397430419922 0.549396216869
55.719879150391 -72.676780700684 -102.795608520508 1.045982837677
47.843444824219 -69.587203979492 -100.186355590820 1.655155658722
93.218589782715 -73.731903076172 -103.531455993652 2.472138881683
86.425857543945 -67.394332885742 -107.838516235352 1.586931467056
52.345310211182 -69.228157043457 -104.065139770508 2.348996639252
-75.116981506348 -69.699020385742 -109.316528320313 1.476843595505
-74.416458129883 -68.367591857910 -111.958740234375 0.963867068291
-79.135467529297 -70.635917663574 -119.203346252441 0.467049300671
-91.820831298828 -70.721382141113 -119.915046691895 0.440650224686
107.856407165527 -70.069793701172 -115.227752685547 1.728716135025
-85.143226623535 -69.571037292480 -119.988967895508 1.725098609924
-78.660316467285 -68.335342407227 -120.671257019043 0.283613711596
110.534446716309 -70.046989440918 -115.266380310059 0.946202218533
-63.964729309082 -65.976112365723 -119.353042602539 2.248109817505
114.424667358398 -71.395515441895 -131.456497192383 2.027392148972
110.357406616211 -71.060775756836 -129.192626953125 1.948233008385
110.344268798828 -70.364578247070 -123.046806335449 0.615231752396
-92.741409301758 -68.826805114746 -139.147857666016 0.353501677513
-49.043853759766 -69.133842468262 -141.712951660156 1.361136317253
-75.885711669922 -69.350044250488 -145.964996337891 0.992291688919
-69.118057250977 -69.341514587402 -149.934127807617 0.942402601242
-72.378440856934 -67.528724670410 -145.607986450195 2.352846384048
-55.198410034180 -68.641769409180 -143.420562744141 0.539094448090
-48.268257141113 -69.723060607910 -148.679931640625 1.003505468369
20.701446533203 -69.927505493164 -144.944976806641 1.705814003944
-94.498878479004 -68.863540649414 -145.496047973633 0.360171377659
-44.432685852051 -68.829956054688 -148.738891601563 0.606229007244
-53.558212280273 -68.748931884766 -149.234268188477 0.764541625977
-41.311347961426 -68.957176208496 -155.938629150391 0.863808512688
28.748456954956 -70.402870178223 -164.116409301758 2.543114423752
-48.382514953613 -67.705329895020 -149.986190795898 0.719978332520
-97.330764770508 -68.489631652832 -151.244216918945 1.095461249352
-41.843257904053 -68.628433227539 -159.714172363281 0.567876994610
26.650033950806 -69.206314086914 -151.830932617188 1.443606972694
-102.112297058105 -68.519340515137 -161.992462158203 0.742518186569
22.464374542236 -69.976806640625 -157.225845336914 2.171458482742
-106.576957702637 -68.464187622070 -171.632263183594 1.142454862595
-99.992240905762 -68.356246948242 -163.218750000000 2.787546157837
22.727239608765 -68.818115234375 -162.972747802734 2.675751686096
25.917285919189 -68.845321655273 -168.635406494141 1.312976360321
-104.344627380371 -68.476806640625 -174.559768676758 1.662719607353
-141.242218017578 -68.487937927246 -176.654815673828 1.068923473358
-21.969926834106 -69.096023559570 -187.574722290039 0.616038739681
-26.808366775513 -68.719284057617 -183.823684692383 1.013409137726
-112.423522949219 -67.959632873535 -187.477020263672 1.488368034363
-143.570785522461 -64.577728271484 -188.735488891602 1.181331872940
-105.916107177734 -67.770973205566 -182.438568115234 1.062359213829
-155.194808959961 -67.627159118652 -193.399383544922 0.848075509071
-131.175979614258 -69.018394470215 -195.082305908203 1.095871448517
-133.355743408203 -67.863914489746 -196.190185546875 0.280172854662
-20.290126800537 -67.997528076172 -192.776992797852 1.913746595383
-122.226608276367 -67.965614318848 -196.267776489258 0.427339613438
-114.209083557129 -67.210517883301 -197.139877319336 0.741021990776
-23.999141693115 -68.672378540039 -197.382720947266 1.380215764046
-153.991546630859 -66.653152465820 -201.778137207031 1.244837522507
-131.166275024414 -70.082519531250 -204.899307250977 1.145173430443
-124.592628479004 -67.467140197754 -205.999832153320 0.915459752083
17.701772689819 -68.505973815918 -202.170135498047 0.984786927700
-160.808288574219 -65.313720703125 -205.495971679688 2.129194736481
8.566686630249 -70.137733459473 -213.118774414063 0.706270337105
13.493765830994 -68.895950317383 -213.857452392578 1.465787887573
-19.162012100220 -68.095016479492 -207.181655883789 0.529072403908
-4.910044193268 -69.479927062988 -216.020889282227 0.776960790157
-166.095886230469 -66.534820556641 -209.748428344727 2.070627689362
-158.372634887695 -67.104522705078 -214.262237548828 1.857462644577
-94.127609252930 -68.695922851563 -217.962982177734 1.091599106789
-101.215560913086 -67.678016662598 -225.229644775391 1.150869965553
-160.672500610352 -65.982276916504 -222.986404418945 2.068249225616
-102.459732055664 -68.202461242676 -220.247955322266 1.920411825180
-12.357995033264 -68.376533508301 -218.313186645508 0.914216160774
-125.848091125488 -68.088890075684 -224.378311157227 1.041798710823
-140.275238037109 -68.555664062500 -226.132965087891 1.229128241539
-2.761169910431 -68.325569152832 -221.656173706055 1.093228816986
-134.134597778320 -67.275802612305 -226.230422973633 1.152665376663
-123.637100219727 -68.859283447266 -225.494110107422 0.815740048885
-114.104125976563 -67.049720764160 -226.763595581055 0.733260571957
3.566725969315 -68.978775024414 -226.767166137695 1.394923090935
-106.408470153809 -68.452316284180 -229.274658203125 0.384286314249
-158.220672607422 -66.089111328125 -223.948028564453 1.799941897392
-147.790390014648 -66.313713073730 -228.105773925781 1.330484986305
-165.870773315430 -66.582794189453 -224.491333007813 1.531432867050
-7.134736061096 -70.942207336426 -228.964202880859 1.468899607658
-8.595485687256 -68.368858337402 -231.248535156250 0.726537942886
78.758346557617 -69.842102050781 -226.522720336914 1.683903217316
2.136758089066 -68.901504516602 -230.750213623047 0.626225709915
-142.160339355469 -67.053337097168 -233.640914916992 1.060586690903
-13.388343811035 -69.252586364746 -229.065689086914 1.288584113121
74.589622497559 -69.807182312012 -229.123641967773 2.349417448044
75.887390136719 -69.987373352051 -233.260452270508 1.794922471046
-134.521133422852 -67.292816162109 -233.763122558594 0.912157535553
-158.801666259766 -66.150054931641 -228.825225830078 1.717982888222
-114.451072692871 -68.136978149414 -233.501251220703 1.070390701294
-123.350669860840 -66.376411437988 -234.617294311523 1.170871853828
-164.898040771484 -66.329048156738 -234.855697631836 1.481184244156
-158.482360839844 -66.595283508301 -236.597213745117 1.515756607056
-144.422271728516 -67.883316040039 -236.755844116211 1.493346691132
-9.037762641907 -70.684837341309 -237.102478027344 0.840573847294
-3.801888942719 -69.646438598633 -238.344818115234 0.705341517925
-160.971359252930 -65.642669677734 -238.202468872070 1.608393788338
5.489159107208 -70.202018737793 -240.293258666992 0.957936227322
6.314209938049 -68.447700500488 -234.687210083008 0.525824248791
-161.150024414063 -66.845863342285 -241.535675048828 1.816412925720
14.651456832886 -70.324775695801 -245.084579467773 0.672255516052
50.869129180908 -70.546852111816 -244.409149169922 0.994807243347
53.173820495605 -69.207313537598 -245.871093750000 1.000515699387
-13.795185089111 -69.749343872070 -246.895080566406 0.993030786514
49.818168640137 -68.467483520508 -248.488265991211 1.003416657448
-163.533615112305 -66.851394653320 -252.440765380859 1.678231954575
-162.252212524414 -66.490280151367 -249.170974731445 1.272445201874
-159.179473876953 -66.799789428711 -250.470458984375 1.843612432480
53.262741088867 -70.331153869629 -250.912460327148 1.108762264252
-89.514007568359 -67.607612609863 -253.258697509766 0.779525399208
-125.581817626953 -68.125221252441 -254.360534667969 1.053140044212
-104.971450805664 -68.599678039551 -255.636718750000 1.321404814720
29.394519805908 -70.138374328613 -257.456787109375 1.219188213348
43.888034820557 -69.256454467773 -250.880599975586 1.136314749718
-100.973258972168 -66.662307739258 -255.849075317383 0.715464115143
-94.223854064941 -66.598953247070 -255.613967895508 1.112653374672
45.269489288330 -69.788848876953 -253.208541870117 1.921677112579
44.309692382813 -69.219596862793 -256.328308105469 2.850948095322
-155.705154418945 -68.492286682129 -259.243041992188 1.625430226326
33.269538879395 -69.107513427734 -258.255279541016 1.039670825005
-141.677825927734 -69.554527282715 -263.704254150391 0.878437995911
-114.488876342773 -66.577888488770 -262.302886962891 0.997265756130
-135.130218505859 -69.045280456543 -263.771270751953 0.712835848331
28.856170654297 -70.100372314453 -262.832244873047 1.637089967728
-125.954803466797 -66.474746704102 -265.073791503906 1.293139696121
-10.762464523315 -68.591247558594 -260.865600585938 1.882505774498
23.663423538208 -70.883132934570 -271.107543945313 0.584287405014
-8.191675186157 -68.287681579590 -267.347503662109 0.546428084373
20.868034362793 -69.679901123047 -279.335723876953 1.393269658089
-151.297241210938 -66.416481018066 -282.883819580078 1.719261407852
-9.743955612183 -69.338882446289 -280.578094482422 0.282791912556
-153.939117431641 -69.216026306152 -284.371093750000 1.845607161522
-125.889602661133 -66.054985046387 -285.461608886719 1.144939064980
-155.817489624023 -69.365646362305 -286.957489013672 1.802721023560
-114.171920776367 -67.718589782715 -287.755371093750 0.769480288029
-105.757637023926 -66.893989562988 -288.833404541016 1.186628222466
-6.879085063934 -68.033737182617 -286.820983886719 0.693536460400
-109.226661682129 -66.946655273438 -290.954101562500 2.514622211456
-115.666732788086 -65.919837951660 -288.629364013672 1.282199501991
-116.350334167480 -66.210662841797 -291.494079589844 1.231268525124
-135.559982299805 -65.824302673340 -289.701324462891 1.502557396889
-124.722145080566 -68.191940307617 -292.733276367188 1.026726126671
-156.245834350586 -68.217239379883 -291.089447021484 1.484949350357
-146.177719116211 -68.064323425293 -295.343109130859 1.616135954857
-151.704757690430 -66.573440551758 -300.284881591797 1.291669011116
-153.494949340820 -65.793533325195 -311.794433593750 2.165693283081
-154.932250976563 -67.609596252441 -301.195678710938 1.569447517395
-145.127761840820 -67.320541381836 -311.692596435547 1.289268612862
-150.581649780273 -64.866043090820 -312.694030761719 2.514965295792
36.189170837402 -72.894783020020 -11.980180740356 1.285362839699
44.465744018555 -72.992935180664 -15.283994674683 2.583120107651
25.505472183228 -66.712966918945 -26.031406402588 0.914900302887
49.991836547852 -72.363128662109 -29.684843063354 2.500965833664
29.466897964478 -73.354629516602 -34.883495330811 1.323729515076
35.249168395996 -73.178649902344 -36.901809692383 2.032372951508
-57.507572174072 -67.971214294434 -45.470558166504 2.550052642822
84.578804016113 -70.526016235352 -63.814571380615 2.436270952225
79.234077453613 -71.689964294434 -65.636596679688 1.817886114120
-90.828903198242 -68.163070678711 -61.080745697021 2.067536592484
-11.489686012268 -68.822418212891 -64.073905944824 1.527022957802
-91.840415954590 -70.990531921387 -67.409530639648 1.455742478371
96.611885070801 -71.669746398926 -71.065559387207 2.034730911255
-15.721552848816 -67.785087585449 -69.032737731934 1.227506518364
68.212608337402 -71.870307922363 -74.932853698730 2.401675462723
-38.074283599854 -72.870399475098 -76.446266174316 0.952240467072
-28.175357818604 -73.950485229492 -78.288230895996 0.931508123875
57.531379699707 -71.426010131836 -85.546485900879 1.503365755081
-45.095649719238 -78.345489501953 -85.533088684082 0.973057150841
65.203865051270 -68.965614318848 -86.202079772949 0.819558858871
54.360557556152 -72.022766113281 -87.389205932617 1.533480525017
51.563713073730 -72.531204223633 -92.372619628906 1.519814491272
62.393848419189 -70.467361450195 -91.158874511719 2.071514129639
58.444778442383 -71.660682678223 -95.811943054199 0.612267911434
101.588455200195 -70.732902526855 -96.709350585938 1.563774347305
104.815002441406 -70.569358825684 -96.833358764648 1.111900329590
58.881515502930 -72.165969848633 -98.530708312988 1.140563130379
106.199798583984 -69.193527221680 -97.792175292969 1.718927621841
-74.957153320313 -69.000404357910 -99.762565612793 0.588663578033
-70.960037231445 -67.199600219727 -99.980529785156 0.765905439854
100.940513610840 -69.938552856445 -98.627418518066 0.840671777725
53.713653564453 -70.222930908203 -100.446990966797 1.227011084557
71.175354003906 -70.821319580078 -100.724205017090 1.957565903664
-73.714660644531 -68.538024902344 -104.745025634766 1.207704544067
-83.662017822266 -67.725143432617 -105.541488647461 0.819024622440
93.183982849121 -71.006759643555 -106.058319091797 1.793688058853
42.715938568115 -69.335891723633 -106.460327148438 1.408430337906
103.532073974609 -69.609405517578 -103.250709533691 1.257115125656
44.568538665771 -70.179222106934 -113.107643127441 1.350168704987
109.369232177734 -70.127296447754 -105.649986267090 1.673814177513
-79.539978027344 -66.989860534668 -108.978340148926 0.980549156666
107.381134033203 -69.178222656250 -108.111457824707 1.111668109894
-85.411071777344 -67.136100769043 -120.076324462891 0.803333878517
-58.489643096924 -69.821990966797 -128.975173950195 0.648154556751
-53.702903747559 -66.891532897949 -125.996368408203 0.974314928055
-73.843589782715 -67.835830688477 -128.657455444336 2.164680957794
-51.278507232666 -69.449188232422 -130.187118530273 0.647936761379
-83.882369995117 -69.136955261230 -130.634780883789 1.275263309479
-76.970832824707 -67.746734619141 -134.606735229492 0.874310016632
-82.207099914551 -67.005653381348 -127.824409484863 0.234092116356
-58.285121917725 -70.613800048828 -139.953872680664 0.980775952339
-72.643379211426 -66.882125854492 -139.032730102539 0.366378217936
-58.845687866211 -67.136184692383 -137.836746215820 0.516898393631
-60.472507476807 -69.346359252930 -139.990798950195 1.106336474419
23.007703781128 -68.380661010742 -141.056472778320 1.477124333382
-90.164863586426 -67.244346618652 -144.144744873047 1.116222977638
-46.158767700195 -68.452583312988 -142.992263793945 0.691683113575
-98.842170715332 -65.906471252441 -149.054412841797 1.729886651039
-99.160850524902 -67.272529602051 -151.504119873047 0.382307589054
17.812507629395 -69.424613952637 -151.977218627930 1.876831054688
13.126449584961 -69.966171264648 -156.652313232422 0.802036225796
-96.585281372070 -67.161651611328 -157.965255737305 0.895147323608
-102.213279724121 -66.674247741699 -157.791320800781 0.491331011057
-101.206718444824 -67.044998168945 -169.238174438477 0.458604216576
23.075532913208 -68.248794555664 -168.780151367188 2.056726694107
-107.922782897949 -67.021438598633 -171.398818969727 1.739236593246
19.695865631104 -69.627647399902 -168.695281982422 0.859171628952
-146.849990844727 -66.460845947266 -175.858718872070 0.595487475395
