14.627181053162 -77.260040283203 -182.794036865234 1.323081374168
-59.124439239502 -77.015060424805 -181.486968994141 0.849038839340
107.367584228516 -78.882980346680 -184.543533325195 2.571840286255
22.501867294312 -77.576377868652 -180.687576293945 2.433095932007
-32.001857757568 -76.595924377441 -188.735458374023 0.787430047989
-42.520793914795 -76.487396240234 -192.714096069336 0.775113523006
10.715103149414 -76.756042480469 -194.660110473633 1.097433328629
-18.232501983643 -78.040710449219 -191.797012329102 1.567082166672
-51.017436981201 -77.528717041016 -193.397659301758 2.682795286179
103.461158752441 -78.986366271973 -185.062805175781 3.022338151932
16.021091461182 -77.531387329102 -191.082489013672 1.835083842278
-135.660720825195 -75.766952514648 -197.473510742188 0.937576591969
-41.880359649658 -78.143287658691 -192.978271484375 0.694883823395
97.072914123535 -78.807159423828 -199.058654785156 1.851459145546
-147.832901000977 -80.234313964844 -201.611358642578 1.327389359474
17.923194885254 -77.594909667969 -193.745651245117 2.638994216919
-41.954864501953 -76.405395507813 -204.833908081055 1.523275494576
-32.789749145508 -77.645942687988 -203.718307495117 0.745854854584
-37.408023834229 -76.565925598145 -205.698532104492 1.751106739044
-43.456825256348 -76.585647583008 -196.647155761719 0.628239214420
99.104866027832 -79.016204833984 -201.408813476563 2.824616909027
-19.819108963013 -76.991912841797 -203.141113281250 0.749629557133
-150.572296142578 -75.940559387207 -205.481307983398 1.444471597672
15.923468589783 -77.302368164063 -206.242950439453 0.917670786381
-76.355468750000 -79.090614318848 -208.978881835938 0.758946955204
-150.859786987305 -75.849357604980 -209.793899536133 1.697888612747
96.340888977051 -77.342765808105 -209.356842041016 0.738488614559
-32.893337249756 -76.579780578613 -207.383605957031 0.721417784691
-29.243530273438 -76.703559875488 -214.821746826172 1.356213569641
7.092948913574 -78.477157592773 -211.470993041992 1.670629858971
-71.346710205078 -77.182609558105 -212.899368286133 1.097478151321
-29.962940216064 -77.369483947754 -210.605194091797 0.734211206436
-4.850562095642 -76.915878295898 -214.360443115234 1.289952754974
-75.430984497070 -78.521247863770 -214.553817749023 1.301457881927
-15.051812171936 -77.125526428223 -217.254898071289 2.284964323044
7.946948051453 -76.453033447266 -213.984359741211 1.409986257553
16.896959304810 -78.196899414063 -219.269638061523 1.685920715332
-147.967300415039 -75.664764404297 -215.996994018555 1.301321864128
-7.548157215118 -76.970268249512 -214.950286865234 1.445026636124
-94.725021362305 -73.616653442383 -220.675384521484 1.210965394974
-21.912622451782 -76.268714904785 -220.280166625977 1.234706878662
91.694885253906 -78.823944091797 -211.646942138672 1.704959392548
5.532009124756 -77.595794677734 -227.407989501953 1.124632835388
15.654563903809 -76.354782104492 -216.860641479492 0.839801371098
81.687400817871 -77.639701843262 -221.560287475586 1.452491044998
0.623324990273 -76.463111877441 -226.509613037109 2.110288619995
86.069366455078 -78.272911071777 -217.632476806641 1.747888684273
-16.838699340820 -77.269897460938 -221.820358276367 0.678885400295
14.503781318665 -78.230934143066 -220.287902832031 0.730705320835
-145.684082031250 -76.884422302246 -223.684829711914 1.291471958160
-19.199739456177 -77.988220214844 -224.207214355469 0.483846515417
1.133705973625 -78.867301940918 -226.856292724609 1.987923741341
-155.070846557617 -77.299858093262 -228.299011230469 1.613832235336
-136.440246582031 -74.614944458008 -228.498245239258 1.601890444756
7.735081195831 -77.386657714844 -226.315536499023 0.741029798985
-4.514437198639 -77.549522399902 -232.579254150391 1.092184782028
-136.113815307617 -75.179130554199 -231.574218750000 1.445287466049
-145.750640869141 -76.700447082520 -235.093261718750 0.989030957222
-146.829635620117 -75.177742004395 -236.392791748047 1.760187625885
-33.500064849854 -76.888565063477 -238.721710205078 1.311766505241
-146.917556762695 -74.951683044434 -241.955093383789 1.513942241669
20.540018081665 -76.904739379883 -241.858993530273 1.037454247475
4.308424949646 -77.413063049316 -242.711975097656 1.576481699944
-150.249313354492 -74.918563842773 -235.757278442383 1.545404553413
-149.075790405273 -76.121131896973 -242.739898681641 1.536311984062
-47.983470916748 -76.887733459473 -241.531967163086 0.869657635689
-31.621841430664 -77.755546569824 -243.811752319336 0.662899494171
5.113725185394 -79.338462829590 -246.538909912109 2.157493591309
-39.497486114502 -76.881996154785 -245.364074707031 1.956094264984
22.677413940430 -78.089988708496 -247.508483886719 0.714786052704
-5.247386932373 -79.159393310547 -248.652542114258 1.069067597389
-150.662948608398 -75.350845336914 -252.582382202148 1.197497487068
-7.583604812622 -78.839859008789 -250.992279052734 1.213919997215
-147.180023193359 -75.694808959961 -252.261016845703 1.840091586113
-68.312461853027 -76.597160339355 -249.256103515625 1.006037116051
-150.368286132813 -81.359062194824 -260.183807373047 1.944262385368
-126.116523742676 -74.833084106445 -259.189544677734 1.678811073303
-149.277511596680 -72.194625854492 -261.108764648438 1.891595482826
-13.564402580261 -75.527862548828 -265.402587890625 0.537909448147
-146.823165893555 -76.826988220215 -265.261688232422 0.874374747276
-150.760330200195 -75.758346557617 -265.596801757813 1.554345011711
-10.250122070313 -78.815399169922 -269.819610595703 0.126483798027
-147.540283203125 -76.007843017578 -271.402374267578 1.938854575157
-3.914345979691 -77.749755859375 -279.481628417969 0.509823381901
-46.808151245117 -76.474197387695 -287.054382324219 2.579712629318
-134.107284545898 -75.429496765137 -288.562408447266 1.675162911415
-133.162551879883 -74.305053710938 -286.201599121094 1.832732439041
-126.836532592773 -74.984527587891 -286.971710205078 1.728744387627
-53.824401855469 -75.791427612305 -286.770721435547 0.914257705212
-115.810043334961 -73.189758300781 -288.623687744141 1.605786681175
15.136506080627 -77.218818664551 -289.373748779297 0.615700483322
-60.614837646484 -75.855926513672 -288.971191406250 1.313067555428
-142.312850952148 -74.304924011230 -290.376770019531 1.544891834259
-62.391677856445 -75.468681335449 -290.074859619141 1.020424842834
-143.019866943359 -76.653900146484 -291.082946777344 1.462892293930
-118.037605285645 -75.117469787598 -290.092956542969 1.379380106926
-47.850391387939 -75.822288513184 -290.541046142578 0.864030301571
-35.793594360352 -76.850578308105 -290.772583007813 1.416032910347
-133.963363647461 -75.317054748535 -290.998352050781 1.628081202507
-11.065100669861 -76.995628356934 -290.965667724609 0.557350337505
0.353644996881 -77.149536132813 -291.221649169922 0.474760591984
5.927040100098 -77.148361206055 -291.885955810547 0.456568568945
14.573386192322 -77.473548889160 -293.385375976563 0.449101418257
-150.054412841797 -74.966751098633 -295.861328125000 1.836396574974
-148.599060058594 -74.698547363281 -299.935333251953 1.950095057487
-70.562408447266 -77.667762756348 -59.891296386719 1.976162791252
86.456367492676 -77.477500915527 -74.756599426270 2.530830144882
77.904983520508 -78.093276977539 -75.765960693359 2.621988534927
-27.016998291016 -77.647087097168 -76.932395935059 1.090326189995
84.030693054199 -77.318885803223 -76.586120605469 2.185862779617
-35.950126647949 -77.106239318848 -80.291412353516 1.359956145287
87.315299987793 -79.021934509277 -78.257804870605 2.530159473419
92.024307250977 -78.484329223633 -81.911010742188 2.546298027039
-65.834419250488 -71.401473999023 -92.980773925781 1.014192700386
75.050842285156 -77.816062927246 -93.194625854492 1.882152557373
80.147056579590 -78.013977050781 -96.644149780273 1.961941599846
91.031303405762 -78.252357482910 -93.755981445313 2.503184080124
54.540451049805 -77.604698181152 -98.170013427734 2.025536775589
-76.843017578125 -79.427307128906 -101.601219177246 1.261614084244
-75.673782348633 -72.250373840332 -101.805496215820 0.808976471424
48.201862335205 -78.303962707520 -105.474609375000 1.103580713272
-91.884941101074 -77.807731628418 -105.595588684082 1.120004415512
44.093750000000 -78.030914306641 -116.727256774902 1.992647409439
109.941749572754 -77.591430664063 -117.713134765625 2.491283416748
111.481246948242 -78.416236877441 -131.764480590820 2.413783788681
26.622692108154 -76.958763122559 -138.588821411133 1.590040087700
109.735694885254 -77.831214904785 -126.279930114746 2.544017791748
26.061616897583 -77.843154907227 -134.610595703125 2.668848276138
113.304954528809 -77.591011047363 -128.607299804688 2.444753408432
38.178596496582 -77.999053955078 -134.417633056641 2.178838491440
-51.499336242676 -78.068397521973 -144.003692626953 1.404328346252
34.196716308594 -75.886924743652 -141.418411254883 1.507030248642
109.234046936035 -77.042060852051 -138.085479736328 2.532811164856
-51.236579895020 -76.650047302246 -144.822723388672 1.993037819862
31.669868469238 -77.947219848633 -147.714279174805 2.316392183304
-56.487209320068 -75.631134033203 -139.232070922852 1.564835667610
-53.326175689697 -77.606399536133 -147.900711059570 1.678523182869
-50.772293090820 -76.959106445313 -149.614654541016 1.388480067253
-65.481719970703 -77.118507385254 -156.455169677734 0.927956700325
114.625053405762 -78.232231140137 -148.566467285156 1.927652597427
-51.065547943115 -76.950187683105 -155.423110961914 2.697063922882
21.024927139282 -77.681358337402 -154.510971069336 2.541237115860
109.530265808105 -78.276260375977 -156.520080566406 2.401000499725
-67.454002380371 -75.335350036621 -156.840347290039 0.903658270836
-48.331535339355 -77.045463562012 -155.869110107422 1.924692869186
7.646159172058 -75.407531738281 -155.068191528320 2.570593595505
-67.559921264648 -75.275588989258 -160.091598510742 1.059036254883
-61.539382934570 -76.192680358887 -161.743789672852 1.030367970467
-1.833866000175 -77.038253784180 -162.052154541016 0.900426387787
-41.707260131836 -76.859191894531 -167.150665283203 2.284652233124
30.573921203613 -76.177009582520 -163.990127563477 1.095110416412
-62.360515594482 -76.363235473633 -165.556167602539 1.594319939613
-57.931346893311 -76.354713439941 -168.618225097656 0.865743458271
19.442893981934 -77.168075561523 -161.171447753906 1.484183549881
-31.828069686890 -76.973487854004 -169.563781738281 1.457272410393
-30.990560531616 -77.664932250977 -167.451660156250 1.644523739815
16.641653060913 -77.201126098633 -174.509979248047 1.914765954018
-40.639793395996 -77.045410156250 -172.902664184570 1.212314724922
-12.615208625793 -76.423530578613 -173.097839355469 1.604324698448
-60.327533721924 -75.413337707520 -172.783523559570 1.246649980545
-5.545227050781 -75.324050903320 -171.064804077148 0.644002020359
-23.753238677979 -77.206947326660 -179.630264282227 0.926376044750
23.482789993286 -76.742919921875 -180.801773071289 1.143137812614
-39.503723144531 -75.714546203613 -172.083526611328 1.697067260742
17.705501556396 -76.284118652344 -178.366897583008 2.337215662003
-23.370769500732 -74.333610534668 -183.001998901367 0.804632425308
-32.874778747559 -76.918487548828 -182.077301025391 0.817806303501
-147.533370971680 -75.410041809082 -186.228958129883 0.653579533100
-22.577356338501 -77.023757934570 -186.315170288086 0.972655892372
-144.912353515625 -74.941848754883 -188.185302734375 0.654504060745
-150.067108154297 -73.940101623535 -187.402557373047 0.953559875488
-47.679847717285 -75.438835144043 -186.647842407227 2.297885179520
97.850692749023 -77.452629089355 -194.288681030273 2.993003845215
-144.984390258789 -75.164688110352 -193.370315551758 1.345715522766
-153.660186767578 -75.964973449707 -196.832168579102 1.597950816154
20.563234329224 -76.927986145020 -197.962173461914 2.616257667542
-135.957443237305 -73.790901184082 -198.219314575195 1.473581910133
18.591178894043 -76.301940917969 -198.068557739258 1.925758242607
-141.203765869141 -73.725173950195 -197.919433593750 1.463093757629
12.573200225830 -76.360275268555 -196.305374145508 1.780462145805
-135.785049438477 -74.013809204102 -201.451721191406 1.408299565315
7.277707099915 -77.018905639648 -206.972396850586 0.849710047245
-149.650207519531 -74.334709167480 -206.442764282227 1.660763621330
92.820068359375 -77.343811035156 -203.534469604492 1.699934482574
-15.211542129517 -77.323303222656 -202.197662353516 0.481723964214
-30.660598754883 -75.775085449219 -206.749465942383 0.711791992188
-10.185786247253 -76.917991638184 -205.837265014648 0.872244894505
-149.797683715820 -74.770324707031 -212.127853393555 1.019555330276
-35.787834167480 -76.121986389160 -206.135086059570 0.630983471870
-81.818054199219 -76.902313232422 -210.625061035156 0.550325334072
-27.162748336792 -76.838119506836 -210.032363891602 2.090422153473
18.201574325562 -76.480583190918 -209.247344970703 0.958619117737
-148.303970336914 -75.429687500000 -212.949829101563 1.428972959518
-91.599388122559 -74.699020385742 -214.406005859375 0.264837920666
-30.384828567505 -75.290130615234 -212.862823486328 1.315601110458
-25.925350189209 -74.842704772949 -218.196655273438 1.558668255806
-14.836296081543 -76.567344665527 -213.676269531250 1.228761792183
-27.899702072144 -75.643974304199 -212.820617675781 0.940057277679
-81.347290039063 -75.078109741211 -216.431015014648 1.022924065590
-86.592651367188 -75.947929382324 -217.750122070313 0.860160529613
-24.483051300049 -76.274360656738 -219.079040527344 1.252306103706
-2.592860937119 -76.225837707520 -221.261367797852 0.706427633762
-149.780044555664 -74.168212890625 -217.212570190430 1.705258607864
-2.784360885620 -77.517333984375 -218.282012939453 0.735251903534
83.886604309082 -77.596405029297 -223.230239868164 1.465061545372
-143.072357177734 -76.151733398438 -225.175125122070 1.434403181076
-10.193852424622 -77.313117980957 -223.907470703125 0.681259632111
-142.053131103516 -75.419921875000 -226.860885620117 1.598928570747
-147.529373168945 -80.637649536133 -227.401657104492 1.417680144310
-7.296748161316 -75.040824890137 -229.963424682617 0.624295294285
15.428178787231 -76.112213134766 -221.985366821289 0.768026411533
-141.535079956055 -74.492210388184 -229.636718750000 1.310087800026
-15.753005027771 -75.900451660156 -229.393768310547 0.634925782681
77.935035705566 -77.325141906738 -227.467147827148 1.580865263939
76.595298767090 -76.586441040039 -230.966644287109 2.246761083603
7.649178028107 -76.431495666504 -231.362487792969 0.664159476757
-27.038135528564 -77.328750610352 -238.012756347656 1.056481361389
-18.690292358398 -77.437652587891 -240.181289672852 0.550879180431
5.522789001465 -75.220046997070 -243.081665039063 0.510409593582
-48.363792419434 -75.051620483398 -241.863082885742 0.683529436588
-23.798643112183 -76.131210327148 -242.880676269531 0.612796902657
7.531042098999 -76.355499267578 -243.717391967773 0.679988622665
-63.967742919922 -75.501724243164 -245.381240844727 1.177184104919
-31.229034423828 -75.639816284180 -243.608215332031 1.390812397003
-43.551967620850 -74.030868530273 -245.030334472656 0.366039454937
-150.652526855469 -74.700599670410 -246.473663330078 1.806418180466
-47.470756530762 -76.496101379395 -246.932800292969 0.720518350601
-54.086200714111 -75.942703247070 -248.405776977539 0.585032582283
-67.340568542480 -75.808517456055 -250.809036254883 1.961588740349
-11.321552276611 -75.929664611816 -251.179138183594 0.660131514072
-81.645812988281 -74.731719970703 -252.490966796875 1.069079518318
-155.296218872070 -77.232826232910 -256.935791015625 1.602888584137
-142.484451293945 -75.911010742188 -257.012512207031 1.665433406830
-125.970870971680 -74.575103759766 -261.579162597656 1.184062123299
-153.818008422852 -71.919136047363 -264.440795898438 2.074131011963
20.840497970581 -77.227966308594 -263.046661376953 1.475087285042
-12.817182540894 -76.719116210938 -268.053771972656 0.545069456100
-150.852569580078 -75.903968811035 -271.458679199219 2.047744512558
-151.011825561523 -76.535644531250 -277.629638671875 2.014435768127
-144.479919433594 -78.151901245117 -284.738800048828 1.492387175560
-57.955341339111 -74.031738281250 -285.865722656250 1.560601234436
-38.682472229004 -75.523147583008 -286.478210449219 0.752652764320
-25.917654037476 -74.111595153809 -286.495330810547 0.438182026148
-13.018162727356 -75.964843750000 -286.809631347656 1.819284319878
-65.664093017578 -75.404861450195 -287.357360839844 1.728723406792
-79.351379394531 -74.156402587891 -287.219665527344 0.775580942631
-4.205668926239 -76.482452392578 -287.697326660156 0.549140989780
8.049869537354 -76.064559936523 -288.051483154297 0.450237274170
-135.985931396484 -74.052078247070 -290.584838867188 1.527231693268
-78.047798156738 -74.951400756836 -289.157287597656 1.327626347542
-147.866912841797 -74.486480712891 -288.974334716797 1.579767107964
-94.299148559570 -74.166336059570 -288.949432373047 1.751905202866
-78.597198486328 -74.711135864258 -289.610107421875 1.188895225525
-83.860580444336 -73.947479248047 -290.903015136719 0.874942660332
-60.058643341064 -74.839767456055 -290.628692626953 0.992845594883
-26.447860717773 -74.705574035645 -291.769226074219 1.550186514854
-3.863271951675 -75.481094360352 -292.197845458984 1.765648722649
-153.957122802734 -72.837547302246 -294.601226806641 2.223306894302
-152.163528442383 -74.132781982422 -300.059753417969 1.290444970131
-146.355758666992 -75.378822326660 -301.341583251953 1.933465361595
-155.039611816406 -74.154960632324 -307.530578613281 1.646105766296
-58.150028228760 -76.206298828125 -54.862243652344 1.071384072304
-45.840324401855 -74.866714477539 -53.174350738525 1.544265389442
-39.307678222656 -75.454147338867 -55.611705780029 1.499646425247
-76.246200561523 -75.875389099121 -58.719169616699 1.286185503006
-29.141174316406 -76.154052734375 -62.025989532471 2.156972169876
-31.006504058838 -76.605155944824 -79.077301025391 1.467635393143
75.152984619141 -77.889770507813 -79.665649414063 2.375509977341
74.956390380859 -79.034317016602 -81.646667480469 3.099224090576
74.640296936035 -78.412315368652 -83.995437622070 2.342147350311
95.503791809082 -77.241828918457 -89.311836242676 2.315507173538
72.847633361816 -78.158294677734 -89.435401916504 2.283259153366
53.050498962402 -76.830146789551 -92.799613952637 2.043428421021
46.907169342041 -78.834632873535 -99.036964416504 2.266299009323
-68.147926330566 -76.294998168945 -99.583526611328 0.696368277073
-72.317077636719 -70.133789062500 -101.384033203125 0.846350550652
44.509906768799 -77.656845092773 -103.194549560547 2.019850969315
-83.070648193359 -78.205154418945 -108.423881530762 0.779320359230
-94.266807556152 -74.369781494141 -112.553253173828 1.064861774445
50.210903167725 -76.577178955078 -105.227081298828 1.414154887199
107.010169982910 -76.915397644043 -109.443901062012 2.518486022949
31.675294876099 -78.151931762695 -119.432762145996 2.328918933868
45.344982147217 -77.142967224121 -118.648773193359 1.220549702644
42.117099761963 -78.196243286133 -125.671112060547 1.489151120186
29.034811019897 -77.330574035645 -125.299491882324 1.579366803169
108.200286865234 -77.407402038574 -118.373939514160 2.514118909836
38.940975189209 -76.955833435059 -128.020370483398 2.627899885178
29.334012985229 -75.700706481934 -130.246200561523 1.475080251694
-47.618518829346 -76.192764282227 -144.526763916016 1.120118618011
-73.000999450684 -75.202095031738 -146.015426635742 1.480590820313
-55.398426055908 -74.310470581055 -143.754562377930 0.919566154480
-71.098091125488 -75.093399047852 -146.127075195313 1.387362241745
-42.395217895508 -74.133003234863 -146.775314331055 1.818621158600
108.429809570313 -75.356742858887 -149.689224243164 1.683509707451
-72.423477172852 -75.608551025391 -154.873580932617 2.237583875656
23.658569335938 -76.093078613281 -149.454971313477 1.153750538826
32.876976013184 -77.389190673828 -153.027191162109 1.590314030647
114.372550964355 -77.751495361328 -158.321716308594 1.785876274109
8.298362731934 -75.633049011230 -159.067214965820 1.152000546455
30.737392425537 -76.176773071289 -155.109375000000 1.380951881409
-65.813522338867 -74.599868774414 -158.768737792969 1.478917956352
-44.408748626709 -75.832214355469 -168.118118286133 1.345454096794
18.138341903687 -74.583106994629 -163.086898803711 1.199472546577
-64.208580017090 -74.357818603516 -164.020233154297 1.101516366005
-68.520225524902 -75.819099426270 -164.950683593750 0.984520614147
106.904815673828 -77.354545593262 -165.566696166992 2.361494541168
-7.696035861969 -75.418266296387 -168.601409912109 0.599987864494
-62.004833221436 -75.821861267090 -176.671646118164 2.119670629501
-28.486141204834 -75.660896301270 -170.640487670898 1.416826248169
-56.125213623047 -74.426475524902 -173.904357910156 0.913176476955
27.176809310913 -76.589126586914 -168.470397949219 2.127658843994
109.381759643555 -76.966499328613 -172.415267944336 1.134690642357
102.391807556152 -77.458000183105 -183.167297363281 1.949522018433
106.895339965820 -77.670707702637 -188.808273315430 0.625982642174
106.976402282715 -76.757858276367 -177.787216186523 2.769964456558
-54.235191345215 -75.350082397461 -187.342361450195 2.663622617722
-52.193298339844 -74.181159973145 -182.237152099609 1.598803281784
25.028928756714 -77.308761596680 -182.568634033203 1.074591398239
-50.607543945313 -73.913124084473 -188.833190917969 0.769683241844
-20.459753036499 -76.548904418945 -184.683547973633 1.499286890030
-51.168342590332 -75.290214538574 -191.513732910156 0.782824516296
-150.402770996094 -74.479125976563 -193.486587524414 1.904355287552
101.258544921875 -76.676193237305 -193.070800781250 1.010769963264
-45.685352325439 -74.211868286133 -192.431625366211 0.753227293491
-17.786186218262 -76.716445922852 -197.009826660156 0.780431032181
-141.353424072266 -75.931488037109 -197.120834350586 1.330742716789
-46.168598175049 -74.133789062500 -195.863784790039 1.733843445778
103.028205871582 -77.520240783691 -197.461151123047 1.565819621086
105.372428894043 -76.725395202637 -186.263534545898 2.594898939133
-46.941158294678 -75.433914184570 -197.505111694336 1.324072480202
-24.761295318604 -76.803466796875 -195.859176635742 1.037001609802
-149.650756835938 -79.385681152344 -199.422866821289 1.751141428947
-25.439756393433 -77.135963439941 -198.703933715820 1.614746570587
-154.511520385742 -75.732246398926 -199.608627319336 1.698283910751
-153.338287353516 -76.587409973145 -202.416442871094 1.300380229950
-141.509658813477 -75.823822021484 -201.930053710938 1.210497379303
-38.740837097168 -75.502143859863 -198.073974609375 1.974710464478
99.866912841797 -76.494018554688 -198.950042724609 1.867822051048
-39.794898986816 -74.173988342285 -199.261657714844 1.490829825401
-145.062088012695 -76.878875732422 -205.171936035156 1.160947680473
-38.959732055664 -74.088531494141 -206.112670898438 1.656430840492
-19.166084289551 -76.755012512207 -209.716644287109 1.716914653778
95.450141906738 -76.426528930664 -203.971023559570 1.503932595253
92.357940673828 -76.306549072266 -210.639816284180 1.767327189445
-31.010120391846 -74.934234619141 -216.848937988281 0.834104299545
-86.772094726563 -74.916732788086 -212.259216308594 0.976986229420
-76.065361022949 -74.529228210449 -211.664459228516 0.363961726427
-18.168792724609 -75.706619262695 -219.016998291016 1.520305275917
-150.058303833008 -73.034904479980 -211.658630371094 1.612939715385
87.717849731445 -77.569908142090 -212.293182373047 1.591093659401
89.117233276367 -77.545341491699 -218.180587768555 1.557927131653
90.276039123535 -75.770591735840 -218.637283325195 0.643327116966
-101.987319946289 -72.907890319824 -222.637741088867 1.003197789192
-151.201705932617 -76.234504699707 -223.647766113281 1.761586666107
-20.007753372192 -75.649497985840 -220.614562988281 1.234721660614
78.331459045410 -76.452415466309 -223.621170043945 1.396396398544
-149.122528076172 -75.949699401855 -227.308685302734 1.734349012375
-26.793994903564 -75.697456359863 -221.343200683594 0.900899350643
-132.787277221680 -73.619049072266 -229.010742187500 1.440486431122
-13.164289474487 -76.794990539551 -227.410629272461 0.894800603390
17.467548370361 -76.158287048340 -221.451553344727 0.966326296329
18.530916213989 -76.529556274414 -231.411071777344 1.077121138573
-154.254974365234 -76.984146118164 -232.705703735352 1.920874834061
-125.311515808105 -72.893791198730 -232.943527221680 1.042441725731
-8.491673469543 -74.438316345215 -234.378128051758 1.389409899712
-0.475623995066 -75.388092041016 -236.196762084961 0.480562239885
68.930274963379 -76.042640686035 -235.019577026367 1.787945628166
72.289520263672 -75.443702697754 -235.725143432617 1.242751836777
-0.944606006145 -75.965797424316 -240.010925292969 2.245882511139
16.584037780762 -74.349601745605 -238.830505371094 1.734716057777
-28.812435150146 -73.992912292480 -239.122055053711 0.611628949642
-35.945224761963 -74.914016723633 -240.098251342773 0.655526101589
-44.421680450439 -73.703514099121 -242.509963989258 0.698166191578
-37.781032562256 -73.962776184082 -242.326950073242 1.227955102921
-19.403734207153 -76.263908386230 -242.105026245117 1.701236128807
-53.601669311523 -74.075584411621 -243.011825561523 0.740995228291
1.687381982803 -75.168083190918 -244.473037719727 0.594900727272
-68.206474304199 -72.679153442383 -246.094711303711 1.179836153984
19.107707977295 -75.405967712402 -246.554046630859 0.785856962204
-147.146896362305 -75.134391784668 -246.935058593750 1.811842560768
-72.494468688965 -75.854148864746 -248.701614379883 1.164090991020
13.240560531616 -77.758865356445 -247.567596435547 1.512523889542
-162.044769287109 -72.852500915527 -249.900207519531 1.992800116539
17.614097595215 -76.741981506348 -250.922409057617 0.740160107613
-79.686111450195 -74.742935180664 -250.552078247070 1.718137979507
-74.647689819336 -75.291336059570 -251.409683227539 0.959589064121
20.953619003296 -75.865783691406 -255.901992797852 1.480700254440
-89.068275451660 -73.687583923340 -254.175216674805 1.711009979248
-125.878372192383 -73.572525024414 -256.228668212891 1.535192728043
-135.691390991211 -72.997390747070 -258.266113281250 1.718450427055
-133.738922119141 -74.326316833496 -258.334838867188 1.533565402031
-147.846359252930 -71.879364013672 -260.099884033203 2.028957128525
-142.045974731445 -73.359504699707 -259.495605468750 1.876208066940
-136.204284667969 -72.503433227539 -261.992218017578 0.824341118336
-161.937164306641 -72.931205749512 -261.738983154297 2.050926685333
-125.821113586426 -71.586112976074 -264.695281982422 1.049919486046
-134.089202880859 -73.907402038574 -262.264160156250 1.121274948120
-166.073593139648 -72.337608337402 -263.588043212891 1.561409831047
-158.831054687500 -72.060401916504 -263.802246093750 2.019338130951
-151.652130126953 -72.555595397949 -265.491638183594 1.833105921745
-147.251525878906 -73.054260253906 -265.838928222656 1.894576430321
15.447222709656 -77.524734497070 -277.410583496094 0.548023879528
-165.999603271484 -72.545494079590 -269.439788818359 1.630281090736
-152.959762573242 -72.381141662598 -273.779235839844 2.001327514648
-7.249003887177 -79.319564819336 -273.385772705078 1.128043770790
-161.098541259766 -72.444946289063 -268.957702636719 3.277013301849
12.109515190125 -78.551818847656 -279.305633544922 1.399723052979
-151.956710815430 -73.009696960449 -282.760620117188 2.062169790268
-162.597305297852 -72.761886596680 -286.735900878906 2.188529491425
-154.418914794922 -72.667793273926 -284.152160644531 1.659067869186
-166.387435913086 -72.941253662109 -285.984008789063 1.395270228386
2.241954088211 -75.181320190430 -287.578063964844 0.538905262947
6.986754894257 -77.052368164063 -284.898437500000 0.762078523636
-97.451454162598 -73.382034301758 -288.019897460938 1.737389922142
-150.935516357422 -72.713218688965 -287.880767822266 2.063325166702
-149.088836669922 -72.672935485840 -287.523529052734 2.027199268341
-109.825630187988 -72.981086730957 -288.831085205078 1.623421311378
-151.046051025391 -72.679084777832 -290.337829589844 2.066107273102
-149.114471435547 -72.695594787598 -290.719421386719 2.044582128525
-68.082801818848 -73.831291198730 -291.022125244141 1.080334901810
-162.882644653320 -73.017715454102 -290.736328125000 1.226820349693
-124.423484802246 -72.711357116699 -291.444976806641 1.265932917595
-44.092170715332 -75.006919860840 -290.977020263672 0.856877326965
-156.941741943359 -72.834098815918 -290.086547851563 2.494299888611
-136.230773925781 -71.221008300781 -293.307495117188 0.996142685413
-16.814170837402 -73.756835937500 -291.931762695313 1.122165799141
-126.755142211914 -73.413757324219 -294.157867431641 1.371525168419
4.734067916870 -75.098228454590 -292.783966064453 1.066188693047
15.233413696289 -74.593124389648 -292.237518310547 1.130105018616
-134.419158935547 -73.687156677246 -293.392364501953 1.774849057198
-146.412841796875 -72.905181884766 -295.191162109375 1.487951636314
-156.389511108398 -71.790184020996 -311.865142822266 1.610987067223
-73.483604431152 -72.566345214844 -51.746665954590 0.942288994789
-23.831336975098 -73.668182373047 -60.365459442139 1.849521160126
-22.286596298218 -75.323440551758 -64.868034362793 1.871258854866
73.985160827637 -75.760574340820 -73.850914001465 2.588916301727
91.229911804199 -77.275001525879 -74.770416259766 2.582229852676
-38.997104644775 -74.296089172363 -77.311462402344 0.953044891357
73.172546386719 -76.828910827637 -76.711776733398 2.369612932205
87.606422424316 -78.770599365234 -80.385437011719 2.406374216080
69.717025756836 -75.818054199219 -81.589958190918 2.292926549911
70.926277160645 -76.890350341797 -85.080665588379 2.609776496887
-50.130332946777 -77.405189514160 -88.156745910645 1.242363452911
-92.701904296875 -75.279350280762 -86.707260131836 1.332288265228
56.919055938721 -76.083976745605 -92.975120544434 2.078267574310
48.836948394775 -75.864654541016 -96.608261108398 1.727014303207
94.362625122070 -77.057174682617 -94.911598205566 2.497513055801
-95.155532836914 -73.465690612793 -102.003158569336 2.433342218399
83.879920959473 -77.229339599609 -96.612632751465 2.347656965256
74.340682983398 -76.148605346680 -97.233840942383 2.276086330414
91.495895385742 -76.344734191895 -97.823570251465 2.038239955902
81.603378295898 -75.179183959961 -99.569473266602 1.918603301048
85.823318481445 -78.240669250488 -96.995735168457 2.404377698898
-81.430816650391 -75.803535461426 -102.164573669434 0.902417421341
39.183769226074 -77.196380615234 -109.173210144043 1.088049530983
105.591682434082 -76.552864074707 -109.863136291504 2.749480009079
109.221572875977 -76.502487182617 -110.037925720215 2.532523870468
44.755928039551 -76.146568298340 -115.685218811035 1.793441891670
107.327079772949 -76.282333374023 -122.586753845215 3.462089776993
114.780990600586 -77.016525268555 -133.788238525391 1.578523159027
-53.328826904297 -74.448989868164 -134.266235351563 0.637987554073
26.055122375488 -75.261741638184 -133.466583251953 3.195542573929
39.185863494873 -75.707794189453 -132.785202026367 1.687892436981
25.327079772949 -73.701385498047 -143.484893798828 1.507518410683
112.617012023926 -76.168197631836 -139.764556884766 1.804273843765
111.619506835938 -75.723236083984 -133.539749145508 1.661824464798
-74.278877258301 -74.764266967773 -148.283782958984 1.744840264320
-45.163372039795 -74.986099243164 -146.548782348633 1.799560785294
-71.634071350098 -73.381500244141 -149.405166625977 1.777680635452
20.844434738159 -75.569297790527 -151.851364135742 1.584473133087
112.685783386230 -76.392356872559 -150.885772705078 2.234353542328
-53.483955383301 -74.522277832031 -149.050979614258 1.036896348000
-70.141464233398 -73.051483154297 -149.134002685547 1.884676694870
-38.996105194092 -77.128417968750 -154.114486694336 0.915011525154
32.854789733887 -73.323097229004 -151.746597290039 1.072561502457
111.438743591309 -76.062797546387 -151.826950073242 1.299710035324
112.511283874512 -75.806358337402 -157.878662109375 1.614394426346
-68.753044128418 -72.451744079590 -153.601196289063 0.793793499470
-69.636779785156 -74.070404052734 -162.748397827148 0.882251203060
20.876878738403 -75.786476135254 -162.713592529297 1.405709028244
-60.270481109619 -73.479972839355 -166.535537719727 1.757770299911
-33.886737823486 -75.278579711914 -160.863845825195 0.899328649044
6.199407100677 -75.024085998535 -162.211776733398 0.996927320957
110.444679260254 -76.443290710449 -161.421920776367 1.500921964645
3.895906925201 -75.390983581543 -164.516555786133 1.079599738121
-34.028366088867 -75.013610839844 -165.264953613281 0.868222415447
-0.061172999442 -74.750236511230 -167.204696655273 1.027152657509
108.597145080566 -75.896598815918 -169.546112060547 2.633663415909
-41.307216644287 -72.536132812500 -168.670989990234 1.788464903831
26.891904830933 -73.110237121582 -169.920639038086 1.122730016708
110.140007019043 -75.735382080078 -171.971801757813 1.463352918625
-57.879570007324 -72.910217285156 -177.135208129883 0.445205032825
-29.259246826172 -74.980247497559 -173.009460449219 1.563968539238
104.583831787109 -75.156105041504 -173.130554199219 2.446346759796
28.240976333618 -75.018257141113 -172.376739501953 1.607861399651
111.923942565918 -77.651702880859 -173.567245483398 1.180995583534
-37.457115173340 -74.197875976563 -176.416259765625 1.414993405342
105.739456176758 -75.686828613281 -180.010986328125 1.762195229530
-60.126831054688 -74.180984497070 -177.772277832031 2.495542049408
-25.612876892090 -76.404548645020 -180.520217895508 0.964151024818
-145.190261840820 -72.493782043457 -182.600509643555 1.539134025574
-54.839691162109 -73.827384948730 -183.544601440430 1.038672447205
-147.098098754883 -73.231201171875 -187.361358642578 1.353485822678
-33.029369354248 -73.520484924316 -187.533920288086 1.677038788795
22.881978988647 -75.140083312988 -186.317733764648 1.088405251503
107.136779785156 -75.566871643066 -182.416992187500 0.737024068832
-30.686859130859 -76.187294006348 -186.964797973633 1.083980560303
11.382225036621 -75.594589233398 -190.421966552734 2.124816656113
18.787982940674 -74.759567260742 -200.301544189453 0.893008053303
-146.794097900391 -73.661537170410 -192.992080688477 1.201323390007
102.285423278809 -75.466178894043 -194.511093139648 1.088492631912
-18.439388275146 -72.482727050781 -193.682434082031 0.924226999283
102.132301330566 -75.530403137207 -189.654129028320 1.466071248055
14.006242752075 -74.184097290039 -187.728973388672 1.503960013390
-132.270324707031 -72.666778564453 -200.971328735352 1.171800732613
-140.941574096680 -73.886093139648 -201.197006225586 1.439698815346
96.701477050781 -75.429626464844 -200.557495117188 1.536916255951
-12.449990272522 -76.318992614746 -201.209686279297 0.728499948978
-15.204141616821 -75.931823730469 -200.804306030273 2.193348407745
8.882788658142 -75.530479431152 -207.081848144531 1.138204455376
-150.450042724609 -70.393165588379 -205.994079589844 1.556341052055
-146.179260253906 -74.311134338379 -206.343368530273 1.620973348618
98.150749206543 -75.372703552246 -202.599411010742 1.693865180016
-78.570960998535 -73.219696044922 -209.560180664063 0.433772593737
-37.648509979248 -73.618354797363 -203.569168090820 0.825497567654
16.412921905518 -75.216499328613 -210.386383056641 2.351203680038
-26.498926162720 -74.488975524902 -211.650634765625 2.135909795761
-79.316322326660 -73.081474304199 -211.561050415039 1.005481362343
90.686798095703 -75.439521789551 -210.463043212891 1.620946884155
-82.668350219727 -72.700187683105 -213.028656005859 1.029514431953
-146.602233886719 -74.240859985352 -218.294448852539 1.575893163681
-79.684524536133 -73.763458251953 -214.729263305664 0.654327690601
-16.005475997925 -73.058135986328 -213.601989746094 1.246448278427
-21.227373123169 -73.248970031738 -217.071670532227 0.645885825157
18.404891967773 -73.587501525879 -211.075256347656 0.874465823174
-6.304592132568 -75.298744201660 -215.572906494141 2.239585876465
-88.287467956543 -72.195549011230 -218.600189208984 1.025939822197
91.661506652832 -75.276847839355 -212.990646362305 2.193942308426
-95.990516662598 -73.962539672852 -216.469863891602 1.395518422127
-149.949752807617 -74.314079284668 -222.767150878906 1.610794544220
-19.458168029785 -73.259574890137 -222.317260742188 1.166125416756
15.602236747742 -73.984123229980 -216.483474731445 0.821251928806
-102.021736145020 -72.530364990234 -220.386856079102 1.174662828445
7.229971885681 -74.975845336914 -220.988449096680 0.745545566082
-23.583068847656 -74.738838195801 -217.252792358398 0.503491818905
83.322929382324 -75.231880187988 -222.901351928711 1.308582782745
-146.855392456055 -73.938751220703 -222.617279052734 1.247545957565
4.057818889618 -72.663780212402 -225.662857055664 1.866938591003
-9.814247131348 -75.824806213379 -222.323394775391 2.136028051376
16.867244720459 -73.009841918945 -220.837219238281 1.749374747276
82.845924377441 -75.256675720215 -221.285202026367 1.391677379608
-12.523583412170 -73.958076477051 -227.483276367188 0.371814221144
-130.987213134766 -72.527091979980 -226.351715087891 1.574703216553
-12.347542762756 -75.333709716797 -224.963363647461 0.649518191814
16.553842544556 -76.196189880371 -233.993392944336 1.753054380417
-125.362030029297 -73.336624145508 -227.996719360352 1.460570812225
-149.013595581055 -70.897964477539 -227.755752563477 1.723208427429
-141.537582397461 -72.352050781250 -229.068771362305 1.649813175201
-134.925201416016 -72.250885009766 -230.792053222656 1.241263747215
-16.060756683350 -74.427879333496 -226.946578979492 1.313113927841
71.465255737305 -74.909454345703 -229.572738647461 1.842391848564
-141.728927612305 -71.881965637207 -231.955841064453 1.031134247780
73.874008178711 -76.474998474121 -229.379760742188 1.317675590515
-19.613790512085 -75.648620605469 -227.237487792969 2.190749883652
-142.116744995117 -76.273506164551 -231.732131958008 1.263929367065
78.242240905762 -74.679489135742 -227.964309692383 1.832833647728
8.649124145508 -75.706291198730 -235.715621948242 2.284135580063
-144.293899536133 -77.105461120605 -234.454238891602 1.441950082779
-151.067413330078 -71.859901428223 -235.620635986328 1.093599677086
15.250269889832 -73.672248840332 -232.709732055664 1.825334191322
-3.370296955109 -74.170082092285 -235.427062988281 0.781461119652
-24.986030578613 -74.418243408203 -237.932418823242 0.474399536848
-2.100173950195 -72.414352416992 -239.712799072266 0.403269052505
-161.437484741211 -72.259956359863 -238.025741577148 1.925196290016
10.970784187317 -75.556091308594 -244.839096069336 0.503787040710
-164.847381591797 -71.643218994141 -236.072341918945 2.141174793243
-14.477112770081 -75.224754333496 -238.104782104492 0.758726119995
65.458152770996 -75.470970153809 -239.047378540039 2.037160158157
-12.655014991760 -74.489799499512 -240.613403320313 0.580353498459
-24.984416961670 -72.728637695313 -239.969528198242 0.728460431099
-26.280431747437 -73.574577331543 -241.949539184570 1.281271219254
-16.255308151245 -73.192993164063 -242.325820922852 0.562713265419
-146.498367309570 -72.066307067871 -235.819030761719 1.777044653893
8.162343025208 -74.763435363770 -243.704864501953 1.244979143143
64.159889221191 -74.444885253906 -241.797012329102 1.650780439377
12.949293136597 -74.158653259277 -245.010101318359 0.632556915283
-161.729721069336 -71.629692077637 -240.279678344727 2.047444105148
-49.067783355713 -72.963165283203 -244.088912963867 1.375419139862
1.867511987686 -79.790489196777 -246.921737670898 0.626600265503
16.246665954590 -73.936660766602 -245.766586303711 0.646049261093
-55.104282379150 -72.388175964355 -247.053771972656 1.659398913383
-4.442146778107 -73.278930664063 -245.498855590820 0.894009411335
21.095069885254 -74.981986999512 -246.566680908203 0.561277389526
-165.144561767578 -71.978546142578 -248.846710205078 2.020920753479
-71.293792724609 -74.409172058105 -246.954711914063 0.952514290810
-50.580535888672 -73.993431091309 -247.136383056641 0.662051916122
-78.926200866699 -73.875495910645 -249.238494873047 1.036154747009
-159.819381713867 -71.764190673828 -248.444442749023 2.291639804840
-151.123016357422 -72.354118347168 -252.690765380859 1.316450119019
-59.616855621338 -74.270301818848 -249.622207641602 1.024668812752
-69.186454772949 -73.615440368652 -251.905502319336 0.941067993641
-153.798294067383 -71.784408569336 -254.173675537109 1.909772396088
-152.133605957031 -71.811752319336 -253.140090942383 1.884782075882
-77.868759155273 -73.334594726563 -253.846755981445 0.923681378365
-93.533157348633 -72.542144775391 -253.476394653320 1.399843573570
-166.376724243164 -71.707656860352 -250.828277587891 1.988406181335
-156.183410644531 -71.864944458008 -257.964080810547 2.030931949615
-134.094955444336 -72.520324707031 -255.780090332031 1.551709651947
-83.110893249512 -73.924873352051 -254.067626953125 0.923245906830
-163.071502685547 -71.889328002930 -252.512054443359 2.688338041306
-142.381301879883 -72.473686218262 -256.893859863281 1.371720194817
-86.305938720703 -72.633346557617 -255.654174804688 1.082070112228
-95.718345642090 -70.682685852051 -258.526306152344 0.931021690369
-148.258148193359 -72.291999816895 -257.770385742188 1.370489478111
-95.299674987793 -72.470504760742 -257.091613769531 1.562296152115
-149.753189086914 -71.955734252930 -257.655731201172 1.735892653465
-100.245529174805 -72.413795471191 -257.494018554688 1.262149214745
-165.207550048828 -72.212806701660 -259.860656738281 2.077973604202
-160.645233154297 -71.946235656738 -259.685241699219 2.020687580109
-124.304855346680 -72.321395874023 -257.840606689453 1.577805399895
-150.626907348633 -71.594032287598 -259.824127197266 1.924776077271
-115.155883789063 -72.333244323730 -261.076446533203 1.387593269348
-15.185126304626 -74.472503662109 -261.822753906250 0.512126684189
-143.016891479492 -72.171508789063 -262.285400390625 0.722136497498
-124.413551330566 -72.517211914063 -260.692749023438 1.531706571579
-155.655014038086 -71.935287475586 -262.266571044922 1.973312973976
21.565511703491 -74.699836730957 -268.582122802734 0.500450074673
-147.323776245117 -73.241630554199 -278.103088378906 1.904729604721
-167.475387573242 -72.050201416016 -277.592529296875 1.008588433266
-7.230685234070 -76.242675781250 -279.098876953125 0.966005921364
-147.304397583008 -73.251167297363 -282.791168212891 1.552344083786
-7.835708141327 -73.721694946289 -282.627838134766 0.865925908089
12.678264617920 -73.391860961914 -285.101776123047 0.368099212646
-136.041656494141 -73.055145263672 -286.751770019531 1.445898056030
-71.723258972168 -73.236625671387 -286.496368408203 1.388509631157
-33.495014190674 -73.965560913086 -286.305053710938 1.134097337723
-113.790962219238 -71.949218750000 -287.628997802734 0.942512273788
-92.736656188965 -73.485466003418 -291.036895751953 0.798536121845
-91.357177734375 -72.540489196777 -291.567565917969 0.677093207836
-48.209541320801 -74.060401916504 -290.995605468750 2.683813095093
-116.004898071289 -72.817138671875 -291.279663085938 1.190132856369
-110.905624389648 -72.831352233887 -290.760040283203 2.343440055847
-32.171264648438 -73.218872070313 -291.446075439453 0.686533749104
-113.433258056641 -71.358413696289 -292.188110351563 0.767380833626
-125.078918457031 -71.174613952637 -292.769012451172 1.008694410324
-143.756179809570 -72.289955139160 -292.778472900391 1.638577103615
7.289999961853 -73.142158508301 -292.665771484375 0.413037836552
14.096028327942 -75.253372192383 -294.036285400391 0.424321383238
-157.341613769531 -72.483207702637 -294.496856689453 0.545094251633
-154.921783447266 -73.798027038574 -301.165557861328 1.286843180656
-144.646133422852 -72.794754028320 -311.985443115234 1.338217139244
-150.313369750977 -70.472137451172 -312.427642822266 1.632633566856
-152.360229492188 -75.099197387695 -312.792694091797 1.675424218178
29.189966201782 -74.309555053711 -16.539863586426 2.247129917145
24.226278305054 -74.226448059082 -16.361139297485 2.273838281631
21.024717330933 -74.352676391602 -22.410284042358 2.200727701187
27.703330993652 -74.157272338867 -39.306262969971 2.146412611008
-57.507972717285 -71.994102478027 -49.125301361084 1.346946358681
-66.457527160645 -72.078163146973 -49.643955230713 1.794726371765
-38.943355560303 -73.202781677246 -52.590007781982 0.442730069160
-81.622817993164 -73.810684204102 -58.794281005859 2.157640933990
81.993698120117 -76.842979431152 -71.949012756348 2.711433649063
-19.848033905029 -75.538024902344 -70.612045288086 0.748917162418
88.146003723145 -76.390136718750 -71.044113159180 2.509150266647
96.761917114258 -75.029800415039 -78.676750183105 2.026565313339
-93.992675781250 -72.591064453125 -79.013298034668 1.649453997612
69.743537902832 -74.784278869629 -79.971855163574 2.299352169037
-43.489311218262 -76.816978454590 -84.028427124023 1.034796714783
99.304687500000 -73.294044494629 -83.664428710938 1.715526938438
-53.414882659912 -74.813720703125 -89.424499511719 1.191377520561
52.295379638672 -74.726440429688 -90.083076477051 2.282603263855
71.788124084473 -76.034950256348 -91.626213073730 2.245614767075
57.316658020020 -75.222656250000 -97.055717468262 2.048947811127
52.481861114502 -76.568977355957 -97.874176025391 1.302510261536
72.304100036621 -76.551887512207 -94.609931945801 2.232771873474
44.876544952393 -75.564247131348 -100.150489807129 1.512651681900
103.639274597168 -75.970680236816 -98.358802795410 2.891946077347
106.462646484375 -76.503761291504 -104.032806396484 2.837413787842
83.120300292969 -72.250404357910 -102.415504455566 1.746728062630
88.190361022949 -76.117729187012 -100.776321411133 2.089669466019
101.487075805664 -75.310066223145 -97.307563781738 2.579850435257
108.240959167480 -74.643501281738 -102.344673156738 1.912932991982
38.745754241943 -76.140129089355 -105.277565002441 2.548956394196
110.529510498047 -73.646087646484 -119.497634887695 1.898310542107
112.229057312012 -76.081451416016 -117.381484985352 1.648511767387
32.848625183105 -74.822715759277 -121.755340576172 1.654063940048
44.626262664795 -75.225715637207 -119.730163574219 2.221105575562
114.766891479492 -75.120018005371 -126.490486145020 2.083384513855
39.276672363281 -74.964920043945 -126.223960876465 2.118844032288
112.076156616211 -75.284576416016 -128.318557739258 1.797595620155
109.788726806641 -75.229431152344 -121.591552734375 2.411669969559
25.048009872437 -73.082618713379 -138.022689819336 1.941679477692
-49.863952636719 -73.745452880859 -135.475616455078 0.623983919621
-52.503398895264 -72.882896423340 -136.017639160156 0.937401294708
110.762603759766 -74.359939575195 -133.647735595703 1.294568419456
-71.901260375977 -74.111625671387 -142.334640502930 0.733062565327
-75.223808288574 -74.256576538086 -140.504486083984 1.537092089653
-57.512195587158 -74.372787475586 -144.340164184570 2.554688453674
33.527267456055 -73.268272399902 -141.249572753906 1.484483480453
111.375015258789 -74.985931396484 -143.490295410156 0.882569730282
-68.370307922363 -72.435668945313 -146.269180297852 0.895296812057
-46.145050048828 -72.284469604492 -144.774429321289 0.916176378727
34.193611145020 -75.493148803711 -148.645248413086 1.219563603401
-67.988769531250 -74.049072265625 -148.229614257813 1.071043014526
113.372627258301 -75.044372558594 -143.228866577148 2.488711833954
112.573242187500 -74.692535400391 -156.508972167969 0.572999358177
116.056205749512 -76.083023071289 -150.194290161133 2.110151767731
-38.254993438721 -74.282501220703 -154.174438476563 1.354503870010
-66.138603210449 -74.207046508789 -162.770080566406 1.304120421410
-72.618507385254 -73.700637817383 -156.522644042969 0.899192810059
31.918167114258 -75.152359008789 -149.648559570313 1.892823576927
-2.241931915283 -75.316680908203 -162.345764160156 1.387387752533
107.701179504395 -76.420997619629 -159.408401489258 2.558742761612
111.086395263672 -74.833221435547 -153.520019531250 1.921612501144
111.528945922852 -74.417259216309 -156.024139404297 1.381762623787
-65.219879150391 -71.141197204590 -163.326583862305 0.830287218094
-46.158535003662 -74.628334045410 -161.670761108398 1.409096598625
-0.404253989458 -73.039070129395 -164.851043701172 0.619973063469
