6.769714832306 -72.955513000488 -225.344009399414 1.701247930527
81.320617675781 -70.901519775391 -222.394866943359 1.737759351730
-13.273122787476 -73.045021057129 -222.793884277344 1.477352499962
-11.011498451233 -73.087814331055 -227.953414916992 2.164417028427
-3.774863004684 -73.590385437012 -227.026992797852 2.886836528778
9.399230957031 -72.492202758789 -224.299362182617 2.240840196609
87.108024597168 -71.796058654785 -223.057266235352 1.360938429832
12.171991348267 -71.871757507324 -229.492828369141 2.694463014603
4.517930984497 -73.776618957520 -226.334060668945 1.385467886925
-7.810019969940 -73.071632385254 -227.333724975586 1.653563141823
-5.724330902100 -72.199935913086 -230.674591064453 1.288692831993
17.707370758057 -71.602088928223 -229.152481079102 1.943213462830
-11.209094047546 -72.586128234863 -231.040710449219 0.762387216091
72.349098205566 -71.912712097168 -236.264541625977 1.587719440460
-7.060979843140 -71.248062133789 -234.878906250000 0.494549930096
19.561220169067 -73.420913696289 -233.419677734375 2.040254116058
-165.435180664063 -75.348175048828 -236.849258422852 2.339813232422
-3.873159885406 -72.235153198242 -236.372146606445 1.201308369637
-8.461510658264 -71.181442260742 -239.107788085938 1.560297489166
-167.164077758789 -73.836433410645 -246.708267211914 1.541530966759
-9.528977394104 -72.843223571777 -242.402908325195 1.672154903412
17.717664718628 -71.503669738770 -244.031250000000 1.768593549728
-145.753295898438 -75.959991455078 -247.385940551758 1.466089963913
-68.070030212402 -71.700172424316 -244.302658081055 2.682185888290
-59.797039031982 -72.628845214844 -243.150573730469 2.170404672623
54.891117095947 -71.963462829590 -244.770248413086 1.824285864830
-76.427177429199 -73.462318420410 -244.373382568359 3.649954557419
19.196018218994 -73.173149108887 -246.648147583008 1.211959958076
-72.768013000488 -71.933967590332 -248.610443115234 1.341191291809
-13.649035453796 -73.064285278320 -248.099395751953 1.730741977692
-145.004928588867 -74.973892211914 -248.401199340820 3.062780380249
49.640884399414 -71.630844116211 -246.461883544922 1.728472352028
-77.754615783691 -72.224937438965 -250.103683471680 1.882993102074
-101.228897094727 -72.946533203125 -250.574798583984 4.277508258820
-96.882919311523 -74.847267150879 -251.101043701172 3.566485881805
-116.678916931152 -74.951301574707 -251.261398315430 4.557675361633
-104.573547363281 -74.607658386230 -252.851486206055 4.157708168030
-106.299278259277 -74.577430725098 -255.235000610352 2.299095869064
23.200969696045 -73.593582153320 -258.000061035156 1.760884642601
-126.875282287598 -73.228767395020 -260.555511474609 3.061000585556
-10.843312263489 -73.014610290527 -273.659393310547 1.883150696754
-145.397674560547 -73.939147949219 -277.226470947266 1.631178379059
-168.311141967773 -74.519393920898 -278.663513183594 1.336644530296
-124.517272949219 -74.040977478027 -281.756561279297 2.872424602509
-113.960952758789 -72.253944396973 -282.796722412109 4.282632350922
-75.151550292969 -70.655754089355 -283.501739501953 3.164886474609
-56.651718139648 -71.360015869141 -283.230407714844 4.118415832520
-42.802913665771 -72.243217468262 -283.414703369141 3.215456724167
-14.815016746521 -71.715972900391 -284.762908935547 2.988552331924
-13.813523292542 -70.942871093750 -286.154449462891 2.154871225357
-37.549549102783 -71.396759033203 -285.723297119141 2.498540163040
-34.000438690186 -71.518531799316 -285.693267822266 2.766598939896
-18.302341461182 -71.202308654785 -286.150665283203 3.809275150299
-69.215629577637 -72.048210144043 -287.320617675781 2.606966257095
-53.992103576660 -72.114616394043 -287.185119628906 1.552976846695
-15.399373054504 -70.891319274902 -287.996612548828 1.261010050774
-13.391389846802 -71.879409790039 -288.112060546875 1.172841072083
-3.836977005005 -70.713134765625 -287.816040039063 1.741762042046
2.334220886230 -71.126762390137 -288.393035888672 3.097980976105
-89.483581542969 -73.238998413086 -288.007019042969 2.006487607956
-142.251434326172 -72.706535339355 -288.214630126953 2.910889148712
-117.606521606445 -73.982467651367 -288.205261230469 1.976777434349
-153.781524658203 -75.524818420410 -292.352966308594 1.303014755249
-154.463745117188 -73.685386657715 -294.866424560547 1.824296712875
-145.725662231445 -74.817428588867 -295.036865234375 0.403077781200
50.279891967773 -73.867843627930 -16.539958953857 4.498454093933
23.500658035278 -74.022270202637 -20.923971176147 2.468635559082
52.602943420410 -73.755966186523 -24.544227600098 4.315599918365
50.803878784180 -73.816421508789 -31.729135513306 3.124606370926
89.768783569336 -72.688003540039 -65.792503356934 3.085777282715
98.044563293457 -72.940017700195 -71.146324157715 3.139619588852
103.824356079102 -70.656929016113 -78.907455444336 2.965233564377
101.362655639648 -73.856971740723 -80.492988586426 2.982818126678
61.328220367432 -73.378067016602 -86.003593444824 3.091469526291
51.443698883057 -74.589073181152 -91.500259399414 1.253088116646
66.011253356934 -71.689186096191 -88.520423889160 2.625307321548
-61.788722991943 -71.259132385254 -88.108276367188 3.883191108704
71.978912353516 -74.002845764160 -86.682334899902 2.263470172882
105.067398071289 -70.899322509766 -96.098472595215 0.763079404831
77.454902648926 -74.150398254395 -97.761505126953 0.893928885460
98.660537719727 -71.881118774414 -99.408905029297 1.514796495438
-78.075851440430 -75.384300231934 -96.965469360352 3.252821445465
46.673164367676 -73.256286621094 -99.411323547363 0.434187829494
-81.341659545898 -75.076301574707 -102.015769958496 1.215850472450
52.909503936768 -74.342956542969 -108.536567687988 1.963555455208
42.404232025146 -72.977455139160 -102.202987670898 1.580049395561
109.003639221191 -71.616889953613 -101.690132141113 0.467582136393
40.766201019287 -71.896057128906 -106.026397705078 1.663353085518
41.569622039795 -71.570365905762 -112.391921997070 2.076457500458
45.863323211670 -71.205230712891 -110.756248474121 2.251137495041
110.209205627441 -71.060096740723 -112.486083984375 1.359498143196
-80.101570129395 -73.803092956543 -117.014228820801 3.451037168503
113.395080566406 -70.809173583984 -124.822227478027 1.457696795464
39.677322387695 -71.999298095703 -121.475189208984 1.517805099487
43.903964996338 -70.889633178711 -118.492126464844 1.639765381813
38.470550537109 -72.050643920898 -120.226974487305 1.598095417023
-54.677711486816 -74.426719665527 -126.432991027832 4.312184810638
33.350151062012 -72.463981628418 -121.502243041992 1.265139341354
-74.247627258301 -75.684318542480 -133.026596069336 4.265604972839
-53.696151733398 -73.835243225098 -129.512039184570 2.977543115616
-77.303047180176 -73.348289489746 -131.103363037109 2.292685508728
35.779418945313 -71.721321105957 -126.329681396484 3.218538522720
-56.830520629883 -72.786392211914 -130.510803222656 0.910684287548
37.044956207275 -71.689628601074 -131.775070190430 1.506312131882
-71.113319396973 -73.088218688965 -135.954635620117 1.882461190224
-57.031349182129 -75.291030883789 -134.649459838867 2.416875362396
31.047325134277 -71.905220031738 -137.126861572266 2.698914051056
111.201522827148 -72.650146484375 -142.107559204102 2.161136865616
117.952629089355 -70.022888183594 -135.018325805664 2.538181781769
33.345928192139 -71.439598083496 -136.988845825195 1.985496640205
-43.388397216797 -72.210800170898 -137.836349487305 3.105477094650
111.546394348145 -70.518806457520 -150.040863037109 2.137716293335
-72.009552001953 -73.570182800293 -140.589492797852 1.697472333908
-56.762626647949 -73.838920593262 -139.266601562500 1.301849365234
33.289566040039 -72.647331237793 -147.463821411133 0.723881304264
-74.308242797852 -73.778053283691 -142.976226806641 1.132174491882
-69.260070800781 -74.391632080078 -147.542938232422 1.616246342659
118.468833923340 -71.193878173828 -148.728195190430 2.304440259933
-63.069408416748 -74.814712524414 -150.742706298828 3.032230854034
-37.143844604492 -73.205398559570 -150.140411376953 3.244608879089
29.610286712646 -70.957275390625 -146.019439697266 1.235292911530
-73.168563842773 -73.455108642578 -145.856353759766 1.663509488106
14.208270072937 -73.413795471191 -148.866195678711 2.246325731277
33.575637817383 -71.318183898926 -152.181533813477 2.620565652847
32.282772064209 -71.540420532227 -145.238952636719 2.576900720596
13.627571105957 -74.623832702637 -152.532730102539 2.140364408493
-46.693016052246 -72.521827697754 -150.496398925781 2.826892137527
29.420053482056 -70.603759765625 -150.852020263672 1.898100495338
-42.938220977783 -72.668777465820 -145.417083740234 0.951391398907
8.779594421387 -72.693046569824 -151.183364868164 2.218637943268
24.158369064331 -71.948760986328 -147.556381225586 1.392827749252
-69.953948974609 -73.943878173828 -152.106109619141 1.788517594337
-43.713233947754 -71.667816162109 -150.854202270508 1.918193936348
-65.760253906250 -72.185966491699 -153.343490600586 2.516367197037
16.372907638550 -71.728057861328 -155.692092895508 1.115733504295
27.074228286743 -71.672409057617 -147.732086181641 1.088179826736
4.268302917480 -72.165969848633 -158.557189941406 1.861429214478
22.143621444702 -73.649414062500 -153.713470458984 1.337550997734
32.547153472900 -72.887062072754 -162.187500000000 0.959585905075
-45.805656433105 -74.724449157715 -158.523101806641 1.530188798904
-32.241317749023 -73.381912231445 -158.113708496094 3.334775447845
-37.804325103760 -72.390090942383 -157.184783935547 2.153744459152
29.645439147949 -71.448829650879 -158.285095214844 1.290193438530
-42.138782501221 -73.523880004883 -164.494491577148 1.838157296181
-38.968387603760 -72.229423522949 -159.166198730469 0.947929441929
22.169670104980 -72.001243591309 -164.075866699219 1.116959095001
-38.716762542725 -73.002151489258 -169.986953735352 1.441000819206
30.393589019775 -71.731887817383 -167.815002441406 2.206650733948
115.405303955078 -70.164863586426 -166.132568359375 1.408240318298
-30.766708374023 -72.168395996094 -168.626434326172 1.413976907730
108.529022216797 -69.912879943848 -171.484863281250 1.596037149429
-33.137092590332 -72.258537292480 -173.463790893555 2.248991250992
-35.096988677979 -73.399200439453 -177.088836669922 1.348921179771
19.806545257568 -73.349555969238 -172.399963378906 2.269822835922
105.917991638184 -69.844337463379 -180.657196044922 0.932426452637
-27.515556335449 -71.998474121094 -181.630477905273 1.597327470779
-32.286026000977 -71.745178222656 -170.855178833008 1.351880908012
-22.688014984131 -71.815155029297 -182.731567382813 1.255519032478
-147.529266357422 -75.245140075684 -183.288146972656 1.102451562881
17.193531036377 -72.046813964844 -180.813980102539 1.013833999634
107.723617553711 -69.607749938965 -187.736373901367 1.173320889473
-154.542129516602 -73.923751831055 -189.679763793945 4.895308494568
-25.271963119507 -72.411285400391 -188.837707519531 2.361593246460
-114.425559997559 -73.741226196289 -192.197006225586 4.555907726288
-132.829711914063 -74.120765686035 -192.904464721680 4.054091453552
-108.946960449219 -72.717857360840 -195.083068847656 3.377655267715
-110.532096862793 -73.702201843262 -196.198791503906 3.511796236038
-13.177000045776 -71.883178710938 -193.527023315430 3.127329826355
21.726623535156 -72.605110168457 -194.014816284180 2.333781957626
-14.620141983032 -70.477851867676 -198.626586914063 1.576333403587
-122.930625915527 -73.821922302246 -200.215438842773 0.858166992664
-20.617622375488 -71.009643554688 -203.136611938477 1.933315634727
-130.590393066406 -74.974128723145 -198.624679565430 2.390498399734
-12.263471603394 -72.780845642090 -200.066726684570 2.206197738647
-143.217056274414 -73.564895629883 -200.604125976563 3.102525472641
92.859451293945 -69.776245117188 -205.707061767578 2.219182968140
-164.037307739258 -74.362739562988 -197.305572509766 3.521585226059
-3.186378955841 -74.258728027344 -210.895446777344 2.883263111115
11.125337600708 -71.262115478516 -206.572067260742 1.305739402771
11.384308815002 -70.680458068848 -214.011367797852 1.060466170311
84.063606262207 -69.955596923828 -216.203125000000 2.072134017944
7.796143054962 -71.843215942383 -209.902145385742 1.743508696556
15.650940895081 -71.150886535645 -211.727264404297 2.366789340973
-14.960957527161 -74.375350952148 -213.956573486328 0.960867941380
-89.740394592285 -71.997795104980 -213.485656738281 1.681209445000
-96.177192687988 -73.321792602539 -212.470230102539 3.505316972733
-3.136723995209 -70.489128112793 -218.137893676758 2.058223485947
-165.426361083984 -74.218826293945 -218.491714477539 1.989533543587
14.043712615967 -71.155677795410 -219.755462646484 1.113623976707
-143.582946777344 -73.338592529297 -218.737960815430 1.891777992249
12.551431655884 -71.081390380859 -222.484771728516 1.545325875282
-132.712295532227 -73.537651062012 -220.314147949219 4.986425876617
-116.029663085938 -73.855003356934 -221.017150878906 4.849671363831
16.625646591187 -70.534797668457 -219.567596435547 1.808899760246
77.232910156250 -70.136398315430 -222.842926025391 2.126200437546
8.436027526855 -70.115531921387 -220.522720336914 2.453251123428
-110.937187194824 -73.579513549805 -225.907516479492 2.182063579559
77.650154113770 -70.157386779785 -226.688735961914 1.579772830009
82.016471862793 -70.197669982910 -227.974411010742 1.184591650963
-122.562934875488 -73.481369018555 -227.852813720703 1.359515905380
-113.282295227051 -73.743537902832 -227.175613403320 2.454062938690
-10.618876457214 -71.376937866211 -228.028335571289 1.551934242249
72.618965148926 -71.116561889648 -226.999664306641 2.149993896484
65.403175354004 -70.961013793945 -232.993835449219 1.740126609802
75.879570007324 -69.945373535156 -229.585784912109 1.926056265831
-132.550064086914 -72.657485961914 -230.235702514648 2.054829835892
72.535804748535 -70.535858154297 -233.594619750977 0.510858893394
67.531730651855 -70.087654113770 -234.122756958008 1.003974080086
-165.708740234375 -74.452041625977 -224.134078979492 2.615314483643
0.952033996582 -73.815887451172 -236.175262451172 0.998614192009
17.647914886475 -71.296989440918 -237.841629028320 2.532519817352
-5.308300018311 -70.824623107910 -236.472259521484 1.458891034126
14.144289970398 -70.211875915527 -236.869979858398 1.271683454514
65.152496337891 -70.987380981445 -237.061859130859 0.691021263599
11.897798538208 -71.140136718750 -238.635772705078 1.611289501190
-9.352923393250 -67.948043823242 -239.016754150391 2.823014259338
2.089229106903 -69.911964416504 -238.188873291016 2.084167957306
65.623207092285 -71.155082702637 -241.255462646484 1.703919291496
6.310344219208 -72.729270935059 -240.299514770508 2.126921653748
-8.089576721191 -71.956504821777 -240.439041137695 0.830553710461
14.094306945801 -71.218353271484 -242.172882080078 0.529690682888
-166.785522460938 -73.305290222168 -236.369934082031 2.063139677048
59.408996582031 -68.980461120605 -245.619033813477 1.638571858406
52.473606109619 -69.309631347656 -245.462615966797 1.208220601082
56.161968231201 -71.178123474121 -240.420394897461 1.231366157532
-11.575539588928 -71.754882812500 -245.137237548828 1.576228618622
57.893325805664 -71.367004394531 -245.132537841797 1.150634050369
-72.343368530273 -71.718688964844 -244.499481201172 3.562035799026
52.101757049561 -70.762611389160 -247.690353393555 1.163019657135
-90.410697937012 -73.577171325684 -247.978591918945 4.035542964935
-125.178192138672 -74.399658203125 -249.986419677734 4.605572223663
-132.837493896484 -72.685188293457 -249.727798461914 4.752664566040
44.352046966553 -70.963592529297 -250.587097167969 1.265184998512
-135.428848266602 -74.131576538086 -251.290832519531 4.514335155487
-110.178985595703 -73.466598510742 -252.858016967773 4.313320636749
-113.358840942383 -71.412796020508 -252.605957031250 4.514972209930
-82.300529479980 -73.121147155762 -251.409088134766 2.117058515549
-111.499481201172 -74.170967102051 -256.764648437500 2.660884141922
-123.609672546387 -74.338966369629 -257.727172851563 0.632238328457
-145.002014160156 -71.793693542480 -261.425323486328 2.582000970840
-15.187230110168 -71.337226867676 -259.200378417969 3.090588569641
-167.567245483398 -73.379020690918 -258.923828125000 3.001196861267
-13.975415229797 -71.957008361816 -269.055511474609 0.875662386417
-159.515960693359 -72.296310424805 -262.707061767578 2.127061605453
-152.611602783203 -72.138313293457 -270.559875488281 3.421094894409
-168.229904174805 -73.549751281738 -272.390472412109 1.802721738815
-12.611365318298 -70.070014953613 -272.157348632813 1.658315539360
-133.787582397461 -73.811737060547 -279.407958984375 4.811370372772
-159.914291381836 -72.942512512207 -281.257232666016 1.893043756485
-145.460067749023 -72.759910583496 -277.191619873047 0.726114034653
-134.964401245117 -75.428146362305 -280.319000244141 4.605787277222
-8.350635528564 -69.244834899902 -282.279632568359 1.945992350578
-125.443397521973 -75.537437438965 -280.108245849609 4.461536884308
-141.658889770508 -73.675056457520 -280.661437988281 4.068455219269
-116.592132568359 -72.512153625488 -281.876342773438 4.517419815063
-75.788940429688 -72.230545043945 -282.698211669922 3.746124029160
-62.604858398438 -70.713798522949 -283.876251220703 3.386086463928
-5.607015132904 -70.878074645996 -285.383880615234 1.762811899185
-53.004238128662 -71.078033447266 -285.932800292969 2.005002737045
-58.160591125488 -70.659347534180 -285.194946289063 2.196121215820
-69.123420715332 -70.715362548828 -286.824493408203 2.185856342316
-86.735420227051 -72.606742858887 -287.532531738281 1.191214561462
-98.371749877930 -69.892906188965 -286.903015136719 0.888693749905
-162.344100952148 -71.619262695313 -286.441955566406 1.669287800789
-162.750946044922 -74.159309387207 -287.322509765625 1.389256715775
-125.818107604980 -73.708396911621 -290.423431396484 1.857107639313
-145.450927734375 -73.896217346191 -291.441131591797 2.299660921097
-155.962966918945 -74.324012756348 -296.221618652344 1.877074122429
-147.879776000977 -72.666252136230 -308.524719238281 4.090995788574
50.762073516846 -72.316848754883 -15.566073417664 4.661130905151
23.270677566528 -74.503654479980 -24.566287994385 2.530617713928
44.473403930664 -73.047981262207 -31.730775833130 2.223257064819
-14.027222633362 -75.927841186523 -64.047729492188 4.648650646210
85.052482604980 -71.431907653809 -63.841514587402 3.278476238251
88.545692443848 -70.378242492676 -64.468627929688 1.808305621147
79.475997924805 -71.479583740234 -64.564704895020 2.493534088135
76.719589233398 -71.826454162598 -66.576362609863 1.608682036400
94.444496154785 -74.645866394043 -71.734886169434 2.812902212143
-90.824020385742 -73.466789245605 -66.327468872070 2.241969823837
73.433319091797 -73.263908386230 -74.220947265625 1.952419519424
-34.125301361084 -71.931388854980 -73.591941833496 3.394514083862
102.730064392090 -72.090568542480 -85.412483215332 2.446151018143
62.314506530762 -72.015876770020 -88.370201110840 2.495968580246
108.635192871094 -72.695083618164 -94.797050476074 2.651052474976
107.322433471680 -71.157493591309 -96.427902221680 1.180401206017
72.873222351074 -70.991172790527 -97.544158935547 1.830794095993
-74.886146545410 -76.334381103516 -95.589248657227 5.244181156158
56.578865051270 -73.354789733887 -99.627021789551 1.691411137581
107.577590942383 -70.847358703613 -103.564971923828 1.749568939209
51.180908203125 -73.980575561523 -107.699676513672 1.951708674431
82.727005004883 -70.965415954590 -102.402931213379 1.241237163544
44.347122192383 -71.847312927246 -104.291084289551 1.493537902832
109.259346008301 -70.191848754883 -102.196899414063 1.985846042633
50.087993621826 -70.802375793457 -105.574165344238 1.520156025887
111.572242736816 -71.114494323730 -109.913948059082 2.074156522751
111.283294677734 -70.434272766113 -112.402023315430 1.667512655258
-76.019065856934 -73.481231689453 -110.093086242676 4.436336040497
-80.160415649414 -73.709114074707 -113.548210144043 3.268364906311
46.435077667236 -73.268974304199 -118.622360229492 0.351484000683
116.258460998535 -71.099472045898 -117.339416503906 2.507107019424
116.332725524902 -69.242683410645 -122.592155456543 2.524120092392
-82.277038574219 -73.380065917969 -123.498626708984 2.846727609634
109.559684753418 -70.372749328613 -122.218254089355 1.464698672295
-56.773597717285 -74.417518615723 -127.961090087891 3.104242563248
-83.988746643066 -73.439605712891 -122.234138488770 3.371966362000
-73.397491455078 -72.373756408691 -124.065032958984 4.733036041260
-55.529792785645 -70.353004455566 -123.050262451172 2.681365489960
33.023792266846 -70.813125610352 -126.648368835449 2.705635547638
41.443855285645 -73.067840576172 -130.551528930664 2.110544919968
-73.892501831055 -72.980323791504 -133.394912719727 2.864712476730
30.625869750977 -71.749519348145 -130.345611572266 1.906900525093
111.765220642090 -70.116676330566 -138.488113403320 1.812411665916
-41.495479583740 -72.039375305176 -142.791900634766 2.380108833313
27.391811370850 -69.417312622070 -145.270645141602 1.721013665199
117.013442993164 -69.126899719238 -144.301651000977 1.940268635750
36.588253021240 -71.080184936523 -141.045761108398 1.427871823311
113.194725036621 -69.056709289551 -141.468948364258 1.828197836876
-51.483074188232 -73.964859008789 -145.348297119141 2.830366134644
-65.914253234863 -72.473800659180 -146.224624633789 1.579741358757
-49.469982147217 -72.937522888184 -151.535400390625 2.281334161758
-39.560413360596 -72.518623352051 -161.448791503906 2.038187265396
8.305882453918 -70.429473876953 -153.351303100586 0.580672800541
113.195884704590 -68.944778442383 -153.049148559570 2.106085062027
111.582862854004 -69.688629150391 -156.363235473633 1.929566979408
10.220495223999 -70.068161010742 -155.755462646484 2.435894966125
7.098399162292 -72.888923645020 -159.896194458008 2.148565530777
17.687034606934 -72.759216308594 -154.458496093750 3.002317667007
26.757043838501 -70.584991455078 -153.203628540039 1.360534071922
112.634872436523 -68.760848999023 -164.766952514648 1.333352088928
108.967857360840 -70.734611511230 -166.676879882813 1.974556565285
25.252679824829 -69.549964904785 -169.074890136719 2.028528213501
27.895418167114 -70.607070922852 -159.255783081055 2.098858833313
115.002105712891 -68.943901062012 -160.482421875000 1.987190842628
-26.340332031250 -71.472007751465 -171.135635375977 2.124446868896
111.143402099609 -69.051605224609 -167.047164916992 0.545436680317
18.530908584595 -71.753036499023 -169.227249145508 2.008969545364
23.666231155396 -70.651657104492 -162.864532470703 2.755986690521
110.923683166504 -68.884864807129 -172.081771850586 1.449164986610
27.106000900269 -70.500755310059 -168.524871826172 1.122619986534
111.392280578613 -70.125267028809 -180.245727539063 1.997289180756
-36.231491088867 -71.091278076172 -171.423904418945 2.591510057449
28.392173767090 -69.862014770508 -171.367813110352 1.469949126244
108.290252685547 -68.971458435059 -181.118316650391 1.254135251045
25.355327606201 -71.177764892578 -178.521011352539 2.219682455063
-151.373733520508 -73.261932373047 -182.249588012695 1.298865675926
-27.358131408691 -70.028999328613 -184.994079589844 1.214692473412
26.665727615356 -70.444259643555 -181.882629394531 0.727860629559
-109.708000183105 -72.621658325195 -186.815368652344 2.915720701218
-107.880737304688 -72.285614013672 -184.728363037109 3.429820537567
23.209598541260 -70.619956970215 -187.176162719727 1.628983616829
14.490041732788 -71.492614746094 -182.948410034180 1.726160526276
-25.313205718994 -71.472503662109 -186.524078369141 1.714645028114
-29.379219055176 -72.396736145020 -185.775939941406 1.060193657875
-25.145345687866 -71.358306884766 -182.255874633789 1.441901445389
19.268301010132 -70.500350952148 -177.163619995117 0.711974322796
-149.678955078125 -73.473518371582 -188.763534545898 1.757238149643
-142.470001220703 -73.621208190918 -189.027740478516 2.647568464279
-139.748519897461 -73.496162414551 -191.818298339844 4.142634391785
-20.456083297729 -70.799613952637 -188.106704711914 1.371088266373
13.594025611877 -70.469551086426 -196.612960815430 1.541297554970
100.775718688965 -69.640716552734 -193.160003662109 0.927182555199
-112.776618957520 -72.842864990234 -193.836074829102 2.828206062317
22.562511444092 -70.868972778320 -196.722457885742 1.485084533691
-16.651111602783 -70.941825866699 -193.636444091797 1.415455818176
-17.313190460205 -69.824913024902 -195.954208374023 0.819816827774
101.200225830078 -69.062583923340 -197.059997558594 2.009220600128
10.431150436401 -70.511619567871 -198.291519165039 0.960924863815
-20.399177551270 -70.088874816895 -192.922592163086 1.292752146721
-121.346755981445 -74.156089782715 -196.639617919922 2.661578893661
-132.567504882813 -72.444633483887 -198.813858032227 1.049418926239
-112.593025207520 -71.868675231934 -198.800186157227 0.854699611664
-140.939529418945 -73.555252075195 -198.990158081055 1.268725872040
19.882059097290 -70.157958984375 -194.946151733398 0.428527265787
96.745628356934 -68.776535034180 -203.482696533203 0.875438570976
-165.588729858398 -72.041366577148 -198.589019775391 2.851563453674
100.850303649902 -69.643959045410 -201.899581909180 1.467571854591
-17.849273681641 -71.276741027832 -204.212112426758 2.393562078476
95.413940429688 -69.901199340820 -211.164260864258 2.031822919846
88.692405700684 -68.676177978516 -213.179473876953 1.257406234741
15.574549674988 -70.095489501953 -207.739868164063 0.310437262058
19.194246292114 -70.959579467773 -207.971389770508 1.379485249519
12.998890876770 -69.988357543945 -204.512557983398 0.913711369038
-9.997024536133 -71.277908325195 -217.486083984375 1.925421953201
-94.530441284180 -71.613853454590 -212.702545166016 2.721332311630
-6.685337066650 -71.132850646973 -211.137771606445 1.869222640991
91.769844055176 -68.473197937012 -212.990493774414 1.665648579597
-91.337486267090 -72.060920715332 -215.531631469727 1.298211455345
-102.299369812012 -72.637557983398 -215.735916137695 3.337489128113
-90.781593322754 -74.480720520020 -216.280426025391 2.158348560333
87.491676330566 -68.542556762695 -219.615951538086 1.759464144707
-133.682662963867 -72.146911621094 -220.499099731445 4.470683574677
-133.723159790039 -71.602874755859 -220.491409301758 4.482921123505
-116.177818298340 -71.620300292969 -220.655090332031 4.513884067535
-111.959175109863 -70.699783325195 -221.629379272461 3.520623207092
-133.577941894531 -73.148468017578 -221.492401123047 3.686392545700
-108.435791015625 -74.176246643066 -222.116760253906 2.993800640106
-112.965141296387 -73.270751953125 -223.223770141602 4.023721218109
-5.819561004639 -70.901771545410 -223.035766601563 2.091526746750
-16.407852172852 -70.768409729004 -220.243942260742 1.690643310547
-0.593366026878 -70.434791564941 -228.750061035156 2.774258852005
-9.786869049072 -69.943870544434 -224.414443969727 1.532022237778
15.472162246704 -70.157417297363 -230.165420532227 1.766701221466
-15.841000556946 -70.471733093262 -225.693557739258 1.291275858879
-166.100952148438 -72.038681030273 -219.794982910156 1.417145371437
-1.486688017845 -69.043876647949 -230.165405273438 2.260618448257
81.032073974609 -68.837570190430 -227.995574951172 2.189979553223
9.896292686462 -70.648376464844 -231.771026611328 1.471833229065
-6.154788017273 -69.901603698730 -231.030563354492 1.202799916267
-155.926956176758 -71.523902893066 -232.634338378906 2.097416400909
-140.067230224609 -72.236694335938 -228.781463623047 1.823103427887
65.660934448242 -68.114517211914 -233.033782958984 2.251893281937
-5.209749221802 -71.276878356934 -232.893585205078 1.185217142105
7.095997810364 -71.019798278809 -230.658248901367 1.303258419037
69.801307678223 -69.155372619629 -233.256347656250 1.840879440308
77.695190429688 -70.617546081543 -232.261764526367 1.639742136002
70.530105590820 -69.680885314941 -238.027359008789 1.950208425522
-0.471742004156 -70.769447326660 -234.567626953125 1.672713875771
57.671684265137 -69.448333740234 -238.153991699219 2.746991157532
-17.998390197754 -71.136535644531 -236.072448730469 2.394321441650
-16.279104232788 -70.719039916992 -238.481521606445 1.388314008713
9.385814666748 -70.209548950195 -238.241394042969 1.856106877327
66.548591613770 -69.902069091797 -238.180877685547 0.792639493942
62.666255950928 -69.114501953125 -237.633895874023 1.402765631676
51.492015838623 -69.023124694824 -244.887786865234 1.049166679382
61.870780944824 -70.254875183105 -241.220764160156 1.128912925720
-15.565743446350 -70.867935180664 -247.883682250977 1.465118169785
-82.780097961426 -71.282325744629 -246.390106201172 3.484325885773
-76.423660278320 -70.607040405273 -248.012359619141 1.970383048058
44.989128112793 -70.233123779297 -247.107543945313 2.085657119751
-144.410934448242 -71.996673583984 -247.265930175781 1.330963611603
37.420753479004 -70.253112792969 -252.835983276367 1.638399839401
-91.216674804688 -71.475433349609 -247.948135375977 3.933966398239
-154.445587158203 -71.659461975098 -250.908584594727 2.784740209579
-140.841552734375 -71.928543090820 -250.672470092773 3.898509502411
48.474449157715 -70.171974182129 -250.684005737305 2.173761844635
-123.861801147461 -69.594932556152 -252.389114379883 2.692708015442
-115.323692321777 -70.463333129883 -252.206665039063 4.083536624908
-93.334045410156 -69.971366882324 -253.809295654297 2.331684350967
-14.425929069519 -70.419174194336 -251.522918701172 1.433857560158
31.716121673584 -69.746109008789 -256.504119873047 0.214080408216
25.037595748901 -68.919967651367 -258.056732177734 0.768810212612
-156.872207641602 -72.089149475098 -254.373397827148 2.766785144806
-114.845550537109 -73.481559753418 -258.391021728516 0.476019918919
-14.500647544861 -69.645332336426 -258.787506103516 1.848930358887
-134.032241821289 -72.368293762207 -260.201782226563 2.561033964157
-13.454728126526 -69.381248474121 -267.593780517578 0.595581948757
-166.951873779297 -71.567024230957 -269.580017089844 1.000901937485
-9.488217353821 -70.632499694824 -278.504058837891 2.047483921051
-162.553527832031 -71.392097473145 -283.206939697266 3.041998863220
-162.346588134766 -71.141250610352 -272.563781738281 1.977209329605
-143.334274291992 -71.429672241211 -280.814788818359 2.481411218643
-167.910339355469 -72.604469299316 -279.934234619141 1.760252475739
13.064906120300 -69.411972045898 -284.320312500000 2.756745576859
-103.471763610840 -71.454010009766 -282.761108398438 4.683971881866
-86.686225891113 -70.842018127441 -283.102996826172 3.919998645782
-166.592559814453 -71.316467285156 -280.495544433594 2.812675476074
-91.148406982422 -69.873504638672 -283.778045654297 5.029204368591
-150.624877929688 -71.543106079102 -282.842742919922 2.851393938065
-73.170547485352 -69.926788330078 -284.939056396484 3.099584579468
-68.532310485840 -70.380393981934 -285.125274658203 3.108383893967
-81.573974609375 -70.076705932617 -286.672607421875 1.544984459877
-4.479819774628 -66.499481201172 -287.775787353516 0.776330530643
-84.777381896973 -70.909111022949 -287.189727783203 1.385075569153
-99.007858276367 -70.673568725586 -287.834838867188 1.098291277885
-114.051864624023 -71.802154541016 -288.154876708984 1.290801405907
-116.768272399902 -71.213363647461 -288.336730957031 2.208081007004
-134.618469238281 -69.364547729492 -289.295471191406 2.288396120071
-144.068908691406 -72.942413330078 -296.450439453125 1.314483642578
-144.386917114258 -72.956840515137 -306.704437255859 2.306689500809
27.290140151978 -73.601768493652 -14.208746910095 2.264372110367
34.632678985596 -72.145179748535 -15.293009757996 1.155443787575
32.485546112061 -73.383911132813 -16.779186248779 1.620030045509
46.936653137207 -73.150894165039 -20.340698242188 2.516676425934
30.231481552124 -73.343719482422 -29.482614517212 4.427930355072
-71.823120117188 -71.481742858887 -44.256366729736 4.577490806580
92.955085754395 -69.136360168457 -62.635746002197 2.847153902054
-12.147690773010 -73.625656127930 -65.791984558105 3.630282163620
103.057670593262 -68.496536254883 -70.559371948242 3.282461881638
100.062072753906 -72.793594360352 -74.356040954590 3.074197292328
71.810401916504 -72.951980590820 -76.274589538574 1.381497859955
70.287460327148 -71.936378479004 -81.842468261719 1.861302495003
-42.348804473877 -74.712738037109 -80.149002075195 2.482903957367
64.661087036133 -70.646156311035 -82.567092895508 2.575933456421
-93.174476623535 -73.731407165527 -83.442169189453 1.942281007767
-48.985607147217 -71.484252929688 -83.361602783203 2.271723985672
-52.410427093506 -78.655731201172 -88.198532104492 3.010644674301
101.240692138672 -72.228462219238 -94.817596435547 1.971448063850
60.451541900635 -72.710212707520 -93.233634948730 1.358744502068
66.245384216309 -70.252227783203 -89.613021850586 2.114488363266
-94.974494934082 -71.189567565918 -92.540443420410 3.014625549316
110.074821472168 -70.252792358398 -95.003135681152 2.697790861130
49.051303863525 -70.537117004395 -96.573410034180 1.416950702667
102.590431213379 -70.144897460938 -96.601547241211 1.068231940269
108.357032775879 -69.794975280762 -104.182365417480 1.987645506859
105.355880737305 -70.199920654297 -104.766921997070 2.032071590424
75.701965332031 -70.080940246582 -101.646377563477 1.420790433884
90.237800598145 -71.391021728516 -103.117530822754 2.213744878769
51.714504241943 -72.492874145508 -109.431587219238 1.762491822243
113.077697753906 -71.150230407715 -104.571960449219 2.587666749954
46.423652648926 -70.432708740234 -105.205039978027 2.434822082520
46.029560089111 -69.154151916504 -98.905769348145 1.409518480301
113.953140258789 -69.320762634277 -109.066169738770 2.495891332626
-76.754371643066 -72.655853271484 -107.296295166016 3.731989145279
49.092788696289 -70.915168762207 -111.160835266113 2.013243198395
39.319644927979 -70.663360595703 -111.530075073242 0.637703239918
106.886047363281 -68.631683349609 -108.133171081543 1.460124373436
44.568447113037 -68.664085388184 -109.417671203613 1.876758813858
-87.187797546387 -71.993133544922 -111.766838073730 2.491313457489
-94.015556335449 -72.383682250977 -111.739143371582 2.378314733505
109.137344360352 -68.975212097168 -116.805732727051 1.971465587616
-92.413169860840 -74.812797546387 -114.576995849609 2.425049781799
40.270229339600 -69.732856750488 -119.801231384277 1.674625992775
39.684135437012 -69.673423767090 -115.960418701172 1.765893340111
-79.015083312988 -71.557723999023 -121.155609130859 2.591193199158
32.923095703125 -69.485031127930 -133.600311279297 2.369727134705
110.819694519043 -70.538604736328 -129.943099975586 1.982638239861
-49.788650512695 -71.171218872070 -129.228713989258 2.768777608871
-86.733558654785 -72.236129760742 -125.701499938965 2.082788228989
39.338733673096 -70.941940307617 -131.509521484375 0.711836755276
-90.573051452637 -70.179420471191 -131.071441650391 2.040245294571
-88.187461853027 -72.070434570313 -134.057250976563 2.355691432953
-46.952205657959 -74.025741577148 -134.454025268555 2.655355453491
-68.643592834473 -71.665176391602 -136.995147705078 3.416708469391
-48.781726837158 -70.450729370117 -131.733947753906 2.070017576218
114.615867614746 -68.239967346191 -137.823776245117 1.596062779427
-73.330345153809 -71.880455017090 -136.591644287109 1.289405584335
36.932083129883 -69.475219726563 -130.310974121094 1.269861459732
-77.015739440918 -72.724899291992 -135.137145996094 0.857156932354
-72.930877685547 -70.834587097168 -132.903762817383 0.863331913948
-85.685203552246 -70.954635620117 -133.538192749023 1.644295096397
-50.107902526855 -72.243453979492 -145.967864990234 3.706737756729
33.080951690674 -69.273735046387 -143.347290039063 2.235882997513
29.540328979492 -68.599388122559 -148.152130126953 1.390870571136
19.273260116577 -69.193725585938 -141.819335937500 3.233059406281
115.108963012695 -68.703552246094 -145.449127197266 1.059119343758
-95.262100219727 -71.224220275879 -149.940521240234 3.078626155853
17.675806045532 -71.697509765625 -150.126998901367 1.624284148216
-70.587448120117 -71.341567993164 -147.408126831055 0.894809186459
24.793457031250 -70.673469543457 -148.486404418945 1.733577609062
-47.165840148926 -70.904617309570 -152.236145019531 1.946096777916
10.867357254028 -69.675910949707 -149.855285644531 0.386611521244
14.269422531128 -70.998039245605 -154.948913574219 1.636541724205
20.495094299316 -71.416984558105 -161.668960571289 1.936204791069
-44.391868591309 -71.574775695801 -157.975509643555 3.003610372543
-38.397087097168 -71.365180969238 -150.868560791016 2.926739215851
-43.178985595703 -70.179565429688 -156.075256347656 2.653971672058
-102.833992004395 -71.454124450684 -166.339523315430 2.860244989395
23.012125015259 -69.540969848633 -170.483489990234 1.311043143272
-34.868522644043 -69.872993469238 -169.730575561523 3.231317043304
16.734743118286 -70.580688476563 -175.895263671875 0.694347918034
-143.950210571289 -73.408096313477 -170.488250732422 5.442087650299
-31.835435867310 -69.710510253906 -170.251174926758 1.697890758514
-151.618347167969 -72.235740661621 -172.314636230469 3.427465438843
22.787012100220 -69.335891723633 -179.767486572266 1.150100708008
-29.752717971802 -70.000038146973 -170.064682006836 1.856011152267
-107.537902832031 -72.029571533203 -176.176971435547 3.662455797195
-106.057411193848 -71.927169799805 -178.241729736328 3.114815235138
-27.827859878540 -69.475280761719 -181.323043823242 1.766106009483
-21.353031158447 -71.321556091309 -179.094604492188 3.547377586365
17.392322540283 -69.293930053711 -187.250015258789 1.704918861389
19.505910873413 -69.271835327148 -192.419891357422 0.953143119812
16.004835128784 -68.593780517578 -183.812286376953 2.032301902771
-142.056289672852 -73.070541381836 -183.709228515625 2.269734859467
19.075729370117 -68.913398742676 -187.881820678711 2.682675600052
11.314749717712 -70.640151977539 -194.220520019531 0.871171116829
-138.967956542969 -71.516136169434 -191.255508422852 4.590488433838
-115.548522949219 -71.806755065918 -191.238021850586 3.976078271866
15.870397567749 -69.308433532715 -194.987976074219 0.800441145897
-111.961433410645 -71.977447509766 -192.327499389648 1.809303164482
-106.826622009277 -71.408195495605 -187.469482421875 2.911026000977
-162.107452392578 -73.081062316895 -192.710266113281 4.765915870667
-23.123020172119 -70.572525024414 -197.192657470703 0.578039526939
17.022987365723 -69.314453125000 -198.679595947266 0.759648025036
-139.013168334961 -71.376731872559 -198.861602783203 1.884113550186
-131.957855224609 -70.725936889648 -200.380020141602 2.244221448898
-16.713352203369 -69.673072814941 -203.472152709961 1.552319526672
-10.118893623352 -71.144180297852 -200.523818969727 2.920239210129
-15.253653526306 -69.287063598633 -203.181930541992 0.721619009972
-142.907318115234 -72.002174377441 -202.096633911133 1.975523233414
-14.441803932190 -71.126823425293 -210.077606201172 2.130782365799
-11.618825912476 -69.531654357910 -211.004837036133 0.633057296276
17.709171295166 -69.089790344238 -208.248214721680 1.685437679291
-10.731467247009 -69.491241455078 -208.213470458984 3.041983604431
11.662041664124 -68.200019836426 -208.950180053711 0.621830523014
-8.425844192505 -69.397811889648 -213.428573608398 2.130304336548
-16.582601547241 -70.007141113281 -209.622436523438 1.593619108200
14.916806221008 -69.242309570313 -218.987670898438 1.541808605194
0.582230985165 -71.139343261719 -218.086578369141 2.633205652237
12.085121154785 -68.596885681152 -219.833557128906 2.645499229431
-4.543059825897 -69.302932739258 -222.019042968750 1.655379056931
-155.533721923828 -71.086303710938 -218.232986450195 2.146898269653
82.102249145508 -68.724655151367 -219.465240478516 2.106444120407
-133.728424072266 -71.194831848145 -220.456954956055 4.462347984314
-133.813766479492 -71.195632934570 -220.484893798828 4.465908050537
-8.211981773376 -69.996574401855 -222.683502197266 1.954486608505
12.090571403503 -69.651824951172 -229.135742187500 2.012544870377
-154.067993164063 -71.216415405273 -221.967895507813 1.350729703903
86.712501525879 -68.096466064453 -218.612579345703 2.055406808853
-2.214926004410 -69.271614074707 -222.049575805664 1.383974909782
1.287541985512 -70.225593566895 -222.836242675781 2.217561244965
74.879562377930 -69.025215148926 -225.520812988281 1.834775686264
1.899348974228 -69.151992797852 -230.134338378906 0.957067608833
-15.328538894653 -71.746627807617 -227.612594604492 1.499035716057
-124.220962524414 -72.904808044434 -230.561187744141 1.154326319695
-2.057492017746 -69.460998535156 -232.657379150391 0.662291228771
3.026376008987 -68.441261291504 -231.964706420898 1.706886529922
66.521469116211 -68.835327148438 -237.058120727539 1.912746548653
-157.818588256836 -70.507331848145 -234.603210449219 3.009784460068
-10.630528450012 -71.063697814941 -240.732986450195 2.264620542526
-166.597381591797 -72.017044067383 -233.228576660156 1.722134590149
9.467155456543 -70.453651428223 -240.615325927734 1.170584559441
-165.340362548828 -70.594848632813 -234.089797973633 1.990455985069
-161.160202026367 -71.263740539551 -239.500274658203 2.596019506454
56.050521850586 -67.286575317383 -244.082717895508 1.792303085327
64.715591430664 -67.793739318848 -241.881744384766 0.801559090614
57.698894500732 -68.030662536621 -240.941253662109 1.155875205994
52.783908843994 -68.215080261230 -246.569091796875 1.495099425316
-158.242477416992 -70.548835754395 -240.568817138672 1.791591286659
-156.306030273438 -71.820121765137 -246.006652832031 2.110341787338
-13.945577621460 -68.674644470215 -246.601654052734 0.888943791389
-151.679595947266 -71.440277099609 -240.792434692383 3.465454578400
22.483552932739 -71.585762023926 -249.276062011719 1.927620053291
-166.956115722656 -72.209449768066 -245.362533569336 1.867163538933
-165.051223754883 -70.493545532227 -240.263916015625 2.391709327698
-81.512046813965 -70.032127380371 -247.530746459961 3.079743146896
-167.202545166016 -71.917663574219 -257.263793945313 2.721393823624
-85.263900756836 -69.745216369629 -250.750869750977 2.029231548309
42.419219970703 -68.369209289551 -250.782211303711 1.492303848267
23.537109375000 -71.387474060059 -252.822341918945 1.147184491158
-159.256469726563 -70.854118347168 -254.789840698242 2.707776069641
-99.825668334961 -68.991500854492 -254.909790039063 1.211737751961
38.840110778809 -69.600486755371 -255.389526367188 1.619373798370
-101.176605224609 -71.599449157715 -256.058197021484 1.972257852554
-154.579025268555 -66.531410217285 -258.395599365234 2.486867904663
-106.621170043945 -69.361419677734 -256.819885253906 1.616038799286
-165.206481933594 -70.774879455566 -254.812179565430 2.577514171600
-112.570297241211 -71.625602722168 -258.126953125000 1.370818614960
-152.397857666016 -72.016670227051 -260.039886474609 2.806907892227
-156.907546997070 -72.104339599609 -259.719512939453 2.200484037399
-166.165817260742 -71.208114624023 -258.505279541016 2.160685062408
-161.790084838867 -70.065910339355 -257.250640869141 3.483963727951
-165.242355346680 -71.039138793945 -262.387664794922 2.179345607758
-161.037124633789 -71.124038696289 -261.653564453125 3.285825729370
24.835109710693 -69.549858093262 -262.668670654297 1.654834270477
-152.003631591797 -70.891899108887 -260.247161865234 2.980908393860
-147.122985839844 -69.872207641602 -277.828552246094 1.658920884132
20.173385620117 -70.791358947754 -275.496002197266 1.477185964584
-10.434735298157 -68.356216430664 -271.555786132813 1.280544877052
-126.499862670898 -71.613594055176 -279.297180175781 4.524241924286
-136.141693115234 -72.574485778809 -280.857391357422 4.263028144836
-135.704620361328 -69.235794067383 -282.407226562500 2.387691497803
-124.904289245605 -71.515327453613 -281.524322509766 2.855995893478
-116.395111083984 -69.820030212402 -282.548431396484 3.740906953812
-107.132301330566 -69.386581420898 -283.508575439453 3.569409847260
11.514401435852 -69.272056579590 -286.480224609375 1.968663930893
-86.008316040039 -69.675102233887 -284.884674072266 2.235319614410
-149.697601318359 -71.380462646484 -286.115112304688 2.094110965729
-100.725288391113 -69.086791992188 -286.103790283203 1.320536494255
-124.635269165039 -68.682563781738 -286.474426269531 1.227820515633
8.936255455017 -71.207641601563 -286.846679687500 2.635403394699
-113.664581298828 -69.538681030273 -287.564941406250 0.907998800278
0.634283006191 -68.810249328613 -289.585784912109 2.780166625977
-143.212707519531 -70.141754150391 -287.164703369141 1.556736826897
-153.943710327148 -71.890365600586 -292.180175781250 2.924886941910
-156.275970458984 -71.662857055664 -305.446350097656 1.592569231987
-154.528732299805 -72.007392883301 -307.931823730469 1.988427519798
53.513599395752 -72.054550170898 -22.398002624512 4.197143554688
24.611131668091 -73.387710571289 -30.822576522827 1.999539256096
37.040588378906 -73.095939636230 -34.717941284180 2.338201761246
-45.408843994141 -72.965553283691 -44.522155761719 5.019678115845
-12.269511222839 -71.847282409668 -58.160037994385 5.035710811615
96.384384155273 -72.020828247070 -67.925941467285 3.226548194885
72.071502685547 -69.982368469238 -69.126655578613 1.153036355972
-19.667119979858 -73.490631103516 -71.698593139648 1.578477859497
-91.890701293945 -75.119026184082 -79.422225952148 2.211577177048
-39.296134948730 -72.991729736328 -75.205215454102 2.039684534073
68.955986022949 -69.258331298828 -81.580360412598 1.871662259102
61.115768432617 -70.912849426270 -85.944938659668 0.728812634945
58.849742889404 -69.592285156250 -85.519706726074 1.054756999016
-55.518108367920 -71.030784606934 -85.960868835449 4.260626792908
68.405418395996 -69.233070373535 -87.742324829102 1.958557963371
47.369506835938 -71.533782958984 -94.864784240723 1.464907884598
69.852027893066 -69.825752258301 -92.433212280273 2.642746925354
-62.388214111328 -70.759918212891 -91.448959350586 2.898895978928
51.029006958008 -71.785484313965 -93.412750244141 0.773674249649
46.601413726807 -70.007278442383 -96.779663085938 1.621549487114
105.912300109863 -69.049346923828 -96.413536071777 1.586799263954
-66.055877685547 -72.038986206055 -95.961662292480 1.617929577827
111.485328674316 -68.967620849609 -100.166229248047 2.701447963715
-76.555885314941 -71.465400695801 -96.309494018555 2.883139610291
58.071300506592 -71.649223327637 -100.583557128906 1.951258301735
50.153347015381 -68.786415100098 -97.844528198242 2.410036325455
95.570922851563 -71.708267211914 -101.841979980469 1.353048443794
88.554412841797 -65.523605346680 -106.010337829590 2.716653823853
54.589771270752 -68.282508850098 -101.782157897949 1.522853970528
-72.876747131348 -72.085601806641 -105.285034179688 4.009567737579
-72.248367309570 -70.718414306641 -107.927131652832 2.693514347076
-77.006416320801 -73.061943054199 -115.122093200684 2.564400196075
-89.693817138672 -73.477752685547 -115.660026550293 1.814558744431
109.943031311035 -67.582244873047 -113.712059020996 1.435334324837
-83.050483703613 -72.150909423828 -115.817543029785 2.885165452957
-76.612480163574 -70.739814758301 -116.580070495605 2.123178720474
112.618743896484 -67.488433837891 -113.787322998047 2.423196315765
-61.967159271240 -68.002044677734 -115.447219848633 3.523184537888
116.317352294922 -68.624977111816 -130.038497924805 1.931848526001
112.274604797363 -68.413024902344 -127.716636657715 0.514217078686
112.328704833984 -67.758697509766 -121.566444396973 0.798521339893
-90.931602478027 -71.479072570801 -134.864471435547 2.470807075500
-47.281040191650 -70.614250183105 -138.031799316406 1.156303048134
-74.164497375488 -71.511016845703 -141.916076660156 1.724967360497
-67.455329895020 -71.297027587891 -145.977661132813 1.239052176476
-70.701766967773 -69.600097656250 -141.594406127930 1.543599843979
-53.469593048096 -70.273506164551 -139.651168823242 3.764261007309
-46.587261199951 -71.135986328125 -145.012771606445 1.509307265282
22.409252166748 -69.543197631836 -142.227294921875 2.431555509567
-92.775703430176 -71.519615173340 -141.188018798828 3.598439216614
-42.777721405029 -70.141479492188 -145.118103027344 1.052275657654
-51.908237457275 -70.298263549805 -145.487472534180 1.918551802635
-39.754646301270 -70.137847900391 -152.360763549805 1.258097171783
