-45.822864532471 -77.334915161133 -151.455429077148 0.870223462582
-41.944614410400 -77.356391906738 -154.893508911133 0.784419178963
26.829914093018 -76.999839782715 -150.539428710938 2.330245733261
23.834468841553 -76.836952209473 -167.670242309570 2.011377811432
-34.609733581543 -77.199676513672 -166.383590698242 0.993633568287
-35.006053924561 -77.523361206055 -160.755325317383 0.778978109360
-45.372375488281 -77.426132202148 -157.394470214844 0.749424636364
2.975733041763 -76.856475830078 -164.564483642578 1.024777293205
23.185443878174 -77.520378112793 -155.910781860352 1.934368848801
30.938951492310 -76.556632995605 -161.907943725586 1.257138848305
26.916219711304 -76.143028259277 -168.558349609375 2.211040258408
-10.734335899353 -77.203681945801 -170.671707153320 1.629417300224
-0.525375008583 -76.216545104980 -169.760787963867 1.769637107849
-56.944103240967 -78.168861389160 -170.158615112305 1.294454574585
-60.661254882813 -77.316818237305 -169.397598266602 0.894155502319
-39.681613922119 -78.212982177734 -171.362915039063 1.095207214355
-39.452617645264 -77.356880187988 -167.645187377930 0.723927378654
23.279237747192 -76.731971740723 -174.323440551758 2.365544080734
-19.983297348022 -79.199508666992 -177.626861572266 1.059310913086
-34.305091857910 -78.271652221680 -180.020599365234 0.855606019497
-59.881111145020 -78.057937622070 -179.012619018555 0.623739778996
105.343666076660 -75.890968322754 -181.702590942383 1.231609463692
20.369552612305 -77.787109375000 -171.459915161133 1.694810509682
-27.000026702881 -77.477119445801 -180.591003417969 1.800962209702
-49.468376159668 -76.583923339844 -182.069442749023 1.626262187958
-18.005527496338 -76.782691955566 -179.955169677734 0.739290356636
108.840789794922 -75.956169128418 -177.902175903320 1.099407076836
-49.493427276611 -78.834938049316 -181.896453857422 0.621510565281
17.064550399780 -77.421127319336 -184.947052001953 0.909645199776
25.473348617554 -76.863220214844 -180.462295532227 1.001863837242
-55.948501586914 -77.497520446777 -180.301696777344 0.568398296833
-22.466150283813 -77.165504455566 -181.954864501953 1.003056406975
-55.905960083008 -77.379112243652 -175.953018188477 1.119647741318
-35.227802276611 -75.528968811035 -182.315322875977 2.582235574722
-28.630760192871 -77.242820739746 -186.950927734375 1.289646387100
22.693946838379 -77.121604919434 -187.185684204102 0.930036783218
-51.190792083740 -77.268386840820 -187.393905639648 1.475538372993
104.638092041016 -76.156433105469 -189.920455932617 1.488962888718
-52.332405090332 -76.593452453613 -190.558700561523 0.536724567413
11.054051399231 -77.456802368164 -200.767608642578 2.287266254425
19.227708816528 -77.259956359863 -200.381515502930 0.760814368725
-47.358806610107 -76.625030517578 -190.735107421875 0.548209309578
-21.611572265625 -77.609092712402 -190.403747558594 0.859195172787
103.285766601563 -75.794876098633 -196.132080078125 1.429035902023
101.342872619629 -76.292999267578 -196.958404541016 1.386579632759
-46.430072784424 -77.328956604004 -190.155044555664 0.917204260826
-147.096389770508 -81.785461425781 -197.544555664063 0.786763787270
-45.964015960693 -77.814727783203 -199.136062622070 0.503313422203
-145.367919921875 -80.332992553711 -199.371749877930 0.377496451139
-136.935928344727 -77.691360473633 -202.395355224609 0.768026947975
-42.985824584961 -77.162506103516 -198.872314453125 2.062867164612
11.558616638184 -77.268943786621 -209.186477661133 0.580913245678
-16.977539062500 -77.356727600098 -204.332733154297 0.577596843243
15.413316726685 -76.801315307617 -202.832366943359 0.913578689098
92.408958435059 -76.028160095215 -208.887924194336 1.144075036049
-37.803112030029 -77.314888000488 -201.111434936523 1.376839399338
-9.992898941040 -78.285354614258 -208.456481933594 1.032847166061
-11.325633049011 -77.496093750000 -210.910171508789 0.668146789074
-37.846061706543 -78.369132995605 -208.627670288086 1.342474222183
11.105319023132 -76.254852294922 -205.741333007813 0.720831990242
-75.257873535156 -75.752616882324 -210.141082763672 0.558375656605
15.010457038879 -77.052459716797 -212.575363159180 0.690218627453
-35.550914764404 -77.465614318848 -207.491973876953 0.902673602104
-144.525909423828 -78.440093994141 -210.674865722656 0.854636967182
-145.752563476563 -76.135841369629 -212.414489746094 1.089573979378
-86.319061279297 -78.026695251465 -213.610366821289 0.871389210224
-35.650581359863 -76.665046691895 -211.803497314453 2.612086296082
-24.715137481689 -78.480216979980 -213.414764404297 0.957438409328
-29.219976425171 -77.404548645020 -212.983383178711 1.015109300613
-92.099342346191 -76.987998962402 -217.343475341797 1.153948068619
-88.575279235840 -77.880401611328 -216.726455688477 0.957739353180
9.391293525696 -77.344024658203 -221.015914916992 2.117514610291
-150.345352172852 -78.297447204590 -216.960906982422 0.762735962868
-12.242894172668 -77.487487792969 -213.917556762695 0.538527488708
8.157772064209 -78.873847961426 -218.016464233398 1.565295934677
-145.106521606445 -78.338821411133 -218.259185791016 0.902275562286
-19.929271697998 -78.275268554688 -220.132003784180 0.851264894009
-3.618136882782 -78.028495788574 -222.511871337891 0.595496177673
-3.291260004044 -78.543113708496 -219.004989624023 1.869552254677
-152.560363769531 -79.037971496582 -225.048767089844 0.991830885410
-137.426605224609 -78.113418579102 -227.145874023438 0.902859628201
-7.025065898895 -77.752319335938 -222.350097656250 1.013757228851
-149.326919555664 -83.000411987305 -228.689544677734 1.041612029076
1.649471044540 -76.758789062500 -231.059219360352 0.723337829113
16.495206832886 -77.750816345215 -232.662796020508 1.105098962784
-0.396539002657 -77.048622131348 -233.768630981445 2.228760004044
1.223070979118 -76.553817749023 -236.849136352539 1.311665892601
7.138562202454 -78.661399841309 -232.158279418945 0.953293442726
-150.554122924805 -78.855834960938 -235.672088623047 1.046040773392
-19.554588317871 -77.331718444824 -238.630538940430 0.406028568745
-35.191669464111 -78.617088317871 -239.691864013672 2.008451938629
6.001659870148 -76.001411437988 -232.225448608398 1.291777968407
-0.726722002029 -77.730468750000 -237.236251831055 0.449649780989
4.048353195190 -78.073440551758 -235.511596679688 1.598211526871
-53.853225708008 -76.988510131836 -243.260040283203 0.915247738361
-149.265411376953 -78.878479003906 -246.314941406250 0.966311573982
-151.160018920898 -80.329483032227 -248.526397705078 1.613440632820
9.100449562073 -78.481880187988 -246.726806640625 0.496376514435
21.170028686523 -77.276908874512 -248.612838745117 1.071845769882
-59.906478881836 -78.002807617188 -248.936492919922 1.197940587997
-145.403472900391 -80.354194641113 -253.352081298828 0.989618062973
-153.151214599609 -80.478439331055 -254.791549682617 1.187454223633
-149.707092285156 -84.479827880859 -258.161224365234 1.287433028221
-141.931350708008 -78.399391174316 -261.216918945313 0.340281844139
-137.023239135742 -78.360710144043 -257.180816650391 1.038443088531
-12.219526290894 -77.868804931641 -257.214019775391 0.367955267429
-143.786788940430 -80.420028686523 -264.044982910156 1.163489341736
-11.493705749512 -78.814636230469 -263.660064697266 2.276600122452
-147.292755126953 -79.398956298828 -277.113891601563 1.305726766586
-147.105407714844 -79.875045776367 -282.881530761719 1.127425193787
-150.652206420898 -79.726234436035 -282.610565185547 1.091405272484
-3.409284114838 -75.887214660645 -284.945190429688 1.075106620789
-142.498504638672 -76.357727050781 -287.013580322266 0.969676256180
-31.657791137695 -77.544235229492 -287.394775390625 0.558795094490
-32.368633270264 -78.214797973633 -288.528228759766 0.620199620724
-17.512495040894 -77.954658508301 -288.919677734375 0.461402624846
-9.636396408081 -77.652259826660 -288.189788818359 0.860615730286
14.796063423157 -78.655715942383 -291.933868408203 0.929975092411
-125.522003173828 -78.556480407715 -289.551849365234 1.376022934914
-56.334682464600 -77.776809692383 -289.297729492188 2.159079074860
-38.475975036621 -78.157981872559 -289.365692138672 0.479436874390
-31.620718002319 -78.614921569824 -290.027862548828 0.648081779480
-9.624623298645 -77.828437805176 -290.281646728516 1.312030315399
4.742795944214 -77.522232055664 -289.260253906250 1.033309936523
-143.740310668945 -81.776435852051 -293.211517333984 1.389597892761
8.555030822754 -78.007514953613 -291.017517089844 0.411371856928
-151.357604980469 -79.431251525879 -301.130157470703 1.513883709908
-149.172485351563 -80.143417358398 -301.549194335938 0.853755712509
-152.396484375000 -79.762954711914 -311.191436767578 1.682710051537
-146.519973754883 -79.484306335449 -311.561889648438 1.602089166641
-49.940723419189 -74.520027160645 -56.308670043945 1.556092739105
-56.961601257324 -75.187736511230 -56.805797576904 1.874962329865
-63.608959197998 -75.000587463379 -56.699638366699 1.591275095940
-43.379119873047 -75.465019226074 -59.092082977295 1.684335589409
-37.620380401611 -74.705879211426 -59.675460815430 1.782049775124
-22.558996200562 -74.372032165527 -67.897109985352 1.587651371956
-82.943428039551 -75.770774841309 -68.570358276367 1.191915988922
81.633590698242 -74.728614807129 -78.639137268066 2.232575178146
-89.350227355957 -75.896057128906 -82.797805786133 0.707513213158
83.454170227051 -75.376884460449 -82.322273254395 2.278687238693
85.215637207031 -74.725303649902 -83.669174194336 2.579208850861
92.739799499512 -73.912376403809 -86.034912109375 2.262503623962
-58.719211578369 -79.962188720703 -95.168884277344 1.591629266739
83.554557800293 -73.618675231934 -94.594398498535 2.117893934250
79.283645629883 -74.578826904297 -93.292152404785 2.493489027023
87.193168640137 -75.641937255859 -90.483100891113 2.401389122009
-63.385807037354 -79.368644714355 -97.755516052246 1.068097114563
53.265155792236 -74.840263366699 -97.343772888184 0.557819008827
45.968219757080 -75.784004211426 -106.942970275879 2.583464145660
41.868457794189 -75.731346130371 -105.384552001953 1.722827553749
38.608798980713 -75.375556945801 -109.101135253906 1.452318429947
-90.856353759766 -76.624961853027 -112.957672119141 0.656304895878
36.582088470459 -75.827796936035 -117.751434326172 2.532412767410
-84.621414184570 -77.460243225098 -111.260856628418 0.868945419788
43.298957824707 -77.166152954102 -122.910171508789 2.394545793533
34.758678436279 -76.257049560547 -122.912048339844 1.528491854668
33.639537811279 -74.427513122559 -122.412445068359 1.206197619438
42.676399230957 -76.088401794434 -120.485992431641 2.039592504501
39.385185241699 -76.293029785156 -127.047286987305 2.092709779739
-53.536857604980 -74.423789978027 -136.223220825195 1.164131402969
36.108386993408 -75.982833862305 -136.155044555664 1.431575775146
36.547630310059 -75.277999877930 -142.155929565430 1.388226628304
-51.472469329834 -73.963615417480 -139.757904052734 0.861561119556
-48.022396087646 -76.182289123535 -141.297927856445 1.490050554276
34.878887176514 -77.032234191895 -144.196624755859 1.138701438904
111.723587036133 -74.538146972656 -142.743820190430 1.701180458069
114.046539306641 -74.607803344727 -141.856628417969 1.786932945251
26.838182449341 -76.238143920898 -144.977859497070 1.196544647217
-41.970535278320 -76.729087829590 -149.083007812500 0.828782081604
111.770568847656 -75.203712463379 -155.120468139648 1.827231168747
-40.851852416992 -76.109840393066 -154.226104736328 0.802351832390
-67.973716735840 -77.612670898438 -158.181167602539 0.641916275024
110.880592346191 -75.542282104492 -162.655685424805 1.606463670731
22.998744964600 -75.638870239258 -162.941146850586 1.216478586197
0.185102000833 -77.463333129883 -163.519973754883 1.291102766991
113.129379272461 -75.317596435547 -157.645385742188 1.253839373589
-64.021430969238 -76.473739624023 -164.382675170898 0.699577748775
-36.650028228760 -75.374992370605 -160.409439086914 0.956415832043
113.543724060059 -74.446487426758 -164.875762939453 1.501362323761
29.904863357544 -75.721992492676 -159.018676757813 1.205536603928
-63.634063720703 -75.337448120117 -167.236465454102 0.629948914051
111.203666687012 -75.745040893555 -167.581695556641 1.314119815826
-64.490928649902 -78.435981750488 -168.737487792969 1.387526154518
-51.783885955811 -77.508117675781 -178.186676025391 1.338904857635
106.603561401367 -74.162834167480 -172.393936157227 1.049083471298
-59.846744537354 -75.537757873535 -169.469375610352 1.446558237076
111.125732421875 -75.408874511719 -174.504882812500 1.663713216782
-59.475749969482 -77.319534301758 -174.035980224609 0.746959805489
-13.378735542297 -76.099899291992 -177.888626098633 0.828173995018
-12.831244468689 -77.544448852539 -179.123504638672 1.617797136307
108.223731994629 -75.613235473633 -173.023757934570 1.673033595085
20.841251373291 -75.901573181152 -172.864562988281 1.459426522255
28.398525238037 -76.263000488281 -171.648437500000 1.003593087196
-55.584350585938 -76.224639892578 -177.042968750000 0.596406459808
19.806907653809 -76.124824523926 -182.807876586914 0.948906183243
-57.664993286133 -75.933296203613 -177.473495483398 1.280887603760
-50.614875793457 -76.320526123047 -186.345413208008 1.309738397598
15.301944732666 -75.736396789551 -183.242233276367 1.179418444633
-58.438251495361 -76.919357299805 -181.809310913086 0.559184610844
108.053649902344 -75.564872741699 -185.131179809570 1.903309345245
23.184421539307 -75.868003845215 -181.145294189453 1.124167919159
-31.339853286743 -76.072204589844 -189.110656738281 0.617998123169
-41.864749908447 -76.227027893066 -193.071960449219 0.555745363235
11.363225936890 -75.479286193848 -195.107421875000 0.567852795124
-17.549312591553 -77.290351867676 -192.175415039063 1.257706046104
-50.340301513672 -77.444496154785 -193.725646972656 2.419368505478
104.149238586426 -75.752288818359 -185.642074584961 2.262462615967
16.688688278198 -76.099067687988 -191.528396606445 1.642599225044
-135.007766723633 -77.401878356934 -197.677627563477 0.607389450073
-41.192310333252 -77.873657226563 -193.313568115234 0.945892751217
97.738075256348 -75.898956298828 -199.627807617188 1.634879350662
-147.095977783203 -82.165954589844 -201.729827880859 0.938411355019
18.587741851807 -76.163421630859 -194.193710327148 2.233459472656
-41.318416595459 -76.307594299316 -205.192687988281 1.649328112602
-32.129070281982 -77.352020263672 -204.075561523438 0.520778119564
-36.770580291748 -76.391281127930 -206.062911987305 1.211137175560
-42.804470062256 -76.399955749512 -197.001571655273 0.809310853481
99.770271301270 -76.101753234863 -201.978302001953 1.715146780014
-19.172939300537 -76.435508728027 -203.530548095703 0.578971207142
-149.924850463867 -77.982643127441 -205.655929565430 1.292999505997
16.564226150513 -76.089241027832 -206.690383911133 0.746981263161
-75.665725708008 -79.726158142090 -209.238433837891 0.366818547249
-150.220443725586 -77.958900451660 -209.968887329102 0.891971230507
96.962242126465 -74.596893310547 -209.944580078125 1.233398914337
-32.258983612061 -76.340721130371 -207.755538940430 0.509838640690
-28.618423461914 -76.499443054199 -215.197540283203 0.697635710239
7.750778198242 -77.511787414551 -211.885574340820 1.635764122009
-70.701194763184 -77.776641845703 -213.194580078125 0.631598591805
-29.318397521973 -77.118873596191 -210.970642089844 1.328794717789
-4.225337982178 -76.226638793945 -214.776077270508 1.154124021530
-74.760833740234 -79.218696594238 -214.822555541992 0.714632511139
-14.424761772156 -76.677780151367 -217.649322509766 1.570401310921
8.561155319214 -75.507522583008 -214.429122924805 0.810994744301
17.535879135132 -77.151046752930 -219.704635620117 1.541521191597
-147.341293334961 -77.806495666504 -216.179046630859 1.129160523415
-6.922211170197 -76.342369079590 -215.360336303711 1.762545466423
-94.156463623047 -74.781692504883 -220.979721069336 0.621767580509
-21.305528640747 -75.999130249023 -220.674484252930 1.554483056068
92.342857360840 -76.201576232910 -212.205093383789 1.183964610100
6.149325847626 -76.889633178711 -227.830795288086 0.329078048468
16.261104583740 -75.299324035645 -217.320037841797 0.671448826790
82.299430847168 -75.355995178223 -222.116775512695 1.067713618279
1.220675945282 -75.840698242188 -226.940078735352 1.725488543510
86.698776245117 -75.846801757813 -218.188018798828 1.324741840363
-16.215202331543 -76.922569274902 -222.209106445313 0.481434643269
15.142333030701 -77.246597290039 -220.718109130859 0.718608975410
-145.045913696289 -79.091156005859 -223.852661132813 0.930907130241
-18.565196990967 -77.721183776855 -224.581298828125 0.898256897926
1.777660012245 -78.239128112793 -227.253250122070 2.181946277618
-154.429489135742 -79.756690979004 -228.443939208984 1.103405833244
-135.855529785156 -76.709991455078 -228.714248657227 0.909224450588
8.349474906921 -76.621688842773 -226.745300292969 0.557621955872
-3.903707027435 -77.114517211914 -232.984527587891 0.473418623209
-135.522628784180 -77.311676025391 -231.782409667969 1.491956472397
-145.132904052734 -79.071983337402 -235.262420654297 1.002979755402
-146.243499755859 -77.589515686035 -236.581695556641 1.026867628098
-32.905750274658 -77.110290527344 -239.084915161133 1.359435081482
-146.344055175781 -77.444931030273 -242.146484375000 1.064325809479
21.119537353516 -76.111442565918 -242.316513061523 1.707559227943
4.899817943573 -76.950210571289 -243.133651733398 0.861982226372
-149.666671752930 -77.388374328613 -235.943939208984 1.021226048470
-148.480056762695 -78.667617797852 -242.910705566406 1.543847680092
-47.390506744385 -77.433807373047 -241.869445800781 1.075555562973
-31.018375396729 -78.013099670410 -244.165313720703 0.399235188961
5.737126827240 -78.914077758789 -246.934066772461 1.948977589607
-38.911937713623 -77.316528320313 -245.716140747070 1.677560091019
23.271463394165 -77.335365295410 -247.952224731445 0.490248203278
-4.628609180450 -78.968574523926 -249.031845092773 1.164390325546
-150.096542358398 -78.069694519043 -252.760391235352 1.160309433937
-6.974099159241 -78.728477478027 -251.371810913086 1.253251433372
-146.607070922852 -78.340637207031 -252.440246582031 1.130976200104
-67.732658386230 -77.652725219727 -249.561248779297 1.080011487007
-149.695159912109 -84.179267883301 -260.275665283203 1.186661601067
-125.574798583984 -77.165283203125 -259.417358398438 1.340655803680
-148.785934448242 -75.009391784668 -261.333435058594 1.222169637680
-13.040029525757 -75.741226196289 -265.817474365234 0.386435538530
-146.247222900391 -79.651748657227 -265.424011230469 0.830544888973
-150.205108642578 -78.665443420410 -265.767486572266 1.249290585518
-9.668348312378 -79.026062011719 -270.192871093750 0.744984388351
-146.989349365234 -78.934883117676 -271.574523925781 1.265192508698
-3.368978977203 -77.974884033203 -279.880218505859 0.361794859171
-46.290683746338 -77.649543762207 -287.395111083984 2.960807323456
-133.595611572266 -78.339080810547 -288.764617919922 1.695617914200
-132.669662475586 -77.162612915039 -286.421813964844 1.268948554993
-126.332672119141 -77.728843688965 -287.193206787109 0.909309804440
-53.318561553955 -77.100524902344 -287.108917236328 0.687598407269
-115.346000671387 -75.741989135742 -288.890045166016 1.104664087296
15.653160095215 -77.212158203125 -289.812347412109 0.424429595470
-60.109657287598 -77.329719543457 -289.296325683594 0.867971599102
-141.824356079102 -77.401779174805 -290.580474853516 1.386179327965
-61.895385742188 -76.993255615234 -290.402282714844 0.769887506962
-142.486145019531 -79.774047851563 -291.251739501953 0.521104454994
-117.537445068359 -77.733879089355 -290.327697753906 1.337321758270
-47.350662231445 -77.068222045898 -290.888885498047 0.669853568077
-35.276355743408 -77.863044738770 -291.126892089844 1.314419388771
-133.457519531250 -78.258750915527 -291.202178955078 1.314871311188
-10.550094604492 -77.525772094727 -291.361297607422 0.439345031977
0.869081020355 -77.459335327148 -291.635101318359 0.379835069180
6.440392017365 -77.358360290527 -292.309143066406 0.359074503183
15.089235305786 -77.535331726074 -293.818939208984 1.025235295296
-149.559509277344 -78.293838500977 -296.041412353516 1.435355544090
-148.115707397461 -78.055534362793 -300.121398925781 0.961589276791
-69.681838989258 -76.054122924805 -60.196853637695 1.749230742455
87.280815124512 -72.997047424316 -75.339035034180 2.304551124573
78.741691589355 -73.794837951660 -76.324478149414 2.216119766235
-26.170413970947 -75.423477172852 -77.312942504883 1.458569645882
84.849800109863 -72.912269592285 -77.166374206543 1.918572545052
-35.117385864258 -75.106132507324 -80.663650512695 1.396105170250
88.164749145508 -74.574348449707 -78.819305419922 2.164617300034
92.856895446777 -73.996871948242 -82.488082885742 2.284968852997
-65.126625061035 -70.171012878418 -93.380767822266 0.996233761311
75.856956481934 -73.823394775391 -93.750282287598 1.583928942680
80.950981140137 -73.970703125000 -97.205566406250 1.716874122620
91.842056274414 -73.954154968262 -94.333396911621 2.338205814362
55.339057922363 -74.085670471191 -98.692153930664 1.237519145012
-75.988197326660 -78.533920288086 -101.866256713867 0.905660927296
-74.960426330566 -71.339096069336 -102.175170898438 1.586386680603
49.004653930664 -75.013702392578 -105.974868774414 2.513835668564
-91.064895629883 -77.267082214355 -105.856948852539 0.875940918922
44.875381469727 -74.982536315918 -117.223037719727 1.611675620079
110.700523376465 -73.265731811523 -118.330718994141 0.781371712685
112.235191345215 -74.261413574219 -132.371520996094 0.966860234737
27.354413986206 -74.566596984863 -139.066970825195 1.264613747597
110.486579895020 -73.632225036621 -126.892829895020 1.220824122429
26.816680908203 -75.404731750488 -135.075531005859 1.865171194077
114.046997070313 -73.355422973633 -129.229660034180 2.121103286743
38.934654235840 -75.320152282715 -134.901641845703 2.363691568375
-50.738655090332 -77.285804748535 -144.328262329102 1.979267597198
34.901748657227 -73.387054443359 -141.924896240234 1.384313344955
109.952125549316 -73.022285461426 -138.707550048828 0.710290670395
-50.505012512207 -75.874458312988 -145.167938232422 2.187089443207
32.406562805176 -75.586502075195 -148.186218261719 0.756255328655
-55.766387939453 -74.878730773926 -139.583206176758 1.130674123764
-52.579963684082 -76.915603637695 -148.228271484375 1.344477415085
-50.041816711426 -76.242965698242 -149.955780029297 1.144380211830
-64.755348205566 -76.788841247559 -156.767471313477 0.669465184212
115.349990844727 -74.256515502930 -149.179916381836 1.514533758163
-50.343753814697 -76.323020935059 -155.763229370117 2.067523002625
21.748439788818 -75.626892089844 -154.967315673828 1.943081259727
110.245330810547 -74.514411926270 -157.123123168945 1.394202470779
-66.762825012207 -75.050415039063 -157.174636840820 0.676585853100
-47.609058380127 -76.371032714844 -156.212631225586 2.396804332733
8.326792716980 -73.624137878418 -155.533493041992 2.284964084625
-66.874694824219 -75.039329528809 -160.426208496094 1.326405048370
-60.839756011963 -75.861732482910 -162.075698852539 1.268028020859
-1.129672050476 -75.540382385254 -162.476776123047 1.164967179298
-41.006366729736 -76.216514587402 -167.507308959961 2.439486026764
31.252058029175 -74.071495056152 -164.483764648438 1.068188548088
-61.663002014160 -76.102966308594 -165.883789062500 1.093427658081
-57.239379882813 -76.051437377930 -168.953445434570 0.636080086231
20.146810531616 -75.240211486816 -161.631668090820 1.231433391571
-31.130407333374 -76.171577453613 -169.935882568359 1.717031598091
-30.276367187500 -76.816123962402 -167.815567016602 1.421292901039
17.327087402344 -75.519302368164 -174.963409423828 1.442477822304
-39.943935394287 -76.464149475098 -173.257919311523 1.326092481613
-11.937285423279 -75.295562744141 -173.511169433594 0.926039934158
-59.659729003906 -75.217018127441 -173.127548217773 1.805308341980
-4.887269020081 -74.028602600098 -171.506469726563 1.141300916672
-23.067405700684 -76.390808105469 -180.012145996094 0.707725584507
24.148618698120 -75.017189025879 -181.273117065430 0.993372261524
-38.833011627197 -75.099662780762 -172.459884643555 1.650614738464
18.367033004761 -74.636955261230 -178.834915161133 2.379711389542
-22.746408462524 -73.559120178223 -183.425292968750 0.710325539112
-32.196453094482 -76.316398620605 -182.447052001953 0.654290437698
-146.868545532227 -77.116844177246 -186.418518066406 0.934717655182
-21.905210494995 -76.280380249023 -186.701049804688 1.730384588242
-144.260116577148 -76.625411987305 -188.385955810547 0.763314127922
-149.432388305664 -75.713851928711 -187.608551025391 0.686648249626
-47.034446716309 -75.193061828613 -187.012268066406 2.807892084122
98.496139526367 -74.461227416992 -194.879058837891 2.520607709885
-144.335403442383 -76.923881530762 -193.567108154297 0.696975171566
-152.998916625977 -77.943702697754 -197.001937866211 0.889341652393
21.207952499390 -75.505325317383 -198.423965454102 2.157516717911
-135.344345092773 -75.442916870117 -198.451095581055 0.757108449936
19.223829269409 -74.919670104980 -198.535812377930 2.012254476547
-140.590499877930 -75.475814819336 -198.142974853516 0.786646008492
13.210763931274 -75.070762634277 -196.761428833008 1.065830826759
-135.172363281250 -75.708686828613 -201.680282592773 1.259053707123
7.913497924805 -75.985893249512 -207.408630371094 0.691724419594
-149.035903930664 -76.372955322266 -206.641876220703 0.875950515270
93.450714111328 -74.583580017090 -204.116607666016 1.294411420822
-14.558366775513 -76.662910461426 -202.590545654297 1.467895746231
-30.041543960571 -75.483383178711 -207.136871337891 0.525885999203
-9.546914100647 -76.211280822754 -206.244384765625 1.636462926865
-149.183181762695 -76.892784118652 -212.319885253906 1.346948266029
-35.160064697266 -75.921951293945 -206.508605957031 1.035463571548
-81.172653198242 -77.669227600098 -210.906143188477 1.311068534851
-26.528339385986 -76.524528503418 -210.410385131836 2.238953828812
18.821319580078 -75.266052246094 -209.710220336914 0.883190453053
-147.678009033203 -77.534431457520 -213.134979248047 1.615649819374
-91.000938415527 -75.712608337402 -214.701004028320 1.162744402885
-29.784368515015 -75.080749511719 -213.257019042969 2.013828992844
-25.342409133911 -74.622398376465 -218.604522705078 0.867611169815
-14.214970588684 -76.064262390137 -214.079421997070 1.591212868690
-27.292713165283 -75.385139465332 -213.214126586914 1.558846116066
-80.746368408203 -75.919509887695 -216.738388061523 1.128253459930
-85.975578308105 -76.910865783691 -218.035720825195 1.419813752174
-23.873575210571 -76.037986755371 -219.468887329102 1.091458916664
-1.991804003716 -75.591377258301 -221.690109252930 0.547517180443
-149.184860229492 -76.363349914551 -217.412704467773 0.937105953693
-2.153511047363 -76.843574523926 -218.692276000977 0.557878911495
84.494895935059 -75.293502807617 -223.791046142578 1.070094466209
-142.451278686523 -78.328804016113 -225.357864379883 0.580113947392
-9.573872566223 -76.865341186523 -224.307052612305 0.493309319019
-141.449096679688 -77.601364135742 -227.055694580078 0.956235051155
-146.822616577148 -82.932716369629 -227.512222290039 1.058508753777
-6.730885028839 -74.623649597168 -230.399948120117 0.442965745926
16.022439956665 -75.134689331055 -222.447311401367 0.634676635265
-140.953475952148 -76.703536987305 -229.845413208008 0.951682090759
-15.167779922485 -75.640731811523 -229.803222656250 0.458009064198
78.532905578613 -75.199760437012 -228.020935058594 1.451022982597
77.173759460449 -74.537689208984 -231.528274536133 1.777435779572
8.237387657166 -75.740806579590 -231.805221557617 0.589879035950
-26.435384750366 -77.413444519043 -238.381072998047 0.662609279156
-18.090221405029 -77.389648437500 -240.562484741211 0.563156902790
6.070334911346 -74.739318847656 -243.536773681641 0.514958620071
-47.807304382324 -75.610443115234 -242.226119995117 0.649390280247
-23.227218627930 -76.222465515137 -243.271301269531 0.405179113150
8.099558830261 -75.844154357910 -244.159729003906 0.563216388226
-63.404575347900 -76.416885375977 -245.710083007813 1.745326280594
-30.666891098022 -75.887382507324 -243.992736816406 1.981264710426
-43.021125793457 -74.540985107422 -245.416076660156 0.889514207840
-150.089874267578 -77.331916809082 -246.661621093750 1.029305219650
-46.893550872803 -77.109619140625 -247.276214599609 0.688566625118
-53.520751953125 -76.707237243652 -248.745330810547 0.793177127838
-66.778732299805 -76.867500305176 -251.126998901367 2.407259941101
-10.768745422363 -75.895133972168 -251.593688964844 0.511965930462
-81.104827880859 -76.095710754395 -252.799026489258 1.063650608063
-154.698379516602 -80.104377746582 -257.078308105469 0.875836849213
-141.915161132813 -78.532752990723 -257.196411132813 1.179189205170
-125.437759399414 -76.938758850098 -261.810668945313 1.366140604019
-153.335876464844 -74.870780944824 -264.661102294922 1.300836086273
21.395055770874 -76.732238769531 -263.497894287109 1.261978626251
-12.273472785950 -76.955459594727 -268.452667236328 0.378041356802
-150.303115844727 -78.896812438965 -271.626495361328 1.034816980362
-150.459030151367 -79.619842529297 -277.787475585938 1.124475836754
-143.907150268555 -81.209358215332 -284.884277343750 0.830954432487
-57.481922149658 -75.409423828125 -286.221923828125 2.014882802963
-38.184406280518 -76.531143188477 -286.846862792969 0.586153864861
-25.449808120728 -74.869873046875 -286.906555175781 0.534966409206
-12.516889572144 -76.474060058594 -287.217010498047 1.531367063522
-65.164413452148 -76.954711914063 -287.680236816406 2.475673913956
-78.873359680176 -75.973121643066 -287.536376953125 1.541153669357
-3.697251081467 -76.831382751465 -288.112701416016 0.772895753384
8.547183036804 -76.178298950195 -288.494262695313 0.350813150406
-135.503936767578 -77.027893066406 -290.803222656250 1.537968397141
-77.557273864746 -76.770072937012 -289.464721679688 1.273370027542
-147.371704101563 -77.672134399414 -289.165832519531 1.624719023705
-93.820587158203 -76.301017761230 -289.239562988281 2.005879878998
-78.111953735352 -76.547142028809 -289.919952392578 1.298291444778
-83.391220092773 -75.905471801758 -291.214385986328 1.273077964783
-59.575973510742 -76.326705932617 -290.969146728516 0.759769201279
-25.976026535034 -75.549629211426 -292.170501708984 1.591814279556
-3.381222963333 -75.888084411621 -292.627655029297 1.365536093712
-153.501419067383 -76.223762512207 -294.805023193359 1.413034319878
-151.690780639648 -77.561637878418 -300.247589111328 0.602942883968
-145.861557006836 -78.711753845215 -301.521697998047 1.563551306725
-154.576889038086 -77.747253417969 -307.712310791016 1.679499387741
-57.293144226074 -74.277572631836 -55.211009979248 1.924109458923
-45.009643554688 -72.672752380371 -53.564056396484 1.815691828728
-38.470325469971 -73.166801452637 -56.004230499268 1.445220470428
-75.397994995117 -74.356971740723 -59.040489196777 1.315571904182
-28.301509857178 -73.758987426758 -62.425693511963 1.865001082420
-30.182771682739 -74.490837097168 -79.465507507324 2.027632951736
75.980484008789 -73.701240539551 -80.221839904785 2.180197238922
75.803482055664 -74.877693176270 -82.185935974121 1.960344672203
75.471771240234 -74.295722961426 -84.542800903320 2.139789104462
96.300384521484 -72.792518615723 -89.912017822266 1.827794432640
73.666442871094 -74.154876708984 -89.982688903809 2.082277297974
53.842102050781 -73.263626098633 -93.330780029297 1.711220741272
47.730129241943 -75.477386474609 -99.528038024902 1.975685477257
-67.353324890137 -75.203071594238 -99.908821105957 1.463910579681
-71.645317077637 -69.151260375977 -101.789901733398 0.782427072525
45.304073333740 -74.406532287598 -103.697814941406 1.291760444641
-82.248680114746 -77.532020568848 -108.694747924805 0.496558040380
-93.524078369141 -73.976547241211 -112.858856201172 0.845013082027
50.979763031006 -73.244483947754 -105.755577087402 1.314572811127
107.768432617188 -72.528930664063 -110.066856384277 1.314396262169
32.457721710205 -75.385856628418 -119.904724121094 1.515168190002
46.106098175049 -74.097839355469 -119.159240722656 1.232440710068
42.889171600342 -75.314727783203 -126.160125732422 1.361679077148
29.792966842651 -74.700584411621 -125.777954101563 1.474941849709
108.954811096191 -73.125381469727 -118.991020202637 1.471687674522
39.685836791992 -74.170639038086 -128.521301269531 0.565374493599
30.052808761597 -73.136199951172 -130.747970581055 1.441493988037
-46.896198272705 -75.342094421387 -144.884902954102 0.926845848560
-72.295402526855 -74.870910644531 -146.342987060547 1.813753247261
-54.710418701172 -73.601890563965 -144.126022338867 0.818385303020
-70.395164489746 -74.726516723633 -146.459518432617 1.574886083603
-41.717674255371 -73.212707519531 -147.171829223633 1.526619911194
109.097824096680 -71.519477844238 -150.332778930664 1.503053188324
-71.723075866699 -75.392829895020 -155.195434570313 1.614241600037
24.357837677002 -73.914985656738 -149.939163208008 2.114663839340
33.594638824463 -75.081077575684 -153.508682250977 1.251419901848
115.073707580566 -73.920639038086 -158.940567016602 1.740564942360
8.977399826050 -73.894088745117 -159.530014038086 1.068650841713
31.428590774536 -73.940818786621 -155.604232788086 1.248969674110
-65.139961242676 -74.310600280762 -159.116210937500 1.134048342705
-43.728927612305 -75.256690979004 -168.484603881836 0.837505280972
18.788923263550 -72.709037780762 -163.581588745117 1.105509281158
-63.547824859619 -74.112380981445 -164.373443603516 1.866349101067
-67.831314086914 -75.671127319336 -165.275344848633 1.028621435165
107.588943481445 -73.774085998535 -166.177368164063 2.304966211319
-7.032176971436 -74.129684448242 -169.038223266602 1.535511612892
-61.334415435791 -75.714027404785 -177.006484985352 2.127547502518
-27.816490173340 -74.809249877930 -171.037109375000 1.487915635109
-55.479255676270 -74.164077758789 -174.269760131836 0.437652677298
27.857089996338 -74.614318847656 -168.951721191406 2.197984457016
110.047691345215 -73.435684204102 -173.035125732422 1.624052882195
103.052879333496 -74.218193054199 -183.766723632813 1.034780025482
107.551391601563 -74.423316955566 -189.411987304688 1.679791688919
107.630775451660 -73.351249694824 -178.405258178711 0.756454348564
-53.591285705566 -75.242866516113 -187.696487426758 1.950101375580
-51.565212249756 -73.961097717285 -182.612106323242 2.056669950485
25.702964782715 -75.577850341797 -183.034423828125 0.783915638924
-49.994758605957 -73.756538391113 -189.214065551758 0.572297811508
-19.794935226440 -75.740753173828 -185.080108642578 0.592292547226
-50.532360076904 -75.182617187500 -191.873657226563 0.546881318092
-149.766372680664 -76.346466064453 -193.683654785156 0.469276666641
101.889877319336 -73.600730895996 -193.678390502930 1.222300291061
-45.072963714600 -74.010200500488 -192.816497802734 0.565737247467
-17.136777877808 -76.032402038574 -197.407409667969 0.629431545734
-140.695617675781 -77.672973632813 -197.312652587891 0.767270088196
-45.562709808350 -73.990798950195 -196.248565673828 2.198120355606
103.669303894043 -74.472717285156 -198.059326171875 1.446016669273
106.013969421387 -73.471702575684 -186.878341674805 2.212251424789
-46.312011718750 -75.329200744629 -197.869781494141 1.866623282433
-24.107126235962 -76.239723205566 -196.243377685547 1.563779354095
-148.926910400391 -81.321876525879 -199.550506591797 0.909085571766
-24.783123016357 -76.626182556152 -199.081909179688 1.707619667053
-153.858734130859 -77.767517089844 -199.779922485352 0.861945092678
-152.673095703125 -78.639648437500 -202.577301025391 0.973422288895
-140.861038208008 -77.637306213379 -202.122634887695 0.802709281445
-38.112777709961 -75.244720458984 -198.452011108398 2.445016622543
100.486267089844 -73.530136108398 -199.557174682617 1.945303916931
-39.194469451904 -73.954643249512 -199.656707763672 2.128893852234
-144.396835327148 -78.808174133301 -205.342849731445 1.208270430565
-38.371250152588 -73.950988769531 -206.509689331055 2.226471662521
-18.534393310547 -76.280067443848 -210.109924316406 1.335801601410
96.061622619629 -73.621238708496 -204.570846557617 2.363316535950
92.957832336426 -73.657485961914 -211.235229492188 0.767159104347
-30.422405242920 -74.794334411621 -217.246719360352 1.403920531273
-86.167137145996 -75.804824829102 -212.559799194336 0.992906093597
-75.469215393066 -75.198898315430 -211.989456176758 1.132598280907
-17.571599960327 -75.345680236816 -219.426055908203 0.775637328625
-149.477142333984 -75.156265258789 -211.875061035156 0.915203452110
88.341003417969 -75.035171508789 -212.862228393555 1.090487837791
89.730957031250 -75.067512512207 -218.751815795898 1.148513913155
90.854011535645 -73.277099609375 -219.235885620117 0.427998363972
-101.434173583984 -74.243705749512 -222.939254760742 1.296404600143
-150.575164794922 -78.549118041992 -223.815200805664 0.972654819489
-19.413682937622 -75.347534179688 -221.021041870117 1.176493883133
78.917785644531 -74.264411926270 -224.188537597656 1.029578924179
-148.507400512695 -78.276062011719 -227.483459472656 0.942048966885
-26.198740005493 -75.539024353027 -221.737014770508 1.029308319092
-132.223587036133 -75.650085449219 -229.247344970703 1.141280412674
-12.559075355530 -76.455825805664 -227.812042236328 1.669134855270
18.063106536865 -75.133094787598 -221.916473388672 1.558023571968
19.118869781494 -75.626091003418 -231.871505737305 1.124962568283
-153.626480102539 -79.488197326660 -232.856124877930 1.168954372406
-124.769317626953 -74.834747314453 -233.203216552734 1.304159879684
-7.943921089172 -74.108016967773 -234.820709228516 1.759876251221
0.086542002857 -74.926330566406 -236.639648437500 0.571396410465
69.493568420410 -74.202468872070 -235.575088500977 1.551674008369
72.839363098145 -73.547927856445 -236.295059204102 0.893207192421
-0.376630008221 -75.567710876465 -240.444335937500 1.499032497406
17.118616104126 -73.591270446777 -239.317916870117 1.203180670738
-28.276485443115 -74.129287719727 -239.534835815430 0.431514889002
-35.391242980957 -75.204010009766 -240.485229492188 0.431239277124
-43.893383026123 -74.194679260254 -242.899108886719 0.463853627443
-37.248661041260 -74.320991516113 -242.724075317383 1.542911171913
-18.829412460327 -76.257804870605 -242.501541137695 1.973661065102
-53.065021514893 -74.753890991211 -243.379486083984 1.080693960190
2.232599973679 -74.782539367676 -244.922012329102 0.441030651331
-67.698959350586 -73.688507080078 -246.456375122070 1.684793472290
19.651149749756 -74.708473205566 -247.029983520508 1.081212043762
-146.577102661133 -77.703437805176 -247.122924804688 1.097729802132
-71.927619934082 -76.984024047852 -249.010086059570 0.981030881405
13.829850196838 -77.190284729004 -247.999496459961 1.008045315742
-161.521255493164 -75.756912231445 -250.094223022461 1.237323045731
18.177619934082 -76.135978698730 -251.376174926758 1.290125608444
-79.142425537109 -76.040710449219 -250.863616943359 1.322016596794
-74.095474243164 -76.502410888672 -251.722137451172 0.903039574623
21.491945266724 -75.265876770020 -256.373626708984 0.719893276691
-88.548835754395 -75.221603393555 -254.484985351563 1.746983289719
-125.357078552246 -75.858009338379 -256.475219726563 1.027073621750
-135.182495117188 -75.504707336426 -258.503479003906 1.099598288536
-133.204406738281 -76.795936584473 -258.556610107422 1.079618930817
-147.359756469727 -74.651702880859 -260.331665039063 0.559268772602
-141.530548095703 -76.008972167969 -259.716491699219 0.641810536385
-135.710479736328 -75.074340820313 -262.235321044922 1.669412970543
-161.429595947266 -76.003097534180 -261.930816650391 1.317390680313
-125.351333618164 -73.992362976074 -264.969451904297 1.371974706650
-133.568649291992 -76.440307617188 -262.490905761719 1.876286983490
-165.579620361328 -75.517295837402 -263.780914306641 2.021991491318
-158.344223022461 -75.101188659668 -264.011779785156 1.512373924255
-151.159469604492 -75.479621887207 -265.706512451172 1.288546204567
-146.750427246094 -75.896804809570 -266.054382324219 1.235893487930
15.987469673157 -77.340499877930 -277.846588134766 0.214265272021
-165.510177612305 -75.807510375977 -269.629211425781 1.725550174713
-152.482498168945 -75.449607849121 -273.993469238281 1.336807012558
-6.663171768188 -79.522308349609 -273.756713867188 1.799630403519
-160.611343383789 -75.603958129883 -269.157257080078 4.132897377014
12.667783737183 -78.459899902344 -279.720916748047 1.117332935333
-151.480545043945 -76.186981201172 -282.966674804688 1.372464299202
-162.129806518555 -76.204910278320 -286.926422119141 1.501272678375
-153.951049804688 -75.913414001465 -284.358642578125 1.824128508568
-165.914566040039 -76.447792053223 -286.165374755859 1.759375691414
2.723747014999 -75.402458190918 -288.023345947266 0.374027669430
7.508323192596 -77.141494750977 -285.325561523438 0.230612337589
-96.986305236816 -75.565460205078 -288.315826416016 1.649904251099
-150.472915649414 -75.943916320801 -288.092346191406 1.398884892464
-148.626876831055 -75.862304687500 -287.738952636719 0.946804940701
-109.367149353027 -75.418968200684 -289.110900878906 1.648193717003
-150.587722778320 -75.947158813477 -290.549438476563 1.439932107925
-148.656753540039 -75.931243896484 -290.934143066406 1.427987337112
-67.618957519531 -75.481552124023 -291.362884521484 0.823776543140
-162.415954589844 -76.523567199707 -290.922271728516 1.960467576981
-123.971328735352 -75.473098754883 -291.702758789063 1.565875887871
-43.609825134277 -76.185630798340 -291.343078613281 0.932085394859
-156.478866577148 -76.214172363281 -290.285614013672 1.739086627960
-135.808334350586 -74.241470336914 -293.565643310547 1.338328361511
-16.363075256348 -74.414543151855 -292.363494873047 1.010915160179
-126.292739868164 -76.259895324707 -294.401214599609 1.684041619301
5.206067085266 -75.345092773438 -293.234283447266 1.626705169678
15.694263458252 -74.626373291016 -292.713562011719 0.681378722191
-133.948776245117 -76.672569274902 -293.618438720703 1.332468390465
-145.958145141602 -76.151847839355 -295.407165527344 1.439311265945
-155.979370117188 -75.471755981445 -312.077819824219 1.066667199135
-72.690628051758 -70.894821166992 -52.120864868164 1.438961148262
-23.039070129395 -71.145904541016 -60.810195922852 2.066472053528
-21.468765258789 -72.834892272949 -65.291351318359 1.948225498199
74.779647827148 -71.512268066406 -74.436088562012 2.356698751450
92.049438476563 -72.701179504395 -75.364128112793 2.091603994370
-38.214561462402 -72.313880920410 -77.718826293945 1.161425113678
73.983955383301 -72.637222290039 -77.279960632324 2.191998243332
88.447738647461 -74.347854614258 -80.950820922852 2.301690816879
70.502059936523 -71.764328002930 -82.166015625000 2.128511190414
71.726982116699 -72.862602233887 -85.643150329590 1.603755712509
-49.300571441650 -75.795814514160 -88.498992919922 1.241917252541
-91.903495788574 -74.484855651855 -87.005302429199 1.195488572121
57.694999694824 -72.444313049316 -93.523719787598 0.625339627266
49.604793548584 -72.435630798340 -97.145431518555 1.397815346718
95.147560119629 -72.710533142090 -95.511833190918 2.415496587753
-94.414817810059 -72.939010620117 -102.321228027344 2.045171976089
84.667762756348 -73.112632751465 -97.191825866699 2.105750799179
75.108238220215 -72.228218078613 -97.811668395996 1.789723157883
92.263099670410 -72.096252441406 -98.428649902344 1.733749866486
82.347038269043 -71.150093078613 -100.173667907715 1.618777632713
86.630081176758 -74.091026306152 -97.563835144043 1.497722744942
-80.647094726563 -75.009277343750 -102.473304748535 0.879540681839
39.961109161377 -74.136322021484 -109.673088073730 1.290794730186
106.342483520508 -72.200332641602 -110.488746643066 1.715470671654
109.970420837402 -72.081275939941 -110.670608520508 1.416012883186
45.501964569092 -73.070831298828 -116.209205627441 1.488575220108
108.053466796875 -72.078132629395 -123.217948913574 1.864697456360
115.503822326660 -72.826385498047 -134.420867919922 1.459422945976
-52.624507904053 -73.563835144043 -134.640335083008 0.872215151787
26.761182785034 -72.807823181152 -133.968536376953 1.602919578552
39.899143218994 -72.986427307129 -133.303909301758 1.300389766693
25.987865447998 -71.405738830566 -144.006835937500 2.330329656601
113.314788818359 -72.106376647949 -140.404891967773 1.181707739830
112.317916870117 -71.591926574707 -134.185333251953 1.446247816086
-73.584976196289 -74.490776062012 -148.615127563477 2.014896392822
-44.468204498291 -74.116600036621 -146.928268432617 1.899185061455
-70.969490051270 -73.072608947754 -149.760818481445 1.515709161758
21.530429840088 -73.480888366699 -152.337860107422 0.579743444920
113.371543884277 -72.488449096680 -151.521881103516 0.875433623791
-52.799972534180 -73.851974487305 -149.422225952148 1.368540167809
-69.483261108398 -72.709526062012 -149.497009277344 1.888748526573
-38.271221160889 -76.245712280273 -154.473388671875 0.911129832268
33.494499206543 -70.998268127441 -152.286300659180 2.385027408600
112.116889953613 -72.196929931641 -152.465469360352 1.214862227440
113.175262451172 -72.006240844727 -158.522094726563 1.074234962463
-68.113471984863 -72.146736145020 -153.974761962891 1.382618188858
-68.978736877441 -73.913307189941 -163.096313476563 0.647257030010
21.551111221313 -73.852989196777 -163.195922851563 1.483912944794
-59.631439208984 -73.193588256836 -166.907958984375 1.171272277832
-33.209129333496 -74.392898559570 -161.257461547852 0.882280588150
6.862255096436 -73.371520996094 -162.679275512695 0.905352473259
111.116333007813 -72.734283447266 -162.052261352539 0.237350225449
4.563006877899 -73.816513061523 -164.974533081055 0.998680531979
-33.362422943115 -74.193847656250 -165.661651611328 0.773714184761
0.590147018433 -73.292091369629 -167.664596557617 0.955769360065
109.246444702148 -72.340385437012 -170.180175781250 1.999164938927
-40.693534851074 -71.908668518066 -169.089981079102 1.351308345795
27.501785278320 -71.162818908691 -170.451034545898 1.962038278580
110.782264709473 -72.183700561523 -172.610626220703 2.383581399918
-57.267814636230 -72.728958129883 -177.518859863281 1.049495458603
-28.606307983398 -74.177902221680 -173.414199829102 1.468554615974
105.214080810547 -71.730178833008 -173.767776489258 1.034308314323
28.884439468384 -73.078994750977 -172.881973266602 1.451441287994
112.601127624512 -74.087333679199 -174.181640625000 1.443248152733
-36.822975158691 -73.605369567871 -176.817443847656 1.968139410019
106.369758605957 -72.336654663086 -180.641937255859 0.988494396210
-59.490623474121 -74.052558898926 -178.133758544922 2.086937189102
-24.943752288818 -75.637863159180 -180.910217285156 0.936090886593
-144.577819824219 -74.103507995605 -182.836242675781 0.503465890884
-54.219966888428 -73.678062438965 -183.919815063477 0.526126742363
-146.477813720703 -74.946342468262 -187.582702636719 1.094989895821
-32.425788879395 -73.000610351563 -187.951400756836 0.971790611744
23.508312225342 -73.505638122559 -186.810363769531 0.952018857002
107.760902404785 -72.223800659180 -183.051864624023 1.182286143303
-30.030523300171 -75.612533569336 -187.348327636719 1.566704750061
12.013661384583 -74.244369506836 -190.887481689453 1.464378952980
19.387012481689 -73.405876159668 -200.790985107422 0.738804876804
-146.173721313477 -75.451255798340 -193.207229614258 0.798098802567
102.890678405762 -72.391563415527 -195.137634277344 1.439970850945
-17.868083953857 -71.765068054199 -194.139739990234 1.148241162300
102.746009826660 -72.389190673828 -190.279983520508 1.634243845940
14.613443374634 -72.744247436523 -188.219543457031 1.543119549751
-131.684082031250 -74.286231994629 -201.225372314453 0.756535291672
-140.330032348633 -75.678497314453 -201.418350219727 0.798754513264
97.298179626465 -72.551177978516 -201.174133300781 1.350005865097
-11.815615653992 -75.590568542480 -201.621871948242 0.954290449619
-14.576238632202 -75.251731872559 -201.217239379883 1.793403387070
9.488878250122 -74.467987060547 -207.542160034180 1.043293714523
-149.912338256836 -72.441841125488 -206.248184204102 0.513204813004
-145.565948486328 -76.279884338379 -206.548919677734 0.853357672691
