51.573329925537 -71.678627014160 -91.895553588867 1.269839882851
62.390007019043 -69.554695129395 -90.665580749512 1.365890383720
58.455642700195 -70.775535583496 -95.323959350586 0.852793455124
101.595199584961 -69.615913391113 -96.146911621094 1.676189899445
104.821029663086 -69.435104370117 -96.265480041504 1.693088650703
58.899890899658 -71.282089233398 -98.041275024414 0.829219400883
106.200065612793 -68.053092956543 -97.223709106445 1.078886985779
-74.951545715332 -68.841194152832 -99.512229919434 0.351050883532
-70.963836669922 -67.019126892090 -99.725593566895 0.554845094681
100.946357727051 -68.827636718750 -98.067176818848 1.066621780396
53.724998474121 -69.369552612305 -99.969230651855 0.780803859234
71.190139770508 -69.873970031738 -100.215003967285 1.106809854507
-73.702789306641 -68.378761291504 -104.493118286133 1.043238759041
-83.652969360352 -67.620697021484 -105.308120727539 1.032575845718
93.208808898926 -69.947639465332 -105.510231018066 0.822614490986
42.733264923096 -68.549957275391 -106.003036499023 1.165863990784
103.544242858887 -68.490661621094 -102.686347961426 1.913130760193
44.602104187012 -69.392143249512 -112.645950317383 1.162284374237
109.388328552246 -68.980216979980 -105.074684143066 1.747835159302
-79.528923034668 -66.867736816406 -108.738716125488 1.210152745247
107.399482727051 -68.045181274414 -107.540916442871 2.164103269577
-85.379577636719 -67.060501098633 -119.846778869629 0.630192935467
-58.428394317627 -69.612800598145 -128.694763183594 0.330577403307
-53.662803649902 -66.652557373047 -125.711494445801 0.811846375465
-73.793380737305 -67.709190368652 -128.406646728516 1.995805263519
-51.217250823975 -69.202674865723 -129.894531250000 0.330758452415
-83.821487426758 -69.067161560059 -130.399841308594 1.251396536827
-76.910575866699 -67.644927978516 -134.361511230469 0.935211241245
-82.162704467773 -66.923095703125 -127.589393615723 0.031611513346
-58.200256347656 -70.418144226074 -139.671997070313 0.881342470646
-72.580055236816 -66.762870788574 -138.781082153320 0.298845916986
-58.783325195313 -66.940788269043 -137.560531616211 0.235543534160
-60.394386291504 -69.162597656250 -139.714462280273 0.824850082397
23.081146240234 -67.747375488281 -140.634963989258 1.339730143547
-90.090293884277 -67.226554870605 -143.923324584961 1.342494010925
-46.080417633057 -68.195518493652 -142.692001342773 0.515992760658
-98.766036987305 -65.942123413086 -148.850006103516 1.617424011230
-99.073020935059 -67.313148498535 -151.298431396484 0.188152015209
17.910909652710 -68.833953857422 -151.563400268555 1.201594233513
13.236089706421 -69.407058715820 -156.245956420898 0.351289838552
-96.486709594727 -67.196983337402 -157.755172729492 1.115537643433
-102.117553710938 -66.739761352539 -157.591781616211 0.630262434483
-101.088836669922 -67.120338439941 -169.036346435547 0.286477833986
23.197109222412 -67.652153015137 -168.358612060547 1.448750853539
-107.801109313965 -67.135948181152 -171.208801269531 1.932408452034
19.824790954590 -69.049125671387 -168.277832031250 0.597363889217
-146.722869873047 -66.791595458984 -175.737731933594 0.586160123348
17.728467941284 -68.707359313965 -176.354721069336 0.820426166058
23.234142303467 -68.205589294434 -185.025177001953 2.000011682510
-152.828125000000 -66.608734130859 -187.276321411133 0.770026564598
22.306339263916 -67.221687316895 -178.056213378906 1.429439663887
19.411226272583 -67.303375244141 -178.490036010742 0.645186662674
-140.864807128906 -68.705413818359 -187.623718261719 0.682016313076
-151.458770751953 -67.197280883789 -188.654571533203 0.658623278141
20.448232650757 -67.216987609863 -188.779418945313 2.189496278763
18.548063278198 -67.032127380371 -188.601974487305 0.602188766003
-142.690429687500 -67.566070556641 -192.768966674805 0.415935426950
-107.810913085938 -67.583740234375 -197.600555419922 0.662434637547
20.806695938110 -68.798118591309 -196.497161865234 0.852383255959
-123.530914306641 -65.671791076660 -194.780654907227 0.360396534204
12.769451141357 -68.007850646973 -197.621536254883 2.432948350906
-131.984375000000 -66.322128295898 -194.893356323242 0.856120109558
-154.786071777344 -65.702522277832 -194.016204833984 1.290414810181
-162.816390991211 -67.985069274902 -197.341903686523 0.270212441683
-161.570251464844 -65.677703857422 -198.211883544922 0.894201636314
-18.050752639771 -66.678184509277 -199.928237915039 2.391382217407
-165.242034912109 -67.833366394043 -200.468536376953 0.226567268372
-23.942398071289 -67.573051452637 -191.881790161133 1.518575906754
-14.664084434509 -68.439620971680 -199.000885009766 2.001787662506
14.917217254639 -67.266075134277 -194.566253662109 1.553357601166
-158.948730468750 -65.571220397949 -199.874420166016 0.883312880993
-110.071960449219 -67.103065490723 -201.286956787109 0.529168069363
-18.369480133057 -66.798545837402 -204.547241210938 1.483999729156
-157.934097290039 -67.273498535156 -202.803512573242 1.006324052811
16.032314300537 -67.097320556641 -199.703079223633 1.409740805626
-164.858139038086 -65.786437988281 -203.527252197266 1.604122161865
-121.935653686523 -68.677124023438 -203.450302124023 0.819420456886
-114.110244750977 -65.615440368652 -204.615814208984 1.652759552002
-122.979125976563 -65.274513244629 -205.149490356445 0.981138229370
-12.712286949158 -67.847290039063 -204.823623657227 0.481977969408
-14.172915458679 -66.894737243652 -205.625473022461 0.635264456272
-164.248641967773 -65.855018615723 -209.480987548828 1.728577017784
-160.174972534180 -66.289192199707 -213.993545532227 1.640387177467
-164.529586791992 -66.369598388672 -219.929031372070 3.087730646133
-143.957733154297 -67.059654235840 -215.037353515625 1.302850008011
-143.534515380859 -68.344863891602 -222.428909301758 0.960032165051
-5.442097187042 -66.901374816895 -221.155441284180 1.187987804413
-10.271422386169 -66.978103637695 -216.366073608398 2.047038793564
-98.061401367188 -67.461814880371 -221.497879028320 1.194981575012
-5.050114154816 -67.538345336914 -227.079589843750 0.848978459835
-163.751174926758 -66.364570617676 -226.712921142578 1.375834822655
-109.300758361816 -65.701293945313 -229.682815551758 0.691119611263
0.441976010799 -67.009803771973 -226.409027099609 0.403557896614
4.555014133453 -66.179084777832 -230.216537475586 0.698677420616
-111.180984497070 -68.455413818359 -231.880722045898 0.909582257271
-0.887969970703 -67.092079162598 -230.853683471680 0.397203177214
-115.824363708496 -66.335014343262 -234.843307495117 0.545048952103
-6.645506858826 -66.936119079590 -235.220306396484 1.391360044479
-2.519948005676 -67.043975830078 -234.401596069336 1.299704432487
0.398016005754 -68.412590026855 -235.266052246094 0.339672267437
70.813522338867 -67.892982482910 -235.400619506836 2.156451463699
-12.249607086182 -69.215957641602 -237.177352905273 0.566843450069
3.513426065445 -67.798248291016 -238.852996826172 0.716322422028
11.409480094910 -66.884658813477 -240.827011108398 0.839850962162
6.432054996490 -66.805793762207 -238.645858764648 0.601456284523
0.430750995874 -67.716163635254 -239.829727172852 1.257103681564
66.326301574707 -67.590751647949 -236.237121582031 1.403689622879
69.665122985840 -68.767456054688 -238.852523803711 1.349097847939
11.657681465149 -68.403602600098 -243.718933105469 0.527901232243
58.186954498291 -67.155380249023 -240.972564697266 0.738353788853
56.617118835449 -68.912048339844 -240.594512939453 0.337854832411
47.617130279541 -67.697525024414 -246.021057128906 0.400698542595
40.164928436279 -68.707313537598 -250.155731201172 1.942779302597
41.151512145996 -67.429946899414 -252.120574951172 0.610039532185
-134.202560424805 -67.330612182617 -254.805587768555 0.999447405338
-12.272225379944 -67.990432739258 -253.403442382813 1.624293923378
25.516481399536 -68.605964660645 -258.379608154297 0.626691877842
47.759868621826 -68.326805114746 -251.449508666992 0.350438773632
24.642019271851 -68.256973266602 -255.216033935547 0.999694406986
-100.455451965332 -66.392959594727 -257.337921142578 0.794894933701
33.697746276855 -67.520881652832 -256.122955322266 0.565331935883
-149.836990356445 -67.811447143555 -259.541961669922 1.118061780930
-115.478767395020 -65.635643005371 -258.279724121094 0.906488299370
-105.067550659180 -66.311614990234 -256.900085449219 0.857764780521
-5.954018115997 -66.876739501953 -258.999511718750 0.352703243494
-147.403198242188 -67.615112304688 -257.903656005859 1.009933471680
32.947128295898 -66.449371337891 -259.401947021484 1.109783411026
-112.139106750488 -66.128623962402 -258.270782470703 0.643080413342
27.338069915771 -67.403625488281 -259.506317138672 0.534912168980
-134.920791625977 -65.186065673828 -259.805419921875 1.531944274902
-115.715133666992 -65.477050781250 -260.355468750000 0.787939071655
-106.638946533203 -65.889686584473 -259.364288330078 0.816292881966
-116.264472961426 -65.240974426270 -262.168853759766 1.214828968048
-136.854354858398 -66.692420959473 -262.392761230469 1.523174166679
28.296991348267 -67.609497070313 -261.680389404297 1.122498512268
-117.646499633789 -66.867530822754 -264.013336181641 0.799914896488
-143.233184814453 -67.828758239746 -263.639038085938 0.993959724903
-4.823377132416 -66.954360961914 -270.784240722656 0.408320009708
-151.784927368164 -68.037437438965 -283.065246582031 0.689685106277
-7.006227016449 -67.207527160645 -281.412292480469 1.940068602562
-4.664203166962 -65.976829528809 -285.204437255859 1.134680986404
-133.817138671875 -66.991134643555 -285.196319580078 1.417647361755
-124.220474243164 -66.749465942383 -287.762542724609 0.946024954319
-135.481460571289 -67.739402770996 -292.472442626953 1.081541538239
-125.872688293457 -68.345596313477 -294.931945800781 1.405833959579
-152.752334594727 -68.105155944824 -295.040374755859 1.213810801506
-152.904602050781 -66.226425170898 -301.020446777344 1.413909196854
-146.476058959961 -67.570510864258 -300.199676513672 1.526621460915
-150.144226074219 -64.963592529297 -301.304687500000 1.398277997971
-144.861923217773 -67.198181152344 -301.171539306641 1.356635332108
-146.998489379883 -65.428009033203 -301.584075927734 1.435016751289
-146.816986083984 -66.145599365234 -312.396209716797 1.438322663307
19.959554672241 -72.304168701172 -29.665723800659 1.350522518158
47.608608245850 -71.581344604492 -34.464500427246 0.921001076698
27.321043014526 -72.602134704590 -39.395507812500 1.652098178864
33.440444946289 -72.119407653809 -40.173522949219 1.234344005585
-43.691307067871 -67.266021728516 -46.603378295898 1.419094800949
-79.153274536133 -69.366630554199 -50.991607666016 1.393288493156
81.039962768555 -67.124900817871 -61.270393371582 1.416247725487
76.184684753418 -68.663291931152 -62.920722961426 1.574846386909
70.304092407227 -68.369651794434 -68.199813842773 2.218149185181
-96.636497497559 -67.335540771484 -74.411430358887 1.973113656044
100.815917968750 -69.315956115723 -75.846710205078 1.549258232117
-34.018943786621 -66.760169982910 -78.268394470215 1.107803940773
65.725166320801 -68.553138732910 -78.346229553223 1.197219133377
-44.560844421387 -66.874168395996 -80.694679260254 0.655568778515
-50.637512207031 -65.779342651367 -84.390022277832 0.219769701362
49.901576995850 -70.406333923340 -90.128616333008 0.736172974110
102.431838989258 -70.594924926758 -89.720924377441 2.247592926025
65.950286865234 -66.571098327637 -95.196372985840 1.401895284653
58.020614624023 -67.542251586914 -94.953056335449 1.354551196098
50.021678924561 -68.066215515137 -100.123931884766 1.818214058876
57.482215881348 -66.429771423340 -97.358810424805 1.536813378334
104.234107971191 -67.359138488770 -97.744941711426 1.291064977646
71.297454833984 -67.763992309570 -103.524192810059 1.144280552864
47.597579956055 -67.366996765137 -105.049560546875 1.494798302650
78.225730895996 -69.764625549316 -105.621772766113 1.179615139961
90.884552001953 -66.503265380859 -108.092979431152 1.046710371971
-76.868026733398 -67.488098144531 -105.639999389648 0.525415062904
-86.910537719727 -68.730957031250 -110.279861450195 1.776070594788
-82.361320495605 -68.490547180176 -113.787628173828 0.627793967724
-59.253376007080 -65.339485168457 -118.109947204590 0.335751086473
-56.688137054443 -69.384490966797 -125.209915161133 1.254730701447
-94.182159423828 -67.339317321777 -122.205261230469 0.669621765614
-76.641731262207 -66.383445739746 -120.184555053711 1.350516080856
-75.966827392578 -69.049560546875 -131.288330078125 0.406797230244
-61.192848205566 -67.374237060547 -129.175018310547 1.578968167305
-89.107200622559 -65.051597595215 -129.967285156250 0.578734099865
-89.433235168457 -67.678512573242 -128.836517333984 1.649003744125
-47.363849639893 -70.870147705078 -135.576156616211 1.702488303185
-52.313400268555 -66.045738220215 -135.171295166016 0.294317811728
-76.327423095703 -65.544494628906 -138.655715942383 1.828437209129
-52.505111694336 -67.388519287109 -141.660263061523 0.602971494198
-75.269775390625 -66.670173645020 -141.726898193359 0.972921669483
23.994590759277 -66.328529357910 -137.392333984375 1.554601430893
-56.364490509033 -68.712837219238 -145.608123779297 0.445615708828
-53.499931335449 -66.034965515137 -144.497161865234 1.198480486870
9.924045562744 -68.108123779297 -154.626785278320 1.367332577705
15.987236022949 -66.088188171387 -151.272552490234 0.738294124603
-143.214660644531 -65.761779785156 -175.547485351563 1.512648940086
-110.341201782227 -67.392250061035 -178.689086914063 1.469120740891
-106.830757141113 -65.504501342773 -188.793258666992 1.186025619507
-151.312698364258 -66.855979919434 -193.535476684570 0.100643731654
-112.255508422852 -65.936378479004 -184.994995117188 1.706317067146
-152.704467773438 -65.263130187988 -195.573898315430 0.812925040722
-113.549316406250 -64.861946105957 -197.722015380859 0.824046909809
-148.744522094727 -65.900314331055 -199.226623535156 0.796224832535
-151.430587768555 -67.293144226074 -205.730743408203 0.899930119514
-151.142990112305 -67.367645263672 -211.896057128906 2.572767019272
-145.323165893555 -65.797721862793 -222.864654541016 0.719239234924
-151.440261840820 -67.682647705078 -223.691024780273 0.828201472759
-104.151145935059 -66.497528076172 -222.451690673828 1.345686793327
-104.248161315918 -65.919532775879 -224.996459960938 1.241500854492
-123.287597656250 -64.783859252930 -227.791900634766 0.960574448109
-108.995864868164 -64.870719909668 -227.045852661133 0.675169587135
-154.758728027344 -68.128395080566 -230.616302490234 1.020588874817
-1.830294966698 -66.740692138672 -227.828994750977 0.688468277454
-134.435302734375 -64.858848571777 -232.033874511719 0.933755278587
-152.529052734375 -68.250213623047 -234.622558593750 0.997967481613
-133.451873779297 -66.125373840332 -234.521835327148 0.888571858406
-11.869971275330 -67.629913330078 -238.764938354492 0.365452170372
9.253789901733 -67.778213500977 -240.993148803711 0.398732632399
63.482337951660 -66.832489013672 -241.029251098633 1.395847678185
19.432024002075 -67.394149780273 -246.762680053711 0.590528190136
59.304492950439 -66.692024230957 -245.267395019531 0.538218915462
42.917270660400 -66.536575317383 -248.900299072266 1.609165072441
54.987712860107 -67.679534912109 -249.476272583008 0.430654585361
-150.517333984375 -65.884498596191 -252.568313598633 1.330561518669
-152.302139282227 -68.690361022949 -253.902740478516 1.133600473404
41.941822052002 -66.367080688477 -256.928466796875 1.020907521248
32.448486328125 -66.042938232422 -257.442901611328 1.793664097786
47.139251708984 -67.466125488281 -250.570205688477 0.592842161655
-143.482635498047 -68.036338806152 -254.541915893555 0.856003284454
-133.700408935547 -64.770332336426 -256.545776367188 1.020313978195
-125.637535095215 -64.865165710449 -255.832260131836 1.137814044952
-134.523681640625 -67.011955261230 -256.315307617188 0.853898108006
-141.583892822266 -65.805740356445 -257.666900634766 1.081121921539
-124.038619995117 -65.701202392578 -258.743133544922 0.964154958725
-141.560394287109 -65.457199096680 -260.554656982422 1.245920538902
-124.057044982910 -65.818916320801 -261.688476562500 0.981443643570
-125.288993835449 -64.688957214355 -263.266265869141 1.447836160660
-124.514129638672 -66.793327331543 -263.953460693359 1.220532178879
-117.022789001465 -65.011390686035 -263.753295898438 1.632128477097
-4.790456771851 -66.950340270996 -264.796020507813 0.371681749821
26.382806777954 -67.535690307617 -262.803436279297 0.975994348526
-146.462127685547 -66.619880676270 -266.142242431641 1.164079189301
26.735727310181 -65.236137390137 -265.481170654297 0.937252402306
-2.444185018539 -66.144981384277 -270.972747802734 1.703630089760
16.972602844238 -70.011077880859 -283.785919189453 0.584438920021
-141.860275268555 -66.211334228516 -288.694580078125 1.366521596909
-126.056106567383 -64.544357299805 -287.613220214844 1.507827162743
-133.946487426758 -64.783134460449 -289.748901367188 1.435646057129
-156.078292846680 -63.632503509521 -290.528320312500 1.239390969276
-124.410667419434 -64.339950561523 -289.074401855469 1.368470549583
-117.621620178223 -64.135337829590 -289.606109619141 1.384995102882
-126.582519531250 -65.259712219238 -292.682098388672 1.614048480988
-147.993057250977 -66.723381042480 -296.303802490234 1.803004860878
26.956172943115 -72.162559509277 -13.654022216797 1.550881505013
34.924755096436 -72.322021484375 -16.441293716431 0.939808189869
38.947570800781 -72.540016174316 -17.505014419556 1.450873017311
49.151519775391 -64.237579345703 -23.582979202271 2.783151626587
25.475624084473 -72.267333984375 -27.391521453857 1.667926669121
22.778827667236 -72.190467834473 -35.541252136230 1.189870595932
-35.120079040527 -65.841400146484 -47.266727447510 1.442448854446
-84.270278930664 -66.838302612305 -52.121578216553 1.890745997429
-15.108056068420 -66.914794921875 -56.965721130371 1.470024347305
70.825675964355 -67.078987121582 -64.509300231934 2.068792104721
98.670799255371 -67.385208129883 -67.849937438965 1.795699357986
65.153160095215 -68.371696472168 -81.037803649902 1.398019075394
61.941661834717 -65.292076110840 -80.870574951172 1.765692830086
104.123054504395 -66.255157470703 -83.420593261719 1.621442079544
-63.210086822510 -65.204544067383 -89.467880249023 0.261512130499
-64.051177978516 -65.864219665527 -93.374473571777 0.446281582117
47.654201507568 -67.115638732910 -95.047920227051 2.078422307968
-65.923606872559 -65.077697753906 -95.713096618652 0.418348848820
-68.960151672363 -66.467300415039 -98.965438842773 0.383005619049
-98.927246093750 -63.577175140381 -95.966590881348 1.573879718781
-74.873207092285 -65.762283325195 -101.038833618164 0.853210687637
46.977695465088 -66.615119934082 -100.176803588867 1.450968503952
-70.231414794922 -66.848731994629 -103.051574707031 0.655119240284
52.142322540283 -66.058074951172 -100.592521667480 1.615784764290
97.467018127441 -68.177040100098 -103.629096984863 1.599931001663
92.812248229980 -66.401565551758 -106.826263427734 1.549786567688
-74.594764709473 -66.258407592773 -112.363555908203 1.639918923378
-80.928222656250 -65.583061218262 -112.750328063965 0.830533146858
-61.537075042725 -66.459419250488 -119.218811035156 1.653116464615
-96.686546325684 -65.637985229492 -119.961021423340 1.465790152550
-77.140785217285 -66.349205017090 -127.034820556641 0.771174430847
-92.309242248535 -63.706295013428 -122.966217041016 0.352493941784
-61.821342468262 -64.152931213379 -119.278015136719 0.550449788570
-59.937992095947 -63.113971710205 -118.300979614258 0.767498135567
-86.395645141602 -64.369224548340 -127.919128417969 1.127184391022
-62.287109375000 -68.922065734863 -128.529968261719 1.287422776222
-84.266921997070 -65.207839965820 -130.720275878906 0.120254963636
-73.189064025879 -67.006324768066 -132.060516357422 0.778897643089
-63.375984191895 -66.096771240234 -130.804519653320 1.263644456863
-61.435028076172 -63.111099243164 -135.254577636719 1.644396185875
-53.706283569336 -65.605484008789 -137.828628540039 0.930739223957
-91.726356506348 -65.336669921875 -134.048233032227 0.907362520695
-96.049690246582 -66.813377380371 -142.957962036133 0.690989613533
-84.501243591309 -66.459205627441 -132.780181884766 0.168790102005
22.985506057739 -67.448287963867 -144.744232177734 1.545342803001
-49.080238342285 -66.356529235840 -143.742309570313 1.651386022568
15.641242980957 -64.934974670410 -147.702835083008 1.076422810555
-98.055496215820 -65.684570312500 -162.734466552734 0.232419803739
-101.938865661621 -66.250839233398 -172.137054443359 1.083252191544
-102.025657653809 -64.352157592773 -171.288085937500 1.574122786522
-106.567565917969 -65.606948852539 -166.857421875000 0.314681500196
-104.802375793457 -66.263641357422 -180.731216430664 2.239200592041
-110.176918029785 -65.256462097168 -177.159210205078 0.396278977394
-141.065322875977 -65.955581665039 -187.831542968750 0.525600135326
-112.017417907715 -64.528823852539 -187.409667968750 1.114046573639
-132.543853759766 -63.373336791992 -196.346817016602 0.667304694653
-146.493316650391 -65.715484619141 -198.269454956055 0.780867218971
-122.434616088867 -65.342315673828 -197.286010742188 0.597334325314
-154.067199707031 -65.932960510254 -198.216033935547 0.654504418373
-146.718002319336 -66.086761474609 -201.382583618164 0.837496936321
-122.308914184570 -64.007972717285 -201.290252685547 0.926733016968
-133.652313232422 -66.306838989258 -203.825698852539 0.906927049160
-143.898086547852 -66.293052673340 -206.130630493164 1.143813371658
-133.365386962891 -67.475982666016 -224.528366088867 0.298567622900
-112.551528930664 -64.969444274902 -227.823379516602 0.479783564806
-146.256790161133 -66.324913024902 -229.779098510742 0.954248964787
-115.843521118164 -64.120391845703 -229.200668334961 0.822167396545
-113.475860595703 -64.762672424316 -231.185775756836 0.921147286892
-124.036399841309 -64.847763061523 -234.288650512695 1.213293075562
-126.099533081055 -66.236045837402 -235.085006713867 0.839167952538
-116.050949096680 -64.366447448730 -233.412567138672 1.418347358704
3.572936058044 -65.566757202148 -234.041915893555 1.172568440437
-150.432022094727 -66.108039855957 -235.800170898438 0.220652654767
7.979525089264 -67.926689147949 -232.008712768555 0.579100847244
8.470864295959 -65.088775634766 -237.969619750977 0.442500323057
1.812626004219 -66.189598083496 -238.789260864258 0.421212881804
16.175466537476 -63.363876342773 -239.600387573242 0.524111688137
-145.545486450195 -66.249275207520 -235.928466796875 0.876820802689
-2.926203012466 -64.641838073730 -244.500854492188 0.425809174776
20.261505126953 -65.217315673828 -243.409637451172 1.639849662781
47.639247894287 -65.385673522949 -247.563156127930 1.103233814240
51.408367156982 -65.072731018066 -247.393005371094 1.140883684158
-146.171646118164 -66.049003601074 -252.550415039063 1.063454866409
-6.127871990204 -65.148353576660 -251.833007812500 0.236798986793
26.255733489990 -65.793952941895 -257.355133056641 0.676055371761
-133.589309692383 -63.709854125977 -259.284729003906 1.319576025009
-126.497917175293 -63.612903594971 -261.412048339844 1.000943779945
-125.848014831543 -63.546707153320 -257.979766845703 1.754485249519
26.127086639404 -66.062034606934 -259.832000732422 0.597070813179
-134.293472290039 -66.060607910156 -264.033569335938 1.623384714127
27.178850173950 -65.240112304688 -261.888702392578 0.653931140900
30.561349868774 -66.643234252930 -263.354766845703 1.491285920143
-150.899917602539 -66.794326782227 -265.576293945313 1.141271233559
-147.614349365234 -68.786041259766 -288.192565917969 1.180004596710
-150.859802246094 -65.060592651367 -289.240142822266 1.332294702530
-143.256347656250 -62.572193145752 -291.994812011719 1.502526879311
8.748145103455 -67.764396667480 -291.758331298828 0.921680033207
-154.050979614258 -63.492725372314 -294.265258789063 1.386802434921
44.206165313721 -72.145835876465 -25.808399200439 1.496116876602
34.595851898193 -72.239685058594 -40.516880035400 1.429795026779
-64.858261108398 -66.584968566895 -44.775970458984 1.365040063858
-73.576179504395 -65.107536315918 -45.290275573730 1.029477477074
-27.843297958374 -66.562919616699 -49.687973022461 2.593027353287
-21.063999176025 -67.818405151367 -53.961822509766 1.462077498436
-14.418829917908 -63.796031951904 -65.938186645508 0.953460097313
-24.230943679810 -65.325630187988 -68.798835754395 1.722206711769
65.386077880859 -65.964111328125 -72.029708862305 1.519917249680
-98.432868957520 -63.991271972656 -77.599342346191 1.337925195694
-47.520233154297 -65.757598876953 -83.482147216797 0.871311187744
54.621280670166 -66.743446350098 -85.477241516113 1.365918397903
55.323688507080 -65.843132019043 -87.535072326660 0.990220248699
64.977058410645 -66.627883911133 -89.064811706543 1.426361322403
104.465080261230 -66.216819763184 -90.639488220215 1.722371816635
51.813293457031 -63.551849365234 -93.313789367676 1.977378129959
99.988693237305 -67.541069030762 -100.495941162109 0.925027549267
-79.641212463379 -66.603584289551 -101.771560668945 2.066786289215
-97.779685974121 -66.733917236328 -103.129989624023 0.502083003521
76.580863952637 -64.892997741699 -108.846885681152 0.643500268459
-75.780258178711 -63.529811859131 -103.208694458008 0.310195744038
-77.845405578613 -67.346038818359 -117.928543090820 0.102303422987
-83.397903442383 -65.216201782227 -118.038978576660 1.091655969620
-55.401191711426 -66.345726013184 -126.882019042969 1.432335019112
-79.148902893066 -67.131401062012 -127.742889404297 0.886983752251
-61.162628173828 -65.897575378418 -131.567550659180 1.152765989304
-80.135787963867 -66.305206298828 -133.539825439453 1.418607831001
-75.121520996094 -64.760932922363 -132.990692138672 1.522402524948
-80.360710144043 -61.092597961426 -125.507568359375 0.965789437294
-86.815803527832 -63.727970123291 -131.367630004883 0.105502814054
-62.968990325928 -64.158042907715 -132.543487548828 0.655307948589
-90.515487670898 -63.736820220947 -134.651977539063 1.805003285408
-49.309291839600 -65.928581237793 -134.689346313477 0.557330012321
-56.547657012939 -66.136688232422 -139.065521240234 0.658402383327
27.587301254272 -65.915794372559 -135.941207885742 1.262176036835
-58.040191650391 -62.852340698242 -138.093780517578 0.241037473083
14.981962203979 -66.655044555664 -145.834915161133 1.513831734657
19.978992462158 -66.562728881836 -148.963897705078 1.959152817726
18.330865859985 -64.344734191895 -151.821746826172 1.170585274696
-96.515998840332 -64.186920166016 -144.878601074219 1.168396592140
-93.350524902344 -65.596954345703 -152.076446533203 1.176895499229
-95.326042175293 -62.516136169434 -152.772308349609 0.718347668648
-102.481262207031 -64.789962768555 -157.634490966797 1.234207272530
-96.012084960938 -64.835220336914 -157.994125366211 0.226803168654
-150.881286621094 -69.218215942383 -175.274642944336 1.129007458687
-153.051757812500 -65.263359069824 -176.851058959961 0.662534892559
-105.832588195801 -64.097007751465 -181.301223754883 0.389087319374
-142.719726562500 -62.529834747314 -178.792968750000 1.122518897057
-109.924499511719 -63.450958251953 -179.991210937500 1.432927250862
-151.732437133789 -63.651462554932 -187.286682128906 0.760663330555
-111.308525085449 -63.659648895264 -194.667144775391 1.535749673843
-109.038360595703 -63.246837615967 -187.819595336914 0.768502354622
-140.850463867188 -64.872306823730 -196.922760009766 0.384533822536
-133.342758178711 -64.914848327637 -196.889556884766 0.675461292267
-108.976730346680 -64.592597961426 -197.875549316406 0.859644889832
-115.261840820313 -63.548690795898 -200.004928588867 1.511278033257
-111.535392761230 -63.373386383057 -200.630279541016 1.288190007210
-114.552131652832 -63.965236663818 -202.874862670898 0.574663579464
-133.687118530273 -63.239635467529 -199.296386718750 0.896061837673
-133.521652221680 -63.935958862305 -202.089599609375 0.706335723400
-132.259445190430 -64.115455627441 -204.265869140625 0.709229171276
-124.883796691895 -62.293552398682 -203.166351318359 0.651322364807
-127.009956359863 -65.097450256348 -205.252441406250 1.314251542091
-116.371513366699 -63.286647796631 -204.153808593750 0.595228374004
-145.561386108398 -64.604568481445 -216.319000244141 2.584902763367
-150.024932861328 -65.153038024902 -223.315246582031 1.242311120033
-152.182662963867 -61.724315643311 -224.488525390625 0.971247017384
-141.715423583984 -67.194885253906 -226.152954101563 0.899808526039
-132.187652587891 -63.556369781494 -226.646392822266 1.400572776794
-124.426338195801 -65.365089416504 -225.060073852539 0.665682435036
-140.950210571289 -64.733283996582 -227.874435424805 1.072732329369
-149.481719970703 -66.550514221191 -229.207000732422 0.974540352821
-134.499008178711 -64.772979736328 -227.448333740234 1.194953680038
-132.994293212891 -62.869281768799 -229.335983276367 1.151894450188
-147.976547241211 -66.955253601074 -231.237319946289 0.274078488350
-132.886795043945 -63.653190612793 -232.631912231445 0.997353315353
-125.001068115234 -62.399795532227 -228.763183593750 1.165545105934
-6.938756942749 -67.474266052246 -236.676712036133 0.794009447098
4.743937969208 -64.396072387695 -238.621627807617 0.447731703520
13.289018630981 -64.305091857910 -241.944137573242 0.488370180130
10.224369049072 -66.230239868164 -243.812194824219 0.920120358467
-9.283638000488 -65.302719116211 -243.646606445313 0.327961921692
-10.170248031616 -64.887863159180 -247.140228271484 0.474963456392
42.186836242676 -64.230476379395 -251.899368286133 0.279236346483
49.910129547119 -65.576538085938 -251.142227172852 1.639886379242
-143.598541259766 -62.067356109619 -254.927062988281 1.127237558365
41.703262329102 -64.742431640625 -255.649841308594 1.065703153610
36.389072418213 -64.810714721680 -252.990325927734 1.597354054451
-155.785949707031 -63.689376831055 -259.590698242188 1.085722565651
-151.041778564453 -62.007804870605 -259.212127685547 1.078979849815
-147.525527954102 -67.683937072754 -260.900970458984 1.099268674850
2.524993896484 -64.353462219238 -264.222259521484 1.166614413261
-150.770111083984 -63.192295074463 -265.993438720703 0.270507484674
0.635278999805 -64.749893188477 -274.769714355469 2.276774883270
-146.781173706055 -64.000167846680 -274.386169433594 1.456894397736
-147.192825317383 -62.887378692627 -283.035034179688 1.201685786247
-150.945495605469 -63.388782501221 -282.799102783203 0.245876982808
-149.289505004883 -63.416618347168 -284.913238525391 1.298535108566
-143.824340820313 -63.320930480957 -285.126098632813 1.766701459885
-155.490356445313 -62.870841979980 -286.490966796875 0.932540118694
-150.558959960938 -62.073135375977 -286.495361328125 1.319029569626
-149.191497802734 -63.719032287598 -287.084991455078 0.619198203087
-146.152786254883 -62.941082000732 -286.166168212891 1.297530889511
-143.149673461914 -62.352005004883 -288.141601562500 1.880689263344
13.701536178589 -65.023521423340 -288.887298583984 0.486565649509
-147.164947509766 -63.543903350830 -290.073150634766 1.242071151733
-154.910507202148 -62.846729278564 -290.126159667969 1.655344486237
-152.048019409180 -62.641052246094 -289.981506347656 1.604343295097
-151.562881469727 -62.671524047852 -294.326171875000 1.326421141624
-150.043136596680 -62.320762634277 -291.946594238281 1.025463223457
-145.767959594727 -62.759857177734 -291.900543212891 1.570524692535
0.751900017262 -64.854240417480 -292.546844482422 1.183322429657
-144.317001342773 -63.719936370850 -294.138031005859 1.357677936554
-146.976654052734 -62.288238525391 -294.837066650391 1.433459877968
28.453218460083 -61.615768432617 -19.473676681519 1.853962063789
41.111263275146 -70.086097717285 -19.048677444458 0.668025255203
42.580642700195 -64.302673339844 -21.932296752930 0.734805762768
20.522817611694 -72.289062500000 -30.905063629150 1.342805981636
29.724626541138 -62.009178161621 -34.982490539551 1.041396141052
39.166988372803 -71.991752624512 -35.069293975830 1.537922382355
-58.267986297607 -63.310085296631 -42.904552459717 0.778226315975
-51.461692810059 -64.893074035645 -43.986999511719 1.723654985428
88.628746032715 -66.657058715820 -61.026000976563 1.652431249619
-96.584434509277 -63.510471343994 -65.439399719238 1.977604389191
94.672462463379 -68.755096435547 -65.268943786621 1.917550921440
67.151794433594 -64.922401428223 -66.991226196289 1.805828094482
102.962921142578 -67.320350646973 -75.765800476074 1.614163637161
64.897247314453 -66.117195129395 -75.292320251465 1.461585044861
-41.339241027832 -66.808036804199 -77.961006164551 0.591889977455
60.849605560303 -62.286293029785 -81.175415039063 1.439044952393
-58.365921020508 -62.701782226563 -80.746376037598 1.434749364853
63.860961914063 -64.526550292969 -85.220161437988 1.439394354820
61.133075714111 -65.428642272949 -83.163848876953 1.006551861763
-98.197067260742 -65.384429931641 -82.420585632324 1.637107610703
51.580551147461 -65.314773559570 -89.260589599609 1.320424199104
52.238586425781 -66.487327575684 -92.380752563477 1.111524462700
63.754039764404 -66.995948791504 -92.281044006348 1.354659557343
52.625144958496 -63.651325225830 -95.429443359375 1.897126197815
-81.849044799805 -63.640785217285 -106.257331848145 1.510812520981
83.401168823242 -67.454162597656 -104.903762817383 1.058233141899
-77.355384826660 -64.399719238281 -113.578361511230 0.445727765560
-75.957321166992 -63.255996704102 -109.103263854980 1.288474678993
-79.738891601563 -65.330940246582 -120.442298889160 0.758576333523
-87.274078369141 -64.738853454590 -112.546569824219 0.917585551739
-91.125915527344 -66.652908325195 -119.810577392578 1.835112690926
-78.732345581055 -64.787918090820 -125.789108276367 0.927373468876
-55.546588897705 -61.791889190674 -127.525726318359 1.840637922287
-77.700210571289 -64.212280273438 -133.346343994141 1.556555747986
-56.400268554688 -61.497467041016 -133.041671752930 0.278520852327
-87.552719116211 -63.687732696533 -136.179748535156 1.786909103394
29.401517868042 -64.217437744141 -137.258758544922 0.911584675312
20.016832351685 -65.398468017578 -139.864395141602 0.896463513374
-91.043228149414 -62.680000305176 -138.924926757813 0.915623188019
18.949153900146 -64.552780151367 -148.203765869141 0.955028474331
-90.581100463867 -64.268867492676 -144.871490478516 1.029182314873
-93.408149719238 -62.497119903564 -147.280395507813 0.965565800667
19.980962753296 -64.511390686035 -152.196121215820 1.066149353981
-95.527351379395 -62.979553222656 -144.736083984375 1.744483113289
-96.477699279785 -62.417613983154 -149.112289428711 0.968445837498
-101.618606567383 -62.810653686523 -158.497070312500 2.699368953705
-98.368652343750 -62.598136901855 -159.190368652344 0.278180539608
-105.193557739258 -62.677520751953 -174.458816528320 0.359445989132
-106.387321472168 -63.935302734375 -167.763580322266 1.350437164307
-102.351173400879 -62.323509216309 -164.923492431641 2.644854784012
-106.298995971680 -62.553871154785 -171.809082031250 1.335129261017
-141.116622924805 -64.901313781738 -176.872634887695 0.790081620216
-107.385360717773 -62.709991455078 -178.740982055664 0.847900211811
-142.978149414063 -62.883552551270 -187.546707153320 0.696202456951
-148.452163696289 -63.272136688232 -188.668395996094 1.527275681496
-149.651306152344 -64.017639160156 -193.317855834961 0.684453964233
-124.081840515137 -62.926235198975 -196.240966796875 0.772366404533
-131.998321533203 -62.041328430176 -198.745880126953 0.662562549114
-122.379745483398 -63.756053924561 -199.114456176758 0.973595440388
-140.771987915039 -64.821243286133 -202.724502563477 0.974507272243
-123.771125793457 -63.611911773682 -204.246398925781 0.619529247284
-144.933410644531 -64.964630126953 -206.240509033203 0.695489764214
-149.557800292969 -64.084251403809 -206.489547729492 0.621056675911
-154.936065673828 -62.132663726807 -229.253585815430 1.018103122711
-140.991119384766 -64.915542602539 -231.626144409180 1.103525400162
-125.632164001465 -63.317836761475 -233.091140747070 1.123488187790
-154.449493408203 -61.131572723389 -232.308319091797 1.253588557243
-2.598401069641 -66.527999877930 -237.027297973633 0.488125324249
13.890110969543 -62.963191986084 -240.027786254883 0.501385867596
-3.665574073792 -64.990936279297 -242.558837890625 0.781004786491
-146.544952392578 -62.559371948242 -245.130584716797 1.048173666000
-5.828888893127 -62.975524902344 -246.144454956055 0.435917168856
-146.557937622070 -62.511753082275 -253.269958496094 1.095579147339
-5.151182174683 -62.614162445068 -248.069213867188 0.445063889027
-150.447326660156 -62.575210571289 -252.950973510742 0.519453287125
24.605279922485 -67.261589050293 -253.417297363281 0.448949664831
-152.433227539063 -61.989208221436 -255.491683959961 1.256364345551
-147.563125610352 -62.380916595459 -255.112686157227 1.113638997078
-153.628234863281 -62.377536773682 -254.800384521484 1.437539458275
-149.021179199219 -61.444370269775 -256.938995361328 1.243948340416
36.595958709717 -63.456619262695 -255.614669799805 1.512004852295
29.900600433350 -62.811969757080 -261.087402343750 0.871574640274
-146.470367431641 -61.852519989014 -258.819641113281 0.920158863068
-149.730972290039 -61.873519897461 -261.681427001953 0.855654776096
-154.447647094727 -62.005851745605 -260.484924316406 1.594985604286
-147.498321533203 -61.376701354980 -261.878204345703 1.606996297836
26.924459457397 -63.078849792480 -261.879577636719 0.569181859493
29.130413055420 -64.184341430664 -263.298980712891 0.684010982513
-149.626724243164 -62.530525207520 -263.895660400391 0.715694844723
-142.467742919922 -62.328796386719 -262.905853271484 1.352504611015
-151.236206054688 -61.605621337891 -264.644073486328 1.601347327232
-144.699234008789 -61.983558654785 -262.861419677734 0.985566079617
-146.636749267578 -63.159667968750 -265.963714599609 1.072816967964
-150.318771362305 -62.036495208740 -266.020812988281 0.872724115849
-148.189636230469 -61.404895782471 -265.468200683594 1.180023789406
-149.257705688477 -61.782901763916 -283.949615478516 1.295434236526
-150.279861450195 -62.186920166016 -282.898895263672 1.189107894897
-148.101379394531 -62.082237243652 -281.523956298828 1.272545456886
19.042570114136 -65.300636291504 -283.039306640625 0.559786915779
-153.387344360352 -62.625827789307 -284.224060058594 1.036097168922
-146.513504028320 -61.852317810059 -284.556213378906 1.279730558395
-2.651870012283 -64.640098571777 -288.505126953125 1.718386411667
5.828184127808 -64.664398193359 -292.824218750000 2.081206321716
-149.567382812500 -63.822555541992 -296.242065429688 1.647740840912
26.632337570190 -72.320487976074 -21.884317398071 1.451803445816
43.635936737061 -65.329139709473 -28.750524520874 2.084259748459
48.955402374268 -71.597587585449 -31.991445541382 0.583331227303
42.618133544922 -63.920200347900 -31.509593963623 1.233237862587
24.297876358032 -71.973075866699 -37.085559844971 1.277414321899
43.829143524170 -72.474456787109 -38.320693969727 1.734754204750
81.655342102051 -65.236030578613 -59.568508148193 2.094982862473
75.977867126465 -65.814331054688 -60.190910339355 1.742581009865
-12.402215957642 -66.305023193359 -66.067405700684 1.472321271896
65.416435241699 -62.939376831055 -69.994483947754 1.057812571526
-28.655948638916 -68.469749450684 -75.738868713379 0.765494227409
-31.437139511108 -66.819709777832 -77.608787536621 0.766253709793
-55.294834136963 -62.336811065674 -78.336959838867 1.604497551918
-52.197124481201 -63.132762908936 -79.689834594727 0.601987540722
65.229179382324 -66.782295227051 -82.456336975098 1.028851628304
103.722091674805 -69.129295349121 -86.594779968262 1.370970606804
-62.047077178955 -63.867111206055 -87.506332397461 0.505259752274
54.929222106934 -65.550315856934 -94.561553955078 2.132152080536
60.970371246338 -62.900955200195 -90.810127258301 1.169411897659
103.252410888672 -67.110862731934 -95.163261413574 1.724926233292
-66.384254455566 -63.293365478516 -94.788757324219 0.973107933998
55.477787017822 -63.315223693848 -95.361358642578 1.232742547989
-70.494750976563 -65.626434326172 -105.525085449219 1.375745654106
67.595283508301 -67.770225524902 -97.759727478027 1.279364109039
68.877311706543 -64.212081909180 -101.953712463379 0.504018664360
-72.570907592773 -63.815525054932 -107.679946899414 0.302411824465
-98.278572082520 -61.102035522461 -110.266494750977 1.184017300606
-69.708831787109 -61.235286712646 -108.327934265137 1.066273450851
-83.532920837402 -63.902351379395 -111.791465759277 0.492945522070
-65.405448913574 -63.654766082764 -113.401657104492 0.308946132660
-84.517112731934 -61.956020355225 -111.980911254883 0.200822800398
-79.610923767090 -63.587455749512 -116.865890502930 0.206510171294
-76.305404663086 -63.603542327881 -118.632530212402 1.435880422592
-65.880386352539 -64.673294067383 -120.651206970215 0.359247684479
-83.139320373535 -64.738853454590 -124.665664672852 1.085210680962
34.420639038086 -63.288463592529 -125.922286987305 2.018018722534
-52.644840240479 -64.135017395020 -127.624237060547 1.577167630196
29.230314254761 -64.036285400391 -130.651077270508 2.262342453003
30.768541336060 -64.792938232422 -132.981109619141 1.755184054375
32.463737487793 -62.504928588867 -133.950607299805 0.917144596577
-51.975894927979 -63.317054748535 -136.782318115234 0.471185356379
19.546417236328 -63.132480621338 -145.219940185547 1.686410903931
25.121932983398 -64.219841003418 -143.098388671875 0.176292970777
-144.977218627930 -61.027229309082 -177.080215454102 0.956210017204
-149.125946044922 -61.084445953369 -176.198287963867 1.080962061882
-151.499877929688 -62.746284484863 -179.129348754883 1.156505346298
-148.656295776367 -61.646858215332 -187.363418579102 0.750043392181
-145.784957885742 -61.617382049561 -187.501785278320 0.707143604755
-146.498168945313 -63.496543884277 -192.968231201172 0.752091228962
-144.129165649414 -64.717109680176 -193.700073242188 0.869156777859
-145.488464355469 -59.486297607422 -198.244415283203 0.900059759617
-124.054359436035 -61.444538116455 -200.128494262695 1.191614270210
-132.056716918945 -62.057537078857 -201.520797729492 0.693893432617
-145.652709960938 -62.049556732178 -210.409774780273 0.843423426151
-148.056442260742 -61.596733093262 -225.052459716797 0.944563746452
-151.676254272461 -60.719062805176 -225.410476684570 1.089566230774
-146.253921508789 -60.279392242432 -228.079849243164 1.163263320923
-153.881774902344 -60.909748077393 -226.524887084961 1.324827194214
-149.733764648438 -60.989933013916 -231.583297729492 0.835907101631
-149.945541381836 -61.227157592773 -228.584915161133 1.208536148071
-146.486343383789 -60.630699157715 -231.584991455078 1.548381567001
-142.589401245117 -61.649345397949 -233.892150878906 1.600043416023
-147.254058837891 -61.718917846680 -233.807647705078 1.149505257607
-152.923477172852 -61.427139282227 -234.237533569336 1.125771164894
7.837485790253 -64.600715637207 -239.747985839844 0.846998274326
-10.171816825867 -66.776000976563 -240.510223388672 1.832451581955
-146.235748291016 -62.192859649658 -236.337570190430 0.821959197521
-150.132720947266 -61.829803466797 -236.297836303711 0.686787307262
-149.211486816406 -60.672466278076 -236.247894287109 0.947898745537
9.916090011597 -63.541202545166 -244.719558715820 0.480907082558
-150.104385375977 -61.861057281494 -241.019546508789 1.680948495865
-147.548233032227 -61.183525085449 -254.241622924805 1.087981939316
-1.266873002052 -62.164855957031 -250.804458618164 0.464259773493
-149.372543334961 -60.955009460449 -252.673706054688 1.056000351906
-148.406524658203 -60.806018829346 -253.277542114258 1.111216068268
-144.596572875977 -61.691314697266 -256.471435546875 1.132302761078
-142.334060668945 -61.389083862305 -257.596405029297 1.573705077171
26.736999511719 -62.763149261475 -259.460723876953 0.562745153904
-149.120346069336 -61.371665954590 -266.052581787109 1.190063834190
25.686422348022 -65.353187561035 -268.938507080078 1.519468665123
16.475421905518 -65.830703735352 -286.621551513672 1.206401824951
1.321990966797 -62.394874572754 -290.429504394531 0.593499183655
7.866323947906 -60.902671813965 -291.590240478516 0.610941767693
31.286035537720 -62.571449279785 -17.593738555908 1.562388062477
45.826194763184 -71.297645568848 -36.595489501953 1.247697234154
33.571304321289 -71.974235534668 -38.991981506348 1.384264826775
-43.083889007568 -62.318130493164 -46.018749237061 0.861141443253
-89.236602783203 -61.324218750000 -52.083370208740 1.300250291824
-94.040222167969 -61.711132049561 -58.568367004395 0.948153257370
-20.717565536499 -63.108818054199 -65.950096130371 0.906754612923
101.421707153320 -65.221534729004 -70.023277282715 1.651015043259
104.210517883301 -61.429229736328 -76.135742187500 0.527301728725
103.576614379883 -67.143959045410 -78.340866088867 1.437289714813
-51.332351684570 -64.579345703125 -83.163162231445 0.922443211079
-62.080730438232 -61.790019989014 -84.212318420410 0.504819869995
58.682353973389 -61.267982482910 -87.583847045898 1.389938116074
54.249824523926 -62.193759918213 -88.538101196289 1.975139260292
-64.948829650879 -63.454498291016 -96.289306640625 1.065391421318
-99.030143737793 -60.660057067871 -104.956535339355 2.125817537308
80.875999450684 -65.950149536133 -107.627380371094 1.703332066536
-78.837318420410 -63.948421478271 -112.284744262695 0.419794470072
-66.726280212402 -60.989048004150 -111.898643493652 1.183219075203
-81.745704650879 -62.345348358154 -112.236228942871 0.502325236797
-85.197586059570 -61.601406097412 -113.518707275391 0.715604245663
-81.667488098145 -62.846931457520 -116.834739685059 1.057280421257
-68.572830200195 -62.557228088379 -115.379577636719 0.543379366398
-64.317779541016 -63.299285888672 -119.732666015625 0.494779586792
-81.164115905762 -62.416706085205 -118.900169372559 0.183393910527
-79.783271789551 -62.002876281738 -117.443855285645 1.061233520508
-65.439682006836 -62.095863342285 -120.942993164063 1.263188242912
-84.432907104492 -62.189537048340 -118.486511230469 0.167149215937
-76.256721496582 -62.685379028320 -121.743087768555 1.637207269669
-75.417495727539 -64.011001586914 -127.549819946289 0.797568619251
-78.205406188965 -62.077087402344 -128.686920166016 0.468302071095
29.756292343140 -60.840419769287 -127.969284057617 0.964832961559
-54.900924682617 -62.372863769531 -131.468231201172 0.973038911819
26.363212585449 -63.791332244873 -132.859161376953 0.993386626244
23.489015579224 -62.759620666504 -135.743637084961 1.179574370384
-143.962509155273 -60.464397430420 -194.037628173828 0.740025222301
-139.799972534180 -63.437519073486 -199.918090820313 1.044073820114
-154.126449584961 -59.785846710205 -200.256469726563 1.726223707199
-149.207702636719 -60.103343963623 -201.450988769531 1.557705044746
-153.390090942383 -62.553421020508 -203.342880249023 0.549284815788
-149.130065917969 -60.649425506592 -203.822265625000 1.097723484039
-142.023986816406 -61.247585296631 -204.268554687500 1.485691666603
-149.339584350586 -60.884258270264 -206.269866943359 0.614293634892
-149.935272216797 -61.444431304932 -223.312194824219 0.513482868671
-148.365524291992 -59.909027099609 -224.294982910156 0.944217026234
-146.359924316406 -60.755790710449 -223.381713867188 0.949992299080
-145.797348022461 -62.195972442627 -223.536926269531 1.196331739426
-148.079467773438 -60.444747924805 -227.128219604492 1.301975965500
-142.875701904297 -61.264263153076 -225.439132690430 1.086641907692
-144.198760986328 -60.973060607910 -227.172088623047 0.929545223713
-143.639419555664 -60.031551361084 -225.732772827148 1.382587671280
-141.404876708984 -60.969112396240 -229.784851074219 1.174511432648
-143.674133300781 -60.895721435547 -232.646194458008 1.230293154716
-147.273025512695 -60.570404052734 -235.290344238281 0.998969018459
-148.481719970703 -60.365528106689 -235.148040771484 1.388104796410
2.541800022125 -62.975440979004 -238.356109619141 1.009759426117
18.475414276123 -63.570644378662 -240.903350830078 0.362570613623
24.195962905884 -61.385898590088 -252.914993286133 0.528549492359
26.133598327637 -60.056865692139 -258.144927978516 0.697758257389
7.036911010742 -61.630355834961 -264.081848144531 0.518907368183
22.888248443604 -64.484580993652 -276.999450683594 1.492190480232
