-24.789886474609 -76.920936584473 -198.675170898438 1.718073487282
-153.871078491211 -77.050842285156 -199.248550415039 0.198803141713
-152.694976806641 -77.912841796875 -202.053070068359 0.249792322516
-140.875030517578 -77.005813598633 -201.603637695313 0.255049437284
-38.107727050781 -75.439949035645 -198.022064208984 2.466885805130
100.499320983887 -74.798629760742 -199.257659912109 1.630133628845
-39.180492401123 -74.133186340332 -199.216720581055 1.756735801697
-144.422988891602 -78.126792907715 -204.828231811523 0.999028384686
-38.363933563232 -74.088615417480 -206.070358276367 1.830181002617
-18.549373626709 -76.547393798828 -209.706954956055 1.309377908707
96.069221496582 -74.820587158203 -204.267288208008 2.745338439941
92.958770751953 -74.786598205566 -210.928588867188 1.252786159515
-30.432363510132 -74.919738769531 -216.821121215820 1.068253636360
-86.178695678711 -75.527839660645 -212.084075927734 1.084742426872
-75.475822448730 -75.009315490723 -211.520523071289 0.887191712856
-17.588376998901 -75.556205749512 -219.017395019531 1.018030166626
-149.481002807617 -74.390357971191 -211.329879760742 0.182993829250
88.329750061035 -76.116966247559 -212.560302734375 0.144018143415
89.713676452637 -76.119468688965 -218.451416015625 0.157920241356
90.850196838379 -74.334564208984 -218.924255371094 1.040510416031
-101.443161010742 -73.776062011719 -222.436828613281 1.211989879608
-150.617080688477 -77.691986083984 -223.292022705078 0.167476400733
-19.431968688965 -75.532676696777 -220.610473632813 1.348178267479
78.901817321777 -75.194534301758 -223.871368408203 0.146139696240
-148.550811767578 -77.409736633301 -226.960418701172 1.733795523643
-26.219005584717 -75.666297912598 -221.320785522461 0.669349133968
-132.248718261719 -74.898689270020 -228.722854614258 1.205144643784
-12.592827796936 -76.647453308105 -227.415969848633 1.359811067581
18.044458389282 -75.604316711426 -221.542861938477 0.980266451836
19.086658477783 -76.036750793457 -231.502136230469 1.316706061363
-153.684417724609 -78.544769287109 -232.336044311523 0.920749187469
-124.792175292969 -74.114204406738 -232.680664062500 0.525841414928
-7.966309070587 -74.287353515625 -234.413009643555 1.317806601524
0.055748432875 -75.155685424805 -236.245803833008 0.590963244438
69.467308044434 -74.980453491211 -235.247528076172 1.098318457603
72.817405700684 -74.347061157227 -235.966400146484 0.129822820425
-0.416115283966 -75.767135620117 -240.054351806641 1.870567798615
17.095106124878 -73.935012817383 -238.932296752930 1.576072692871
-28.302993774414 -74.117507934570 -239.106292724609 0.100008867681
-35.426841735840 -75.130126953125 -240.056793212891 0.099479958415
-43.923183441162 -74.037872314453 -242.454925537109 0.097375802696
-37.279487609863 -74.217201232910 -242.287582397461 1.632115602493
-18.875711441040 -76.299087524414 -242.097335815430 1.933960556984
-53.099372863770 -74.522216796875 -242.929733276367 1.019442796707
2.194807291031 -74.971420288086 -244.529174804688 0.094114311039
-67.727539062500 -73.321517944336 -245.984161376953 1.656296372414
19.611341476440 -75.018638610840 -246.654449462891 0.737024009228
-146.635208129883 -76.716529846191 -246.597442626953 0.139442101121
-71.984268188477 -76.566246032715 -248.556243896484 0.482430666685
13.769909858704 -77.448211669922 -247.635101318359 1.038993954659
-161.566604614258 -74.633056640625 -249.539916992188 0.148249596357
18.122491836548 -76.404548645020 -251.008911132813 1.092398524284
-79.193290710449 -75.553916931152 -250.395782470703 1.257093906403
-74.150932312012 -76.049018859863 -251.262664794922 0.503974676132
21.438642501831 -75.525825500488 -256.003631591797 0.887179374695
-88.596527099609 -74.636489868164 -254.001770019531 1.366240501404
-125.410537719727 -74.972076416016 -255.958587646484 0.449633985758
-135.234863281250 -74.528167724609 -257.974243164063 0.121610894799
-133.266967773438 -75.834381103516 -258.038299560547 0.119196437299
-147.406875610352 -73.567619323730 -259.784027099609 0.588461697102
-141.587829589844 -74.974525451660 -259.184204101563 0.760912299156
-135.763092041016 -74.067932128906 -261.702514648438 1.166008949280
-161.488372802734 -74.798179626465 -261.378021240234 0.137124344707
-125.398490905762 -73.047904968262 -264.439727783203 1.444004058838
-133.632232666016 -75.448760986328 -261.969696044922 1.426735758781
-165.636260986328 -74.267265319824 -263.220428466797 1.018319129944
-158.398086547852 -73.906005859375 -263.455841064453 0.377849310637
-151.218170166016 -74.328742980957 -265.160522460938 0.204156860709
-146.812850952148 -74.777877807617 -265.515777587891 0.122545972466
15.897262573242 -77.409088134766 -277.484771728516 0.338369339705
-165.574798583984 -74.517608642578 -269.070678710938 0.917100608349
-152.548950195313 -74.231170654297 -273.445739746094 0.120858736336
-6.765726566315 -79.442398071289 -273.386749267578 1.455154895782
-160.674041748047 -74.355529785156 -268.602325439453 3.914607048035
12.567119598389 -78.489585876465 -279.363342285156 1.001981854439
-151.561508178711 -74.914337158203 -282.424835205078 0.134712442756
-162.214447021484 -74.821868896484 -286.373718261719 0.119410216808
-154.031143188477 -74.611900329590 -283.812347412109 0.906208455563
-166.000244140625 -75.040481567383 -285.610443115234 0.444792777300
2.639180421829 -75.297424316406 -287.634277343750 0.124058634043
7.412658691406 -77.092315673828 -284.953491210938 0.550060570240
-97.069335937500 -74.680854797363 -287.825500488281 1.399001955986
-150.557022094727 -74.643737792969 -287.549743652344 0.100466340780
-148.710052490234 -74.578964233398 -287.197723388672 0.108046844602
-109.449424743652 -74.432334899902 -288.606842041016 1.075436234474
-150.674255371094 -74.629112243652 -290.006683349609 0.108005598187
-148.743591308594 -74.625602722168 -290.393218994141 0.106183238328
-67.705207824707 -74.804908752441 -290.902038574219 0.042788933963
-162.506958007813 -75.110679626465 -290.371307373047 0.745868980885
-124.056083679199 -74.354667663574 -291.183990478516 0.910758078098
-43.702293395996 -75.696311950684 -290.911743164063 0.903983712196
-156.567016601563 -74.851989746094 -289.738616943359 1.254904985428
-135.884933471680 -73.017936706543 -293.026184082031 0.946048319340
-16.443559646606 -74.130744934082 -291.947875976563 0.824932336807
-126.386192321777 -75.104682922363 -293.885437011719 0.648239731789
5.116803646088 -75.223426818848 -292.847198486328 1.460649013519
15.610789299011 -74.590126037598 -292.332305908203 0.822611570358
-134.044448852539 -75.463035583496 -293.097686767578 0.091673843563
-146.051132202148 -74.836341857910 -294.870422363281 0.101450622082
-156.082931518555 -73.962989807129 -311.525726318359 0.509940087795
-72.508247375488 -71.831398010254 -51.628936767578 1.358810186386
-22.868631362915 -72.409637451172 -60.370765686035 1.332079529762
-21.315917968750 -74.079826354980 -64.865074157715 1.398726582527
74.930938720703 -73.444664001465 -74.099266052246 0.895796477795
92.190010070801 -74.761772155762 -75.053215026855 0.338661730289
-38.069210052490 -73.342414855957 -77.271469116211 0.977569520473
74.123725891113 -74.543708801270 -76.950019836426 0.333434432745
88.570129394531 -76.341682434082 -80.647453308105 0.396569073200
70.643997192383 -73.609954833984 -81.826354980469 0.325903147459
71.856933593750 -74.693702697754 -85.312255859375 1.725205302238
-49.192543029785 -76.663253784180 -88.064010620117 0.319603949785
-91.782447814941 -75.030464172363 -86.517578125000 1.393481254578
57.820980072021 -74.111587524414 -93.175338745117 0.308974385262
49.727569580078 -74.014793395996 -96.788589477539 0.315886497498
95.268371582031 -74.656112670898 -95.203681945801 1.066684007645
-94.296531677246 -73.359321594238 -101.819900512695 2.285870313644
84.784126281738 -74.964859008789 -96.875656127930 0.307875394821
75.231193542480 -74.001670837402 -97.479560852051 0.301357924938
92.385955810547 -73.999221801758 -98.113235473633 0.491769909859
82.475891113281 -72.963737487793 -99.841499328613 0.969966530800
86.738380432129 -75.955940246582 -97.256416320801 1.440131545067
-80.545539855957 -75.535781860352 -102.000389099121 0.818900883198
40.058727264404 -75.553665161133 -109.317787170410 0.691628038883
106.452362060547 -74.129791259766 -110.188201904297 1.789397597313
110.080940246582 -74.037773132324 -110.372970581055 0.294640004635
45.601371765137 -74.486282348633 -115.852081298828 0.276374220848
108.151863098145 -73.933013916016 -122.918022155762 2.927970886230
115.585250854492 -74.661941528320 -134.133499145508 0.973151564598
-52.543830871582 -74.086761474609 -134.185455322266 0.306937932968
26.845952987671 -73.954483032227 -133.589935302734 2.299599170685
39.982757568359 -74.240119934082 -132.940048217773 1.169767856598
26.073837280273 -72.477104187012 -143.617523193359 1.729331135750
113.396080017090 -73.883567810059 -140.110137939453 0.257331699133
112.409309387207 -73.404335021973 -133.886169433594 0.928839206696
-73.524475097656 -74.753669738770 -148.144775390625 1.864217281342
-44.404037475586 -74.618217468262 -146.485260009766 1.766303777695
-70.899116516113 -73.348060607910 -149.283340454102 1.781249642372
21.592241287231 -74.459838867188 -151.958084106445 0.751581311226
113.439041137695 -74.189277648926 -151.229553222656 1.544485807419
-52.735912322998 -74.271408081055 -148.968780517578 0.862108170986
-69.409835815430 -72.998413085938 -149.018554687500 1.889873504639
-38.231208801270 -76.743431091309 -154.051254272461 0.466831505299
33.575363159180 -72.071006774902 -151.901687622070 2.467641830444
112.185783386230 -73.881469726563 -152.169845581055 0.241937592626
113.239723205566 -73.657203674316 -158.226074218750 0.343040674925
-68.040054321289 -72.415397644043 -153.493713378906 1.077391624451
-68.927955627441 -74.112121582031 -162.626358032227 0.216496527195
21.599456787109 -74.757080078125 -162.818466186523 0.652194738388
-59.579036712646 -73.439002990723 -166.442550659180 1.354536533356
-33.161411285400 -74.883323669434 -160.827575683594 0.863387405872
6.915318012238 -74.164665222168 -162.283447265625 1.110134482384
111.171737670898 -74.344772338867 -161.759063720703 0.805021584034
4.610436439514 -74.575851440430 -164.579360961914 0.205476984382
-33.317428588867 -74.652671813965 -165.230133056641 0.206410840154
0.639176785946 -74.001892089844 -167.261657714844 0.201471358538
109.297080993652 -73.880172729492 -169.882156372070 2.048282623291
-40.633811950684 -72.286766052246 -168.635070800781 1.570387601852
27.563886642456 -72.063346862793 -170.060974121094 1.478275060654
110.831710815430 -73.718681335449 -172.313049316406 1.850556373596
-57.222175598145 -72.919540405273 -177.052413940430 0.818944215775
-28.568876266479 -74.620262145996 -172.987258911133 1.668899536133
105.266120910645 -73.213775634766 -173.461334228516 0.851189851761
28.929178237915 -73.973411560059 -172.506484985352 1.869031906128
112.634132385254 -75.625541687012 -173.899032592773 1.590143799782
-36.784130096436 -73.960182189941 -176.378051757813 1.917215228081
106.410331726074 -73.781745910645 -180.340698242188 0.205884963274
-59.455844879150 -74.221488952637 -177.674148559570 1.911934494972
-24.925121307373 -76.056930541992 -180.496948242188 0.857445180416
-144.545364379883 -73.576438903809 -182.289505004883 0.325369626284
-54.188060760498 -73.848152160645 -183.462890625000 0.629557907581
-146.456497192383 -74.371620178223 -187.039718627930 1.171741366386
-32.393188476563 -73.312835693359 -187.512069702148 1.209526777267
23.536342620850 -74.261901855469 -186.431961059570 0.176065579057
107.799980163574 -73.663093566895 -182.751190185547 0.203551903367
-30.017797470093 -75.947463989258 -186.929489135742 1.107938766479
12.032317161560 -74.882789611816 -190.502273559570 1.874326467514
19.402351379395 -74.033432006836 -200.407318115234 0.781237840652
-146.161819458008 -74.840034484863 -192.667907714844 0.204151481390
102.916839599609 -73.709396362305 -194.832839965820 0.187731266022
-17.832313537598 -72.148139953613 -193.706680297852 0.933498799801
102.776916503906 -73.739448547363 -189.975128173828 1.573802590370
14.646323204041 -73.421447753906 -187.826705932617 1.818272709846
-131.671325683594 -73.732673645020 -200.692703247070 0.187198981643
-140.328079223633 -75.056114196777 -200.886413574219 0.190681889653
97.317398071289 -73.783699035645 -200.864547729492 0.178582012653
-11.817167282104 -75.968948364258 -201.221237182617 0.457236617804
-14.574666023254 -75.611396789551 -200.811447143555 2.079546451569
9.489668846130 -74.971672058105 -207.155502319336 0.953799247742
-149.889511108398 -71.711547851563 -205.683944702148 0.661699891090
-145.573501586914 -75.581199645996 -206.015625000000 0.186717614532
98.760658264160 -73.724754333496 -202.910644531250 0.176908195019
-77.991363525391 -73.713966369629 -209.419342041016 0.656233966351
-37.051868438721 -73.584129333496 -203.533889770508 1.179052710533
17.007070541382 -74.593124389648 -210.482192993164 2.230343341827
-25.913471221924 -74.382644653320 -211.638198852539 1.715610742569
-78.743423461914 -73.599395751953 -211.419204711914 0.739878058434
91.277923583984 -73.938117980957 -210.753799438477 0.165058597922
-82.103485107422 -73.268669128418 -212.880706787109 0.677080750465
-146.027862548828 -75.604469299316 -217.965744018555 0.172362729907
-79.111625671387 -74.309135437012 -214.581298828125 0.332508713007
-15.442741394043 -72.842277526855 -213.627822875977 1.167488098145
-20.670873641968 -73.120559692383 -217.082168579102 0.130756616592
18.977828979492 -72.945831298828 -211.188339233398 0.140962123871
-5.721067905426 -74.982513427734 -215.607818603516 2.281148672104
-87.742416381836 -72.871818542480 -218.440917968750 0.144508913159
92.244171142578 -73.782646179199 -213.285110473633 2.425023078918
-95.418518066406 -74.713973999023 -216.277221679688 1.080547809601
-149.385726928711 -75.750411987305 -222.428894042969 0.168911442161
-18.915098190308 -73.149101257324 -222.332199096680 0.685425758362
16.166240692139 -73.415634155273 -216.586044311523 0.133400574327
-101.476280212402 -73.382301330566 -220.188690185547 0.147798240185
7.794813632965 -74.539665222168 -221.061401367188 0.126604586840
-23.009206771851 -74.639488220215 -217.246047973633 0.134749189019
83.880302429199 -73.909744262695 -223.173767089844 0.148204669356
-146.295669555664 -75.337409973145 -222.289993286133 1.286379694939
4.583538055420 -72.299980163574 -225.744323730469 1.343381166458
-9.241507530212 -75.600044250488 -222.344940185547 2.270258903503
17.408470153809 -72.458732604980 -220.950195312500 1.587351560593
83.407768249512 -73.928207397461 -221.556228637695 1.075352191925
-11.985967636108 -73.803771972656 -227.511260986328 0.890479683876
-130.454910278320 -73.765846252441 -226.076721191406 1.806993484497
-11.787192344666 -75.158515930176 -224.981735229492 0.119860850275
17.099172592163 -75.745941162109 -234.081619262695 1.735690474510
-124.824775695801 -74.520950317383 -227.730590820313 0.280783444643
-148.502868652344 -72.360519409180 -227.445022583008 0.164677381516
-141.013549804688 -73.735755920410 -228.767059326172 0.157760694623
-134.407257080078 -73.569145202637 -230.508544921875 0.151931777596
-15.515939712524 -74.311393737793 -226.961730957031 1.490008950233
72.002609252930 -73.777030944824 -229.815933227539 1.377896785736
-141.217834472656 -73.289360046387 -231.656997680664 0.686215937138
74.430229187012 -75.312507629395 -229.617797851563 0.376014292240
-19.054992675781 -75.576202392578 -227.234222412109 2.065547227859
-141.553009033203 -77.683403015137 -231.399887084961 0.660682916641
78.780487060547 -73.455017089844 -228.227188110352 1.575056910515
9.184825897217 -75.362350463867 -235.786483764648 2.471524238586
-143.727142333984 -78.561203002930 -234.110000610352 0.599226534367
-150.565277099609 -73.404914855957 -235.297134399414 0.156500235200
15.769077301025 -73.228157043457 -232.813171386719 1.622574806213
-2.851172924042 -73.966331481934 -235.477462768555 0.983454287052
-24.468786239624 -74.488716125488 -237.923690795898 0.873986005783
-1.612914085388 -72.227500915527 -239.779388427734 0.618047654629
-160.935989379883 -73.945411682129 -237.671783447266 0.160357415676
11.481185913086 -75.252288818359 -244.916931152344 0.409929752350
-164.347946166992 -73.354598999023 -235.713958740234 1.035295844078
-13.951527595520 -75.172119140625 -238.117919921875 0.683503031731
65.978355407715 -74.479743957520 -239.270248413086 1.872419714928
-12.144693374634 -74.434265136719 -240.636703491211 0.097649224102
-24.492406845093 -72.814353942871 -239.973190307617 0.237758710980
-25.783369064331 -73.690208435059 -241.943481445313 1.644073724747
-15.764468193054 -73.192863464355 -242.349105834961 0.094777233899
-145.994628906250 -73.558723449707 -235.506088256836 0.183129638433
8.666462898254 -74.484527587891 -243.781143188477 0.796380400658
64.660995483398 -73.489486694336 -242.023925781250 1.994056224823
13.442554473877 -73.832855224609 -245.103485107422 0.095156967640
-161.241455078125 -73.335365295410 -239.929504394531 1.210917830467
-48.581764221191 -73.364257812500 -244.026977539063 0.942294299603
2.423424720764 -79.609390258789 -246.944183349609 0.534252882004
16.735118865967 -73.577476501465 -245.870300292969 0.094898961484
-54.632217407227 -72.882690429688 -246.980041503906 1.082693099976
-3.959278583527 -73.162559509277 -245.552688598633 1.245692372322
21.593502044678 -74.571281433105 -246.675506591797 0.605512619019
-164.673828125000 -73.788047790527 -248.484680175781 0.152145385742
-70.796333312988 -75.094261169434 -246.823181152344 0.829523265362
-50.089996337891 -74.434890747070 -247.062744140625 0.608076870441
-78.440345764160 -74.667839050293 -249.090637207031 0.099063120782
-159.350555419922 -73.507736206055 -248.098083496094 1.565056562424
-150.658706665039 -74.026199340820 -252.362945556641 0.170019522309
-59.128734588623 -74.837043762207 -249.522552490234 0.355930715799
-68.711219787598 -74.312355041504 -251.785308837891 0.091601438820
-153.344329833984 -73.499176025391 -253.842926025391 0.139156997204
-151.676788330078 -73.499168395996 -252.813598632813 0.138977229595
-77.401184082031 -74.148620605469 -253.705566406250 0.191773056984
-93.072875976563 -73.538803100586 -253.299621582031 1.525191426277
-165.914169311523 -73.546440124512 -250.464935302734 0.385704427958
-155.738006591797 -73.636001586914 -257.626342773438 1.311816096306
-133.637832641602 -74.013847351074 -255.496032714844 0.123421654105
-82.636505126953 -74.802490234375 -253.908203125000 0.508231461048
-162.611358642578 -73.701469421387 -252.156066894531 1.705748558044
-141.926956176758 -74.073486328125 -256.588165283203 0.618368089199
-85.850685119629 -73.560630798340 -255.495788574219 0.452008336782
-95.292854309082 -71.742782592773 -258.357299804688 0.358576297760
-147.807785034180 -73.967826843262 -257.450469970703 0.579015910625
-94.849357604980 -73.514839172363 -256.910552978516 0.625002980232
-149.306396484375 -73.648429870605 -257.334350585938 0.401058673859
-99.796546936035 -73.519622802734 -257.300292968750 0.318209916353
-164.762237548828 -74.104621887207 -259.496398925781 0.141809552908
-160.202941894531 -73.782814025879 -259.335021972656 0.138816207647
-123.856086730957 -73.714401245117 -257.583862304688 0.114909574389
-150.189895629883 -73.313163757324 -259.503021240234 0.363975673914
-114.715927124023 -73.641990661621 -260.843750000000 0.420850187540
-14.729101181030 -74.604019165039 -261.838836669922 0.074954174459
-142.579895019531 -73.818801879883 -261.980133056641 0.336158663034
-123.969757080078 -73.932609558105 -260.434204101563 0.111867524683
-155.219833374023 -73.731956481934 -261.929565429688 0.132886275649
22.004222869873 -74.446685791016 -268.693572998047 0.229219079018
-146.914260864258 -75.056938171387 -277.778045654297 0.263492375612
-167.077194213867 -74.100219726563 -277.222930908203 0.920458257198
-6.798486232758 -76.407913208008 -279.122436523438 0.506346881390
-146.906768798828 -75.100975036621 -282.465911865234 0.598549604416
-7.442364215851 -73.920478820801 -282.668304443359 1.205270648003
13.059857368469 -73.366340637207 -285.198883056641 0.183912426233
-135.657302856445 -74.801086425781 -286.457702636719 1.190382599831
-71.340858459473 -74.219833374023 -286.371185302734 0.542799413204
-33.106304168701 -74.495086669922 -286.275695800781 0.776051759720
-113.423622131348 -73.438560485840 -287.401916503906 0.470370322466
-92.361373901367 -74.750854492188 -290.854095458984 0.355411976576
-90.994560241699 -73.793586730957 -291.395355224609 0.801286697388
-47.830631256104 -74.798721313477 -290.926391601563 1.876814007759
-115.636451721191 -74.359634399414 -291.040161132813 0.708075523376
-110.536056518555 -74.309677124023 -290.533966064453 1.352184414864
-31.804656982422 -73.770896911621 -291.425506591797 0.027663042769
-113.084602355957 -72.877357482910 -291.966156005859 0.572173178196
-124.733070373535 -72.835639953613 -292.517578125000 0.736566841602
-143.395751953125 -74.171875000000 -292.469360351563 0.101099595428
7.649673461914 -73.236442565918 -292.750183105469 0.040869317949
14.476706504822 -75.277091979980 -294.123077392578 0.047122634947
-156.982299804688 -74.538543701172 -294.150329589844 0.812343180180
-154.564132690430 -75.874008178711 -300.815551757813 1.027837872505
-144.328826904297 -74.829437255859 -311.669708251953 0.094868242741
-150.024291992188 -72.577354431152 -312.114044189453 0.102271787822
-152.017105102539 -77.230888366699 -312.439483642578 0.624618828297
30.268526077271 -72.099098205566 -16.682121276855 1.215723514557
25.304674148560 -72.073394775391 -16.490875244141 0.415758997202
22.089361190796 -72.282287597656 -22.530433654785 0.407250225544
28.721931457520 -72.133071899414 -39.445011138916 0.382960021496
-56.533851623535 -71.050811767578 -49.054164886475 0.684364855289
-65.483085632324 -71.244575500488 -49.548492431641 1.705308437347
-37.965152740479 -72.065444946289 -52.558986663818 1.260492444038
-80.650146484375 -73.224105834961 -58.645622253418 1.276576280594
82.956581115723 -74.418136596680 -72.210647583008 1.005267143250
-18.889692306519 -74.308090209961 -70.613777160645 1.028959393501
89.105384826660 -73.885864257813 -71.325393676758 1.266299128532
97.685012817383 -72.480285644531 -78.990646362305 0.716218829155
-93.085289001465 -72.300712585449 -78.840270996094 1.546482205391
70.662406921387 -72.563980102539 -80.216003417969 0.327709317207
-42.548408508301 -75.965965270996 -83.957748413086 0.448137223721
100.194252014160 -70.751564025879 -83.997703552246 0.476425915956
-52.510795593262 -74.120285034180 -89.342155456543 0.318178504705
53.188961029053 -72.787445068359 -90.281150817871 1.501765966415
72.691833496094 -73.876686096191 -91.866188049316 0.312408208847
58.197902679443 -73.275871276855 -97.263214111328 0.303009986877
53.377323150635 -74.685317993164 -98.058921813965 0.650098204613
73.206253051758 -74.409568786621 -94.847358703613 0.308612287045
45.754833221436 -73.787513732910 -100.322448730469 1.689421892166
104.522644042969 -73.485527038574 -98.683357238770 0.991925656796
107.337600708008 -74.027198791504 -104.360725402832 1.229887723923
83.950714111328 -70.038383483887 -102.713066101074 0.936485111713
89.070419311523 -73.833213806152 -101.058822631836 0.740616321564
102.365455627441 -72.842651367188 -97.631324768066 0.733682394028
109.098052978516 -72.133567810059 -102.691078186035 1.034671187401
39.618198394775 -74.473838806152 -105.428886413574 1.134423494339
111.330718994141 -71.236251831055 -119.856925964355 0.610317468643
113.064422607422 -73.635604858398 -117.727363586426 2.086298465729
33.663722991943 -73.348381042480 -121.900276184082 0.464182704687
45.450450897217 -73.597023010254 -119.903358459473 1.878651738167
115.567359924316 -72.711723327637 -126.849891662598 0.670766651630
40.081546783447 -73.447639465332 -126.384712219238 2.130516529083
112.874092102051 -72.921638488770 -128.669586181641 1.679876923561
110.603393554688 -72.843719482422 -121.937126159668 0.298333704472
25.801435470581 -71.821235656738 -138.159317016602 0.560426115990
-49.090641021729 -73.351264953613 -135.409149169922 1.164674282074
-51.741497039795 -72.524032592773 -135.950531005859 0.251115083694
111.536041259766 -72.052108764648 -134.001953125000 1.082210540771
-71.139541625977 -74.028892517090 -142.206924438477 0.360136061907
-74.455451965332 -74.199577331543 -140.366973876953 0.803897082806
-56.753574371338 -74.134674072266 -144.248565673828 2.344819068909
34.274009704590 -71.930473327637 -141.407165527344 0.238781929016
112.130645751953 -72.743713378906 -143.841201782227 0.251520305872
-67.638771057129 -72.340484619141 -146.163055419922 0.239756286144
-45.413116455078 -71.915321350098 -144.728286743164 0.491594403982
34.947734832764 -74.202041625977 -148.787979125977 1.731188893318
-67.243164062500 -73.963737487793 -148.112548828125 1.032316923141
114.129463195801 -72.776580810547 -143.584640502930 1.890938043594
113.291984558105 -72.532608032227 -156.864807128906 0.280931711197
116.807327270508 -73.834976196289 -150.549285888672 1.725841522217
-37.524028778076 -73.889457702637 -154.134170532227 1.185639262199
-65.428466796875 -74.207527160645 -162.656295776367 0.821664571762
-71.897911071777 -73.731544494629 -156.395629882813 0.226103037596
32.665855407715 -73.895629882813 -149.787750244141 2.165842294693
-1.522275447845 -74.558082580566 -162.392929077148 1.624389290810
108.433341979980 -74.340011596680 -159.738525390625 0.755314946175
111.814559936523 -72.668724060059 -153.871002197266 0.238894447684
112.245735168457 -72.266120910645 -156.379272460938 1.379013776779
-64.547561645508 -71.135238647461 -163.237823486328 0.214801758528
-45.442073822021 -74.384284973145 -161.606796264648 1.154133796692
0.281870186329 -72.277511596680 -164.919799804688 0.912261068821
-25.833496093750 -72.511299133301 -174.678283691406 2.041538953781
107.131576538086 -73.274154663086 -165.905715942383 2.620234012604
-36.373455047607 -73.595436096191 -160.425598144531 0.622480571270
111.017532348633 -72.696464538574 -169.562118530273 1.305962324142
-41.102661132813 -74.207199096680 -172.555618286133 1.096022725105
110.309013366699 -72.576904296875 -166.349945068359 1.489387154579
-148.076828002930 -73.845848083496 -181.960662841797 0.851436078548
-28.216819763184 -72.034011840820 -175.660751342773 0.692924618721
-20.957132339478 -72.756629943848 -182.299774169922 0.868271589279
25.830415725708 -74.092018127441 -177.382034301758 1.437835335732
16.876920700073 -74.524848937988 -181.801315307617 0.722475707531
26.635206222534 -73.225982666016 -183.292129516602 1.553965449333
107.485336303711 -72.781402587891 -181.976959228516 0.203649565578
-150.452835083008 -73.012123107910 -187.129837036133 0.135540962219
-19.957498550415 -74.883102416992 -188.871856689453 1.456673145294
104.340782165527 -72.167640686035 -178.339477539063 0.347787171602
104.176841735840 -72.787895202637 -190.357208251953 0.192632675171
107.193832397461 -72.675476074219 -179.557052612305 0.759529948235
97.831375122070 -74.294860839844 -194.413345336914 2.899770021439
-151.444427490234 -76.644157409668 -194.221710205078 0.204024136066
101.234596252441 -74.061561584473 -203.724502563477 0.694119632244
-27.751241683960 -71.702766418457 -194.581817626953 2.216470241547
99.911903381348 -72.744201660156 -197.462326049805 2.775739908218
-124.143081665039 -73.450599670410 -197.846069335938 0.187414690852
-28.620046615601 -76.118400573730 -192.750305175781 1.586610555649
-140.360900878906 -72.561340332031 -198.445556640625 0.194978505373
94.858726501465 -73.459671020508 -199.790786743164 0.178471624851
9.677478790283 -74.815391540527 -197.973129272461 0.573920488358
23.321907043457 -73.780227661133 -194.036499023438 2.270724773407
-146.370773315430 -71.363029479980 -200.854736328125 0.289772450924
-140.497055053711 -72.377746582031 -201.353179931641 0.632681787014
-10.380629539490 -73.025077819824 -203.571517944336 0.952563941479
-123.966331481934 -73.724349975586 -201.132125854492 0.777015149593
-142.484771728516 -76.750862121582 -204.017196655273 0.187025964260
8.489260673523 -73.019660949707 -200.922576904297 0.605788886547
-21.121322631836 -74.840362548828 -202.468093872070 1.194505810738
20.541221618652 -73.768714904785 -203.715942382813 1.419284820557
8.903545379639 -73.415534973145 -209.736160278320 1.613200783730
90.184738159180 -74.094497680664 -207.493728637695 1.004875421524
-18.762695312500 -71.954109191895 -211.696609497070 0.462931275368
92.969947814941 -72.666091918945 -208.498596191406 0.167263835669
95.880958557129 -72.737464904785 -206.734069824219 2.970559835434
-149.728088378906 -72.885833740234 -215.971389770508 0.178438499570
96.599105834961 -72.945755004883 -211.250518798828 0.262555330992
6.836551189423 -74.245330810547 -209.151489257813 1.364405632019
5.872265338898 -74.908164978027 -214.217483520508 1.013962626457
-34.028457641602 -73.082145690918 -208.824325561523 1.922580599785
-88.909553527832 -72.835998535156 -213.623992919922 1.805679798126
-27.704071044922 -72.779167175293 -212.278244018555 0.879861354828
84.985847473145 -73.851997375488 -214.978820800781 2.232953786850
87.713088989258 -72.765441894531 -219.008697509766 0.153498381376
-32.082859039307 -73.346031188965 -213.251541137695 1.485091090202
-84.915603637695 -72.559974670410 -216.484497070313 1.378056645393
-2.084057569504 -74.949188232422 -217.389556884766 1.965080499649
87.912635803223 -72.783874511719 -215.201492309570 1.213984489441
-150.393646240234 -72.635398864746 -222.845336914063 0.170928552747
-164.418212890625 -72.457725524902 -214.502487182617 0.745115041733
-159.090301513672 -72.453742980957 -223.267349243164 0.175884798169
-20.488983154297 -72.460128784180 -226.617156982422 1.088212847710
-152.009567260742 -72.365158081055 -223.586822509766 0.228650912642
-7.253789424896 -75.311767578125 -225.310562133789 0.790693342686
8.193759918213 -72.608131408691 -218.080245971680 1.395921111107
-163.328735351563 -72.706573486328 -224.653747558594 0.176840931177
-161.074951171875 -73.532051086426 -226.189102172852 0.173155799508
80.608642578125 -74.150833129883 -229.971618652344 2.176081657410
3.443988800049 -71.420173645020 -227.744277954102 0.721265852451
-154.134841918945 -72.407241821289 -225.897613525391 0.169881075621
-141.478057861328 -72.478652954102 -226.527099609375 0.615492820740
-19.361394882202 -73.976493835449 -224.191635131836 0.930056214333
2.785119295120 -76.562530517578 -225.183715820313 0.727371692657
81.030776977539 -72.969757080078 -223.372253417969 2.193528890610
-161.106597900391 -72.746726989746 -228.132858276367 0.946408092976
-146.681457519531 -72.752532958984 -228.063430786133 0.162598088384
-123.410209655762 -72.795730590820 -229.767730712891 0.628978371620
80.599372863770 -72.294960021973 -227.282287597656 1.402763009071
-114.703666687012 -72.436538696289 -228.906723022461 0.143506348133
-149.558822631836 -73.071975708008 -229.190597534180 0.366485118866
-148.846786499023 -72.426223754883 -230.684524536133 0.161193057895
-147.022979736328 -73.277442932129 -230.486465454102 0.785997688770
-155.335479736328 -72.598686218262 -229.211975097656 0.166797146201
-164.799758911133 -72.817802429199 -230.132385253906 0.550745487213
-134.687576293945 -71.659729003906 -232.855239868164 0.434255808592
-132.758682250977 -73.968185424805 -232.612686157227 0.632450044155
-154.434585571289 -72.558662414551 -231.930358886719 0.163241177797
-144.533508300781 -71.326492309570 -235.276702880859 0.408163577318
-152.016983032227 -72.648262023926 -234.895187377930 0.641008734703
74.505165100098 -72.954689025879 -230.521270751953 0.135091438890
68.319526672363 -72.300323486328 -237.627120971680 1.532785892487
-159.029968261719 -72.834365844727 -235.619308471680 0.766587257385
70.685287475586 -72.008399963379 -233.268249511719 0.129519686103
-17.890907287598 -73.798065185547 -236.910369873047 1.120881676674
10.338048934937 -72.963233947754 -235.094772338867 0.107228673995
6.253523349762 -73.962219238281 -236.054534912109 2.537185668945
-151.823547363281 -73.043273925781 -244.989273071289 0.933643519878
13.272834777832 -72.981910705566 -240.566574096680 0.100559599698
64.371253967285 -73.346244812012 -236.764526367188 0.123921729624
14.436244010925 -72.532135009766 -237.241546630859 1.002431392670
7.163876056671 -74.292236328125 -241.796401977539 0.855092346668
-5.571880817413 -73.742820739746 -241.391815185547 0.647554159164
-19.364559173584 -72.961593627930 -242.606018066406 1.044110655785
0.163058400154 -72.833557128906 -243.809463500977 0.240771278739
3.052489519119 -74.231056213379 -242.933013916016 0.726319968700
58.112663269043 -73.131927490234 -242.392944335938 1.712812423706
-55.882141113281 -72.784576416016 -244.644454956055 0.636109352112
19.060058593750 -72.547767639160 -245.997940063477 0.563531041145
-60.950256347656 -74.354789733887 -244.354660034180 0.657528758049
-8.006658554077 -73.016311645508 -247.366241455078 0.565983951092
-64.088958740234 -71.911026000977 -249.778808593750 1.556644558907
-85.845428466797 -74.327705383301 -251.591827392578 1.073871493340
-82.389053344727 -72.683929443359 -249.451141357422 0.553572535515
-11.805554389954 -72.847747802734 -252.023986816406 0.081300139427
-123.872978210449 -72.466705322266 -255.283752441406 0.118269279599
-13.614315986633 -74.235557556152 -255.169097900391 0.420377463102
-116.447181701660 -73.581008911133 -257.328460693359 0.110446661711
-113.871360778809 -73.020973205566 -258.294708251953 0.108133614063
-102.527976989746 -72.904060363770 -259.422393798828 0.795793890953
-144.293106079102 -73.324134826660 -264.368713378906 0.122938640416
-145.104156494141 -72.422431945801 -265.746398925781 0.123122185469
-167.319534301758 -73.107109069824 -264.473999023438 1.614189863205
17.033721923828 -74.702171325684 -279.590423583984 1.011160373688
-53.888835906982 -72.868499755859 -285.865814208984 0.041603837162
-65.088317871094 -72.667793273926 -285.986846923828 0.047685794532
-41.456768035889 -74.273521423340 -285.985260009766 1.397501111031
-29.371355056763 -74.599304199219 -285.073242187500 0.246248155832
-96.661697387695 -73.068763732910 -286.841369628906 1.850060820580
-28.850368499756 -72.297004699707 -287.333801269531 1.410817980766
-4.295539855957 -74.077438354492 -287.037475585938 0.039371818304
-166.950424194336 -72.794044494629 -288.801086425781 1.008670568466
-10.980513572693 -73.966567993164 -286.714691162109 0.325439631939
8.372486114502 -74.025161743164 -287.989898681641 0.141828820109
14.915053367615 -74.597671508789 -288.686248779297 0.743694186211
-56.266643524170 -72.977706909180 -290.870819091797 0.037046648562
-29.563682556152 -72.174957275391 -290.554290771484 1.923692703247
14.535017967224 -72.229049682617 -291.744598388672 0.500293374062
-69.170402526855 -73.307853698730 -291.174591064453 1.593698382378
-36.392230987549 -72.747924804688 -290.868438720703 0.028988040984
-16.933589935303 -72.127052307129 -290.876770019531 0.029257303104
16.798368453979 -74.163658142090 -289.990234375000 0.670796155930
-10.074632644653 -73.130676269531 -291.807006835938 1.411091923714
3.659838914871 -72.067161560059 -291.977050781250 0.037672538310
14.497849464417 -72.873695373535 -293.409301757813 0.044884208590
-134.304504394531 -72.280792236328 -294.584808349609 0.094447515905
-144.149932861328 -74.777122497559 -301.144378662109 0.400931179523
-146.658416748047 -75.096511840820 -312.921447753906 0.772913575172
41.157428741455 -71.269836425781 -13.026955604553 1.317741274834
31.525829315186 -71.395988464355 -12.113526344299 0.874106347561
38.765975952148 -71.479965209961 -16.139987945557 1.652102470398
21.371189117432 -71.219276428223 -19.866439819336 0.612768054008
44.714443206787 -71.491851806641 -21.037864685059 1.324008226395
25.290838241577 -72.254821777344 -22.349975585938 1.345102787018
24.840246200562 -72.212242126465 -29.038909912109 0.397870391607
22.773857116699 -72.365188598633 -34.285747528076 1.626232028008
43.728462219238 -71.244819641113 -30.617641448975 0.388015449047
27.595914840698 -72.224105834961 -34.541305541992 1.047775626183
42.623783111572 -71.584159851074 -34.606273651123 1.564877748489
32.178276062012 -72.094909667969 -36.839881896973 0.386649668217
36.797359466553 -71.918319702148 -36.827594757080 0.386633336544
32.097591400146 -72.260902404785 -39.781974792480 0.382500261068
41.969532012939 -71.588943481445 -39.780635833740 0.696404814720
36.377223968506 -71.909568786621 -41.280113220215 1.034287929535
-38.096553802490 -69.176872253418 -49.618446350098 2.062035083771
-30.393644332886 -68.725883483887 -51.563568115234 1.425528883934
-87.304725646973 -67.631889343262 -56.768714904785 0.876106023788
-86.740585327148 -72.963500976563 -64.685745239258 0.360302120447
79.895378112793 -72.998672485352 -69.915069580078 1.364425778389
84.807090759277 -73.357299804688 -71.787452697754 2.057436704636
-17.156024932861 -70.585350036621 -71.323387145996 1.582046866417
-87.955322265625 -74.661064147949 -71.123443603516 1.664432048798
-24.808946609497 -72.576759338379 -76.774444580078 0.765584290028
-49.364170074463 -72.236175537109 -85.407447814941 0.323260128498
66.371864318848 -68.528022766113 -85.651969909668 1.177632212639
54.317371368408 -72.168312072754 -91.902160644531 0.562177777290
100.120239257813 -71.409111022949 -90.783714294434 0.467021524906
70.790061950684 -71.622512817383 -95.640708923340 1.394124031067
-64.892585754395 -75.031532287598 -93.944160461426 0.296664178371
-65.381401062012 -73.438568115234 -96.408699035645 1.234769344330
45.746467590332 -73.805068969727 -96.905578613281 1.178128719330
78.000007629395 -71.988876342773 -102.242179870605 1.053517103195
53.974887847900 -74.864578247070 -104.066711425781 1.265802264214
101.057006835938 -71.589317321777 -97.873703002930 0.307871848345
-95.488059997559 -71.408775329590 -106.906402587891 2.681342840195
37.901874542236 -73.643356323242 -112.113830566406 2.430507421494
106.891983032227 -71.782356262207 -106.743301391602 0.566560387611
47.837120056152 -71.542304992676 -110.420997619629 1.653358817101
103.620620727539 -71.726531982422 -107.173866271973 0.296081990004
-86.060806274414 -73.552177429199 -112.294044494629 0.919054985046
36.830482482910 -73.809562683105 -109.985916137695 1.052626729012
106.017623901367 -72.482231140137 -116.228546142578 1.705333352089
105.226364135742 -70.721664428711 -114.449134826660 1.282438397408
108.534576416016 -72.018669128418 -114.361846923828 1.353661179543
110.068008422852 -72.129348754883 -114.860466003418 1.439555644989
38.530544281006 -71.066619873047 -112.918197631836 2.080843210220
32.033676147461 -73.567016601563 -119.487495422363 0.838922023773
44.150611877441 -71.974868774414 -116.326248168945 0.274666637182
109.938835144043 -71.837707519531 -122.416435241699 1.304868817329
39.039272308350 -71.768577575684 -125.553932189941 2.290372133255
108.482864379883 -72.182876586914 -130.709625244141 0.386684328318
112.975006103516 -71.470741271973 -130.240722656250 1.267634272575
34.027618408203 -71.817321777344 -123.488121032715 0.263849198818
-76.751640319824 -70.953056335449 -128.983444213867 1.549674749374
116.562583923340 -72.057601928711 -134.514053344727 0.474751949310
-56.150253295898 -72.412727355957 -136.232086181641 0.973229050636
37.015945434570 -72.707443237305 -135.343826293945 0.462520241737
-72.432365417480 -72.756050109863 -138.066070556641 0.909462213516
29.532720565796 -72.051528930664 -134.112976074219 0.622607648373
-77.216957092285 -72.164398193359 -141.119827270508 1.520416617393
-44.820968627930 -74.367172241211 -141.756072998047 0.358341008425
-71.332786560059 -70.471427917480 -137.398651123047 2.070516109467
112.197433471680 -71.601951599121 -137.907897949219 0.641356289387
113.398414611816 -71.677970886230 -141.556365966797 0.254091084003
116.913871765137 -73.681091308594 -143.761123657227 0.914396643639
-72.056030273438 -70.202362060547 -144.193572998047 0.229378566146
10.369733810425 -70.215400695801 -150.752914428711 0.848843514919
-53.826473236084 -73.099601745605 -151.704620361328 0.827696979046
-48.787368774414 -72.604469299316 -155.860671997070 0.701852858067
108.672782897949 -71.768280029297 -158.551071166992 0.231465086341
-42.183834075928 -72.502395629883 -150.706451416016 0.740977048874
13.468270301819 -72.237205505371 -156.433441162109 0.678521394730
22.401365280151 -72.489189147949 -157.926315307617 1.536460042000
115.476119995117 -73.446723937988 -163.260406494141 1.854823827744
29.300191879272 -72.913139343262 -163.143508911133 0.380139827728
-0.729666113853 -72.922264099121 -162.838973999023 0.632989525795
31.988475799561 -73.177085876465 -161.395233154297 0.211209297180
-67.703323364258 -70.813476562500 -160.035552978516 0.220153346658
-64.267913818359 -71.464576721191 -159.169692993164 0.361124306917
-67.249771118164 -72.978126525879 -164.590255737305 1.040594935417
115.436889648438 -70.960388183594 -160.412048339844 1.603508353233
-43.979736328125 -72.009414672852 -162.837585449219 0.211194485426
20.450733184814 -72.865577697754 -166.078735351563 0.203541949391
-63.731369018555 -72.760375976563 -169.164031982422 1.982521295547
-60.249179840088 -72.607063293457 -171.033126831055 0.728296339512
-38.205184936523 -71.788810729980 -159.285171508789 0.215386256576
-31.372049331665 -72.033096313477 -169.984817504883 1.289199352264
114.064865112305 -72.680053710938 -170.468811035156 2.011156797409
-36.185810089111 -72.056289672852 -176.472473144531 1.366950988770
16.278594970703 -73.193649291992 -174.218383789063 2.258343219757
111.369003295898 -73.520820617676 -181.030700683594 0.576500296593
-147.934310913086 -73.481254577637 -176.053527832031 0.334745407104
-144.836120605469 -73.162803649902 -176.089019775391 0.691739499569
-151.000167846680 -72.077568054199 -177.425964355469 0.227289810777
-142.580505371094 -71.795730590820 -180.517364501953 1.463934779167
-30.017801284790 -72.280761718750 -186.463699340820 0.511519312859
-22.345849990845 -71.746673583984 -186.125411987305 1.292698264122
23.114423751831 -72.280769348145 -188.895858764648 2.195007801056
-142.191955566406 -71.951210021973 -186.991882324219 0.210735723376
-145.880722045898 -72.449073791504 -188.140655517578 0.210883527994
-19.704162597656 -69.955703735352 -188.052947998047 1.371316671371
13.967623710632 -73.783302307129 -182.258102416992 0.919778823853
-147.555831909180 -72.778640747070 -192.316390991211 0.685700953007
-31.092761993408 -74.313613891602 -185.756744384766 1.906059265137
101.072868347168 -71.909667968750 -188.084579467773 2.983946323395
108.310485839844 -73.293540954590 -189.477523803711 0.834837973118
23.395666122437 -71.140731811523 -193.332183837891 1.464551568031
-17.890270233154 -73.272514343262 -188.462158203125 1.531778454781
-25.855779647827 -73.805099487305 -194.213882446289 1.246536493301
-153.336608886719 -71.635665893555 -195.856689453125 0.205484181643
-131.739974975586 -72.970886230469 -197.015304565430 0.431295514107
-123.899177551270 -71.694343566895 -195.693511962891 0.840854346752
-121.928001403809 -70.985824584961 -197.965469360352 0.187232568860
-22.928138732910 -70.219276428223 -197.842742919922 0.430001765490
10.764713287354 -72.719833374023 -192.895065307617 1.855902671814
94.931388854980 -71.851806640625 -200.756805419922 1.858145356178
-147.549194335938 -71.399818420410 -197.333663940430 0.685417294502
-145.837875366211 -71.790573120117 -198.549667358398 0.491524398327
-149.014907836914 -71.037200927734 -198.729141235352 0.199922069907
-154.615173339844 -71.434272766113 -199.251129150391 1.261322855949
-25.546318054199 -73.309928894043 -199.475173950195 0.659649372101
-13.916769027710 -74.939041137695 -196.169586181641 1.154724359512
-148.146438598633 -71.866615295410 -200.992172241211 0.267946898937
-15.313203811646 -72.121658325195 -199.217666625977 1.050879955292
-162.109329223633 -71.677574157715 -198.756378173828 0.206776484847
-133.439727783203 -72.538040161133 -199.848098754883 0.497442930937
17.373861312866 -71.461204528809 -207.175491333008 0.737607538700
-163.483367919922 -71.804061889648 -203.801773071289 0.201473474503
-145.208862304688 -72.218910217285 -206.180847167969 0.298118114471
10.983026504517 -72.057746887207 -200.310043334961 1.731964230537
-153.190948486328 -71.538711547852 -203.310317993164 0.840679705143
-22.739667892456 -73.050483703613 -200.275161743164 1.277922749519
103.079544067383 -71.985725402832 -199.725616455078 2.033863782883
-155.563415527344 -72.016273498535 -215.532135009766 0.955871284008
-164.247970581055 -72.303810119629 -209.913482666016 0.378161907196
-78.148063659668 -71.722305297852 -211.086990356445 0.485486000776
88.479705810547 -72.004905700684 -210.425735473633 0.162592619658
-3.237207412720 -71.046913146973 -216.135253906250 0.318106442690
-150.805648803711 -71.774467468262 -213.151062011719 0.569047033787
-87.779289245605 -71.316505432129 -214.820510864258 1.691420078278
-7.869126319885 -72.842498779297 -211.915863037109 1.760472059250
15.298345565796 -72.892959594727 -222.734741210938 0.199141547084
-145.726455688477 -72.918426513672 -218.720779418945 0.645271956921
-2.458281278610 -72.810249328613 -220.992462158203 1.767129778862
-21.853334426880 -71.023925781250 -221.144439697266 0.729351282120
-14.250216484070 -70.361259460449 -218.951263427734 1.330353736877
88.711204528809 -72.247673034668 -215.792541503906 0.157000020146
-21.506616592407 -71.813957214355 -218.124710083008 0.841293990612
-28.364603042603 -72.232025146484 -215.831909179688 1.510652422905
-106.775505065918 -72.026130676270 -223.486206054688 0.167924001813
-15.020342826843 -71.782814025879 -222.263534545898 1.396574616432
90.408729553223 -71.059875488281 -219.105392456055 0.494193702936
81.753608703613 -72.179512023926 -218.635238647461 0.150637775660
5.627329349518 -73.158004760742 -220.538513183594 0.903790175915
-10.169943809509 -73.220100402832 -225.234954833984 0.474320173264
78.350967407227 -73.630432128906 -222.659179687500 1.101247549057
-123.437522888184 -72.173225402832 -224.978775024414 0.852101445198
-22.998842239380 -71.639701843262 -222.575973510742 0.122818335891
-99.272994995117 -71.450675964355 -224.187622070313 0.322273552418
-104.854988098145 -72.288368225098 -226.397048950195 0.971748471260
-134.429428100586 -73.218460083008 -227.723297119141 0.155434295535
82.127174377441 -71.581130981445 -224.408752441406 1.606330752373
-123.530876159668 -71.994789123535 -227.164428710938 0.150649279356
6.039488315582 -72.778038024902 -227.996704101563 0.534859418869
80.566612243652 -71.718376159668 -224.081161499023 2.017588376999
-14.034441947937 -72.551757812500 -225.713684082031 0.358424544334
-11.705924034119 -72.700942993164 -230.841369628906 1.296778678894
-4.489918708801 -73.290596008301 -229.811218261719 0.112828440964
8.661293983459 -72.336212158203 -226.923751831055 0.725478112698
86.349060058594 -72.702835083008 -224.653228759766 1.057754755020
11.510648727417 -71.829895019531 -232.088073730469 0.110945671797
3.789580345154 -73.582046508789 -229.004898071289 1.455979108810
-8.512972831726 -72.720283508301 -230.179260253906 0.394176810980
-6.371404170990 -71.926300048828 -233.504104614258 0.107113532722
17.044319152832 -71.632324218750 -231.677673339844 0.899295449257
-11.855769157410 -72.241462707520 -233.937927246094 0.106424354017
71.765090942383 -72.806068420410 -238.053588867188 0.125810205936
-7.639039993286 -71.017097473145 -237.739120483398 0.100847743452
18.928350448608 -73.538543701172 -235.893173217773 0.541786432266
-166.015548706055 -72.942565917969 -241.767105102539 0.160359591246
-4.446073532104 -72.070014953613 -239.175323486328 0.099381633103
-8.982702255249 -70.992446899414 -241.986862182617 0.551049351692
-167.593017578125 -71.550292968750 -251.669006347656 0.760110735893
-10.030021667480 -72.686912536621 -245.271804809570 0.090734444559
17.251859664917 -71.750183105469 -246.554870605469 1.089976191521
-146.207260131836 -73.981018066406 -252.029937744141 0.144461303949
-68.519027709961 -70.757575988770 -247.970001220703 1.054221630096
