# This PCD file was generated using the MATLAB® pcwrite function
# from Computer Vision Toolbox®.
# .PCD v.7 - Point Cloud Data file format
VERSION .7
FIELDS x y z
SIZE 8 8 8
TYPE F F F
COUNT 1 1 1
WIDTH 784
HEIGHT 1
VIEWPOINT 0 0 0 1 0 0 0
POINTS 784
DATA ascii
4.856394921430585 -67.365749962802255 -293.818586838587464
94.782140049605331 -95.864630317075054 -285.478420178438682
140.127094613971508 -110.442403256086166 -282.933340975029864
117.705748005848605 -103.106457828161368 -282.841127971411709
152.134693956789874 -117.633413476383581 -281.410975858646339
151.631959867283172 -115.711865805817865 -286.197296224201352
146.014423671621103 -116.097192162536942 -287.144010712679403
-56.156789979796756 -34.436191397101766 -28.214967640215377
-31.284306220122389 -38.201228040062531 -28.248099998244655
-60.749857014569216 -33.505456702688079 -32.484739081219267
-56.491003224735053 -31.680082110644591 -42.341179148817119
-92.042339676249384 -21.592064144307827 -81.124700483040343
-98.613873377955258 -17.515246572077558 -85.672916633123876
-104.256249983592994 -17.833369840427693 -90.327009724022375
-100.784448216961948 -18.299883852656961 -95.402736533341979
-61.137173785459680 -32.151677297020186 -97.308851799831686
-49.162223091908949 -32.128422943380954 -98.156260365665844
-67.909865593034965 -31.937059564431763 -99.242606743268169
52.401034192955407 -76.169787708639731 -89.218219424942689
-74.999084648636412 -28.752073332233337 -97.051095031613329
-104.148178114944159 -24.698868650504721 -110.778334785040784
-77.006441697745942 -27.223664080768344 -110.681766264629786
-96.025625999310520 -22.405197027356792 -113.968598223288708
72.487825850535927 -80.213627561988687 -97.753556559912099
-50.243595118304526 -38.422774719196283 -104.834548889773146
74.346951056627304 -80.379308539345587 -96.407700049801235
-54.130346635846649 -35.057210290794430 -117.670597335924469
-40.867720980816870 -35.623531506296345 -109.822542974651213
-103.286296220021313 -19.736370534310552 -115.454603099122082
-41.902663417378356 -40.914728303934396 -111.904791171898054
-45.541317038559228 -38.793178193521712 -125.005435152863740
-46.537699391115922 -39.541136849752860 -119.503236493662840
-110.118645511039858 -18.067610185736328 -125.275888602427770
71.904822292720553 -77.592988675735285 -116.172006422640450
-109.724309764522573 -14.049003388205946 -137.204560761990621
-44.111088301705209 -44.253190467108489 -130.770928811380202
-44.052507015666002 -41.254889143939451 -126.427198414526927
-38.423947110293277 -42.108764846166736 -126.581966213274299
48.626998273465162 -69.494599599097725 -126.633779637262379
-34.116866591848854 -45.081617482222754 -128.645848164507299
67.709089708557670 -82.602469826897234 -132.549288282388289
48.233820106086156 -70.373710151495672 -129.672340292796974
69.335240668060536 -83.461495347669654 -129.415518180083694
-38.890189988139625 -44.683115377885528 -136.379174949426158
51.621192058752840 -73.868237735696454 -130.183745595930333
-37.897022076353615 -43.976345236985232 -139.000307907196969
62.747412053834637 -81.069790766295554 -134.874517780561803
50.721020202894110 -77.412384373913213 -137.206468393346853
-27.793131957198366 -46.426891754572488 -147.362402074038442
-107.080125562803531 -16.398954454684443 -156.126712896406531
-113.788529813418819 -20.494112897136887 -150.372708984582374
-32.830359936875588 -45.334466978205377 -146.705166952731872
41.536396757383699 -70.314327071430341 -137.876091361595542
-104.035110146975285 -22.693053613666692 -164.633073833671773
66.961898278462684 -80.987102045507172 -138.029751883744439
51.076473666365644 -75.128709915523103 -138.911448000259327
-34.448045396704750 -49.054157744897154 -152.557865936440663
69.554449760174379 -80.542084928311851 -140.972860039641404
62.951495609725185 -79.787082511332443 -145.659221556765374
-109.964560837819363 -14.612417692134528 -162.995680150086542
57.544313438841868 -78.658182559392657 -151.044201915323981
32.917559406977972 -71.879417791506569 -150.551727410976468
-28.245255326868239 -48.785355066617463 -150.632317614874978
65.191359159478111 -79.906360755268224 -141.242225411578801
-15.094178359198501 -52.480971132300070 -153.162811659714208
-32.816451217189261 -46.630446544069564 -162.165930746930428
-33.097206583766841 -48.001955192938631 -155.353739711825995
-15.841574214245103 -47.510737720579243 -157.969531816365588
44.267085761128598 -71.719770613049434 -150.696484464513446
-25.840319172801586 -47.000363233042641 -157.803106751101865
39.782624314609066 -72.420384972182049 -147.915065571012065
-7.325030399601676 -54.751539593108959 -156.724573129062719
-22.741283067436093 -50.157797205947674 -154.136483862394414
61.741468281913910 -80.275955039857479 -152.929165676337789
39.900886408097023 -74.638441116037299 -151.712896694376496
60.836451492716165 -79.660432217339363 -149.377325498682666
-19.986989948435799 -51.880533105605487 -162.366534611396048
-26.257842729096165 -48.971781944144659 -154.630243750010493
-4.465262502182604 -56.417548740205135 -166.916016576982031
-23.049706817197045 -49.594885555923533 -157.839745286615738
-30.833382931854690 -47.521802949646428 -172.259545307694111
42.635530229982052 -71.731082612176010 -160.860814110532090
34.349690949631935 -63.834505472012523 -162.056665002435437
36.203780519806116 -69.922611640495560 -159.088462950648989
-28.557401498276398 -47.357327335193837 -163.568570683001610
39.112610198208458 -73.705568342365396 -164.590200802156005
34.926545257068355 -72.007651712874363 -164.627670373900827
-22.436637607993198 -51.503373080454267 -169.916775457333387
36.366676873070531 -70.826952981675646 -173.458112498212245
-28.946549943214308 -51.599838222105561 -174.785191807462752
-107.836785508182999 -23.080151872183961 -177.735545294245611
29.972122589530173 -69.082076987085017 -170.873611725588518
-98.535659391430542 -25.926244893156436 -185.192946165236037
31.294178385112104 -70.087496018874390 -176.126496419341834
35.359433958957268 -68.288960169424627 -179.948273063787070
-19.989609313943145 -48.638381067953951 -181.230363955722709
-99.832222498087503 -23.088413838887305 -194.296525561263508
28.461200525986030 -70.524678398548488 -181.835341509092387
31.824991970412668 -70.453171630744720 -176.145860159693513
22.632280062156241 -63.466299181016588 -186.723105038399183
139.953844225169235 -107.983961721312824 -176.515386009284157
-12.770211014888552 -54.619882169195392 -186.636381567784781
-98.895574907567678 -25.622814129569704 -203.203574454145439
149.271778189219901 -112.467411989505408 -179.647478021508931
20.525247676159978 -69.498734604757601 -189.188145191534971
109.619000581799483 -96.522156165703649 -188.176251424285539
123.635465933251297 -101.644126514212900 -184.944101015793223
102.169322575528398 -95.152485072271489 -191.325424084193060
107.182061694996449 -98.311600351244323 -191.144482346783008
12.314111394348210 -62.947992627327679 -197.158460489875210
-18.796050069809120 -53.995110772903885 -199.975827608288114
14.547316080594840 -68.592992460310157 -202.147960086942817
120.134631244521373 -102.259263418418783 -195.216364711387513
19.360023419648151 -70.343914534553249 -202.780386683445045
122.020183648478465 -104.016961668534236 -192.301191771997026
15.283037718668091 -64.883735447753253 -200.713205216952417
137.689039180414113 -109.590208165243439 -190.573733286392923
-86.145494106408066 -33.304651674292870 -217.114687738722324
153.709336812234937 -118.935792602491929 -187.333613654503012
5.264311353700435 -60.509403636067930 -219.496750749399439
-8.871253700883624 -55.694751632891837 -212.930669436331158
-6.929438961525342 -55.677566027355937 -219.947983846534811
-75.554364975222924 -33.669195295950857 -226.550016066732695
-5.921268402639036 -57.049807153145537 -215.798993508433597
-10.267873357122923 -57.548523632975964 -217.813921849902528
17.892102956988239 -63.245766765566181 -216.355069146892106
86.870715606151265 -90.555694910496030 -207.598343569572393
94.012472952827139 -93.454628976654377 -208.984371647837492
1.851669486085108 -62.186462669858599 -220.945426996992524
159.259629154713366 -114.929869101560428 -207.785162050910458
-12.642782429701100 -58.108710039622530 -222.857544019083065
137.879148702604368 -109.959109111964608 -209.092612873570999
-9.415577417685913 -57.033442684416755 -228.035471786483782
129.449388432139926 -105.033532117936716 -213.724730463055977
111.931242540441829 -99.342899429197743 -217.833123611135221
-13.662804640742060 -56.495823826676776 -224.319392115596798
-71.208950696534458 -35.354636794893622 -230.778388466790830
-3.808875250773482 -59.300671541908059 -225.954014866257069
105.989320752451206 -99.148967948630442 -222.054628396588242
-64.751076973332005 -36.973619166901841 -236.634277888289461
-75.500440106037303 -33.074604301883113 -239.439892723247681
120.860774721842162 -104.067524019952771 -224.749418334517486
112.907628066424607 -100.822041832767908 -220.937175876359817
11.229928951046418 -68.092196855361436 -228.540933502319291
-64.188579325612920 -37.530386389378023 -240.166064001746264
-57.199541535817858 -40.191542802793876 -241.252130152143991
-65.956726954312117 -38.090476866254036 -238.359784760898691
129.194099658103880 -110.202695090055514 -222.677186397815490
-62.280952855903280 -37.833194255814163 -240.969834863296711
-59.380462875738544 -42.406029265928353 -243.417862523963464
158.521259551637343 -118.441870753256097 -216.230103809704275
4.652998899289877 -56.325805313773579 -243.083863001537622
-13.988314785595374 -55.047306389933794 -243.175504608393851
8.664696997494985 -67.096516200134658 -241.768252951851537
-12.659266848239003 -61.930767227916022 -242.403995750725869
-58.170531662221116 -39.667092136870110 -246.347546271752691
-4.890730704114247 -61.611808939316383 -245.935250790992740
12.162772558135430 -71.876451505113380 -241.288099249673422
3.077254947861327 -65.589747287137243 -239.083297399226183
-56.736692796227544 -40.680526655442492 -250.495014905113379
1.317117969663528 -61.343206005888952 -244.646089565664028
10.870937469417818 -64.506624002981056 -244.254837415725149
-8.569368662200596 -55.917273677504198 -246.129247771057464
161.608795656546818 -116.828184868774173 -226.756976216701048
-48.088394408345977 -44.276648356436695 -254.419640423389041
-44.050637482425323 -51.987427362424071 -257.179394723896678
-50.341030379820772 -42.874788503349322 -250.223744582711760
15.284544299450374 -68.841315790360909 -248.411387264457773
-49.469603403637727 -44.255315102473944 -252.953404691244629
73.768161967618468 -88.346018823764396 -244.424053890336097
-43.024266161585622 -46.048468645705157 -255.309177669471381
88.011245809625066 -93.200212290111295 -245.607704359863561
121.106907839522549 -103.744439177958398 -246.469711414531190
129.061248698412157 -107.589902486468262 -241.823439678491127
-38.014709669954136 -46.746087855248760 -258.093970648427899
130.084738801827257 -105.287400945951504 -242.149852464503169
106.881251001701244 -101.656672950589083 -246.144574787431168
113.364965072353996 -104.546583845567270 -247.811433649578277
83.694747776684281 -91.150449992042013 -248.280705938760519
108.908124392055001 -102.485396698143219 -249.999483567196506
123.083353398938286 -102.464082723263999 -252.183879944163294
142.629223211751480 -115.620346187922252 -254.950443700391560
19.742981735618436 -70.840694866734282 -265.727202952503433
167.174162693931578 -119.466946223076590 -249.588104224519014
19.970137659560073 -70.465621438609276 -273.938788131959882
154.089977113892701 -120.423876426798529 -253.382929767286356
149.803895948570982 -115.569358296196000 -260.238919974996406
166.202740183413880 -121.852059074958447 -262.629734223174239
20.285175947372046 -70.183265962519073 -279.523707427299598
130.151094459823298 -106.858209824887822 -272.169194318871291
155.661484689681117 -118.742210433204434 -272.416199775225891
141.815201405117591 -114.329303213236699 -268.523368606960730
134.509927687850961 -107.788332601415320 -269.089731063958141
13.119990925584311 -73.921874051371873 -284.980403591774291
126.498607683979444 -104.402848057623004 -272.890527570312145
139.079553528879785 -114.697214577691625 -273.380091866923976
116.978855815245780 -101.747460705843750 -276.139428909551441
81.103126068548207 -94.157687155068672 -281.818909098104427
64.708935835234143 -85.663125408186943 -282.709577083424733
14.485656173657489 -67.600561490488587 -288.701279124092935
57.632148412004057 -85.026787538937739 -281.957432043734002
60.572566928782962 -87.373116533947382 -284.489526797230724
73.274903702631619 -91.350266768386263 -284.916557458018474
90.380132069105670 -96.705326028090695 -286.677911763552402
96.117554333292887 -99.916561700604589 -281.180978310732769
158.038072313853149 -120.503142251449873 -277.370843410966529
159.530155413631689 -119.225027842856221 -279.602242599961698
125.940403805278137 -105.417925009472256 -283.378172408072771
143.967319616197358 -114.549331628923184 -282.428787041786563
153.234449151433068 -116.027091883887593 -290.390762617726239
151.503380863743189 -115.698066696028846 -299.006222844391345
-59.434135724484875 -32.639489867780938 -22.225239282070810
-27.948966480305266 -41.142667345941376 -34.378650644915538
-52.887256844477498 -37.819590087178099 -41.480863744038942
5.660924150163709 -53.064253524363536 -67.686641184049705
-87.396768442548563 -25.368702837803184 -75.699524818732513
-94.497440019338640 -25.156435097609645 -77.118829697570135
-82.100303695138564 -22.159233728924420 -75.853681729956790
-77.570402869007438 -25.868972720805672 -79.013655555590461
-94.085478246095647 -19.117849597282017 -86.527426662756099
79.590987823976405 -85.852481085666327 -63.484342773741545
-72.677531283025274 -28.513354900474212 -84.648458549328751
25.596251399673299 -62.784182530459205 -76.498056042493232
-101.300444873001979 -19.671495468229082 -98.048820929752566
-66.628875035595456 -34.736548553612863 -98.812454038039490
-106.900978591759355 -13.370724451526684 -106.748860262530087
-101.616325582810560 -16.453524777833834 -110.906374248940224
-75.195181059752926 -29.663839077001867 -110.147202802520212
67.721170317177055 -81.062888458348766 -96.181410082280962
-58.023239822631126 -35.806738229990074 -111.975035225379756
-108.259895245487769 -20.876655214699824 -118.779821882224908
-50.302302530940096 -38.152382149437244 -119.410935128953852
-82.264776045490891 -28.445008369814758 -115.584876054428577
-45.929241440269280 -40.567608494103851 -113.918852065254470
-105.055621291552129 -19.592845301424930 -115.805046744215588
-51.528200299039497 -38.834110383950659 -114.821699396789882
-105.657205024721407 -14.352845790507359 -122.928925896550012
-108.884425273866142 -15.255324062484135 -124.548868395202746
67.752468099342195 -82.547557560896522 -108.782886580990763
71.545294446867572 -83.910580733291241 -113.611359360342320
-45.989279598930771 -37.683577357783307 -126.791560975626950
-111.978023473412151 -16.037158109954362 -134.761186631158751
-112.308313194231886 -17.992128239198323 -136.949325372458077
76.454985012683181 -85.118964483223039 -120.791660060449189
-104.203058298668523 -18.747228446296077 -138.456256904226251
52.317449557056378 -71.535920001534237 -128.491663932265737
75.871821140092237 -83.674008065960635 -121.256595301274459
63.014027923039421 -79.306171046141614 -122.425987581305307
49.150419857081843 -78.533877579774199 -123.187439216212866
-34.749232104311673 -45.623179149369250 -135.521118004197263
-44.898374038235460 -43.543616306292812 -141.022620402498831
64.132136283500628 -80.678902745862786 -131.752336081184325
-32.496360558319019 -48.104279929496883 -135.942624532134943
-108.844176909672484 -19.847775132351188 -155.967315440457753
34.197997168173103 -70.294028391471656 -146.566931027078056
-31.766979110206162 -46.330789478591072 -154.005880863618415
-111.087683580839510 -20.967251255946238 -160.875359298503554
-37.185690440743066 -44.437657001980483 -148.425944979895490
-108.186817984989219 -21.259908529913247 -153.699725590523371
45.757410340235609 -74.216180674911271 -146.495189104690724
62.748752942342350 -83.156216703155053 -146.125306356443701
48.690341876882144 -75.143546250760750 -149.375942552812205
38.373926993474356 -69.027373347714928 -163.093335513521254
-6.967030059738338 -54.903915451578406 -158.498141525945385
-106.239524565118302 -21.058891335975773 -166.317170314511401
-105.068847349283089 -22.098362870953437 -172.293945754549554
-12.493310753781429 -55.026190869071186 -160.509138821406680
-5.651635332417982 -56.925279401185755 -163.721528821214093
-21.332724473754645 -51.962790616780424 -159.212698829258528
-27.528005811641222 -50.410930051851885 -160.217594229198880
-104.487398884690606 -22.904290229738208 -178.224278741272570
-103.954545107257374 -19.532619030818182 -180.522552962580107
-24.901680744150838 -53.551106010878314 -178.618772796055907
-25.165683278830969 -48.106415949313181 -168.397609907721943
-108.543891384337130 -22.882968103704926 -174.883098158484188
25.609680099894753 -69.895897366295500 -176.309501626138541
-105.501462879955483 -21.980718660415903 -180.509264052110723
-18.390885410462403 -52.289025183481421 -171.368288470107444
-22.429640445895338 -51.518106642800575 -171.864643156652022
-103.554752066292920 -22.938617290479954 -185.411105895996741
-27.276441073288282 -50.710542242175201 -174.968314389380055
-106.531682474097735 -23.292115941656661 -196.529579223756087
34.414792411529987 -72.513068113960031 -175.958424985575050
-25.545174299038649 -50.880932611746303 -175.550458276928651
-101.838403289183105 -24.396427234005188 -196.235076080592592
-22.629683899398028 -50.801462465253707 -182.827307750692341
141.465034773069021 -111.404489279776428 -173.634676946606078
25.083248258288720 -72.201610913850217 -188.398912100682196
-24.552551087946217 -53.616865806093870 -189.147858627188526
107.042216424729659 -96.576067119246730 -182.802387686066140
103.008034496218826 -99.135424103412419 -182.386492584267472
-22.652970946694204 -51.737062380742699 -192.784107280022539
-12.353150023750754 -57.728081233088552 -188.028990177690417
24.027858003306640 -71.484374715371160 -189.424808150592810
28.633232188860333 -66.402763986453166 -188.408638315823595
25.799041523970004 -68.939362674711120 -186.416317788738979
-15.730392834037914 -56.451447932096798 -183.311156620347987
141.621693143862899 -110.443884958426949 -182.338870885737890
136.181525786262682 -108.761387498318001 -180.643279774254296
136.769541160440156 -105.832416450334264 -186.312839801315647
20.913810706872546 -68.771737490854122 -191.037007217222936
-13.195228995458073 -58.432841906320853 -202.669340935810737
-93.242023451884137 -28.606368060022788 -204.813697988629229
106.647843272644863 -99.449134144948246 -189.149401638972790
-18.652721326684777 -50.795360624841443 -202.426601993836726
14.057891699239526 -66.681613737307558 -195.916462964743317
16.692903283506737 -67.319558783290617 -198.855613129919192
-94.853645959080808 -28.670348153692572 -211.166111809497295
-6.521680440156295 -56.561735804826277 -201.999736637895836
20.152134931174722 -69.567334442217458 -196.178267298972855
115.507437278778596 -98.549322571342131 -193.291480239612326
126.647911079029186 -105.407799336640139 -192.141087217634265
106.403152731661422 -103.110581543169062 -195.545351228601078
135.027707672141958 -105.613824988336930 -191.562705283858719
-16.379506844633131 -55.384913563364698 -201.326268559991206
-87.169731029136173 -28.979160470770836 -212.885497487229713
154.787182109773084 -120.057145707986919 -187.057119507095422
-93.479478227350313 -28.444815840138631 -213.754444439200768
22.338350051642479 -65.213898174452368 -205.954506333507709
-88.321207533694391 -32.398590195749520 -221.491441565032204
-80.967888668448069 -31.416138139403955 -221.971160479403409
-10.016003527457524 -55.852008745871508 -209.083854199764602
-17.464879224176478 -55.866080209516845 -215.729432665692144
-12.017517640593546 -59.943209399105008 -210.847517823615789
12.412748988841308 -65.881364708436877 -223.147593325935816
91.094417197635991 -91.739243027365234 -211.314696603872477
11.788316661052498 -63.427913007010133 -213.197758964979982
-81.914665999861853 -32.536922422936470 -226.800831526134402
90.265429362112300 -91.190846836114773 -210.491198796935635
96.222438684420510 -98.032897256606162 -213.095865052060248
90.759280226022028 -93.013285175753893 -212.157784967054909
-80.242971803797275 -31.934597605494474 -232.414073179034489
129.477716798532299 -107.116261828158798 -213.814191131345041
128.073704775916440 -103.064579599770511 -215.781505252012977
111.780422937129700 -101.423343439344933 -215.270562742238099
107.496157173210420 -102.472963235027578 -213.892102676579896
127.203206334631844 -108.328340211833634 -215.968767931022882
109.564575955859752 -93.726635196022698 -218.691361271585578
107.848964635319405 -100.209031830130044 -218.922931090914147
9.794685601395322 -62.020427800846136 -225.899700866715563
17.882421683837343 -65.812324942417320 -223.517403683887323
3.010911144065140 -65.277194070651575 -232.048893048568175
11.082932857796742 -68.869598530519113 -227.694801285825491
-11.217342488822464 -57.563674021508071 -236.806653898414652
19.793930624749230 -70.821277059641744 -229.018089608507438
158.216995698066910 -119.194462028834423 -207.813637378804344
6.832125546167788 -64.714111773154471 -234.834460474785942
-73.984216230090794 -39.057415527981277 -240.727201252481791
-6.711934532770663 -58.072233525464782 -236.559740574984659
8.383938797835583 -66.039242732531136 -235.939995517391736
149.747762783170117 -117.485944204201104 -222.905910893970059
135.849026850458586 -111.494343358262668 -218.293779254266212
-56.003343835739159 -43.971889308937897 -243.695454764192334
8.654759899539037 -64.375755557275298 -235.373383880815851
-5.295704769747093 -58.160355167741947 -233.498218882921179
-61.724051742537341 -38.112465107469546 -238.912651039736801
-69.062575040938682 -37.553103083725603 -243.581382145298534
-62.712640794718396 -39.331208395451796 -250.061845655165286
5.560125802919437 -61.400000719013335 -237.414042490279002
-51.698915281216628 -45.972513833832288 -245.292375549846582
22.168361527527956 -67.681424136677123 -239.714570176838237
17.105818590466505 -70.993181184880456 -240.541717599869145
-4.310609650875726 -61.103980427457600 -241.892031598696235
-56.435582525054848 -39.253356313083557 -246.080730015990497
-58.370344855975333 -43.544398863456962 -248.707940128075649
-42.530279980245453 -47.591290582838745 -252.669061157383027
-52.654820206485795 -40.863768554062986 -250.533226028191820
20.293472238056424 -65.469818997164197 -250.002321895827919
82.232606973292135 -94.822818464990235 -247.579216485696833
75.991159880000666 -91.969637611575664 -247.027175805907717
-36.526534280856453 -47.090147605762787 -253.896146958730725
144.699674017934683 -112.794057909701337 -237.846280666003167
-29.036753620163896 -53.001852412165164 -261.381017808103707
91.982676564919942 -91.816964296792449 -244.732587456500795
150.108151827745530 -119.919054884700202 -240.965106402107381
134.255356368068476 -116.799717284673164 -241.047417338305166
-37.902316186804327 -49.933589371418591 -259.568304287253170
120.961661599276098 -109.931748990716642 -247.162225414519270
114.500110781822784 -103.283334801387070 -245.607012741011289
90.238297075451385 -99.202808578349760 -249.551118360031438
16.119620190205040 -71.988972650675379 -250.596639178592142
-25.182244981813877 -54.725960916799139 -261.934232704869942
-19.243953640345246 -59.264781227500841 -263.414131213953453
152.861397830000726 -121.870453576135532 -246.249889710443881
113.855788040327226 -100.898194152776071 -253.189042180197163
18.174752699006739 -70.241983023758422 -262.181815856044636
130.061113618293462 -109.722729271067195 -254.006781316019868
18.727199365732638 -71.769300864291409 -270.434309373388032
160.569600967420229 -121.385294059729063 -257.948096360636839
13.767979478555247 -68.146942282568801 -280.304788876953296
158.369610078131302 -120.159523093707008 -273.573311871357703
160.892840877920094 -119.033567115316856 -263.487023855272128
140.988505311935171 -114.027968664746140 -272.773491181477937
167.398254583443361 -121.500409203571309 -269.605207510399396
-5.164729478314833 -60.538640200674692 -290.889369939822643
104.342060962458575 -100.338634994941742 -277.985401791287643
87.625100371161679 -99.744236496149611 -278.799331995382829
163.591183903411491 -125.093751884553072 -269.570966403808939
94.632874435055598 -93.838362302475971 -276.656828262710519
151.767088549449340 -117.722016193771680 -274.949398222966522
78.888276346625503 -91.777574290262308 -287.719103210368019
73.436630838783941 -91.308138848964603 -283.255854673544718
85.373218029558956 -93.855986731075603 -284.745477169894571
10.004533694189966 -70.948481255656048 -289.929424282832315
89.971873302363903 -96.467386111861572 -281.506659367918928
100.933946081060029 -98.924646775588229 -282.771226331463254
117.302395075390237 -105.887482347081061 -282.729591183954767
116.249107125000293 -108.654059410457890 -282.754515719773451
133.394457887815690 -112.530828026000094 -280.523795788084840
142.464840385111927 -115.202914641706869 -288.263959973934448
145.075534705604923 -115.298725401092838 -299.058323368704180
-37.388981795590126 -42.036472995112931 -20.326452989790212
-44.810823739743974 -38.199278176218996 -22.444174243642934
-40.998629132546988 -36.833174181672348 -24.103376145486052
-56.023051809614586 -35.775473178333030 -27.689333534473136
-36.474915683010039 -41.212101745321661 -36.906268044067744
57.827331943228387 -76.979945763093880 -42.418182040227769
-96.055181876280017 -26.107597023370715 -76.682369455851600
5.618825429181179 -59.570970172828076 -68.361758329699867
-106.596252046892431 -19.438256784882498 -85.397873343013032
-97.694036640926484 -17.600608185087850 -87.555941819926574
-73.317543865234271 -28.830050968926926 -87.741739901781898
-74.016268398079390 -26.812940712160085 -92.084156764990027
33.847307436348984 -64.870637308281971 -80.736560160018797
-65.474544269601310 -29.749371951941484 -90.982597983546043
80.049426623737133 -84.447413059886202 -81.627012757258797
36.509494857454200 -71.690033553419283 -82.870112186999393
45.915138040581624 -65.767469464663833 -84.873684838279658
-100.986075903320369 -15.703349015907776 -110.012264885154380
-62.933941675855436 -31.275448286566373 -100.587315996183776
-70.561607253884887 -32.545803117344022 -99.839518738201491
80.042270159317937 -90.815558349186446 -89.822467573180290
-109.092619122382160 -16.805267274449150 -106.051939193335812
-49.687328940708340 -40.864378298927321 -105.583839165515045
-103.215110892836663 -20.873141577765239 -110.355225067422467
-108.209873110247912 -21.345679861737011 -118.634560794142047
-102.388402629981044 -20.819298666991230 -116.753390278271382
-76.333071558637144 -27.861769134527961 -110.359941087548648
-88.541210118618409 -23.975870638355048 -117.457250579161922
-53.929231870179478 -38.770230992394517 -118.376437104819729
-112.075737842295879 -19.966876579314601 -116.621350077383951
-49.882623246716392 -37.027255750393977 -112.376654201513759
-46.355079932526934 -42.747512207163084 -107.817459345356710
-112.690838393139032 -17.375681105418025 -123.645576909289744
65.742549835732433 -83.663492914680361 -104.235082598466946
-50.336395631809644 -40.764295270530340 -119.628233167346181
-38.607358510624195 -42.118350052722548 -120.808728139835026
-106.760200594181740 -22.264769732148991 -122.571201925167642
-44.827662451744246 -44.749039969947020 -117.538487575927050
75.658914094292314 -85.003435330521100 -106.577108377476293
82.017593342803664 -89.960222891192231 -107.670879609207887
-102.932066705615483 -18.322454986381601 -131.630532473369442
82.966769277151059 -86.055565470148110 -111.712302862825524
-42.062411461486555 -41.107684189058020 -127.388953213668245
-40.999426675254036 -43.915510248247955 -126.597843495158415
72.169874848908378 -84.281233736693920 -118.290647304247869
-36.127679075708507 -47.804806443130552 -139.936515169318199
-108.989023309131653 -18.609573573772408 -144.239656426698502
44.220181590752645 -74.834597610387533 -133.052208553233982
76.991863571558355 -87.181960301532357 -125.165707871150332
-39.909198656300909 -41.093058187978386 -137.648030380906221
77.095504682684691 -90.626458144863733 -129.175003296505736
79.291705167052967 -84.976946683624945 -133.150143974988623
41.966791335987040 -72.552825807669876 -134.139313221895662
61.046635529978786 -82.611124367674762 -134.658631747563135
41.963208560923505 -74.660555163550384 -130.631164175283061
-114.103925701931203 -21.240845507003840 -150.827593955676519
64.138953709740974 -80.193399872769447 -131.847848029030814
-39.584485283142385 -44.266763907613878 -137.037027804492283
68.685679601133728 -84.587295104848977 -134.535298757344094
63.569790761654787 -81.783059642261904 -130.729957865543810
80.276446858902247 -89.692625977863514 -133.260861507326069
45.589784931613508 -77.788455482333987 -143.780006009191339
-35.097344733666731 -50.899755131932061 -150.793146619945077
-30.436621796597361 -50.509006394620002 -154.209132817692250
-23.934930883140119 -55.604348536389416 -148.128199906152048
-110.339429263417287 -20.894054464249194 -159.353607502733013
83.372375371885482 -90.843131342812953 -145.346954598654605
-15.531214573021778 -52.580024142956958 -155.775386118151260
63.502541869585727 -82.868233773273630 -148.316918914558357
-26.375770986474883 -51.199529568655244 -154.089891217500451
42.146438970362539 -75.892079911662734 -152.613617517203664
-13.208317030702798 -56.470683465272280 -156.179610058519813
-16.779740754203242 -51.569579365715242 -161.981997423042316
-18.263984034909392 -49.353333418333079 -167.779078218262924
43.440065411230890 -73.582684742075188 -159.845436664109542
32.754147657819715 -72.493503162442408 -153.017682863277713
40.414065862802104 -74.116072141367965 -158.523058913701476
95.066356766508378 -93.824934284600701 -163.774768796551569
-22.236965902212269 -51.738278066972292 -178.142721897693747
30.484275926319270 -71.886464128054484 -174.480905456389763
-15.134560368217148 -51.724185628002573 -181.865143990279847
132.675560226115635 -107.853341167813568 -163.636308075912694
26.976676318299269 -73.326065732899053 -171.498511576127868
145.002039501066690 -107.630858555517207 -164.762283287497553
-24.943898568536120 -56.592006163405053 -185.837059427035967
28.820334046008981 -69.819380457840140 -170.251468985043829
98.550023153439028 -97.574908049363799 -169.022899294736987
100.377655809417305 -92.511695761425216 -175.105345391616368
25.388122460993195 -74.764852799648224 -184.000212816051544
21.857480598594734 -64.770113239569326 -181.508677552314225
-14.433163509264901 -57.313188144244606 -192.467653467965704
-17.096979047501829 -58.215556253543923 -200.602957158841974
-14.229278507490914 -56.414570852803635 -190.182497915227856
132.536789176539003 -109.391284517051716 -175.341659890374046
-22.312345109542399 -57.101945798986641 -193.778483937731693
-7.560474764957387 -59.260493789658632 -199.297872598476090
127.520863308659116 -108.394158646938806 -182.812733035440402
106.619828405253017 -99.860507378469251 -186.058068913669501
-14.584041880112853 -58.489024215309968 -204.383042621704988
108.378290779152152 -101.317525726580286 -187.201701843858530
98.774206183109371 -101.457758175229216 -183.309462326060498
155.366792146126613 -115.613490665827882 -185.804774442720344
22.292421963404344 -70.908334185306558 -199.412943144981654
-12.756411581996037 -58.987573203071918 -203.259997937172159
134.360543358249004 -109.438236454324667 -191.787272228858512
128.324844317612417 -105.737828925930984 -194.944605003113139
18.705667756200704 -70.630605102048690 -207.040760232732879
11.698675590364530 -65.186565266531304 -205.214928016916161
14.348715955318532 -66.672847923332029 -206.309819052883626
133.346742696069271 -105.998576955818180 -192.603202367653154
16.443751639894046 -68.015671030655881 -213.053326110938912
11.957667932609851 -63.040234111670230 -215.147231416218375
-16.619767059681177 -59.171478476835588 -214.382138657693247
15.752346719597504 -64.583550743549125 -211.930884786729166
-9.157743464361413 -58.893758830477729 -212.856185980713377
11.071656046969160 -65.631675731845888 -216.361702461542308
19.611672028006318 -72.070620904747415 -211.594122032587734
-8.994658066546901 -55.127540890618363 -224.122441275341203
4.422209923419345 -59.366142778967763 -221.542009395237073
-10.161959571305577 -62.788504102451711 -223.875170957789749
8.233507398412705 -63.955883568951506 -228.068980512231860
150.982575536910247 -115.817002031505524 -211.558585848382620
-73.720555742585418 -34.393054344107341 -229.819168614948353
128.007178616831595 -110.222239094877381 -212.826242209971497
128.855329476138934 -106.814375933084818 -211.779786682716633
9.911354586712150 -65.770906564700624 -226.157562435511466
-5.630999707791894 -61.573459774580456 -236.331139786732194
149.221734941387069 -116.359479617139826 -215.946100682097182
-81.673607400184565 -35.287375689341914 -230.291627349847346
3.456102554603341 -65.480580309926751 -227.209088318017450
1.239839908285532 -62.648414429820718 -224.802861853653440
-66.491522041294729 -36.967416117669259 -238.382555513933198
1.225840940740753 -66.128676360852211 -236.515709939970037
16.362037491524255 -66.924943537005163 -227.503845867755672
120.667331496118166 -107.727051034675441 -223.616932817505216
6.602397426352965 -66.125483909237090 -238.132553196782141
-0.721729359396242 -65.292944820219105 -233.824041844470827
-59.776679204131426 -44.360465541931099 -246.310661438805880
151.671005133450251 -115.965936949726725 -224.563165437843992
14.843174581315957 -69.654328277004680 -245.095028256199271
162.234493927339486 -118.658035380655875 -224.123641048608306
-7.044458503872210 -64.034895404791669 -244.581713823444971
157.512831665827093 -118.573274973623043 -224.676821553994529
154.696303780489984 -117.242364386773133 -232.150154949863207
-50.196008501955269 -46.197536114124240 -252.442515155660402
-54.850455861437851 -42.977949805087157 -250.445600306311377
-49.231962876988426 -45.877815156552593 -251.633614764493444
-44.943741799824345 -48.218923554834547 -255.608150162952910
149.344241241186751 -115.892078289634838 -230.603334970542249
149.681722635332392 -119.404889016536373 -234.784762330503014
17.132393258988152 -67.171014996328950 -249.854243521979782
145.374946630870966 -115.805751549984620 -233.649768085163430
-14.151450876900192 -57.644902207205966 -254.801587883867825
164.578349650818552 -117.596625879891619 -236.388227388529884
160.325897921634464 -122.449443641052923 -233.627335358139561
81.179433265388440 -91.277709484024484 -242.617499278907928
163.368861628880893 -122.708776154067493 -244.928930310025947
84.257237879504572 -94.595396705929303 -250.020009010071163
-36.197381135685369 -52.288030166651396 -258.962222750320052
-15.564344870288526 -55.395927937134473 -260.188608899654412
153.823854955467311 -118.193995436338824 -248.069814217489608
97.312467375156345 -104.591221049538888 -251.216712252219651
-32.562683044204960 -52.570586145645180 -261.212826608728733
104.885465581265194 -95.105161603037857 -250.727105194853522
148.124301297121292 -121.525485258698239 -251.375842503728705
102.784035603298733 -101.897178304510589 -249.856177109615629
162.640167704251041 -120.033034281818473 -245.028265688783051
111.284675461661678 -102.925961926536885 -253.985113629686253
149.519977967893396 -115.466820274681879 -252.530984817358075
153.104366868102716 -120.431655323345154 -249.695352719904434
160.447793349298252 -122.073092373668700 -249.208926073115180
158.130145009317289 -122.283678370431488 -247.917193131884318
160.503717869609204 -121.494197565256371 -251.217171759666400
160.464824236436016 -120.723348563334341 -248.238990697560411
-18.819195319288433 -56.748298398790794 -269.415678496197245
146.518729257296343 -113.071451250333737 -250.851340196999814
146.877024206886801 -117.904980309876322 -271.135997142850613
-17.068423171793423 -58.230362771764355 -280.401258355973880
17.195900876983373 -69.428056708212779 -274.946485556747632
124.125564539720031 -110.717732325492264 -273.633864014596327
134.893427195439585 -112.263380183598031 -274.373052154622030
132.666595485154346 -113.621616234693093 -276.899069173913063
125.843088395177389 -109.456876487323356 -275.105450080444143
113.863689992450432 -107.197521471849939 -280.224063123922178
104.315389436854204 -105.937835733275875 -276.698099149976144
-0.660130802521977 -62.661523371724542 -294.919960250996269
86.940368520532317 -95.728260041949852 -283.195525283027735
146.957743525285935 -116.948405888292115 -275.367929875017978
102.517219608984206 -101.815635105513692 -282.334542172272847
127.584914945668302 -113.477777593089485 -280.705613150221609
-1.375482300184487 -62.544481085851388 -290.680943913602164
110.346440497518032 -109.975283882735980 -279.496993525000221
4.565981831998940 -67.194902601832922 -294.915408844391948
141.091641179604494 -116.031421818357117 -276.354253072139556
151.151835183734931 -118.861277883452544 -282.557814748762098
157.017366010716785 -122.679366463429389 -300.116913272320517
154.083165506607486 -121.964632621916110 -298.073477282747547
-58.161177539608062 -31.613355945353220 -32.223596984820773
-34.920531057509486 -42.332003628611247 -40.532380285016096
-41.575923377599743 -39.083344187649089 -42.417857188021124
30.612803763074183 -64.185630464412284 -45.879015087446120
0.286180308110367 -58.169312957101681 -63.522556543182972
-98.655400289236866 -20.368630951905132 -80.214334265725213
-76.224980297185994 -33.811332025733122 -78.696864515637174
12.622953673027034 -61.263704286068304 -74.579065630650433
84.134459271674274 -83.003742942872606 -79.436415697640399
30.478564814013524 -67.829449990650289 -80.899604930330426
-67.498404051114520 -33.968734384188011 -89.908631745152391
-66.750256041898112 -31.196792262058480 -94.584626459922234
-59.945633018125278 -38.497353316649665 -95.153315866944808
46.083660845294389 -74.969350355882312 -86.944129383950084
-72.824864625377060 -35.613490068833201 -98.104499208192721
-48.155047575397063 -37.505820915254148 -104.660549359221562
-72.201788309647981 -30.514721960207211 -103.827659346746032
49.446682894933687 -77.176076641254667 -92.263330490933583
-55.040681085132675 -36.272029456436215 -100.558846517282788
-50.525189991485092 -38.341970958219477 -105.290545158443933
-105.893295369047237 -23.423388480297263 -112.872877145457068
54.198338350426837 -77.221257732440222 -94.743945806461042
-112.016741506850266 -19.028815408651710 -113.478518768822312
66.824563966643041 -79.589322966969220 -95.822988205582718
-57.976538621209500 -35.043559081024668 -112.727852020291934
-53.641955434548478 -40.900016867680435 -107.670404319489776
-94.538266108975108 -26.614498015526522 -115.025938141284769
-87.349208023485886 -29.016083106414456 -117.127576016799281
-59.189380770103789 -37.418977200714991 -112.211896401419381
64.559691582974054 -80.763766079857916 -105.921373374811921
64.886588780039133 -82.503038970011175 -109.648287267186859
69.148567795826423 -82.098127458982233 -112.765628380416331
82.315618062645825 -83.141693339023675 -111.772589790292130
-106.890730145913381 -26.234812348616231 -128.768283651831695
77.076185777273651 -83.784423619359828 -112.685781378702174
64.319674688544410 -85.514328420094728 -115.820544973156672
-110.056448287433511 -21.186347995109585 -128.901413432327701
48.663714012673580 -83.775963713935766 -113.952889208294124
-111.285316364953417 -16.723124965913570 -144.789780791059059
-108.646665468025617 -19.602290327677991 -142.348718439857691
-106.453757583638776 -20.594146857399977 -138.466141154189330
82.651940947504372 -88.553025431279309 -130.758486855101779
39.233433833256939 -73.940963248973134 -139.262974053704568
68.933919650778236 -86.584119785904349 -138.723990778147083
60.729245595240741 -81.796517673416886 -144.229039676251205
61.069726081657222 -83.312350966854098 -143.046679146653105
46.800073180037245 -77.335772309912699 -140.257942403148036
40.701799806471143 -70.764970387724432 -143.590039738187187
-19.891880395031052 -53.134334806717149 -150.017317808827869
82.555577739864361 -92.357871625789869 -135.622156209024610
37.965764099141524 -75.152533796380339 -144.773382857066537
42.576278247713233 -81.431093050158879 -144.355126148506145
35.037707792771528 -74.852457360939738 -152.642457484605018
-28.469602534270443 -48.668456422245818 -166.582218750055659
42.876595543828756 -75.268978108157242 -148.100510131005450
88.627819781169151 -95.855431673063862 -141.510497215573594
37.877217080021993 -77.039172975685773 -154.233632794869806
-27.905182088605073 -48.480186691151566 -152.755106971818577
90.802371594903960 -88.080762661102099 -155.531530566895128
-24.326194244695202 -50.073172159974931 -161.906637802218796
97.436413530446330 -98.475783536522599 -161.131968709682127
91.739062807467135 -93.150703544053655 -155.750296654580268
-23.994100339875658 -52.787167477600121 -169.006706928907931
-28.012428360909642 -53.069598182332101 -172.232008261429513
99.911251430825800 -94.579002876517862 -165.042863221262110
130.325624547288271 -109.650543933841647 -162.548337940851411
17.519975768517476 -67.945351760042996 -189.258160161993658
23.651804415218123 -71.018679380033689 -180.810401849034605
107.219201689910008 -98.700773510838843 -177.607648722236519
132.103278348416268 -113.248619218924247 -174.669315530718222
94.343807743601147 -97.909749161955247 -173.290172464577410
147.206203570090963 -114.066963721270980 -176.955030794441171
123.733892997389418 -101.897174807437409 -184.413384296979643
124.939534976196924 -104.649230406331213 -185.081372461876640
16.828789180987322 -69.886027718936134 -189.221627690530141
112.541032947849132 -101.738033934648001 -188.084385476469578
108.239778008241828 -104.233165827469762 -189.238004957168329
25.069716675215354 -69.263900348190901 -193.802266701058386
143.480714334082563 -115.692244280384514 -184.559505770619381
124.648612120319981 -105.024950519364694 -193.800514420371144
116.486243223659088 -106.196373133788285 -194.029618264885613
-16.622902260112411 -54.802210285199301 -205.416116301910023
151.667245035244548 -116.980738621740016 -189.166574032073584
-10.063541010791386 -60.745787495771687 -218.007149965371383
-11.993946671572562 -57.961735071968022 -217.764861589457155
15.119709472377984 -71.969537911384151 -208.945706719048104
5.646928114384203 -65.192944522728226 -217.573589457389772
159.094688603124041 -122.027101157168190 -195.421840110777509
148.781593106168827 -119.297002142966875 -199.064190983873431
89.832201992099414 -95.440210917671607 -210.944495029241580
94.412673567450483 -95.449697393703815 -214.926973172895060
152.737118812903532 -117.294940579148474 -211.204801714498785
100.431708082108585 -100.883138702023047 -210.583247430442697
11.511716653880782 -68.968014404193411 -214.664598289470916
121.450772437924471 -104.914171032914908 -211.692475834829793
135.046531047476208 -110.784318476779475 -211.965533604394437
4.664678941840194 -63.722969361895686 -222.735394658626802
127.035778145928859 -110.302468128120623 -213.354294107656671
118.807088985147615 -101.652890651781362 -213.035162236761437
109.488035119176388 -100.364610246076865 -215.414720808348903
-0.055292876139220 -68.689880043486980 -229.624193995049893
102.156774489526569 -101.658454826212761 -221.867216004244142
150.254724528077531 -122.127166362912121 -208.853541927466154
139.013076845329920 -113.941872162384911 -214.183083920107890
156.584090738249415 -119.750546029810039 -210.758580513406059
8.966866364786220 -67.513198831790604 -227.556023815041328
10.089261119120316 -67.469739345166658 -233.387983401334566
-71.300680546771943 -36.268611102467062 -234.860402356452994
2.645512694844122 -62.888368167061564 -231.206796535800123
136.525457137816545 -112.738993834368998 -223.939743565380212
14.730725804574490 -70.744168433934988 -229.382047985491198
-67.609597214462553 -39.618458891551583 -236.911531655069155
-67.741345711623396 -39.677217739201311 -241.997458058466520
127.953379143115527 -110.802547851013728 -221.004396875402250
150.311534785130732 -114.535332755944708 -214.926749316990424
108.887705849884625 -104.005124233825043 -223.460209104058833
118.046172947586413 -110.286999009110289 -225.027389027375932
155.497617668907083 -120.549624321145558 -220.585081132377724
152.726623658688425 -117.900189842534502 -221.830774946969171
138.762900418794118 -116.993564896243640 -221.442542132382044
14.006268417194654 -70.170135215737531 -235.677061243331082
7.434618898120114 -67.704896539100133 -241.528210604321515
153.090066234611186 -120.184836523726375 -226.647966173847180
-2.259039769925856 -62.613153241447904 -240.350466508352497
0.036167306623753 -63.501797920801039 -238.559754981577697
152.742324940515005 -118.753623762117257 -224.920892492876135
-11.597947927831935 -56.457685051325811 -245.598844396501676
-43.722069552454641 -46.712022937804889 -251.937905630261213
-43.627429463484759 -46.758859601273606 -250.956545982531424
18.633996656201226 -70.172383328146410 -246.983047763492749
-42.133837245353781 -51.032777039249638 -255.334751853830511
154.066850571818918 -122.614650306884542 -235.893588112936555
152.733932198327750 -118.588904854087161 -233.622555285323671
155.259350210564719 -116.229617644787297 -235.679606621173065
-47.945266570118989 -47.980796519401487 -255.559560541919865
89.962052375227088 -97.982592456219393 -245.330006540451080
120.851755800434901 -108.659554932611627 -243.758082892556928
104.539233836994768 -97.866822843966190 -245.067059027717534
-19.503513765578589 -54.369143744178018 -261.648596359861529
-35.670828040316948 -54.213987184762438 -256.619288567773367
97.763386042743903 -102.277739329014167 -246.550211370388155
90.312764694267543 -101.043420810164505 -243.907079049364256
-37.392478334034642 -47.849543227631969 -260.549239671334817
-35.941860624186603 -53.961925327401005 -262.226572765128367
151.150740648849705 -113.891402534356047 -244.588110726867512
-24.171139785710238 -56.629718692854283 -263.664653742864346
139.826437663229001 -111.977126696728760 -251.997033761561596
110.980610459266202 -105.149936186146860 -252.825596829295847
132.894118894641849 -113.560259099770363 -250.636962859512977
-24.707682234019956 -56.899655949233392 -267.220468777257565
122.770682094997639 -110.157399361267409 -252.647412573717389
14.524968819186320 -71.540322052788412 -258.432885974928695
-13.804616852183752 -57.562379634028908 -274.624102399529420
11.654030863030378 -65.303192877306969 -266.336519385990130
-11.753176134090772 -59.801271082510702 -283.203834084483731
150.737138495144904 -117.687496652783025 -268.946707957577871
16.062854450630105 -73.052321430923058 -280.826899806854044
151.141922771800751 -116.140640739133374 -269.088136367512163
123.253903262687416 -108.185006286413582 -274.322883380176165
159.129581191292516 -116.702023452185699 -272.184912787175620
114.348469530412572 -106.961282972265039 -277.173613616889440
105.017856449009301 -103.360514804873745 -280.646763517221359
12.639455309095432 -72.270723374382001 -285.797907778332331
108.954286118911526 -103.686784269141413 -279.963291956599278
115.154983993144853 -109.349962163050279 -275.037092887736094
118.960495274269661 -111.760043871194398 -281.015858272133414
136.399864052387386 -115.038897795424319 -277.613378225800489
124.760806391686472 -113.135696199613221 -280.353597903044601
156.378323758366832 -117.266213096495306 -275.980158599034212
144.364213142979793 -119.635333812375947 -279.643352747130791
153.980801451519994 -123.907476481068343 -287.615190574611347
152.745141015766649 -123.162720469037595 -297.085011370912184
155.911725778752839 -123.688361956291772 -286.770370862631239
141.926390933674952 -116.601058060565862 -297.948187632336897
149.596176100219509 -119.159717540028510 -300.403934788349602
-48.476680036106366 -36.314601128600998 -15.062606316941226
