# This PCD file was generated using the MATLAB® pcwrite function
# from Computer Vision Toolbox®.
# .PCD v.7 - Point Cloud Data file format
VERSION .7
FIELDS x y z
SIZE 8 8 8
TYPE F F F
COUNT 1 1 1
WIDTH 787
HEIGHT 1
VIEWPOINT 0 0 0 1 0 0 0
POINTS 787
DATA ascii
32.769216831934301 -80.544040915602281 -153.161979132252412
25.636829583931540 -81.104213384973406 -156.272366546882495
-46.745965229219095 -80.995143329563774 -158.361478884967198
-41.312957663010394 -80.464736821601591 -159.253371445082195
28.491221754973658 -79.874530710434883 -157.323671172158186
21.941227053234591 -77.841905350993741 -161.421941898669104
-37.036703560458903 -79.031212008666330 -162.880309858580858
-43.953335021700028 -79.235055997747580 -163.219347496644815
-1.805097676558781 -79.699304614333457 -167.869001730661211
23.575797261249356 -80.644415327831126 -163.379374459981392
-61.371246059975505 -79.646525779719298 -167.790693703596645
26.020553860873399 -81.004067803629823 -166.231746388520804
-64.111839467737099 -79.321945076856551 -170.788901060857654
20.723519663322488 -80.405098492389371 -173.080630976595302
-10.901681562703132 -80.384651152602544 -170.941372067928569
-57.003380601586386 -81.272989628597898 -172.900110389735715
-5.281153145944700 -79.777415462749929 -173.344498378320168
-39.021864524886809 -79.715062710857055 -168.360673904682073
-14.553053432592918 -81.197927976121434 -173.438499680109601
23.524126130158191 -78.984350713850787 -172.426617261016531
-10.860045485340081 -79.445109288652446 -172.062670032319403
-27.697403129590171 -80.448821199865336 -179.664586105242364
-55.950927892637381 -79.689665382905886 -176.925170972416566
-35.488869003578927 -81.190414884315032 -173.979529142136840
-63.079258471493048 -81.465245391800252 -177.113826413293907
-9.339020775374976 -79.862900200101535 -177.312997924415328
-31.857232859979931 -80.821136906791494 -177.982509748172248
19.754398178220040 -79.624715565283026 -179.394504081272373
-17.527506667850773 -79.353657981803266 -183.000613137856959
-22.599677536517959 -80.493078957956783 -186.411128110517950
-55.909122598105114 -80.459458256129793 -185.099309666009077
-31.009765545818581 -80.398948804721698 -184.663413242959166
20.958997930853556 -80.381374944380298 -183.363408391118753
-49.404596832501696 -81.410201090169977 -183.138290102081129
-49.085184693845449 -78.344232043343254 -187.600707634489197
19.089066511734874 -80.282435284316449 -187.424585553520586
-152.109660167628391 -79.227083034810789 -186.367522176729324
-29.762482117561873 -82.014429929901311 -192.165347978644746
-31.250103445801670 -80.732488793577190 -190.614358386145710
-46.308782436587151 -79.530698217745453 -191.635211832966064
-55.859350676804496 -80.890018320136022 -187.353377274752859
-51.542125701516937 -77.349573602803247 -189.419093451688212
-41.108792108398134 -80.106555233676659 -193.612671138153075
-150.510039345698459 -82.890555257650647 -196.054658926655776
15.509599497005880 -78.435863329101423 -189.003916009671258
-21.827936480485704 -83.452337494887672 -194.194870418300724
-151.795042950503159 -82.740927326388771 -196.757625649922346
-49.668241955271029 -80.930674554044103 -194.213750178584860
-42.924141942319807 -79.343852055635068 -197.215271502391971
-140.796273863125663 -82.110520826630605 -198.098839735817393
-46.427642386853734 -79.495759759978554 -195.982367439844751
-17.212532663867165 -79.551270704995787 -197.322987162215441
-154.771957907915919 -80.554275091870011 -197.155576053096837
-149.819404319344983 -80.895308450419790 -199.730173655120069
-35.932195205116329 -80.851776395752069 -200.740798138529215
-20.777279474783555 -80.778733032768372 -200.456541077011025
-17.228430162151184 -80.715241756710796 -200.780868744061792
-142.147267994582535 -82.090256375784051 -202.489385165394566
-53.345063625180345 -77.604393535090935 -201.824726074370517
-22.105757617843551 -80.786318206457523 -199.482590598231639
-52.914232429558112 -80.035751011702985 -204.394557436042334
-43.699551253251585 -79.886523587007289 -201.981318225589462
-59.005502373765665 -78.439577691956273 -204.049063357344863
-18.588080965502357 -79.908079423380229 -207.861971702567274
-61.477730367330821 -78.629807487431563 -205.483153835982620
-60.877586597519326 -80.501003627204483 -206.616883265709419
-149.216284057986400 -79.509117654814503 -211.348879286578466
10.207504964070068 -79.404675372404057 -203.827472164982311
-54.795864732908186 -79.718423166702848 -206.398271994574742
-59.015618179708596 -81.383129193546466 -208.716076410800184
-31.665329607881134 -80.899325315319771 -207.227667258785686
-17.724248918164449 -81.208385530696063 -204.084277917371310
-74.554300599577445 -82.296453956575576 -207.270230797057621
15.269884230640677 -80.065341717534977 -207.621468133384610
-64.586208592537020 -80.809028036002331 -210.987454578650414
-38.570467039413998 -79.239655910881254 -211.070305175886944
-79.167156805568140 -79.195487323118385 -210.947983531113010
-150.202918688821569 -79.024500865950074 -213.189568626927269
-148.013957453322575 -79.951197915986441 -213.041465704330648
-146.583479877320144 -83.317678365116407 -210.389086469874940
-30.750472775479437 -82.541035786942629 -210.009319074888339
9.637191619647780 -80.105778341036796 -215.436355883976034
-65.327409168864733 -81.894631551905633 -211.728009726720614
15.360681765147980 -83.532964519974698 -209.237611500361595
-71.758106353498363 -80.479177917404954 -214.444388998730147
-26.890079634958227 -81.289382637191721 -213.444123195643471
-75.686297478408960 -80.428687711091015 -212.254293226234040
-85.703211583484773 -81.876599345244969 -216.384454707418655
-15.472122890458508 -80.335547502911254 -207.679531359972088
-79.855990974491704 -80.964697244873449 -215.843989022702942
-6.794394885124255 -81.446637806674559 -220.798432983091942
-149.927940057349900 -80.193075819307111 -219.804866397068650
-22.629805099564678 -79.098175037830714 -220.081387946822929
-21.883023414394387 -77.379195221441307 -219.557752434383445
11.245303163744147 -81.736996203256268 -220.283398068781281
9.405818054799290 -80.206552982362709 -218.230752301150176
16.077088994224660 -80.252807535809524 -219.582832373127616
-150.123980683077434 -82.566636119853356 -224.151939238565518
-3.120681442526674 -79.793180030874694 -224.291777053430593
-7.797236385935435 -80.798148355155433 -221.148079777461362
-156.194894853271933 -80.985159209695581 -228.050531177887564
6.570710361204114 -80.258155445728747 -229.347392323554686
10.707893378635269 -80.471011952653399 -226.209915448998402
-147.596798278467588 -82.684090169491114 -227.630281710042198
-150.485109737650646 -76.892377372818189 -228.689985270029126
-4.099646436013849 -81.793271155783458 -225.702997335560440
17.492810991674538 -80.314833074323175 -230.795965355336676
-137.660840375062776 -80.608610844884211 -229.653954155256372
-135.561353090049181 -81.222806739720639 -230.942296506715110
17.984160975592417 -80.534068329638671 -232.212371759878437
10.428319306416242 -81.948982652158691 -233.431774893278686
-155.354888790720679 -79.091960275056351 -232.347234917088343
12.498764846805372 -80.076677356497285 -231.505853434067745
1.539025231935483 -79.334639063634413 -231.483946300655532
-146.735756230891496 -82.237657351258790 -235.005800197973855
-1.030067169770270 -79.319285355776245 -229.852814120684002
8.472313852127684 -81.299867486205002 -237.981028370446268
16.827532055435306 -79.261394454962627 -236.672097137378358
-30.804426207930177 -80.634628905527535 -239.519926218772468
-146.771587732986973 -80.177791852539869 -239.496312793555262
-36.538377663923541 -79.151437471105510 -240.263939142696614
-25.119201412640791 -79.168805965185626 -241.918340750937887
-43.638513609116217 -77.851522104977576 -239.711839648679927
-45.519491671999091 -80.014606771083606 -242.782329796727140
-31.253042566569960 -79.214037668266982 -241.130561749472037
19.740156348978228 -79.547834078516203 -247.650206238690231
-45.791689499391495 -81.183070404699336 -246.092129919252784
11.256918283846645 -81.220529264483375 -243.864091789761602
-50.493905408309303 -79.382953311511670 -245.857682470281276
9.956358273894814 -79.549118805958216 -240.454808504779663
11.300615733200026 -80.829251651089706 -247.490848697090001
-48.648324256039302 -81.792957003325341 -246.246871747460006
-42.552199097906055 -81.015551490567049 -246.242765016234699
16.771799655946573 -78.406031053368878 -239.908119819628638
-54.826196837377609 -79.364714759173154 -246.809529132602648
21.395084554994003 -80.911056774051431 -247.743482687009077
8.400838655436381 -79.929035350896825 -248.039517950231243
-146.338946099067954 -78.228255642898716 -250.989773356117041
0.341319003632279 -79.994836326602694 -246.731024045309624
5.982979713331453 -79.950574956940272 -246.587252530569316
17.838336347147198 -79.681640013743475 -247.148720991190061
-0.849829338314272 -81.967188050555109 -249.973281627258672
11.703970022086153 -81.794643224440748 -250.356364674468864
-152.796427306097371 -80.264784656349633 -253.176374169692423
-135.172675474474033 -81.913141106895054 -261.883708275463846
-149.039900128269466 -82.391304339274356 -260.530440133401953
-142.722087079618490 -80.456414963839691 -260.391346266663902
-153.697102551166751 -81.364501607536994 -263.723841777326413
-147.720718542515385 -80.059369009567533 -263.112398235295245
17.740334869300490 -77.207326167595582 -268.459885537029606
-10.899657502534090 -80.569081908096180 -265.792229026073983
-12.246332185168924 -75.685189163841187 -272.946176440831039
-151.183883304908306 -79.521038070168260 -270.313079280188560
-149.643441374057687 -80.666098815630377 -269.993556966700396
-9.400976662260916 -78.496389013884581 -275.641819081895449
-5.160270722421551 -79.954179369099805 -274.399390178281976
-151.451079186255726 -79.026984876318281 -276.821205831423924
-145.779912520914877 -80.390597320737029 -276.974766761497790
-152.098453374335747 -83.069774832788539 -277.577726733990858
-151.767646777755431 -80.234887316520854 -283.652088702794742
-156.563136798555178 -79.612226432232205 -286.121490568975503
-149.802328980794556 -81.935258136594186 -287.142629357284022
-136.322181019981457 -81.224742453222703 -289.067677369100181
-152.755372870068044 -83.864403298883076 -290.523420042229191
-152.395055891641562 -81.198933533399412 -290.365121853961284
-147.764479268725097 -84.730869161111826 -291.294084290133583
-149.041181283335618 -79.378736868331458 -295.557096980195240
-151.290569444891446 -80.979891311353896 -298.917758709567636
-150.017343369327534 -79.588165812123975 -295.641943427355386
-153.468471045914669 -82.357973107827505 -298.455045907932572
-151.745685139458800 -80.189200987585949 -300.285848857360236
-147.480285950040297 -80.836173063342059 -301.584546657016460
-150.912721321743845 -81.906587561667237 -302.996612368960484
-51.560953583143885 -77.744148301450167 -61.630210250325497
-58.521287719297760 -77.434277055938864 -62.040493967941778
-62.697434770234324 -79.426033967681661 -62.940605592116135
-44.803604928192854 -77.465183015142671 -62.574625579680962
-66.041066101216259 -76.272840496751570 -62.410478109305977
-46.988719894972277 -78.230530128040044 -64.215743993452605
-69.217265679022532 -78.952050434464951 -63.767288499858815
-53.198065603332964 -79.686853244597188 -62.942893166115503
-43.538407441466745 -77.907592941249334 -65.338484033199236
-40.385612783392787 -79.262737642118054 -62.906846275833423
-32.200557632667156 -78.569427275902655 -67.714247768169756
-74.693070622299032 -78.374724888751288 -63.245750134074449
-33.080373366285713 -77.462047203506117 -66.751476418215631
-76.518275279072881 -80.640912537667234 -67.252551302448168
-35.037078761108219 -78.262118546371013 -69.274581245756337
-28.123175242614479 -77.932278110596400 -74.731582789162715
-28.674144944955515 -79.100143117529981 -71.541900983867038
-28.279506910991358 -80.015519317488781 -79.108789301067461
-51.264967658192319 -78.304270615315247 -95.231926715301924
-88.764863061872575 -81.780737895933413 -95.197522118727122
-63.137176114065085 -78.562617637788307 -97.493333758344477
-87.053214484727164 -81.270479227282806 -101.666197946231534
47.152800567117183 -79.896865975072103 -105.609182967960635
-80.015295252607416 -80.677516928047766 -109.249348438044635
42.523499805485855 -78.943773107593714 -110.750014227680367
38.784588589677831 -79.347685958963098 -111.566469258135484
-88.996251294288754 -78.543421049242880 -110.463044241557355
41.083274510352027 -79.354736570286050 -113.806446273111220
35.954200645412641 -77.553471612341156 -117.341074195035148
45.182518541467438 -78.269994749577805 -113.522838955607199
39.306419251636349 -80.918097314462486 -118.657893735391326
41.903205983493223 -80.075687158599337 -119.986021005054610
41.847259336156391 -79.245028090150001 -125.275640404311133
38.194720037080607 -79.313040608227340 -124.010923177963178
38.789213412766244 -75.737998923033842 -132.392973919396042
33.907195830322834 -78.797573840273373 -132.180523826190807
31.738401705740017 -80.621121458916022 -132.000181049024434
25.539524506552929 -81.265224385988660 -137.734648924111383
29.550362815101316 -78.073287826192526 -141.330968127483487
36.250848085904487 -79.231317307137800 -133.540193611557868
35.624462997731968 -78.421300541783168 -138.771775037832867
30.303582219011972 -80.398578564638527 -138.024048308310569
32.050414804324681 -80.221617545422419 -142.954268360895838
24.957632715166483 -78.277502509641636 -149.916636831037749
-45.985765978260204 -79.725567707286515 -145.633579534502871
-41.694579008975069 -79.402893517123246 -152.636569479600695
24.175648558887215 -80.334045106874456 -153.011330869228232
30.365865092943253 -77.522474360209202 -150.408675016019913
-53.374446432614320 -78.100466612727075 -148.430762724683717
-48.422974316184536 -80.474195033344586 -151.367290237611257
25.177864881298770 -80.472500284342217 -152.800325529868843
29.902011852210066 -80.553122077839276 -154.641666191020875
-48.660467306384916 -78.431940811728595 -156.289925540708708
22.616638053272190 -78.789590000675673 -167.407630947050166
-65.010748362253622 -78.063535843986429 -157.196123382522615
-39.790579236662523 -80.067068314075854 -157.875181935378322
26.313765084048352 -75.814486015934577 -160.891161109693087
-67.642445551072697 -79.276704292199298 -165.204234037254736
-64.122950139650982 -80.047280586399125 -163.743473106245375
-44.579262376549053 -80.206128848975354 -157.594998229065510
-37.725909404831370 -78.292346564591583 -167.420695628761706
29.695796264789635 -78.436086944787817 -157.990231958334590
29.903450790374173 -82.191523370399253 -161.183291517484832
-0.628164874933638 -78.958622919301789 -163.661047203611218
-35.251652538023023 -78.779839149865907 -165.517047369879350
-5.631269384377759 -79.211624063374444 -165.831452804451771
28.017863444394546 -77.204337254600830 -162.010097408769013
-4.274065724808196 -79.352667471907978 -168.377506748083050
-60.401323026267377 -79.167948450742159 -166.937767107606504
-40.690516119217961 -77.681481025851042 -166.040915609148470
25.480138957111155 -76.041633021593327 -164.761047215612962
-37.788358869761666 -77.779316561720677 -169.616989133980326
-31.802655980374354 -80.234451423496807 -168.964872116892309
-37.172201462991907 -81.198648208813850 -173.184085095703580
24.921940676439377 -80.294151116027564 -173.915514486666069
-64.321426495415579 -77.938693737059509 -173.747948143294707
-5.445786046997355 -82.306641773697351 -171.818007172008350
-40.514206895176557 -81.372483722688500 -171.795272040887824
-55.423325695163712 -80.140757724221658 -172.972748486726260
-56.595209839260050 -77.998091920830191 -177.720448610579353
-25.677351310264228 -78.176283256187190 -179.388367169426431
23.926004263673747 -78.722091977311464 -177.413925487716028
-60.699543915898218 -78.442684325785024 -178.837109142796521
-19.552890251237827 -80.393625992404196 -181.303921844537285
-54.241107120076975 -77.196362251824411 -181.192816225396029
-32.292673505824212 -77.935998451812310 -178.924571146569775
-26.555828623143242 -78.553924184551377 -181.870021010973602
-22.993321986438630 -77.835497543287360 -182.065523192847138
-16.385006719775959 -77.953803802196859 -179.509304393479852
23.735990304146480 -79.605994043942758 -180.092180325340792
-27.700558790913419 -77.211019333812743 -184.422015593869560
-51.111680251425625 -79.705031712478686 -186.096534584697565
-34.351025338960682 -78.362453951271448 -179.318732770626326
-27.510405229178090 -77.012517187453568 -183.125475840059607
-54.828353748537495 -80.913038490197096 -183.272384615648036
18.427041563227370 -80.153766390880946 -183.667248903859331
-47.000250523678588 -80.244590333228814 -189.259112276498769
-30.835175016521703 -81.012202745102272 -189.099666048627000
-26.244278173785986 -79.274471667004917 -188.662462669016747
-52.286742967984281 -79.569924785486691 -187.241769809341775
-41.590627160354927 -80.268717841696827 -193.562285433269494
-30.469796922670355 -78.982188285839101 -190.106810517274226
-46.317319672050004 -76.080776835412223 -190.950125986627313
-47.428200475873325 -77.629583140175527 -197.741925026375071
17.930825771354538 -79.536081689010629 -189.908730684373438
-141.597830541860731 -79.288552207938196 -195.917482384581405
-24.809781478134639 -78.298535079233105 -192.725649739807977
-22.257178359734482 -80.272187026483607 -195.272074214956632
-136.127096672878764 -82.845183369118544 -199.556907484693795
-24.547828467691531 -80.263175370673267 -196.467059612675854
-145.794819618808248 -79.790621151061103 -197.650801181411168
-151.264522730474027 -80.020459463019677 -201.650236724646277
-134.839045486136655 -81.805036725884548 -198.472109419215144
17.481208601596428 -80.594440989394286 -202.298741337489702
-132.960143730442070 -78.087300171801388 -201.504114577624421
17.455050565232476 -80.088784480443337 -200.874769554115090
-20.058530911728454 -80.035859600999146 -199.268471246086222
-19.097263053276436 -77.150692194591741 -197.941987954545453
-39.476488811634624 -77.843450230514989 -200.918262889947272
13.696397638280381 -78.711816192500294 -201.164836781259879
-152.966903392080070 -80.599641884694393 -202.101897343075535
-141.270878989071832 -78.347752791191837 -203.728572896256793
-13.979872264677866 -80.750144737255951 -204.050949473355246
-34.996741079355957 -80.608933903810566 -204.963225476424554
-149.513460591890009 -80.178052583894853 -203.344695195448253
-35.283644868299902 -79.253681704479320 -205.446710813393111
-68.350048782344658 -81.303455002070038 -209.072066096955297
-39.137203223462407 -79.672156136088432 -205.403947978070107
-68.719780174825914 -78.316624474659889 -207.661040708627070
-65.581955949268860 -79.334030478454522 -209.277593134865413
8.253181502454062 -78.232061204025740 -211.466606371902344
15.624987469767810 -81.407209714343992 -209.034042040000486
-82.289201769050436 -82.636562427136298 -211.559453590196114
-30.998105127323754 -76.506358644898441 -213.209722756676911
-27.768909973631210 -78.954200880117455 -210.558489316625099
-37.722504557769639 -80.192724184389306 -210.171686594240271
14.319950945084486 -78.767637998699783 -209.495826689239522
-85.618556764676441 -79.066805453158722 -214.328441928316778
-30.163295825457595 -79.263964147787036 -214.116239317816451
-16.616004862499111 -79.363155629277671 -212.688106237403190
-9.132919002136013 -78.755056240075135 -217.950633369652138
-25.745910422828757 -79.048523654191158 -217.578336485680325
10.680060280908990 -80.303475810485907 -213.819002245818297
-82.061456738751843 -80.098720196464740 -216.298749907230672
-89.439180241860043 -77.942661852800711 -216.260507676398191
-83.377548475355496 -79.029072605117193 -217.463634552181020
15.525947948899301 -78.933760516538840 -214.626675933467425
-146.505387450847479 -80.246820357358303 -217.679409098284481
-9.064373011048431 -77.286986137486366 -216.817094441518833
-6.424099782797235 -78.552168930659192 -216.277989354548538
-10.240314601071034 -78.703736380510165 -221.085313056257149
11.377452842891394 -80.906140400409100 -216.939789433739946
13.684878197004373 -78.193435697346288 -224.979178474200666
-4.292250321915077 -80.078660701651927 -222.862029450067894
8.861180704231543 -79.304783274887839 -226.603363924056225
5.985878666495275 -77.914575518825302 -229.067254845347804
13.329470949512370 -81.313475553235321 -229.005023330958977
-141.434820910441118 -80.891243160805530 -226.769118244061275
0.839132739512294 -79.290591407077301 -227.497706415038834
-5.672313667698489 -78.763884943649273 -226.804837860434048
-135.882164276684932 -76.946797497056153 -226.957893375076623
6.883424753931706 -77.931202235653217 -228.217615091487659
-148.797793025902763 -77.969502153986909 -231.948897499861033
-148.373119732394230 -80.152157209224242 -233.986310057636217
16.955851644034588 -80.218306378940582 -236.984210189118841
8.062228912092003 -76.634307214502599 -230.246375433999987
-5.419833730410851 -80.109744139057966 -231.116571858165230
0.518618239464026 -81.369643397436136 -234.985548139903415
3.811371707263632 -81.393022111187733 -242.701023880479994
-26.867308648811502 -78.051375380153402 -239.272950897963653
-24.170504113090431 -78.032064647494011 -240.135697012260465
-39.540904892689042 -78.148709007340429 -240.064530282336477
-150.203310146092974 -78.604549271655188 -241.949799028313720
-146.885307340103083 -83.021323964374830 -242.017712158052177
-149.886834076291308 -80.362272816175420 -243.110229251604380
-23.984374531391097 -78.005809102979057 -242.758776588269370
9.045536736174867 -76.913297453090323 -244.397984025193011
-29.830558303588433 -78.848363579615096 -242.285853345580961
17.862566328053273 -77.278281459264534 -240.226694839682693
-37.870418003639017 -79.911796063599738 -245.774301513519163
-55.013109792118101 -79.402035319229952 -247.396499405764501
-46.752150851708507 -80.739308915727733 -246.385978448068954
8.049433733678072 -79.534509592219123 -247.327425881080444
-58.723281696787112 -78.627524825892493 -248.635853574077970
-51.595779188662036 -77.140832391954135 -247.240050647817043
-148.443018898179048 -81.127124470629099 -248.640656077993924
-63.589437402914029 -77.116597580668099 -248.624737134804178
-53.230614651842274 -79.883951193908231 -247.791112154586756
21.412937092676728 -78.150428481071927 -249.194425626132642
-5.607884241831840 -75.947074023647858 -249.341404335923329
-4.488411837778465 -80.449479788175807 -250.160007714483527
12.435099206500730 -78.640291164618134 -251.354415526324118
-10.655242613919327 -80.208735383616798 -258.053894136619363
-141.286371844730070 -81.921178462162700 -258.391950116837279
-137.878375235211905 -78.571491389119515 -257.127573807342173
-147.733849256754240 -84.820854225145141 -259.314665929125056
-135.456803851029520 -79.287530533322467 -258.254920835464873
-156.283616345754950 -79.132235208471769 -260.911243373701268
19.009169115883910 -79.980033555962848 -259.861130530944820
-135.304629220616135 -78.055232895818449 -260.086305477742314
-145.521854656959164 -78.094687184553976 -259.914985960246781
-138.252351361439281 -79.967621151773471 -261.766822348001938
19.420842682306017 -79.209364056090962 -261.238012932937636
-12.366292965882032 -80.288289243788640 -261.157630329046754
16.378288167362193 -82.774130287260562 -266.457395563872751
-144.465476082805026 -80.932174387060186 -272.210657757755712
18.356847788131478 -79.354272755491422 -270.948951197664655
-148.365329178015514 -79.416748962231139 -273.116755728408123
13.889914037340816 -78.201575751078167 -279.176568754496145
-0.211870278860843 -79.501611558899597 -278.856214246614286
10.655085720187593 -78.599019389095574 -281.258911996773293
3.138075475436558 -80.442905608115737 -281.264987942291498
-149.188869436464103 -81.213335510559361 -283.936122718917659
2.720920246719558 -80.970095436933576 -283.594155056557781
-154.541261542805159 -80.673845805066861 -284.458449570537880
-143.958297790415202 -79.635261581848326 -285.874326544582459
-142.431381975980827 -79.545207316917327 -287.265916940064301
-32.451591371651318 -79.848088556549797 -289.569398350415952
-137.478683358920136 -79.418330651899851 -289.431809780917376
-31.243835080260666 -78.301504222095346 -290.424727586775816
-19.500617520072467 -79.039585779225916 -291.212885427215099
-150.254418260861058 -80.859136908249155 -292.359654811173584
-139.346175767059151 -79.657867304061611 -293.762576312685439
-19.940064582327935 -79.448426057810309 -290.142117078549177
-142.664158449912208 -79.886722593514179 -291.574900669134365
15.037287788539686 -78.956543111455602 -294.519616657986887
-156.099258748519389 -81.165824771856464 -292.955672596371244
-149.769410472888808 -80.500212140616966 -295.946835592337322
-148.388978416716384 -78.876204033380986 -307.089596284814888
-154.051564165802858 -78.886707228639494 -312.265360483536028
-146.865566393043565 -80.272691707219096 -312.334564382790688
-60.921582219943545 -75.887369873308586 -57.180882295718774
-52.567921135180057 -79.010174389070798 -58.813453642443612
-56.572537419647873 -78.810806239320101 -61.554308881018194
-50.151076007552803 -76.515878921285875 -60.413110703097431
-42.694663114424685 -76.528006091150644 -59.307075952416469
-67.902611410487054 -77.439046953130443 -61.070432421115562
-39.543863914931109 -77.395607424836470 -63.003642262417387
-73.192448853552776 -76.106422204732198 -64.007973475665253
-41.494013649733375 -75.909797482877494 -61.983039505719056
-80.584864739222667 -77.325802772496075 -65.591831416201359
-81.059547568692864 -77.835353512791130 -72.220125135381338
-26.742959308175628 -76.519396122685080 -69.499930620838299
-27.407294343809681 -79.233838024090190 -68.199989392720312
-28.051938853113754 -79.037237546919599 -74.717115740590799
-86.811934552381558 -78.662013701616161 -77.565300062594915
-25.193493503200145 -78.900002065905753 -76.553238264091789
-28.591158980237523 -80.234400335722199 -79.679185376656264
87.130467499425123 -77.935238746874319 -86.006553745318755
-37.753288883958689 -76.845291458576000 -83.089674844940049
84.918607502200302 -79.011397817943916 -83.735606862878413
80.169177940615455 -78.032070179344501 -88.280950730628675
87.474106243851978 -79.667505493107001 -86.817204358401057
74.727520981360428 -75.953453978648270 -88.057127882134552
-88.538410269147960 -78.800931910719768 -85.764079917785324
77.213673735099292 -78.592407264748019 -87.721701473944833
84.367387710045591 -78.562492982948726 -87.708934128612484
86.045660428902636 -76.900081236042212 -90.511247470353567
81.531263148308341 -76.973831974370128 -91.220290128159263
79.571826818345500 -76.662960122402453 -91.194260097292855
85.841496333408273 -78.551113252147445 -89.698466696575323
82.166397320637174 -77.161676586165314 -92.770934827744568
89.277911795497658 -77.948039136031156 -92.015330172122461
-94.972259061480258 -74.897697419695405 -93.697291220606488
-68.080398648976328 -76.067469257952723 -98.052331439024599
51.750799333662108 -75.305773642246649 -97.343732271250232
48.732825668010605 -78.202463759664738 -100.879151591585057
52.569780364293351 -77.988393481664261 -102.337769273987746
46.110348769471067 -79.328687696784669 -103.492607881708125
50.926204002145241 -78.778633598572597 -104.337514076343496
48.077211325792874 -77.476598355458052 -108.672269669175819
44.563457001851120 -77.519339894464551 -106.317132502537021
44.849905934026239 -78.163941597404275 -109.446950741279437
39.121036110644312 -81.000748771350231 -111.081105490720546
-87.357070109219222 -79.376169182134817 -114.373644165327960
42.007800207944420 -77.960002942725083 -113.045381833731597
45.040703548233324 -76.698970208931371 -116.855113420706573
37.806881503997047 -79.153918429266639 -116.006638880419885
46.127670847823744 -78.068104264322884 -112.566386649531921
30.835326096913477 -80.421715725397704 -120.871817325691765
44.160036033187460 -80.299548998802535 -120.542238609274349
30.506103061432079 -78.328016185824836 -131.197197339642344
38.979170017380611 -77.841140041388059 -125.526834964825682
29.348381770931990 -76.071731608720171 -134.989046061051027
24.722121522820771 -76.527066143060594 -139.032339584330316
21.340059159661987 -77.305041079365282 -145.211244180414468
30.496683561754413 -79.304981543006249 -146.019198734598859
27.863264407425447 -77.654998790376339 -145.649917231920369
-53.106903485778460 -77.573032880986815 -143.651056515834085
26.467613479629001 -77.979178834818129 -148.468777233674359
-47.437868184331293 -77.625210662034618 -150.687926251251866
-52.680459277464436 -78.139897315012945 -153.652185200263119
-68.175177610887090 -77.095733130414686 -153.292324115044579
-47.546716058195940 -77.745444820725737 -153.168418327246144
-41.335159377180304 -77.440392004113178 -155.367648397008224
-46.084885342479510 -79.499976110755227 -159.876804875954747
31.208361108800133 -78.877903962268732 -156.341942966340184
24.093294234847100 -77.730369224236526 -156.766413668970642
29.901247432795902 -77.499283925884896 -157.926665150555777
22.692788570800023 -77.525102757400418 -165.499000666079326
-66.823597399469108 -80.005015531980064 -158.512028007320964
-38.172260752616765 -77.530182539193675 -162.884069081235396
-68.944419257148581 -78.673676854024450 -167.688546560015766
-37.284321171787099 -78.398639024593322 -162.271484341828852
0.717241517690788 -77.817871729518089 -163.647164081379486
-46.246898838607635 -77.926554142436245 -157.058105577050185
6.017571375959960 -78.436755742011542 -163.785926670702452
20.437572462141944 -76.910077267871941 -160.826289934681029
-59.617227443781729 -79.726206289513684 -165.379948029017470
30.805317806634577 -79.601383270658246 -163.583034138948193
-63.430682562088677 -77.916819197429760 -169.155308061144780
25.018110305777789 -77.676356289051952 -170.770738886325091
18.185381236223858 -81.287802158586558 -168.528266149415487
-43.773110949286433 -80.994678001206267 -165.606686954061189
-9.351545296639230 -75.942180943202700 -167.701109599525779
-9.076023185393026 -77.944389222122652 -171.255212471086423
-3.491320063722284 -79.453775781949957 -171.791528872433759
-58.190257651526494 -76.906671249101933 -169.411860818704127
109.970291882169278 -76.088525573925281 -171.910556866946621
-61.286507065842088 -77.143000197200166 -169.776576927776802
-0.468936283468921 -76.513734257560600 -170.129167395303199
27.663593198593762 -77.920025264693081 -174.485687970510071
-60.819829723304466 -77.595386074886008 -175.282186906056950
-41.365315569239357 -79.570952163433432 -167.618387011111622
-34.827154394313609 -78.259153280844586 -166.738343164528146
-37.162683012342455 -78.570561888328626 -173.501618476376905
24.070255479391879 -78.310568850507096 -170.238822707597848
23.489743979127955 -78.032057600496657 -173.794953806567548
-17.887285804410254 -78.995160231247226 -178.352361836380965
-10.599513134569477 -80.186704015675787 -177.338713782109664
-57.369015869064526 -78.469051914461005 -172.923211062930932
-37.091022075934404 -79.770988227090257 -179.883391253876994
-61.950474069983244 -78.756081857620188 -175.988062274472583
106.661374994325115 -78.750354315887279 -182.802207258948386
17.905661597954801 -79.305263968414707 -174.079200825122200
-11.740270289363039 -80.245900055860588 -176.481190328796657
-51.019321366345025 -77.077913655100630 -180.934409372487409
-28.770920607729479 -78.449745066448116 -177.210901355855782
-53.318870093956178 -79.307610981438941 -180.522515473186274
-18.543465049403551 -77.608526654127843 -177.858926273228491
109.659191961937125 -78.586572059791379 -179.253091804152717
-49.848790664913395 -79.235108873208716 -182.625141095983906
21.973897881467764 -77.278251126312014 -177.440708437513450
15.811827168490431 -80.308034330079295 -185.316871407255462
24.942649906630432 -76.102387282818924 -182.239486184161393
-57.432858063956175 -77.702502087632112 -181.065310371470161
-23.011331247753930 -80.161081399961446 -182.874464957777718
105.611474417643961 -79.398064449501419 -185.153082610795309
-55.582453397580835 -78.384417775464570 -181.602490671716680
-32.489487292536054 -77.058872976752838 -182.810216929504804
-30.463207436637390 -74.928406743784009 -186.375141537231997
14.925256464241379 -77.640501469778457 -186.483636712488874
-31.062070690145276 -77.577234930137479 -183.844769857409773
-28.969986617491259 -79.639270568353524 -191.244952250219654
-149.404330583057117 -76.930198646595471 -187.380417484171545
-51.978209507506463 -80.383150745298394 -189.118278231141062
-52.515916535372654 -77.992550149563314 -186.635400512242342
-48.749589365444294 -76.506654533026932 -186.205820992230258
-23.091135785477604 -79.791553807761801 -190.120397955338262
19.828484967736085 -78.832371670916913 -189.219870225483874
-150.468395519506061 -77.868675570718040 -187.074066497576496
-50.459264267884564 -77.785523917043406 -189.206301077368551
17.123411931592507 -77.932866339060112 -188.305914657193256
104.360050092380050 -79.444772036190741 -188.509432327803410
-149.468838776283377 -74.222848177941756 -193.497432532376138
-55.615891588802526 -77.951691984425111 -189.284121661792454
-41.569404634177516 -81.222966897473952 -194.899725778034053
14.008988871270518 -79.311047514113881 -195.942584667852060
20.964773691687544 -79.834770233538478 -195.706478929293127
-145.494144414881276 -81.100584642768368 -197.665852838078905
-48.816004480960899 -75.719173857782309 -191.984624933272670
-20.951711865590454 -80.881085881981562 -191.684486677282791
101.897722914530732 -78.856146413678630 -197.567197376994727
100.877989948010679 -79.498970864420301 -196.229142250537734
-46.290522487414663 -81.317065736469928 -191.405407744234395
-19.144955892348108 -77.388173108215412 -192.367501745516790
-46.019810538730724 -75.587098142243676 -195.737311977684271
-150.008793169529298 -81.271759868159847 -198.834935214222440
-46.802074598783122 -79.485110334318080 -200.975396181639525
-145.010399624190995 -79.183627551556626 -202.331347534987714
-23.674248749453028 -77.015019384140146 -199.225598424811693
-37.078352499177512 -78.268037861343899 -201.242652892914208
16.399239780442905 -76.885679693772403 -202.600434852749686
95.316192711873782 -80.624140457736743 -202.057256244791603
-137.673282677306076 -76.509563973850376 -202.695721733566188
-17.662246008715016 -76.847815433834270 -201.188398804236925
-40.230252916291974 -77.468366495474868 -202.911045354589561
100.091699003103884 -76.865843586502365 -198.286067545691623
11.821994463407407 -78.148041446261644 -204.042651026501005
-35.246508010440380 -76.881255597045993 -207.751071479778602
-22.448475743968103 -79.036087574333337 -205.226645722666831
-16.747208934168029 -78.675792172815378 -205.098987355076957
15.020617402410117 -76.386395838416561 -203.862091264229377
95.060451575471376 -78.114620031497580 -204.989546012625908
8.497403068901555 -78.535307725514869 -202.817191143260743
-36.364095618842597 -77.732734703987489 -203.738109285440885
96.725729085659992 -78.392579987864920 -206.442241188438629
-8.689251139577692 -79.171913891364397 -210.031998897015001
-14.136374211146737 -80.279231945180968 -206.923437727563311
-41.479579623939202 -80.340146524766794 -203.710002709711858
-9.041623265506274 -82.422292641238144 -209.474741809076647
9.387143352217521 -77.154882404529673 -208.518514982524152
9.939293729797321 -77.653927441066699 -205.779084339823584
-74.651349152376667 -77.629259581640824 -211.279840712642624
-69.833845027094199 -78.808294619195578 -210.592436187312273
-67.579331603730083 -77.962477930395011 -211.506329406832691
14.616664382916511 -77.440774226951319 -213.467251648706196
-68.703541866776902 -74.452947969609511 -210.837168212305585
-77.668967673179495 -78.493948219026890 -209.245007596172684
-34.187059558165657 -77.941782909665676 -211.089637362484069
-143.850819311852746 -77.631203422245321 -210.178800549812820
-38.950884287343570 -78.077685464929232 -209.263223974860665
-147.392963831417035 -78.129996704493152 -210.785203270408630
94.897024635419939 -79.498371135754795 -208.887702087246339
13.425682051986527 -78.371640666223570 -211.227230883304372
-86.049218068545571 -79.238703253805255 -214.100924746020070
-71.536163749814406 -79.975018543277400 -212.288986216337122
-89.135939802748993 -78.968059471865686 -215.685065495603681
-32.751984375154819 -75.145954658763344 -213.048024476063944
-32.849580231000900 -76.293963463964786 -209.086000906199558
-12.866524486282636 -78.298404343008045 -212.989374124202186
4.439041574049263 -80.188083219900577 -211.321600875551894
-21.953456990576086 -80.562600766061394 -217.785254535658709
-26.577318042964592 -78.445151916519478 -213.648066485211245
-93.139136971188520 -77.316861504191863 -215.076939830023377
-148.822600160101274 -81.788294405109326 -218.545292015363060
-84.342339576712135 -77.104817259350980 -217.849320735262779
-90.493038265233935 -76.123957338217593 -217.465936877961440
-86.301880615594172 -77.496663260527356 -217.498513441324747
9.687787968709380 -77.480128256073840 -218.184036431662548
-151.181718154031131 -77.478344739715510 -217.519953639757119
-31.299200535619107 -80.505457918854432 -218.532318391924349
-13.003155845555682 -78.247066203432468 -213.755767981908576
5.991712140124903 -78.897794604765508 -219.395339393106298
-144.804043943283574 -79.983873797683103 -217.633522191472537
-23.313666279778261 -79.164439456845997 -222.427548387282854
8.998734006928167 -77.557658909444555 -223.750405455672507
15.254209282432356 -81.468438153853711 -220.490796644984243
-9.353452148691872 -79.146641880396757 -223.495940391883551
-20.582374296075386 -79.070191703285047 -220.404042466580961
-4.219301833822826 -77.883540596039012 -223.844652452283782
-3.185254636468571 -77.397021533853575 -221.900357881109045
14.555129737858074 -78.519610294816317 -220.093673876929870
-152.566369820534590 -78.609051554127177 -225.247920819490133
-142.953966656568014 -78.212924245444555 -226.087149298940460
-21.213427544144665 -77.570578455590947 -224.726804589511659
-138.953068345647210 -80.608986631759294 -227.288441879338023
-6.561481560080203 -79.492553521015878 -225.013048321650103
-13.801447795127544 -76.338225841647997 -228.112718040410869
-147.956617734013889 -78.947404925594469 -229.302439860633683
19.001177295032427 -77.791860018172542 -232.096178379891114
-149.362228449266325 -78.439347046519742 -230.293501465197636
-0.901744079525081 -78.601992607753530 -229.645539353459924
-135.572000535680814 -81.158283181344672 -233.567298627359435
8.828425468067216 -76.241457974100840 -235.438928007294663
3.925276251056438 -79.521452155185557 -233.979904352697446
18.523308971699951 -80.391854929909641 -235.300764290116661
-1.658330461404766 -79.412960271601804 -232.638574643723302
0.042128602616138 -77.375367126746127 -238.328628714744895
7.517005947483860 -80.134864088486367 -235.926633150953762
-153.169251931553930 -78.037825791463874 -236.782859875603179
7.024952094776353 -77.320705457135972 -235.800442181736940
-19.888303976135902 -78.097229625709900 -239.560714242625437
-33.409498776795871 -78.269950791018928 -242.062492206091832
5.999998248529444 -77.565328595116469 -239.547494094783417
-36.394889577254119 -76.293877062083723 -240.153483886864507
-1.096904945760386 -79.190103287810956 -236.212670055025484
20.448868891333067 -78.412792553535738 -240.377161768857292
-20.022267170665771 -78.307217707560042 -242.720153671445019
6.520269691147519 -78.061750403703741 -239.897340862530143
-54.688255017047709 -78.178651561435032 -244.792277033351155
-148.210941660289507 -77.214543712373683 -241.663129004908711
-40.589974299441749 -80.124418164870264 -244.397565870152164
-148.591538144291036 -76.006345250221656 -246.623616976891412
11.030553670899167 -78.729388014884464 -247.139567919592992
3.496755313431940 -81.896583847796592 -248.161660023275630
-154.699723667058493 -80.471150754586191 -248.398954441847593
10.794946673232403 -81.299870010591547 -246.699249737514009
17.558897243184319 -78.481074896053926 -247.112563531092235
-52.556881986016549 -80.625951980505761 -249.761720950737839
-66.616525397493504 -78.713062142413278 -249.513419703724225
-64.837631572197864 -76.144004875953485 -247.626072440243007
-59.506241445855679 -78.217039125890722 -249.460222528144925
-67.700835620546329 -76.987753385717099 -251.367386630435504
-60.989437749753492 -78.921784351555104 -248.686489526584069
-66.616578972128764 -77.079861616328515 -250.742260826105678
-9.180525431213290 -77.790778899411364 -251.415628556667059
-143.449246376351141 -80.704786064985583 -254.283970788826537
16.243757512571818 -78.732044163491665 -251.909965923671024
-144.323915452771274 -79.904932748704837 -254.546089664707353
-152.771492095786300 -78.779505350067751 -254.690447368570631
-155.510138440771470 -81.907668192674677 -255.646085694724547
-150.115676010067148 -83.494752357545977 -257.861363221488318
-145.799974987412469 -78.314768511769074 -260.625097023782075
-141.646200244908187 -75.280228000332428 -260.611202867576424
-136.794283596040486 -77.378091863764510 -257.396584888717371
-137.757363628393222 -77.129224222090642 -261.401966084308583
-11.894526596366731 -80.301461291505859 -257.929044200056694
-144.381859588191020 -78.799938138137804 -262.758847308249187
-145.322990212379608 -80.770849148652061 -265.911943943928350
-11.757656539514478 -79.343606867914247 -268.226433736300294
-152.041725329292603 -79.909902716775790 -272.057911744938110
-147.534733829789104 -79.165941880822331 -275.898482329223498
-147.201647363930505 -80.257945650647116 -281.927348540552941
-151.882961268524411 -80.152304652757977 -284.103657897146604
-1.379267477969549 -78.153313514889689 -284.435534291102954
9.079225117414623 -78.097678398408263 -285.935657221826887
-141.831016068152280 -74.128522222448510 -288.637442224245774
-32.288149288345934 -79.605867479458155 -287.312433146974399
-28.492455980629956 -79.748026766067326 -286.801696526457022
-49.476844011800054 -79.426679050551954 -286.939413134043150
-21.869038277291907 -79.058111225357251 -287.269807797136934
-34.705044091035120 -78.308002788607681 -287.918117265429487
-18.554713112899989 -79.164367064185427 -288.968712922897510
-155.694262292233446 -76.419460441758432 -289.065692643619798
-36.873299622665940 -78.599539768922313 -291.652271332427176
-7.222156847801472 -77.792530176503078 -287.270561627578104
6.198558958459301 -78.964332935709706 -289.936829319876267
-132.280396074910300 -77.252273068367643 -288.507740525809595
-54.902448444959688 -78.244483556477235 -287.835445765442785
-126.114562413455502 -80.108117720068492 -286.451754613720198
13.814250867868857 -80.262130742422443 -293.448614360614215
-126.399900552497542 -75.189331086819507 -292.233447024507655
-51.674710023565737 -77.666662008390034 -292.451112757195347
8.867981596115087 -77.235535262314656 -290.328485579548669
-129.829187745711124 -77.023509517843365 -289.800088955781405
-38.935990913114594 -80.138133564370662 -288.549772452644220
-22.981595444145341 -77.215256862593208 -292.263640526688448
-13.892011661988853 -77.745851746008469 -289.304713473970651
-40.906981071024688 -79.835472115448354 -290.978998237313590
-32.016767639721238 -79.515870214657369 -292.279511898390638
-5.162526622015960 -79.234335064945043 -290.784020976532759
3.619549494703541 -79.852821709870170 -290.838742836883739
-11.078000989432994 -78.212458396240848 -291.480496883230444
-143.829562576286435 -79.848535959992120 -292.914557850982476
7.097382730820101 -77.971881286827667 -292.590561917437469
-150.405187051018430 -80.918517964752311 -301.601151304786981
-149.958694853468501 -79.587185175264239 -302.142839229211063
-152.721661439133669 -81.138949405687114 -306.961689942459770
-154.086801598478417 -75.753044281827115 -315.130300337348615
-146.890027328970660 -79.147295564211888 -311.105010125502304
-60.221193766465561 -75.784711250308206 -54.930661413791299
-47.800298672898961 -76.051475378900875 -56.222614031689716
-52.745940685961415 -75.620769534161624 -58.980804408812496
-65.939520014277065 -75.872527544450293 -58.107846577353428
-42.684746367465593 -77.852059506227988 -58.517147050247921
-35.589896543293960 -76.570726983067829 -59.664627438212904
-37.243588950462311 -76.704538470440383 -63.633153727092285
-26.353620620456965 -78.656761896410444 -67.923691209373118
-81.670589261253070 -75.004288761536898 -69.555187148152967
-24.568339786248032 -77.304587862506921 -69.316284767005001
-22.612923995486270 -76.613555307260711 -73.118976041284768
-29.490016990946202 -75.445283331226477 -80.639459157003515
79.510082809191942 -77.355778342278768 -77.397569702930625
78.541249655322446 -76.385807527963934 -78.300873540604599
-38.947030825102587 -74.318657006376668 -82.820381972325293
-88.055438049910947 -75.779034981201818 -83.116266550453844
83.232062910920092 -78.863220702517808 -83.269268500925193
89.166511528745559 -78.399494724709740 -82.446055003135072
83.340701939331325 -74.326689526652359 -81.801855827364747
-42.973601451564562 -77.342652692567171 -84.424344871887541
-48.653521994546679 -80.366426232750086 -85.111356525506196
91.825441684774859 -77.175154832374105 -84.364665573621821
-90.294691011771818 -75.566158383487078 -86.418414866012455
91.750064425341620 -77.194649313612331 -87.808374461753274
92.228177643014561 -77.557485898808253 -91.959517415538812
75.004788822969047 -76.820458242571249 -91.687163262072715
77.005658119892345 -77.406356032561106 -93.315185659078026
-60.158141169896197 -78.565077806343467 -95.509997998727584
83.777829145737897 -74.074908803138058 -95.259074818821375
81.971583320274064 -78.183339555281250 -94.589092143998371
87.664699697125769 -77.638260514092778 -94.667110612906797
-65.640708093257956 -79.544733758572448 -96.969829466818908
52.863529817210001 -76.425516036975068 -96.504653277042124
-71.201667882796798 -75.071326881056820 -99.662887017770458
50.632719761923397 -76.129201367957094 -104.765315376329326
48.031975233837215 -76.647066759723188 -104.228659235441057
43.110225566894577 -79.194955588828421 -104.851409743094237
37.291392293365455 -78.478343470281573 -109.105070853854954
48.250557663333936 -77.804204647189422 -108.906250514395353
-91.620235703076787 -75.227356498532217 -113.453113738671661
37.621721787573989 -77.543513726400121 -113.409196791399552
-83.589295796284119 -78.245433217201267 -111.584559178250075
44.853233501559586 -78.019843969199925 -114.266287654626922
34.849551626255973 -79.292512340707972 -121.750595681231431
43.643926616982760 -77.763767697676386 -120.430560176826361
32.985029801631654 -77.361047326265677 -123.928532227043490
32.124165413228013 -76.756820876100321 -125.356917129862126
38.729712420600563 -78.064082872232362 -125.606668238829513
39.968257801300723 -77.031803893239612 -133.108390324744590
25.170890416550002 -78.971077821508146 -137.134736832917781
-50.097101436369456 -76.297474486255751 -135.167287715092982
-47.310691133263845 -77.546572356563217 -142.577346825547266
38.188422851296096 -78.894821920859869 -136.277390963731591
35.700527471536240 -77.389601593022107 -142.610958325043981
114.855296623170446 -76.202867175679359 -141.119482034480228
-51.604715176632780 -73.663565890710629 -139.622911698539269
-46.675685476822352 -76.422615814360185 -143.518472783227992
36.448136078579218 -78.880231307535553 -144.662079438561705
-46.626011228050089 -76.407376036272709 -146.278083845639344
109.287241032175615 -78.574216021972688 -150.238214521426528
-44.152829015015499 -75.041503716645991 -147.916649178152511
110.019219261810562 -77.247615315274118 -141.036761727571076
114.133989361047938 -78.169791798812795 -149.649018546085557
24.571497431716914 -76.818858320902052 -145.909662345264707
32.869788311410829 -77.705193603226533 -150.150000445897803
-43.576705062136554 -76.957024838608845 -150.091379251350133
-50.749782569616841 -78.074287843637279 -152.268893078082613
113.116791396788159 -76.385468709469691 -157.693898939798061
23.201640011509383 -77.089496919933993 -151.812978546199417
-41.228875944588850 -76.976722647650050 -155.251640566570387
-70.798092727303569 -77.757856098445970 -157.841618034507292
113.685549428565551 -80.355852716384021 -154.914078381066787
111.168558273289932 -79.779357750203062 -163.986984003162263
