# This PCD file was generated using the MATLAB® pcwrite function
# from Computer Vision Toolbox®.
# .PCD v.7 - Point Cloud Data file format
VERSION .7
FIELDS x y z
SIZE 8 8 8
TYPE F F F
COUNT 1 1 1
WIDTH 784
HEIGHT 1
VIEWPOINT 0 0 0 1 0 0 0
POINTS 784
DATA ascii
111.752989265962469 -66.951246014442845 -153.190537418969399
-46.338463624717662 -69.697957642914929 -156.696655654546646
-66.084304082846671 -74.353152060320696 -156.347442183504342
-35.262461132149255 -73.092579119685155 -153.608534724648962
34.127266965143804 -70.844952382616526 -161.172293846441505
-72.180262658125301 -77.090195843324821 -162.390314875887896
105.575749775657044 -67.858799173481572 -163.263036758249399
20.845374814606480 -67.990114351669021 -161.221385569019589
117.235992247976782 -72.006851222034129 -153.983236855014525
113.939867116375424 -69.080838294011357 -166.896212942465041
-71.263156442222595 -68.672900449282366 -156.861910107259575
-44.008146020986558 -69.875657182175075 -156.645013450598071
9.570122933949271 -66.798478286661833 -160.272584540511758
-66.320688646205284 -75.170732247401304 -164.721214624791827
-70.438079144906879 -70.302394825996885 -165.594503542069873
-68.345225718691694 -75.045777966341205 -166.662346511748126
27.403381690110471 -66.671801706891344 -164.948615449244869
-59.035106889392807 -67.213480454394755 -167.113636832257100
-30.141261429660418 -74.134792140627226 -161.782698791462167
4.250787397732147 -67.212178442470233 -165.125771512548937
109.991875287266737 -68.140288571438802 -163.258256510828829
110.451162744051743 -67.532546685751839 -163.967386805045152
113.314606465338173 -66.901050467286240 -164.713454870277388
5.316898449496314 -71.060439323579430 -171.866493748347011
-33.612559740307702 -70.254734483103277 -171.614427874515542
1.003070873918013 -66.006673826998849 -171.249154679999521
111.802469493426813 -68.086805549612308 -167.673611890579338
3.305402803931436 -72.205915590971401 -170.961918757888355
31.870427845997707 -71.621324113566828 -176.588607184595247
108.805059463866357 -70.232966750376704 -171.322076907527389
-41.649138966282649 -72.664639670726800 -172.643988292871200
116.560128805342785 -68.193179350819420 -170.012496097438913
-40.916899199311572 -69.538419633566875 -175.738963338078804
-26.299505576996495 -72.602519978127475 -172.652397250083936
19.535685133966567 -70.869033842830632 -174.159086315304592
32.301177841547954 -66.643587268135903 -174.840857334265081
115.405775982980757 -70.735361932303988 -170.892857747543616
-52.304871623241226 -72.185627369660693 -174.104448171560250
-40.466254953045834 -73.003684510002003 -177.237133994666920
-27.532714052464996 -68.633508163194065 -176.312519274108581
-63.918454255451834 -71.361575523386975 -174.956266270875091
110.278267572988455 -65.606150772794166 -181.391949849228382
104.733309935530400 -72.222503994799197 -181.533289143505840
-59.631364865829198 -76.226323295386436 -176.653970490601324
28.680674783271897 -67.738116787123133 -175.174870044828680
107.534272392195845 -72.254272491813978 -177.043792039379127
-55.769161155097237 -71.155093484700842 -180.832320786154952
-30.873953836612117 -71.614677494292863 -186.146265349617437
-20.235872171654179 -71.923798275460172 -186.020309688639941
108.808154031760338 -69.307354348142283 -187.501150017315155
-142.998812593267132 -71.689010266240416 -175.472897757122524
-60.485980513730738 -73.981321839096225 -187.734820080117231
-21.469206264939629 -71.080210675966583 -182.068650779310730
112.248278809583866 -67.992252200340459 -184.082504938292402
-143.620425143627301 -77.093341658146286 -184.438312813421561
-57.149782835196177 -70.570631910005062 -181.838485927553421
-40.357889793220934 -70.000062131799609 -185.767001651972976
-18.484954664228511 -72.311579190740829 -184.251442353889786
-148.959994347216025 -72.103591521529395 -181.248414538506381
-140.117879387954872 -76.876845391926778 -186.749749857535761
-35.835017670932842 -71.077796680243466 -183.248794923726052
14.367938525803638 -71.936621432660175 -188.960388895880811
-145.182741446113539 -72.593553318566080 -185.335452817143306
15.980199837341701 -73.245301908659584 -185.865406505481616
-140.659425098493557 -72.745150481765293 -188.234051031765489
-29.628771779800644 -73.732966569587091 -186.768898871124122
17.522803439045354 -72.384500505945383 -190.542671940162137
11.634981110533666 -68.939839129175255 -191.354690830768192
23.360504960357567 -71.261350638855433 -193.761044456968762
109.359332656995008 -67.759128360155700 -189.854155717184057
-29.026913061073742 -76.362409902379667 -197.680726338845176
12.997352920177228 -70.883234559388512 -195.002923705737686
99.661377940233308 -67.543430807829353 -191.284026554789079
18.693379564077397 -73.749375504888775 -199.263647936599000
-145.062715602971878 -76.814735715654479 -198.576342104306491
106.930655949741833 -66.521352144070889 -199.673467971022632
-18.103560624426080 -68.152324138221317 -195.504595357964803
106.334134508116819 -70.247608249355039 -191.652997862144218
17.880141096641282 -69.104321882819306 -200.329858532070290
-128.860292496103909 -70.760220839302647 -199.993791270260118
99.623276673427739 -70.510774028344514 -201.906336993109846
-142.249636626979395 -75.620461477515519 -198.601092657640095
-134.116457347995492 -73.893285035603398 -204.388678290977538
-148.555447725925092 -80.633992550316393 -204.645583011678781
-140.957115664301114 -71.485587137220932 -199.641749753958038
-152.825141879011881 -74.448748844242559 -203.614778387341175
-19.875932570711626 -69.305841152672173 -208.891770935050090
-12.985082277331102 -66.641918857920643 -205.501146286440587
18.956856632217438 -74.808956684653111 -211.931371752270962
-40.595491606267686 -70.632402951027956 -204.213429254058042
20.347287387457495 -70.439432110659126 -205.535650469074511
99.602482019563467 -65.648044953514415 -206.022323890286003
102.210190458573493 -66.864880394581476 -208.332894519794564
-10.607545887988387 -74.823960398676746 -208.812215037598349
-15.861527574575632 -73.872218949886573 -208.858709277656004
12.222092530325824 -72.251043231050843 -204.027257187616442
-35.799440227384011 -69.366911080017971 -210.129564906323480
-147.308191113294924 -70.125286075210568 -205.987871912998656
-142.269240094755276 -75.054784306111074 -203.825164396406308
97.252678989373862 -68.534318263753406 -207.705276578266052
-72.513933029559851 -72.340143454685702 -218.000089106341790
-26.980932387969148 -71.152907817686000 -206.280800440947417
16.634260065534768 -67.614724265359825 -211.849330157130538
-24.111920454747704 -70.651816607396469 -214.822958720747920
-79.937431477101214 -69.571975199572620 -214.307462348852738
-76.327787551609418 -72.159521864585813 -212.133211784022933
-146.764335313252104 -75.833128764508260 -212.055462763502391
-78.232529842807494 -69.887029126414348 -218.560184594952688
-18.095877733118016 -73.808133129450894 -215.858157284949698
8.788150814880147 -67.976419893753686 -214.325609575692397
-28.466898903214442 -71.942892897113296 -216.710615040365354
-3.557384388536647 -68.656867683156591 -215.810011773208942
94.886609340990745 -68.727931430490472 -215.034671059114430
-87.687704134152071 -74.477156308206176 -214.305187209507636
-80.523763421732113 -71.323968119283677 -217.368876087652126
-20.334400203639689 -70.464981656193018 -219.890967213479712
97.338416194837691 -66.952362011421371 -218.011215495374728
-2.530146921011159 -68.537416290262613 -218.544327563815557
-94.508036564358562 -77.686245148437933 -216.102284282330658
-143.093266791374333 -78.121475477389978 -219.367629523846574
96.274540618095870 -74.652302857753469 -217.401296944493055
93.159681834125095 -73.467947237203603 -221.926963368824829
-75.553148231238566 -72.737998705906563 -215.619902338863142
-13.246328414923013 -74.050065935074358 -216.462243170718949
-20.028897240489556 -72.118850255093875 -220.026215532361221
21.163758011191611 -65.023894173704576 -214.432301155055086
-5.093224869091912 -71.305384401525899 -222.901696607773658
-85.539196338821043 -74.206820512212531 -219.926589767943625
-27.826756824094005 -70.494704715437152 -223.039950928327698
85.619716796132650 -68.859237761076741 -218.298447912182297
90.037769479113777 -66.058589778197330 -219.366294497138028
-16.366725551587052 -71.036061465979401 -220.646522599288716
-93.998969618499743 -70.933046756797935 -217.802733057837060
-150.554684800126779 -70.090627679788909 -220.454747579738125
-19.697887976977427 -67.499429940101081 -226.726723069043999
16.615702257934032 -70.780556702309013 -219.077760031793161
18.660272110119678 -72.765096261539284 -220.164822126530282
-98.018251108890169 -73.328102335959244 -224.051162231318585
-22.855751879292569 -71.135165037760387 -225.396922561814222
6.774734221485978 -68.761680239086445 -223.485041994578353
10.714542067463334 -66.720249096231541 -222.465501763738985
-91.896728369355358 -73.480334518314024 -221.744739981900352
-16.346451891981985 -68.373348712883143 -223.510717099099708
83.964506770688885 -72.797100593313587 -223.691934091378471
-148.056259073897138 -71.615552802442423 -221.006654516813228
3.316238513645239 -71.827980200739617 -227.004273500362984
-20.125658581710923 -71.844842786333203 -222.822223401184118
-10.220579610475511 -69.297528414007346 -224.483921198389652
19.305437358383791 -67.285513580102730 -229.407618323091981
90.545146634653861 -67.345872825531103 -226.138855555110069
-16.263758039127822 -70.496630868034956 -227.706711453599496
-130.503887164531307 -72.717593485533897 -227.228196585443243
-127.027096317516637 -73.690076267395881 -227.848891981468086
-10.112023930321278 -73.276442076084621 -226.357737891427263
18.976818082645778 -76.084066136217317 -223.323138737432544
-133.574373285274987 -74.347896434589586 -230.146802827427877
-139.332559563895302 -72.794498837120415 -230.599803869047406
-126.849456480527479 -72.838114848490960 -226.484382291200973
-19.558528305951654 -71.905894220787843 -229.211937295468516
-142.857518318516213 -73.421127209779556 -233.236968714871921
-19.005914730489536 -70.151325193825684 -235.888724802766177
73.260803381307056 -67.668330456929766 -231.252553029710725
-135.812801134310178 -69.225547005233565 -230.111407999505474
7.403288565234043 -68.259598477937274 -235.071331415497895
-135.636456477481943 -67.851188380254143 -234.362440817057518
-13.644608489268705 -71.101471884059180 -234.366725122889619
69.406967087743595 -68.726221237496219 -233.026158269220133
82.001859709228867 -66.355549780335636 -232.920239400156731
-136.067724811899097 -71.517496202483386 -235.757307871940753
73.184352116098154 -67.291970590421613 -235.201939901564344
-19.193606062979342 -70.451540563547340 -229.621869947919805
-145.024237194346085 -73.413863221421892 -233.026273627437575
5.676355352634907 -70.091899815727984 -238.117566182140962
-134.756216936018916 -72.727391626066208 -233.721077602959525
74.548478448793759 -69.655398397337351 -234.288697177918550
-124.398286829779025 -69.222269378567802 -236.857005624574015
8.332353844157900 -73.988389912166028 -234.694363617109133
78.709543310123976 -68.893582754887902 -233.292629267103422
-145.274401598829229 -73.727556325429873 -236.523638257175776
-149.501265693086623 -71.899340694979941 -236.510325557976842
-6.169546498282315 -69.712482912944296 -236.676696336294100
-161.687023982624794 -73.895664570185787 -238.616229464313051
-158.541396121188029 -72.417142009557679 -237.491688043206437
19.211415029312146 -68.623267531695802 -233.299909598873825
-165.388709614162451 -73.108981606768310 -232.685792942667575
-1.800531829065442 -67.234455835217275 -241.593260987353034
19.380767566849460 -71.935535264402048 -240.268416420133008
-18.024604811155498 -75.124084591257315 -244.368107836798771
-25.655494805970804 -77.754752947400235 -240.414430981071007
-2.257523763175023 -68.516806065103566 -240.098303326750596
-146.086340940668720 -71.622994854261805 -236.660163563570620
-1.227587963921209 -69.344424815908681 -236.420084352974413
-161.197581819501977 -73.398850771721271 -234.154951675220786
10.600090095887822 -68.516250720713103 -243.037110656281868
-163.325895478370057 -74.404407878402424 -238.924512655354704
-15.188901321454225 -72.365391416943666 -238.745036425435075
71.864478369788401 -71.320909670429174 -240.559378510383624
-27.151303450626173 -70.825849780721185 -235.331943050071629
-12.552364771380333 -71.893399215145138 -250.511371306320882
-161.956497738183202 -72.593282016171884 -244.043264839652835
-28.779187659418639 -68.845533469115992 -243.713768786466886
57.784649648287960 -72.109587829413144 -238.771957043373362
-23.356630753755780 -74.726748530047416 -246.163010067776298
66.231938418222825 -69.766410393629016 -243.300312211909869
-23.486966549232349 -68.588609208500884 -245.645267640213319
17.249673076259576 -71.526428412173289 -244.561801515026616
-18.579115841809937 -68.205493090549908 -243.373233585363522
-5.164491565351916 -70.768973574413238 -244.286781536953896
7.523270319560986 -69.146048193619691 -249.447298716577450
1.432418172740348 -72.085161955231044 -246.688874784346979
9.968600206789667 -69.595673138408046 -246.717593026695454
-145.050197873762897 -70.809997049437229 -247.419438048389651
12.056152148489971 -70.489838790751378 -248.162418489469246
62.903105280931612 -67.509273881297020 -247.286957168684410
-149.001980188271716 -74.565621816246562 -246.942485060470716
-58.971683437287382 -72.562606748125305 -250.862601539310702
-52.203132058460668 -72.917524978892047 -252.746162549940493
-3.017687811987102 -70.190221620860285 -248.781393442805069
18.206967619504681 -68.414911353128048 -245.738356807432211
17.572328949503586 -72.553434880650613 -246.031012142680055
-160.851133639778936 -73.691976324116098 -241.540375699669198
-156.954353107013162 -72.929215272340159 -249.240540409004126
-51.965967625682751 -69.048957946346732 -247.350241648861100
-5.674944428228500 -72.314889261557823 -253.718490726779095
-152.103599009195079 -72.986109247680503 -250.137272137745271
-46.199851464837863 -73.172397857137966 -249.131225380866510
16.316889320855630 -66.184070815619037 -254.270257229144107
-54.109013099723867 -72.614126318087159 -252.185536930758161
-4.979970398025877 -67.221954099611423 -249.110590158536723
19.466867980783029 -76.078342571077187 -247.614794182985889
-68.427553143974848 -72.912594675104259 -248.960047926431429
-153.372141057212332 -70.588750480784725 -250.127604867054259
-161.371234242546791 -70.878695554741029 -250.809861744401985
-75.336753574790180 -71.528622979202396 -248.955413897229818
-7.528848111226033 -67.841289387984858 -249.525718849095597
17.626078127778122 -72.389462617771471 -251.373337349586791
-51.096636421335418 -74.241013929130588 -252.197848007615562
-79.476901220836751 -73.175073998259663 -250.228297466384475
-62.805716738136653 -77.148034617057945 -248.142664906899114
-160.738363329781635 -72.438476002147041 -248.551596415548858
-150.045903759884652 -75.019091173999627 -253.954869656101522
-62.072678973692675 -72.245641803169065 -252.578184376879676
-163.682279824970180 -68.550075884089267 -255.750952447207226
-146.249011018728879 -73.315590131748152 -253.899662857152208
-83.176215545019105 -72.958424697779236 -255.251952967960193
-72.259851128682257 -78.255637593029576 -253.267439451944739
-155.452568817213660 -72.890068283880908 -253.439823065158294
-161.498147840361639 -76.600054541644624 -253.848735082233247
-154.347919064274549 -70.260722433258636 -258.490891815942007
-71.451311327939337 -74.511728495713314 -256.220122241265926
-93.998880077642170 -72.192172988629338 -255.077908037134847
22.970568394708156 -68.231285599570370 -256.147615776553721
-163.840883995598915 -74.765228342934336 -254.706286040709557
-94.644404860559163 -69.908167724069415 -255.280934765353066
-95.026648045136241 -72.516594467655281 -254.026665664800475
-84.628677253972896 -74.809525353947436 -259.022829331404978
-168.001676644240490 -77.186051165861855 -257.117356071458630
-150.313109078648608 -73.721502562324957 -256.274509987861165
-140.428562692196692 -70.207552831099065 -258.761441492015820
-78.900376143870446 -74.042891694269358 -257.298628424798039
-158.889852632288296 -72.329044783089202 -252.588033617922804
-143.430910621033547 -72.070597635287768 -255.975082463664194
-124.345525436651897 -72.720667356592344 -255.176026989684033
-83.476121808657169 -70.385959774628759 -259.226333303457864
-98.542953872235231 -73.484974648783208 -256.630814555681695
-139.551382550181984 -74.009120287814596 -254.144903693878746
-112.488887196548248 -73.330533821156081 -260.598381567880438
-90.465766541540560 -72.496530479988337 -260.315865089635224
-89.090951270425094 -68.703173820277044 -258.479539758847807
-90.168387385412856 -70.579681746597728 -259.632315370647973
-147.034512339395405 -76.229481387507107 -257.156771375754204
-100.185259809591926 -72.022277014702681 -259.607920473974275
-95.729399967286597 -73.107564532070043 -255.851174374377393
-149.841512141377621 -67.178221842667071 -262.139908612199463
-107.583823336076549 -68.798136793986259 -259.907751808997716
-105.771195429168969 -70.242522686033254 -258.757073566767247
-157.946658080357054 -71.012415405989714 -257.066322528628064
-156.869092804052627 -73.996840380296049 -260.459525039979383
-148.727276848880081 -71.844705718873271 -261.296659515771182
-112.602653108425770 -72.076598284500520 -263.971012662698058
-123.255351484789131 -71.286561239282619 -258.202228378409870
-106.545869703867723 -69.666631781719929 -262.225600945029669
-148.354029435626330 -71.914980567737857 -259.739864147698711
-143.715074732539904 -73.496424529071405 -265.294887717454401
-117.553665580329678 -73.643779723745766 -263.760298303356990
-16.907403354353221 -69.146045338673019 -264.051798379162733
-159.916034361034122 -75.718609795760074 -262.665238717642922
-146.419457590196430 -72.758840343053109 -266.095562604418717
-124.300321383390937 -72.899538125773844 -262.656335448599407
-133.508577153172155 -71.154864907249447 -260.587300969125465
-154.140525297768534 -72.374300692989962 -259.586802916082206
-154.882673787335818 -74.030072599372943 -264.075213328605855
24.023743445646737 -69.326239933867683 -268.074639762857601
-153.877744902588006 -74.356313732785409 -266.141235139891478
-14.672391705388605 -71.001273945294272 -270.140451434615272
20.142421130158709 -69.850015848708537 -274.124119855363119
-152.163697825095824 -72.703124363952440 -277.144296657879863
-165.787261346164087 -70.426222842341900 -270.717745975931564
-12.136244101462403 -69.433178024135088 -278.914546589934844
-9.829777071586371 -74.719555993636732 -283.482745399508303
21.047862375932485 -69.884724984008898 -279.415929765163241
-148.297563901090086 -71.830960971921229 -284.436165040077071
-4.613046827563366 -67.463034118564153 -288.255467167079701
13.062843438975754 -72.479403405660562 -289.985808795196078
-147.253756971908956 -73.289371724428648 -290.015182215652317
-134.815100242860353 -68.736025350930845 -289.040889872628100
-63.628097719082064 -71.143745856576757 -284.097778313027334
-68.979949779969147 -71.307418847862522 -284.693547774152933
-38.972710169931105 -72.989050867629544 -290.208277005347725
-27.345869063004940 -71.061745290093413 -288.261319357105720
-81.555539877004591 -71.350839181256347 -291.218447464839016
-30.935572150763718 -68.896783346424542 -290.257916651785365
-26.108320997347562 -70.075424068381508 -291.725628324963282
-124.475961214360851 -72.741500480876837 -292.384553949285646
-120.317314001250750 -80.204607324499136 -286.134773186633879
-115.906303207132353 -72.083298213542847 -287.567451215774099
-91.968350621259347 -71.859107974223363 -291.585090518316917
-85.369344199284924 -69.126059827075991 -294.133830231771697
-102.641523858209112 -76.741096606967972 -292.694102827266079
-167.347780007041877 -71.947530777109804 -290.499210487544815
-113.000870957352461 -71.942499044014710 -290.023208026638031
-109.807432132724514 -69.294613686746189 -287.771385689431042
-168.115501186028439 -73.963206666757458 -287.758106835806984
-56.405172518033268 -72.910930725963880 -292.489440153281805
-94.073599465512885 -69.783271443003258 -293.402072562655803
-93.250080074536712 -72.671445930915539 -297.115696646867434
-80.720473771317998 -76.623134457896299 -292.646484512790778
-44.541889065237129 -70.081139500319608 -299.281946412478874
-116.279246486421485 -68.286869086721651 -296.698508961905702
-115.200069578581733 -76.882843934858215 -294.401074164812712
-110.855033057088107 -75.180677319813171 -294.329590319233944
-28.382358982673111 -74.480949636660995 -295.931312435907500
-124.910742961972133 -72.460779079767718 -292.671371553378435
-118.732954839817396 -71.995235630581121 -293.466150758588981
-107.426198793538916 -73.487590986292801 -294.335378967757038
-17.218194270987411 -70.225095218236746 -296.267457420577728
-123.758078705272951 -69.065217861562786 -293.939253134881881
-143.622414766488419 -73.768811467015155 -295.892874321376610
7.770303962428706 -69.789644949715125 -293.866602501254192
15.852186614892950 -70.707826569883807 -295.097363457664926
-159.491993714862303 -68.476351438593525 -294.737885983785418
-159.261321390245826 -73.285960004454580 -297.076836213675278
-127.420039118577833 -71.562023786126673 -296.006531982566514
-156.982635732930703 -75.360289188074304 -300.146214016671024
-155.380109618866811 -73.973302912738035 -296.165195952912256
-143.861150804101385 -68.318089529214944 -303.794109681022007
-154.112689460254728 -69.332789295684762 -304.402187576213464
-143.364980158593141 -72.143968074766917 -310.856541926378668
-161.301104711247149 -70.890659821284174 -310.934359743529285
-148.166107596943220 -72.850256097155452 -311.905730074099438
-150.170755951371575 -73.427959010816778 -314.376859811710176
-149.532767302200625 -71.135767251474391 -313.439503550953589
29.338521129475893 -71.625162787447266 -18.845751061680826
25.334450545717306 -73.210342254413277 -23.510959824440100
25.545563426113564 -69.832772202018447 -22.897075214731906
23.601534070594216 -70.362350444445397 -27.608928578463626
21.470815324199421 -69.643560015048919 -30.748797579688468
28.944278306120108 -71.180081946913234 -26.834616721037214
22.601410308663766 -74.442743421626957 -36.595625783061543
25.002166094814321 -74.539442653198677 -36.370709719343246
24.943152068095355 -69.641820583391464 -40.144395709546657
34.217486756071025 -67.203127181545796 -45.671429171943650
-58.431546037693053 -67.737063735897948 -53.257736079079933
-52.331978544737353 -65.956318085616729 -50.217293944653164
-53.497401317382852 -69.829832924510683 -58.950532589714129
-59.575837263771220 -67.238345911819223 -52.276381831236861
-43.746658240219148 -68.901325403378195 -53.683599615509550
-36.444478315660305 -67.721489958927506 -55.769765380599253
-71.238953079839760 -66.779077513746884 -56.131389253051182
-29.110932805054816 -67.942071638857954 -55.645000207449741
-79.198395247197382 -71.965935381535317 -59.053020312205149
-18.705168228743659 -69.667310282512332 -72.683977082445907
85.186820614402876 -71.189323051384690 -74.036894886006564
-14.239521589654231 -68.933649475452626 -73.469518405577091
91.466334013784746 -71.300576618351286 -74.569815825734580
93.268555545506302 -71.491955073287954 -75.642463548301407
78.463240578094002 -71.374624087971341 -76.203982973476172
-90.829877378683378 -72.048620267251152 -79.944347755763957
69.033245864657403 -66.855133306821827 -79.888824449224856
-22.541986097603186 -68.521273857622774 -83.101206419944688
-32.343851662935577 -74.152615127331885 -82.483244731877917
-28.443838925589702 -67.028669264600609 -77.261588574595123
-38.170864425366418 -69.014880158438899 -81.387938719634846
98.241712015424270 -69.211866047527138 -78.462749811331975
96.505905578453508 -67.838472049164380 -82.126101407269005
-91.136635528349061 -74.242078293536650 -80.537920649405322
98.184211626791750 -67.454641559967072 -83.644554245434264
72.566654650442132 -68.119704405649117 -82.330165612216746
-36.639966147400514 -67.678968639380230 -85.026440288226837
-94.614389382264378 -72.324503256624979 -86.753078135139475
99.041421317127629 -67.059822983483244 -92.732329021301041
-41.222701917525598 -73.213802369740165 -88.608967581195770
-51.792482720291943 -73.599078014570949 -99.200189358965460
104.362266803579416 -69.654959532728043 -93.228709880733675
58.978527246737990 -72.644627487568840 -93.632223876314100
103.290851857985018 -70.822966494134377 -95.263963925026431
-58.173457250875828 -70.282606208913165 -91.569998451190159
75.891489949475030 -67.808768068726835 -94.233076958054184
98.011919566109881 -73.003720967274219 -97.656869472584717
62.138663716426315 -70.569662085751929 -100.592230151020644
55.346438300366309 -72.311278633266184 -107.077731849532825
71.846814922479325 -66.314802397677681 -95.666042154620627
48.338021159631595 -70.929527756868808 -103.360536404534756
108.849115335841645 -68.342926239546600 -103.210744755960448
-78.390473563998469 -71.917805683842261 -104.274504048851213
100.707529614076734 -67.560524232561079 -99.005673904499858
107.902377380624813 -71.591929836154293 -106.261977142791849
89.814892495526848 -65.225188142084519 -103.585020107913337
92.289278840750683 -68.225996202385460 -102.604486851854290
87.501935286861482 -68.110239379202099 -104.784661393656521
104.226876721391420 -71.929160035074759 -107.903611586700706
113.561034661386174 -69.984802909220235 -113.277022127162240
40.900319199219823 -70.300852164649797 -109.018300991644310
49.353340213277342 -68.382542638717368 -114.307300880262062
38.531107009849663 -74.065428329930540 -112.922454548832931
48.097593014770496 -68.981080730410554 -114.862095723670564
-86.616196833698538 -74.925992543009855 -116.194409608249018
42.588342271217414 -72.720821927894960 -118.419835091680326
114.982816735812634 -66.614670867056560 -119.251744777270844
-86.014335379031323 -65.934263919377187 -122.680239393386614
108.747246006291192 -65.281652699295833 -114.001221166298478
-93.132173371664479 -71.027520147506067 -119.496147406244546
35.758659125843501 -68.092183129010010 -128.270812319079340
107.916351517408842 -66.651589069740879 -124.924963133020881
111.577951865704719 -65.141046562863323 -122.212924886624734
114.650319849130113 -69.074686709625027 -118.004015639441306
43.233456471442253 -70.712771723927432 -126.107635800848172
115.355444499068611 -68.638329240573100 -127.647721179801238
30.921646477904520 -68.128374646235898 -128.292100610443640
46.333464926378177 -70.494682701988154 -129.264317474605178
35.327948112169814 -65.171371055375204 -135.862708627404231
43.170450948950254 -74.946678369156444 -131.534722662545448
117.315125425429457 -68.855310240681533 -134.797429685586934
109.426263477455336 -72.768105244850574 -130.061644084741971
38.913182511076599 -70.884682812336223 -132.334300723065695
116.873916984476409 -66.869291273889985 -140.265689843614496
39.631229494291198 -70.455528812354302 -136.383497085593376
-53.446566303538120 -74.218102433028875 -130.344280007777883
117.180222933559151 -70.620233726297755 -133.407430712150756
26.905145306726922 -69.784627798390616 -138.446008585221961
113.839826874564039 -65.528831634438689 -133.849424855569936
-51.792030490250397 -68.603655196516613 -136.319380903674784
-49.744017676243800 -69.388625512859704 -137.357511590404556
-72.933250596629833 -74.318106312657079 -139.911939095820088
-47.976931088313691 -68.268705742929583 -139.569719888393081
-56.464953259126887 -67.366869652466576 -140.951403979861084
113.982002994236808 -67.815211842259814 -136.787571726973795
37.320626744652557 -72.077686270166723 -140.065251711916062
116.002047484042734 -66.011626914857203 -141.201992483748285
111.579555615967081 -66.495801035122554 -143.688582552436571
111.041711976818931 -64.555153096981542 -144.516199730441798
24.757582528025569 -67.988061564836727 -143.341450406878010
-68.268673966619090 -71.930619019305425 -143.554813567292314
-70.648249883658906 -67.213693733620374 -150.346500870544872
-56.679084446590068 -72.096596096656924 -143.547313290969356
37.322605257586403 -64.750842088837516 -146.785143799779178
113.835306893693769 -67.442929557407382 -146.467561856401261
-42.059377203668859 -71.936409405054803 -147.555263268280441
23.207571841753520 -67.883667394002970 -148.268671257989126
-64.387530172679845 -68.200538460047426 -150.401001679696748
-68.993281055190181 -71.273536065196467 -151.529528671561224
-43.160940852774303 -67.421826808626221 -152.624774974621943
-78.284531973682178 -75.349835209819219 -143.987228367092996
37.232755503494687 -69.837394332542047 -147.040562710487137
23.716684651340007 -73.972936291734328 -149.882171545668484
116.718516434093118 -69.114793607179749 -152.138162822753657
-71.394902645865713 -73.937050608534506 -149.991139622611513
-69.232760654986365 -74.323301388637461 -147.541284866512541
-50.650061032166676 -71.082340555914442 -156.536138396439526
-64.851010644923491 -72.446760163763159 -155.466325474947240
116.429648065689662 -70.815661213103496 -152.679563998767350
-66.623007135825929 -75.171797181008458 -150.995393182556711
111.802842008174281 -69.295027371473921 -155.359001894191778
-44.926375772512785 -67.909006801258258 -155.248324502838386
112.186897260642894 -66.753094585489094 -157.721446615435724
11.976628540518050 -72.344941203965902 -159.613875432708880
18.809963323373736 -69.638246407444257 -159.345747859288139
12.835750462319140 -71.284169074171871 -156.492552943462300
119.836678477714926 -65.584063980541714 -158.733542641242224
-40.509871129822102 -71.180234845822469 -159.115622616482398
-69.461914004379551 -69.495453273961260 -159.359412525067683
2.079311962388068 -69.154632183280327 -162.437496422074020
-72.935432390513782 -74.813739329966580 -161.331711614395971
31.583339657825910 -70.918144691371083 -159.179423979958187
109.809401672694804 -65.718844794167552 -158.797725547181756
1.659731112576793 -71.263237608416773 -162.509028795011773
111.077831842250788 -68.800220247737144 -160.245554386931957
113.111313301893802 -68.487081528772649 -161.128415699848972
-33.369251850839447 -71.832834580271438 -159.644085626198233
112.570547506355268 -68.310136942126647 -162.988082532107370
-63.490669912145492 -72.916107142665723 -158.489328408726578
-36.561854461251173 -72.514759063936125 -161.561559439398536
115.399141960315092 -71.720876036718920 -158.187478759170773
-44.990384820451411 -73.859491787719676 -161.252906389153878
23.349162887647864 -71.779497186527820 -163.808234169556897
7.649960346136957 -71.588298443984101 -167.788443002693242
4.683568513275063 -67.466224537011996 -169.958091558733855
-64.697677465708281 -67.113973409583949 -165.410416408745618
-43.285924957978736 -73.899166904969007 -170.466614405181190
4.996924985251063 -66.314345313676966 -164.126978391727505
108.938376874082508 -67.668465987227350 -166.495623356518820
-0.400797851229861 -69.603606017960956 -169.000574004976869
4.732086397085560 -71.367878476107137 -169.723415364643927
-63.649176276380430 -74.377756621201101 -171.253999385377710
-31.691566124033443 -70.156111347224154 -170.018549481150757
113.090876315444063 -69.647906442446782 -166.088914521487908
108.674204553895066 -67.734900733343750 -171.359447742203656
-34.381785379445247 -67.166477869984945 -165.389950431459340
-46.259766253235043 -65.909936795297909 -171.471475173146388
-58.401525950064752 -69.325236283969105 -168.064858265177122
-58.719786249097950 -67.204890868517580 -172.945549109965782
107.004729016519804 -68.670611550271971 -172.737277292090255
-35.321084113423964 -70.684950775630909 -173.612281175407304
-37.401358324012790 -68.986657180136987 -175.204668290786231
-31.293706349071869 -67.942046107145160 -177.462086064062959
114.026973950031817 -70.307923000513128 -181.675298069073449
114.394876541922912 -66.556245645615448 -175.355867249680415
-39.748450552751066 -71.313814245839609 -184.108774456318201
22.740059563956205 -72.255931869985972 -178.926597755018349
104.537807161112482 -67.262521622322083 -181.657158163467102
-146.437813601972096 -76.523305412520955 -176.997817637349158
29.930260056543172 -70.782032645302579 -186.174775363160279
105.304650970816112 -69.182681203078133 -183.256855911678855
-148.450276693980413 -71.956348570075178 -184.870785988764339
-26.011951521402850 -70.605028001565756 -182.073145926238965
-22.383011965492869 -69.630522039006280 -182.720428504332659
23.309504233874748 -71.102366499513280 -179.295460829247048
23.152654597466682 -70.531616500589152 -186.969483231915945
19.144765365077028 -67.488863693898850 -183.534447430435165
29.339921187605608 -68.002629279979260 -183.625518442011213
108.087455316186521 -65.970795561538850 -186.732145238909169
110.153915888135842 -67.351554656141417 -186.709493580328854
-148.241462235274867 -76.914953458228993 -192.894585101211135
-21.056169925787756 -72.005080701848271 -190.020951011053086
110.377774226865057 -72.522629091122084 -189.906417483178870
103.789313182230785 -71.382789611343028 -192.361885048524130
102.491987960961325 -69.884038043996014 -197.121711948877447
103.159839134167044 -62.835571482731062 -186.411902811402570
-149.833859489251950 -74.055077887660872 -187.652233490992018
-18.907699974685229 -71.324569974789583 -192.938468698803973
99.631844181530695 -69.642474598744613 -194.216632261716711
-29.451211739077024 -66.301941696815049 -197.407809241972586
-22.648146863434448 -74.660255707264582 -198.019366768673763
-148.620785323280984 -68.129714857226062 -196.811278640028007
15.491002235254527 -69.246837538818369 -187.250842499157613
-150.212273494534600 -73.219792620235367 -201.416643494168937
106.168805346376104 -64.635115189825100 -194.626202280624995
105.255098357502305 -68.834166182099167 -194.582358453437365
107.538997669688655 -68.553555682560045 -199.463035428343517
-25.221934940351062 -66.509664190357952 -200.821615537581351
106.296744340756561 -71.245618552060577 -193.378288434003395
-127.751406321286524 -74.850358975215997 -199.293365822114595
-26.922189911435026 -68.249601157274498 -194.611961775239280
-148.894671976898621 -71.384512253288463 -196.401851507768583
-138.463806102294825 -67.532029853888133 -201.099710224782115
96.215859742223955 -70.209730577277355 -202.899333875332132
8.901086791857843 -70.957179723194173 -197.123848035424999
26.002709912980531 -70.650277688477630 -196.462414669940443
-138.056740209142617 -68.065055581769485 -197.367610756948437
-23.482475268120695 -72.073565126985315 -200.791189832667953
-133.306997035426946 -68.211043281656700 -199.385262231201466
-123.516163906086618 -73.067012357729453 -200.776591972720240
-148.523857540864810 -73.921780312941380 -200.396190822821467
-137.287378865574510 -72.955983974080581 -198.712091759791491
101.992097508069222 -69.743203321775425 -207.377996962985804
107.911228316173208 -65.587278792671313 -203.176358107576220
12.027917594760616 -69.603494461986585 -202.651128181994778
-12.539865243554132 -68.143859639243715 -204.543695947183522
-127.015259650792004 -70.473460440528569 -208.117916302650912
-123.299414229147104 -68.750581510218765 -208.177787943803594
22.553157026898674 -70.343415328045310 -204.953357458565023
21.922953096042082 -66.415708351777297 -205.910915946073061
-140.109951088980324 -68.614368165423073 -202.230717566625060
-7.155882346834964 -66.817955741456188 -205.287783386659214
10.094383344083489 -65.069549751770509 -205.302337256168187
-18.909628934093647 -70.232436861798618 -208.169218806937636
25.792648465744854 -66.824620920265971 -202.513259911697219
-9.935323159595853 -70.695120510981425 -211.862803269116171
12.263150576594612 -69.327631930443331 -210.074346632074338
87.885059638808542 -65.477617323079613 -210.563598831014872
-148.553562018643049 -70.007616254991888 -210.631461938197106
-14.367179449840137 -71.922299980425151 -213.012635347303160
-21.613412902293462 -73.082086708395266 -213.478422807230061
91.285638942878478 -67.692709950626124 -213.393626885222517
97.065073008338572 -69.450489131038651 -209.942666418104722
-149.955984410899362 -73.104101353673101 -218.750694202829834
99.454198682225567 -70.526299174290202 -214.758692973891101
-167.329667574755547 -73.480703503655093 -209.670340586049633
-77.608920473417456 -73.558139490855638 -213.231168641554319
7.283252012744221 -69.658366746780928 -212.827047442738206
87.720390064616069 -68.682266405431847 -218.221228561621842
-19.657990697407300 -71.010830132060136 -214.763220066002816
9.459426282546509 -71.144903724013631 -214.499404411777164
-28.134014569482261 -69.866492845402277 -213.377829854529807
-85.209358672224184 -70.383265209777562 -214.714112908328360
-83.243452813801937 -75.482475824319991 -218.422385416667197
-142.663831208335239 -74.495343731694575 -219.804297176193444
-30.716466371973326 -73.094938286680332 -210.820271876496378
-25.914292508420445 -67.710649376826453 -217.415599164094175
-154.437106187514871 -70.751577724688786 -214.782577148186789
-23.470304666117528 -69.284954397026567 -221.876013253757179
-27.477982293132115 -70.056791136475297 -221.521022602583685
81.068554030243348 -68.419103647637101 -218.217064664356883
90.256400736262890 -69.933148998824947 -219.209363741236018
85.053155814205326 -68.064008764263846 -218.044007842247993
-78.767006976702888 -73.693037574841611 -219.322945366348506
-2.203301598980836 -69.110676858435085 -221.034087098190582
-99.915030930493927 -72.954723509787243 -215.955317729256336
-31.550257250101780 -72.087897792737778 -216.793452482093045
-152.733031858754998 -72.191621960020825 -214.849065718729150
-86.132536948957281 -68.509156160703682 -215.291214421318926
87.276924109948624 -68.161895564860416 -225.301302913089927
-1.352945816997334 -67.105821789437229 -218.529513288437784
90.661066050750861 -68.565728420397932 -225.050953542786573
-161.900080303381685 -72.681322678268558 -216.483379873526303
-10.445662123363768 -67.527741800812350 -221.179285170087326
-96.996218247570241 -72.349606036510920 -222.908727883849792
15.131129468218489 -69.326041839089868 -226.521750838010348
87.283686743982329 -68.977496623403169 -231.256695761758067
12.763548122246092 -71.061621526970498 -221.624889566954749
-148.837801590772415 -71.961103368952863 -227.962966070865036
86.613444830592783 -68.197645784843232 -228.394529921698563
-162.879167949870236 -73.936361474030932 -220.601972927715792
-158.445605518072739 -73.419496635246503 -222.450765707073913
-154.305736865679251 -69.739140464227233 -223.752634718035381
-101.691207768996790 -70.146826622307671 -225.776274747422406
-21.891434031079342 -71.838233593782419 -229.414330489784447
-150.232249311476949 -67.413305184645466 -229.370320285796168
-107.171602953874768 -69.304495694193236 -225.130758845868343
-4.199556094674882 -65.279282402863373 -227.417823447912752
-102.136248470706349 -67.923440165732913 -227.121790441830001
-10.224640418652413 -73.162229050484711 -228.907855480264118
10.113453177560274 -68.537290011148514 -225.679588857898210
-166.144311062032216 -66.828425285438186 -223.306197554182688
-12.191452575580875 -73.607418815799051 -230.272623719038279
-160.955441578518730 -73.344943807556319 -227.918575098585535
87.064218651776969 -71.145996890553562 -226.728371488544497
4.034394427226665 -68.836027199032159 -230.654831478949092
20.012543284480785 -72.956000501652170 -227.288649632202294
-149.647272764946138 -73.685726687472467 -231.863364113775958
-138.472539803619952 -63.232500180562418 -232.408578534908116
-123.104331797892726 -69.839467898590783 -226.226281524387957
-103.501448986482771 -68.974486339180388 -230.562573368379674
-17.365118772225884 -69.659907667502353 -227.626644373156978
-108.269161242962710 -66.312443393013368 -228.266220381348603
-160.869017482185541 -74.745256281607567 -226.809824278885458
-140.170219087107853 -72.386965313587552 -231.286982702371290
-108.021978173326303 -69.322648077989086 -231.359119969821620
-102.414390000000523 -73.086522149733483 -221.916691830017925
-12.094515613107170 -70.885500843286081 -229.235793932170452
6.742789827894455 -72.026356152276236 -230.506705031961673
80.177395217188689 -69.143464096786886 -232.450002960177585
-162.834144934917333 -69.272167062858998 -229.625817412573554
-158.125347107690288 -75.455329027900476 -232.141271033947135
-142.586289758905025 -66.531545429684058 -226.245571484220420
-123.461202392822102 -70.720868285765306 -229.448343072626272
87.103718518510391 -67.166766413274104 -229.364094096334554
-112.680836666113194 -71.666711118403953 -233.570830536916958
-150.946390431760278 -74.419651184046828 -233.448542995693401
-155.375629651864813 -75.677047635865961 -233.253677842351266
-143.246002151296523 -71.198152766990290 -231.040849434686294
-120.888843461258048 -69.893664389077429 -233.717719602615489
-5.070086203643960 -70.033557137674819 -232.979952194426772
-154.953456844879668 -66.695389230369841 -232.223031320883081
-122.858246556414898 -73.652525373924178 -234.238680286008616
-11.243541358414518 -68.762922346190678 -233.315351762214647
-164.992275645932637 -74.013404459284743 -232.333186359682344
-141.755600758630464 -74.638556691950782 -233.174753099453142
-132.805254604369509 -74.449212765878059 -235.777313052200810
-152.490202644115698 -73.195333611475988 -235.026423612995245
-130.140867601643492 -72.670166399864826 -237.795914898543572
-119.631853762763669 -68.055265022236810 -236.990432208399795
-150.595418125446884 -73.001637191371955 -234.715029042280747
-144.763803936222473 -68.841735506986424 -229.774519722018454
-152.779774445658973 -72.688507545322736 -230.790929052744502
71.945194281971311 -70.064809436862362 -231.399898131234920
73.417321525282006 -66.506215720729301 -239.640078154965238
-156.454999565867297 -72.769372997984377 -240.027328547482853
-149.175477138763597 -70.525025880344543 -235.383667183262730
68.715135076485993 -65.546671676060527 -239.808588629044834
-15.631512324621227 -71.916568452947061 -242.650038092549437
-5.041293805843907 -69.848279046316676 -235.563343556994397
10.339084676667284 -70.989688525902366 -239.509341805639224
8.786820233018602 -69.714725337623847 -242.290788594905251
-169.108006097464965 -72.395341735845719 -230.663443894612328
-153.583342575662641 -71.527076333859043 -249.551811473408208
14.310257017971679 -68.223961936157636 -244.573555696305419
63.423723943824655 -68.542739363924298 -243.598283302004660
13.438118602251180 -67.523734497818765 -243.446994496297691
14.550503648006590 -68.553113668327740 -243.927696355892692
10.485398332137542 -73.901630306321451 -241.978443160409654
63.756893292025588 -68.858081200682221 -243.464076893624110
-7.966604272483167 -72.033118318742183 -249.419419980686030
-19.383990352463385 -69.029156599161965 -242.476734803647389
-16.815946374223159 -72.818775036499488 -245.857993347964168
-16.406739951294270 -74.236588318235448 -244.685530577512623
-1.679104517673586 -67.821852426124792 -245.084060589194280
0.284494254040965 -70.493656448525883 -245.432386131750434
2.364893518707163 -69.773203997205670 -247.021673379371606
56.375061230613980 -70.627161667354159 -249.252147273206958
20.517289549753723 -71.240462988855782 -244.932917218650317
-55.370951447935909 -66.505294519401318 -253.054292492594357
22.322972884870534 -66.072727061326106 -248.200844855740741
57.940005743860738 -69.015091619615632 -251.381833917587045
-59.201256343329817 -72.939859995454967 -243.813507801831804
17.390178023865694 -66.750048270356743 -252.442146829351742
-76.980526651524102 -73.461781473285228 -250.088913761863921
-57.694441646688375 -74.517801748537224 -250.485001892001890
49.487991537883708 -68.542691434081746 -255.466394261776543
-12.267486099236010 -64.454889508566808 -255.690478217092590
-57.376913098267252 -68.831479777292088 -256.941115717393245
-55.326253655989547 -68.373050907791665 -251.303745729152467
-67.487299224063960 -71.626464149010289 -247.458728156150755
-7.082739258316579 -67.242120112650554 -254.475330171807599
-16.144010084730027 -72.001699413232785 -252.924366038315100
-85.176836671447958 -72.595573098234937 -257.098411350446270
-83.525710523607344 -71.922312617026193 -252.703455807207945
-71.123888723292609 -70.699130146024359 -251.291132269605043
-10.086198308522043 -66.082423119154328 -254.438369023465157
-144.059179523532578 -71.035335105384718 -252.820265436228084
-76.306207832959245 -68.119361876755107 -254.736474216472516
-123.541518039313971 -69.486748261940249 -253.510860753639776
-99.171996650140088 -71.367690157587745 -261.942377773901512
-16.604182715714643 -67.410612998167139 -258.519995204595659
21.539990052484804 -71.958536354071910 -256.933009036632427
-112.359001517803435 -70.978186594083155 -259.561244015286718
-93.944289831509465 -71.369350153634940 -257.457875564826111
-108.965812877458646 -69.196170096197406 -258.517136106164855
-103.213052368529119 -74.579910518686873 -260.944239653408431
-104.726815795625910 -74.309798246639289 -262.599586133140065
-103.818693788332055 -73.224468408117346 -262.180059136926332
-111.594660455448960 -71.027773112007353 -262.216834933358314
-125.362834796006084 -69.619881241742746 -264.891461098018226
-164.559894717482450 -75.171106365418495 -261.244521571682526
-142.167978103662676 -68.189582581250207 -265.086850513185027
-146.015641982868146 -70.857539134683350 -266.772031396365549
-10.622003493121042 -72.546740560660808 -274.576992488118492
-167.016622436305170 -71.216300951289682 -271.138589725407655
-144.820355868710692 -70.313711294224490 -280.302299463394093
14.269664410098471 -70.154669463254535 -284.208613482491216
-125.511037011829885 -71.215901768951511 -288.320811271999901
-137.326037359236238 -72.429586857683262 -285.221734975381651
-51.799423442976405 -73.391594233126057 -284.693788043946256
-85.548358837462828 -70.974337309801129 -287.772994964060899
-67.166840423384258 -69.416081284969394 -289.168980375426031
-42.753469873746283 -73.259038969728380 -286.232384303392053
-118.976942008275827 -70.038191443907877 -284.455362373487276
-28.261730744644481 -71.501879575784145 -285.290241759653952
-99.825209474588078 -69.454556145690006 -290.777519024835044
-31.461491427794570 -69.104827613631457 -290.927962571374962
-23.956131656621039 -71.968732048558877 -290.055474176417817
-3.320181839066947 -71.262824391668730 -289.749357996041340
-170.872618644833778 -72.350947631883784 -289.604894435266488
-14.367512448508990 -68.207011815282755 -293.087879613801249
3.757795423224941 -72.763107370443336 -289.928905725250047
-27.794748906364575 -73.923504126278104 -288.776440603192441
19.543022712264303 -69.429131406308912 -290.694005341112870
-55.282826177602644 -74.527975727607213 -292.748563247481854
-35.908510536561039 -74.678158295211247 -293.222821258454644
-27.311925427903688 -68.452470940327231 -293.898415870177871
13.674497557907820 -68.940130387080089 -294.746821285704414
-67.414451774717790 -68.680008540017624 -291.123570745067866
-65.146466539952442 -75.466429707337298 -296.333413006697697
-35.582418232691197 -68.678102659493035 -295.844488110216787
-13.997055620347894 -66.104323312717383 -291.387749852669856
-83.369904919636966 -69.060632159912231 -295.969284411788806
-15.959550415649801 -70.183238066291366 -298.252787619962874
-8.646553678641943 -65.635741553603850 -296.239446153691915
-96.307368972371322 -69.983487182643259 -294.060673492034482
17.087965181237031 -68.028393309951156 -290.494401861033396
-6.204025016733283 -67.963089023835380 -293.206624656594670
2.580689815780566 -67.410378352103194 -294.451589305831476
20.286567717097284 -72.694507085445736 -297.630130417346265
12.126209962376123 -70.299313212007448 -301.270356012948582
-133.276595685001382 -68.794258202025418 -296.718441211713582
-140.213196897442913 -74.948136985563309 -306.115870216022188
-155.016787422256755 -74.523831894261107 -310.958779887375840
-156.501956909331852 -70.483777974071103 -313.118512396898495
-147.183509906652489 -73.610756383723469 -312.709574289558475
34.161038329321997 -66.779915188950639 -20.200842373057952
36.509811270328996 -71.261627462122732 -11.828625985935311
41.416044959776286 -72.302574558318071 -17.966381167084588
34.077993319410979 -64.090820746986012 -15.628751612645219
37.231987390065960 -71.812094162719887 -24.010056394160934
