# This PCD file was generated using the MATLAB® pcwrite function
# from Computer Vision Toolbox®.
# .PCD v.7 - Point Cloud Data file format
VERSION .7
FIELDS x y z
SIZE 8 8 8
TYPE F F F
COUNT 1 1 1
WIDTH 798
HEIGHT 1
VIEWPOINT 0 0 0 1 0 0 0
POINTS 798
DATA ascii
70.345058888426991 59.548275678603204 -105.625224783499931
71.352306151579128 125.866121057949613 -113.968080751352971
71.188377363796050 118.801839581031871 -109.255342931385385
73.626909431761831 131.302277920036431 -114.462929437826332
78.188260776657188 43.228811740833351 -115.508110814688365
73.884872532376832 42.592030205524949 -112.507887125174875
70.565550221416657 124.834045086936769 -116.437159473864483
74.020697427207679 123.343528098789932 -122.297237382666196
72.923117268799103 55.383021132386624 -115.168966849755193
74.946630511403484 126.452313269837674 -122.005300002665990
73.253475386005945 54.060363019450513 -117.979471629441889
74.312851255758886 42.426764226263444 -120.238670884392320
75.224911335521710 -44.875728547410183 -124.676854786022233
73.456033884183398 43.422045578175400 -127.569808394300310
77.370377448602483 122.090982825625673 -126.670812753625881
74.355163612527974 -44.902670506671477 -124.797872628940638
71.223257231364414 123.289046327521021 -129.275724155416327
73.222407011766563 -41.360838184209861 -127.028769723449898
75.287228196015235 -57.733686408816467 -127.578616180486449
74.159006080585868 -61.517835786733272 -132.677402040579807
76.196198201521284 48.975645889063472 -127.420282860753844
74.675202205360563 37.272197664983565 -127.945294178787037
76.511096783436031 -58.041117787042538 -133.424280217935632
73.307258698213104 -35.207974130948692 -134.184477615314137
70.840030855448688 123.658882164628992 -133.152759203653602
73.947716069580025 47.588934032934041 -132.461081322322855
70.910300719654131 120.216410150744622 -132.131167173548562
71.453947928822544 -44.372539589422402 -129.405873921694905
77.224357827463848 -32.606255023401204 -130.567161527950645
75.861851757594494 -41.760750772751237 -132.608875673519407
75.963322762779399 34.367189098292314 -134.440621044561709
72.456382615993746 124.530856269445621 -131.735750918590867
73.516097022247877 -60.251669354191932 -137.838742890560866
75.571389543422086 53.300075435079506 -133.629680942968150
74.788504531705030 -55.490073656823796 -135.755326883203168
70.314699631854367 38.334814251457885 -137.866213095867437
74.832792661049055 127.177211327215545 -140.672320269575010
74.089423087139380 -60.589965541795607 -135.950717076444107
72.939638126341492 -59.389190416501492 -137.157270591309356
74.017998343581411 -66.273033065767521 -143.609112986251773
72.081129702662309 -45.986915536998382 -139.145362601676595
75.772076019847447 -57.779303831660116 -143.183068990550964
71.078900129569718 -25.023436593401748 -140.995187701148325
74.846547913481714 -28.780568174187579 -145.295093830915874
70.891945606136744 21.692088461937558 -142.300009458791038
74.393592693968259 21.939349822963393 -144.936165885292382
72.669597546530312 122.694142692290924 -142.456352028597109
77.586285418191736 131.614055914094990 -143.820818480762540
73.797396778361588 123.905944363930018 -140.105772306567474
73.910646914593158 -26.929894502032887 -145.783028064803858
74.077891389635866 36.024848486438870 -145.187509407971788
77.895106405190731 25.967830447476100 -147.833634802181990
72.704703496555368 21.318729884457007 -145.875560171283212
73.617628909019373 45.479661288818377 -146.394228437244038
69.983596574233133 -55.753192226721595 -148.353440723355163
77.096793314007613 16.059566409964564 -149.099854035628681
74.111156909126493 45.916822420855006 -149.459576977072516
69.748875602192385 -56.262708435928957 -146.486689584174769
72.491571821782230 -17.551443530392554 -146.455536720278872
72.794022945740707 14.641795800172421 -152.201534123760212
71.823579086814220 20.987408601038695 -151.330162834932423
72.402517369021936 35.009826061475252 -154.017461813167387
77.432480746880714 41.996489043634334 -152.650572404043857
74.988879319352449 43.888552197045442 -155.109290329455149
73.821005184067403 -33.610745523876915 -153.378676582385509
72.912050866471318 5.335535199474528 -152.964048241982425
73.635734758380920 18.392284017123249 -153.586903248309994
74.342382711150691 118.589684474506058 -155.192392323431392
76.158057908466802 -51.235768273848734 -158.084905227410047
74.535839081627017 7.668932456285122 -158.841571822660939
69.209020487190941 128.218582864336497 -161.938475140337033
68.887829962599355 7.749408497428802 -155.659879144286947
72.865768721177716 -52.043396437724240 -160.721115690772848
72.098470072752136 -19.489679222709487 -159.502814459483631
76.082922263848047 33.802936362580915 -155.685769514898112
71.195613774916211 124.309633337829823 -160.402311143532472
75.537394812328174 -53.708130851368324 -162.489799060227369
74.892377725320188 30.346788138140688 -160.876253275262570
74.203114653226777 -13.989102420456209 -164.633323730723305
71.604871487994131 -46.965792825921241 -165.152431731363293
72.690751207181776 120.783316590287583 -164.660551450088377
72.741459703355062 -27.163915028647800 -166.994663296675583
73.166970744846623 35.900653308325097 -163.522612322794174
71.785341773047463 116.629450841207785 -167.274674216026824
73.310985201965025 -131.095389008939691 -165.939340283182077
68.271487790832040 -14.197869349173040 -163.277917818374050
70.212504515015866 37.600381719578763 -164.890671554638971
75.183376462936451 -131.446786022981172 -170.285811785186382
75.130869053106977 -27.354773952896835 -170.187228705370984
71.548433178070837 -24.303302650671732 -169.423927109097463
73.284938369985596 -133.312031735726151 -172.407106552337865
72.803201664190141 -43.378667478153382 -168.677728320856829
72.795368990631559 117.412234064345782 -169.483525364980949
80.370439555944102 119.419079797950744 -170.770516387630948
73.544246170145314 128.697506108320624 -170.268213989961311
70.727933921806112 -132.692064842856809 -170.392395400698263
70.934375667620657 -135.415292450937841 -170.089204719655612
72.163332085522299 122.348171076396213 -172.967868042695557
76.595910737697693 -8.694363527431186 -175.103050954630476
72.102086773615653 120.357468694731452 -174.408100293797077
74.827926365876039 119.946836912693215 -176.391164902723261
73.734214381337935 -11.838889118313851 -175.616965695093995
70.185214846296745 -139.441515978132543 -174.618161181457992
76.687122998570686 29.842334697236439 -173.934778232017436
72.045126147197948 115.143582018099991 -172.593222911649775
74.493168727201308 -20.951148817298886 -179.208963760395790
74.857188021658985 117.203958877054873 -177.348997954612713
73.999190359093774 26.608391749725730 -178.823070057830080
75.117519716457252 110.079150954334494 -177.198856209444671
78.200227303260249 114.150379764139785 -178.663043978966584
73.006425667371488 -6.675241496640812 -179.441785557076599
73.459851068344008 -16.177218494637390 -182.391817910724313
74.240400566736938 21.999779920419329 -179.730880073472605
73.212636009405429 110.596914536784269 -187.933458910794002
74.777222249901115 -11.951215624074180 -186.046688453099307
74.009699604403679 -3.450511208678382 -183.180782972412914
76.485039547325357 -15.123405220918340 -187.650991816568052
74.020923426944037 -121.022608549946966 -190.156941824626017
74.980820032532833 111.530702461073815 -184.760569081123123
74.288943521867509 -114.487207757708688 -189.359628641508294
73.789754131835949 -5.832942155240943 -189.190763574592381
75.602650223141481 24.247873515757412 -187.207615311050745
73.549513750629984 110.032541509981485 -193.606176866201054
72.664787317359156 112.914889581849607 -189.203033766087145
71.254511628426272 -122.426359351110875 -190.200614930452872
74.825430065313611 -115.149535834848848 -189.196006333236085
76.062797303256346 35.128074566438883 -192.622054094097848
75.955258264870622 112.726193672687771 -193.609670842732612
72.520232883123256 -115.792587814288851 -189.861763515580151
72.617418347419019 1.187638991498252 -190.084577336887236
74.147076033364215 21.619732421492799 -194.461399683662137
75.116876558882666 -10.248097785722543 -189.697309811925919
71.175311293553648 -26.016889473958940 -195.194450873563426
72.576030770713430 105.279458351476919 -196.774358526667015
72.602494122447553 3.515055199300365 -199.698901504437856
74.278316281463830 100.869885373591558 -194.201034990832483
71.487159156824745 -20.458963400788356 -197.186480377660388
75.526935074717102 21.130965868293991 -191.229837242645829
73.070858808922367 110.757069787782441 -199.158998299490833
74.376904352597109 -64.895646591739890 -197.455697883629369
73.368210111229729 32.418733543769022 -201.266237499231011
68.936615333337429 103.944222563935128 -198.904945972246509
70.328120173282571 -13.836373606208479 -202.551399194983276
74.723228990018171 102.042521556843056 -199.571998339338194
68.113415991020219 -7.367458044169339 -203.401200953606747
69.494434374759749 -73.742877727518291 -201.807740574287919
68.738904488431061 -69.534409319589471 -205.934240463960094
73.041910675042146 30.167429637363885 -199.828468539666829
75.164187607270080 -17.559263988218433 -199.316913209609766
72.887158608401847 22.846933694825495 -207.734248339031637
72.012455746811028 -5.437689476078990 -205.176911898577544
73.772513451486475 -11.545172621781958 -206.702323958633428
70.197828422206243 18.169127716092714 -202.067245818186137
72.250367689944767 110.410847788131250 -205.672164122590686
74.558478788235206 8.517307968318899 -206.254827133124991
73.236990567032620 -75.632093165390771 -204.678804431286409
70.753632223683212 -7.878483386328636 -207.190718344105733
70.300524256497823 -131.389238698145704 -208.090946781254644
73.357177643109310 9.287739993471803 -204.342929020975845
75.509562061334876 -4.501422557564506 -213.193651540757656
70.503481098987081 -135.230428677567147 -210.298414910852983
72.241204839443142 -78.738742066908173 -212.592508882068131
72.426091914067541 -2.990938518320062 -209.536405637101012
72.408967743593166 102.104474182308223 -206.028804804978535
77.276678874742927 -88.983974141490862 -211.442695410946669
72.518699092834211 17.441063590299009 -213.055512032857138
74.887420163546707 93.170603179876352 -211.973409697682143
71.577200378083319 -17.984974799375067 -207.489603724260860
74.476950496205077 -10.258672252151207 -215.003712509548734
72.444421229007972 -2.754374333829738 -209.450897523291957
76.212473757296564 -133.600892572689986 -213.239560717184133
76.991510237329763 1.386760948838223 -208.411937663691788
72.960529777868274 28.581857002702847 -213.003362085661649
75.119879753397115 93.273527480055037 -210.352819055368343
75.104963020670354 19.077877999143965 -209.938244712164959
71.459634934172342 -91.586377643358475 -215.190068449273923
74.543235955468788 -153.150228243812762 -213.458076001487171
69.940094831317523 91.956952505317219 -216.159829767571665
76.306121630158117 -120.008622981595181 -216.777507713261684
70.324355930276141 -114.286619059325858 -216.896889976805539
72.310254201277615 -8.581340371718142 -214.324664777196631
73.925975510002388 -0.173953478915429 -214.830589442343779
75.629039697458850 -0.108746057095304 -213.933736139636352
71.514625735560060 -150.144540935325608 -214.519104448459757
77.309955079058739 -117.352171770861361 -214.308601607701064
74.916494150606496 19.261983935554738 -215.845591174909032
73.307777640702767 -122.558201006083550 -216.851105933013770
73.477177254530588 -114.971997573725076 -220.136190932350701
72.750877574370051 -136.785826777310461 -219.830285495794470
73.893463618117622 -125.591980142475592 -217.355861095339066
70.396197822658962 82.828476677837074 -220.668038193355670
74.594674094599128 -128.646331479119027 -216.923233287219006
73.831315510395882 -124.715224336268079 -219.281494974660404
73.528143179968779 -151.053325625555630 -222.477333320228325
71.707854894999059 84.496038907607115 -218.087381119199534
76.824742724877638 91.686116150398547 -222.547053138002610
72.183597264473946 -140.474397473165396 -220.640993249465197
75.563451499603175 88.179587389115611 -223.387154319329284
71.395166604359119 -118.223478991058329 -221.433864952661082
70.933913387440384 -114.314319823924279 -223.966437463076943
78.055561417641059 20.132549629971614 -220.827923909816576
71.087071481825916 3.797872973140176 -228.313623606868987
73.693567164635567 -147.622722914813153 -223.274690516700758
73.609246514723921 -140.874105536394183 -223.336228742540641
76.098860979449711 17.833198971029429 -223.868731156886895
78.738708999503743 -130.067731760800001 -224.740457785548017
72.011624824594080 -146.503768481672608 -225.607582111623913
74.354964841659125 -140.274777460747714 -227.022971551952423
70.333777289754082 22.991866090567406 -227.894650328566286
70.906228473697524 -149.497085253074573 -228.952066032014272
76.173982135225685 7.245141362515850 -226.453928915873718
74.642076519734232 8.608367090187143 -227.464353502180842
71.909189168617360 -5.500258639652390 -225.764710728054752
70.761975795603007 -144.049936849914559 -225.517143575961484
77.941851873967380 7.593614060387706 -228.507814712068836
74.652090616499081 -133.264584406865453 -230.882188477215266
74.675720064928768 -12.305297971173765 -229.367763423710301
74.381302769914058 71.652237807190716 -225.391366552311268
73.306905046839418 80.311227653993541 -233.038760620350843
73.880473705677559 -154.204813320720632 -234.038493940880386
76.193832635001144 -14.623551939509632 -230.408626530518234
73.629683205105962 18.580535404072897 -226.950677826735415
72.726186323589204 29.825724200541657 -228.649636843528668
76.129705083519184 77.958158135676470 -227.027629561039618
72.815358636799033 -137.593617431237135 -229.577216591340601
72.649335536358592 -150.430382270961019 -231.777982981092350
72.778618991600837 10.748571695682244 -230.459781619734940
72.176012728507743 -152.789111962127208 -232.044427078958989
73.926239350435893 -135.285357962377532 -228.692303223805027
73.994802171624599 21.435549336620184 -230.547644580541174
72.638777142223148 3.712651852018432 -230.235946051382768
77.455531515621814 32.985655774214266 -233.065464991641505
77.148418394711172 -7.973178207287159 -232.701454797388948
76.449608385423190 70.786974682714487 -231.086134044837252
72.029489527192837 -44.636876468025875 -232.544308147025333
73.906597160516839 -43.424653082648447 -230.723537091034643
70.298498934778834 -34.677711466171075 -234.950493125265666
77.436542070906071 3.121446678297731 -233.984974121078437
73.674198189227226 22.715465776905820 -233.315341091440558
72.492869562289826 72.082595325250423 -234.951452888440855
73.465504607541561 -152.750877150385691 -236.030592630989446
76.577361098702255 -46.349146871879540 -234.243393530620068
71.967510649047242 -35.821864655476304 -235.132588963393516
74.337866191177753 7.818098102872368 -234.592647293609332
73.602559057879617 -139.264840961562101 -236.229508128874585
75.749589393258205 -57.248704623157408 -234.868439616194479
72.501188780272599 32.730461445733027 -230.821918003504834
72.913810078131775 -142.252582099109333 -240.644528488822374
69.666886022792127 -154.735380067580735 -237.652622169745968
73.567940804149629 -36.762221676573382 -236.663375216740661
72.624831443178479 24.851556221645779 -234.236478249203486
76.117740938491423 3.755238691705456 -236.856780177918409
71.250013518698694 -58.270178003828306 -235.818107200844281
76.901646178295337 -147.778229422275473 -238.881067855943030
69.342342495341782 -39.848925496520216 -235.012693342130547
74.098138694382214 -147.623729075427832 -243.759695316324411
73.815416262123634 -69.229814711915267 -239.308904094425600
70.959025512257284 -52.104253930088333 -239.219212344184456
69.277757537473022 -147.470029973974931 -239.698189610035286
75.524409179106371 -138.522209347460290 -240.715746719263507
71.211306665978924 -53.816169372178280 -239.929388315673492
69.093866371608300 -132.172247664575849 -239.847319721756605
75.565290056813680 -148.857667098039570 -243.417364476002916
76.162988767793109 -139.722940321906805 -245.065247474494697
70.736883147135188 -76.747427131160052 -247.788424364177331
76.889063343306304 -62.265915474625302 -243.108987125944452
73.395617762422404 -148.755966179263936 -243.700506003469911
77.389640494442702 -81.636722774270751 -245.940184166172060
71.910360594892154 -138.012362696390937 -242.400491905701557
78.996619887621094 -143.593578718820766 -241.505106728781357
74.843550956133612 -116.900716393951257 -244.130183808269663
72.960963690049141 -117.868032530773775 -244.319557156494881
71.205716485330711 -6.257340782550834 -246.202589596455311
76.247771845081715 -146.328968755830033 -243.113796976583075
71.502512497653868 -77.732665639537672 -245.727768051311983
72.490197253266743 -106.540634501351477 -243.467571982731243
77.282622379451738 -89.974253065333230 -245.818687072660140
69.406618590101246 -82.544336234037118 -243.832276611322158
71.062213586112591 -125.534834546235913 -249.419740217555614
74.984398024183989 -154.228823063360920 -248.568762553289275
72.595656887113734 -115.416649279949056 -249.683009729193031
72.422083192826094 -97.270302613802770 -247.305834495415070
74.302790017170921 -85.454563323831124 -247.926381731340086
77.470537744546775 -79.992212024407607 -247.716294277038060
74.416828297686294 -134.128250050806997 -248.296609928981525
73.689520817811413 -102.441444921984257 -250.250518023354346
69.339038297835586 -140.103491678009533 -246.159927639249702
73.273041361731131 -87.302360014549421 -246.727606659093965
73.903671294249477 -95.769516128725556 -248.511480253778416
68.224778637407525 -151.140517907139895 -252.625152249941095
74.566638439852042 -100.154344410856240 -249.715078958432628
76.240423106076037 -94.442436644999404 -250.984270915653838
76.400578568533973 -135.345882684392961 -250.229584518827892
69.018866252124269 -154.382505530642703 -248.375763680666807
72.177414135983838 -144.857177571642694 -251.199716911760106
72.080824905400888 -135.651244653249535 -248.992157879564388
71.189253359906743 -134.953693329033229 -249.097879185866304
70.923600130334279 -99.588045072687663 -254.266172775461939
73.144011388621792 -2.572598404770556 -253.847299714250255
72.782551120623253 -108.836694043265865 -249.160089115703045
69.380337200162955 -145.542405465553884 -249.506053144409464
77.899281209328350 -132.403225150408758 -250.155514647676057
75.874375268506270 -122.377599234659925 -251.856163808189422
76.193601491969815 -0.798499083821628 -251.492463676658815
73.696479468782755 -143.151535017912039 -255.362916550732336
70.986475527702382 -135.364867765390898 -257.429492486708568
71.612214434018782 -155.149619199693802 -249.827741683013130
69.181843945469510 5.885660891998831 -266.757107477546072
74.556832988340361 -155.020663280173324 -266.787002650880936
73.354513171851579 1.682846253855041 -267.467365610205377
72.577870611232711 -134.015993768071496 -268.377083006126895
76.550826550770424 -155.828992916506508 -268.632808833254330
74.219294134583663 -132.745511152747241 -270.974488015137752
76.839514765736652 -131.477211493272790 -274.550342458568139
74.530628331405566 -128.612368181635276 -274.409352063367237
73.179856459283954 -122.973886063389017 -277.186576542628302
68.640854226968244 -52.723699837280719 -275.887693556967349
71.116417256993202 -113.121627267488847 -281.492516627563475
73.030981729829378 -59.807050642756437 -276.144725768299793
72.717678134640835 -26.550220731123026 -276.479873227595476
71.816847235067968 -22.288105466747588 -275.927390873392937
70.218811217152322 -12.185282737857623 -276.418231667160967
71.305883129947929 -110.563147960817020 -275.701447456700237
73.331532709870615 -69.953765498450309 -275.652943361802500
72.601674149825655 -18.268868591781654 -275.157793347716051
76.021420175893496 -3.210958661867227 -275.776241300808351
73.941661135261455 -103.721779368442398 -277.199111738468844
71.930189855114378 8.539029420901848 -276.812437134287961
79.009312094393252 22.118674313593505 -275.561925428757945
75.393854500176033 22.106408763160324 -276.627841670579414
75.735874077144857 27.992779627012972 -277.289147374418178
77.430920049332912 -154.374683920181695 -284.628166935942602
73.133955706654376 -34.438832201924498 -279.087619130697590
74.640412093646077 -96.684355956757273 -280.258829644795981
75.629547370859498 -78.358484183457350 -281.531158682287582
75.007629039110043 -64.571209406498824 -284.361060752501203
73.136955630125655 -54.778165291389186 -283.670732466802463
76.678529331150060 -85.453830835267709 -282.058325655908675
73.028754404161006 -19.502836705217465 -280.735601897312449
73.289466328046558 -105.115890694991222 -281.448681466729681
71.547353900681344 -102.309836326643563 -282.769776699811928
79.880687137921370 -95.171867247999216 -278.774500313266969
71.549188107517324 -6.055028771772989 -288.788489770090109
68.605817548941516 -4.812604873742412 -282.509161647955409
73.469036882660163 -1.922198494341458 -283.230424041457525
76.908099394343338 5.327450771653690 -280.521196239844869
74.145416430529053 -108.594370845910930 -283.534561590033150
74.033263129977129 14.614090460894765 -280.055213965773135
75.577994316620746 19.799618587271159 -282.971549619379061
79.351154371851919 27.905755130900161 -283.186734950086588
67.958713468015574 20.133307023715211 -282.415514496632966
73.207877563781580 29.999067994237457 -286.704141515096296
72.520736591658363 -147.916362313296958 -284.028337984459370
70.603380672793918 -130.563700621312506 -301.041799428193372
76.652747397291435 38.776807240190593 -5.592058585160197
71.911546391845263 46.990342763888457 -4.251805586684037
71.740547723811360 41.512517879763863 -12.369435826287926
76.223438351818103 35.487197184526288 -10.438456072170048
68.949705106280106 36.318551407494645 -9.365780776372645
70.976511028375413 33.546775493439391 -17.200229987300268
72.670892200139335 36.304157538133204 -15.501631390402334
73.323638129047666 34.573004539695162 -23.066777001357153
70.643730483678027 31.989831117003845 -23.186247156605852
71.525295622777733 36.837032549029871 -24.826453523255410
76.457488657400788 41.357733051188887 -26.364984151560044
78.474297400823318 53.620238717897081 -23.618116464118756
75.966049200822013 35.090355116977165 -25.534741347727454
70.020259957058613 45.133051887792895 -28.536255123827118
70.767601695239861 47.717504165584160 -29.368155753233999
72.535148318407153 39.970666753013361 -27.471488051219204
77.175007870638410 46.505663321252648 -29.307239438257774
74.926295725548513 44.703350667529065 -28.251944603508832
72.075546613610328 51.084874313848552 -24.888499136593730
70.414323840853143 -46.526703926408459 -41.151299910503411
75.381003483270987 -33.507674123330858 -43.096067084352327
70.485835211556292 -23.530749785926567 -44.677346656856002
74.047561365688907 -70.024783948773177 -45.339373940426917
69.725151342301032 -15.459658422703086 -47.154168931613064
73.923355709820612 -70.375391092097246 -45.520106255591109
73.195777624043330 -10.999711470930126 -47.821729849811128
71.599948607285370 -72.216876754831318 -57.223690668117271
69.749124830158038 -2.541019025578519 -61.965183989180858
72.759641368198999 95.803314988828802 -60.077471956893007
74.181871583470198 102.719098384260377 -53.686433066153789
74.709424295011132 86.643535792206421 -59.009333062022108
69.321521293905846 -8.172098231406135 -58.587220485605144
72.921870939094305 93.953855932685585 -63.880074797793498
70.532081858096205 -80.303127182928776 -63.197947340457404
73.684513756445739 105.673326782985754 -65.064231425543127
70.142967795431332 85.993772173238142 -65.803509241406402
74.930225302564011 111.383650599027021 -64.425716576635949
71.589908960596460 -79.303539381949321 -65.194106690604087
74.625193896599924 -13.628739897509433 -72.037678388792045
74.396909760423711 -19.404699444737325 -65.502506164840995
75.028508627865392 107.963500594663074 -69.663248070887391
69.358623288453245 85.816973220840055 -67.454903986374134
69.843640299925127 -32.439352152388523 -71.039977395553123
70.523654420755690 -37.726022279794137 -79.130261332544634
68.249363236810041 112.363469748987342 -74.063002558012442
73.255637894742023 113.579989086748384 -74.760726607436922
72.702070334714364 -83.080435078608147 -79.426682310364271
74.761049227598136 107.848992712223406 -80.378048920477539
71.801472664708299 109.231557897212156 -84.649085630818277
69.908540019841496 72.593434864979599 -81.817955874674567
73.668816018218322 58.614399535833520 -84.437906814935914
70.733300024298075 69.484520829976589 -87.769898073308482
74.040511233800515 -66.733250608474052 -89.608374640534279
73.911024801842501 104.344726906066882 -88.318095426760678
71.009154675141460 -61.745841528645514 -89.278282514800622
74.111686958558565 -59.643672052623799 -91.540008619578160
73.525654745805042 -63.529768712878166 -95.951973993444938
73.956015042552778 89.173960559558623 -93.382042468309123
74.653186470038236 105.805276083659351 -93.391268611535452
72.948512244306627 -68.648750335544733 -91.731688926372144
71.884654147859891 50.817121313393272 -92.499404453813966
73.751331726160402 64.597361591326816 -90.757243868961694
70.521252952823133 54.644683146440727 -101.215711899664797
76.923597251164736 63.219173325249592 -94.654057136753991
71.431520983547642 123.683554449949455 -103.712354580358905
69.532934322089218 47.274064006815038 -103.035106025361927
73.821503034344886 -83.911263203741882 -104.439156154261696
68.722790416019635 117.635434107241210 -105.251524655343417
73.388146822671558 58.845705486593808 -107.679433386646210
72.133447638726423 53.116424321280348 -108.376286031497287
73.486907821720195 -78.071970274221727 -102.947754468793619
71.302524761626358 117.454668880123080 -108.556765880434526
73.610109462319684 53.953175007871103 -112.628402795733948
69.631824195091738 -74.059708587957246 -111.843631193682256
71.775459271278550 125.366340646911993 -108.101054479084127
71.502147300286950 121.492108434996609 -110.154528398171564
71.228088147517028 59.617670023332025 -108.988104228112633
73.442121147091456 124.853771224355029 -113.930822752688044
71.270206586045106 52.792381258014537 -115.465369813136221
69.955567746788276 48.200214897755586 -117.087733211420201
71.898210853372063 117.646690326356165 -118.145768685820883
72.463253841984852 44.260860113300737 -119.970093206230359
73.601271558818638 123.344917628436605 -120.136618292021069
72.125081775151827 -42.244552475550911 -125.290510587040046
72.639578953553212 -34.235328727400770 -123.554224127807856
72.735036286757420 115.275723475138264 -124.622774765403307
76.120024244669409 124.574922499589832 -122.322006908276649
72.807182404463234 -68.408423648738989 -122.672895889410313
70.575444030806807 -62.978992835513509 -125.444723558695301
73.057742642255747 129.522569682785502 -124.555708248666321
69.750443637126509 -45.090459566247226 -124.831502547466187
71.129356306298092 -35.614010078603968 -128.370117902931952
72.608497449479287 124.134582443850377 -124.780929368746968
70.686855664003033 49.035727738187347 -131.885374106246900
73.508725036692411 120.536515704296519 -127.174257262854439
76.422030073155625 -48.006048852715146 -127.935145057846142
70.649749699206467 -60.746950258904505 -132.973591264371862
72.395964322545780 125.478631903131330 -134.068787068897848
69.105605082388124 -28.743444434856123 -132.802531741462928
69.663420269216871 -59.708557333085807 -134.135800774963684
76.534387372018543 128.391363960544879 -134.905490954991905
76.324683134340447 -58.168784003352798 -133.433358228002106
73.124571963447835 33.474433815026444 -137.890925397750323
75.117556646746067 -45.512241415171111 -136.263187390092355
70.737960374935454 -55.678181305273625 -138.771645783917421
74.876255670092362 -30.730868791666424 -134.532931919841133
72.561543682914674 126.664061101340195 -136.055291296567248
70.087444477782768 46.309803226558685 -141.110348602307539
69.816215823391900 34.399486604438231 -138.559370530497517
71.641629960449421 119.779523067146329 -138.505443752422366
70.610841559534848 122.907340718860794 -137.732005349191809
72.214363839841255 -54.034955585112002 -141.607883668200486
70.291645771415943 -58.509575775673497 -144.103654204209420
71.887123946855667 19.924630107021571 -143.174125257281048
72.082575004681388 28.522292353299939 -142.494933785505509
72.486542091184063 125.107260109274137 -140.851227783808667
72.573994782650118 -60.855048818105175 -144.663531256591710
73.831305588096143 -56.018146991202698 -139.795860465715720
72.891564294613872 128.270858774383953 -143.095595624620756
71.920297831992755 -41.623892552942699 -146.423376984835500
71.629779919258837 -26.056194636002076 -145.028513726292829
71.287019158174573 30.067717148434152 -149.188198389113836
68.952198591752975 -38.747021288706414 -144.566264435126442
74.631650335131965 36.133888742661583 -147.296704372716505
68.118578946873242 23.770568262827318 -143.385223682630027
69.957822973565030 -52.599643835516787 -151.118383267731616
68.577291761174124 28.012362966258245 -151.273874877832412
74.628193469570803 127.751729975496929 -154.151135709491228
74.686175293307528 127.044677015678801 -147.247487711680719
72.627915667562931 21.343019618115733 -150.177714455416520
73.452112894437860 28.561697644981987 -146.892284469671239
71.266388550939638 -57.471727206113712 -147.023570907987278
74.571982312831565 -24.160502883214953 -147.712582818732159
74.018321967419070 -33.532585415937589 -152.252610063310300
67.668910303337853 35.578887062277644 -151.390772139011574
74.485812175535727 117.914957716725297 -149.160230795605827
71.980318762224783 -31.924713933152766 -155.223482949579250
73.947539823357218 128.443586407149951 -152.151142872445746
70.031576670554998 11.639176832886552 -150.333704619793991
75.183704715213452 120.567340897428252 -148.613098828034055
74.183339958174116 -59.013121321530008 -149.017895061126978
73.224067282900222 -20.789569931346051 -151.432370064595204
73.146563593360241 -45.294448699751115 -154.587296326562836
74.083455756146819 127.649595204439095 -152.073213197364851
75.144978183349139 -29.753711566592848 -153.484643597078417
71.581798857060051 11.754607695480530 -155.842277531753638
70.973617098379634 14.873876359802775 -157.082780720068826
71.036759553232613 -56.982551710819124 -157.545793602002931
75.659881501134336 -54.138700405705052 -156.582365418373513
73.558963733964006 -19.820134272288975 -159.744904083327270
72.609485074448699 38.878653721349181 -152.623090649608912
72.271792740717302 114.897098277777104 -155.066651527253697
71.667084201592559 124.018060639980291 -157.223761677423539
71.162016346043259 -47.344006621356343 -156.532399369015280
71.203512487985932 -18.562996520141780 -157.531637153819418
74.490125822538616 123.605090144843800 -154.997218912141562
71.703246402452848 -51.921054143521324 -155.746834059604396
75.295265649478480 -30.887390476708475 -159.341974497405459
70.136042177621889 -29.093022115991644 -160.055333572641985
70.710870709734138 122.533700272468423 -156.602977748816130
72.233872540895646 -50.937972504410141 -161.890830444320471
70.517538630643386 -16.385307337625768 -162.373047728580104
75.596507159569228 121.444741479638182 -165.210978287073061
74.713688358216274 119.283255015709358 -163.858416804312071
74.903960200892826 -134.367392133822989 -164.630289249253735
74.695572452073293 -132.845442640076300 -162.380908107669995
70.248641697410420 119.099552086874525 -166.440020321850056
73.430689560513670 117.757048542666311 -165.905005350120661
73.611059719716437 -9.315717490724772 -168.853037245216029
71.120740821181712 29.846430328848761 -168.602526336445578
69.277693807111078 30.317809474330879 -172.083277767280691
72.247944454139201 118.975948253218789 -170.827738605031357
73.943272790854806 -26.016085854571763 -174.034970237696626
76.379184616512916 -19.920536400751296 -171.056687828867325
72.096350313176529 35.178386300308524 -173.322784660250903
74.351714493223881 117.277226006119307 -171.906667112973508
72.642162909975028 -130.908317197009836 -170.868623859458580
71.714957049748890 37.296958431314451 -176.672142895833531
70.361950200534835 34.103946267656873 -172.520663154650862
74.952862704032171 -3.450254010539792 -173.534899684135013
69.919105334565558 -20.489020310586355 -177.733925161533733
72.238549677572237 -133.993201950753416 -178.564047269307309
73.431589039757185 21.390845710128858 -176.313726626924932
71.238821885370655 121.298034593999688 -179.033332158305143
70.504207908672399 -131.999368500612405 -177.120365020781549
76.270299818835269 111.679344374784918 -176.348590896678644
72.110727381969639 -16.616407869061540 -175.992512447354386
74.134310160148473 113.760187113181303 -180.847433185563688
74.371540683144246 -136.518127586441295 -184.278860582574083
71.096787268194689 -136.735384664493012 -182.537888758292723
71.458826984692521 33.512827486934000 -182.824323345851326
69.203100422836542 110.344929466684647 -184.264858216729124
74.670000466545858 116.635113572850031 -185.930492027863977
72.272732678850730 -14.409509950206065 -186.083171529939193
66.080452408076326 -119.868039208061333 -184.689840855380425
75.586490177828580 -117.398813921290383 -185.369534186019024
68.561686633336606 -110.555744549478433 -184.626657582766342
75.865194499843184 31.835940689331437 -185.310432417987414
74.570309614190208 -136.309871555100301 -189.326112978355411
73.220329131383636 24.699263088654583 -186.263289276700419
71.710979251655189 -130.104081889826659 -187.103527059084684
74.008401183819345 -5.262585277717637 -187.891270098725613
69.334961305352351 -121.476222127196394 -185.306171976014809
70.854356119914726 114.846290079273359 -187.718169104207362
75.180963273804522 -130.878174744981607 -194.102011586617635
73.126408015563968 112.260203052864355 -190.734610978445090
70.273160715902904 -122.226290949508410 -187.638239043114936
73.104568251056349 2.113333599878342 -192.081992606246217
76.461395142132673 -11.499341224803810 -193.407443603378681
69.601661991790095 -122.516655615705474 -193.750625172417585
72.162774898411058 -110.467664319186525 -195.311041673758382
71.204526162995990 107.493352806668227 -190.992626787639210
75.603923196921528 29.098257270802407 -196.269361505988144
73.853406809223770 -141.249360612676526 -201.013606508637878
70.739243880916433 -134.115010451530623 -193.141691024929031
73.555987263532060 -0.341149191003757 -198.039544316894705
76.030825156739937 31.509696716155748 -198.104388451433266
69.294681501957299 -145.842512796037937 -198.813036922432843
75.233377612658202 20.907781321081998 -200.594972495700631
71.560706093309577 -14.108873838987222 -201.980481250422400
70.123189785176521 -153.852641654470148 -199.608012701978055
75.897382684440331 29.363155256392879 -200.842641119408967
71.105021524814077 104.405893897171765 -198.149729207941220
69.331571572862828 -61.681834534533337 -196.896653726912433
66.881723392282510 102.312399238709560 -202.431589468964773
72.465862143715242 -71.236965034556732 -201.409569928002099
72.125135933609613 4.201555811821714 -203.413262513605105
73.296262259739478 108.113733541560990 -205.917661040198823
72.650963212633442 -147.269453807077099 -202.375384226753567
73.418178301743197 105.850363420188827 -206.452479686540642
74.719468934965889 -16.023633741336464 -200.354551169984063
69.319722023850417 -72.857507992589944 -206.294897308298346
72.421980238026762 -16.777960078562657 -204.727402099345881
71.108802943486481 99.535170146803594 -204.156569096173769
69.883432963514338 -78.699852911169074 -203.638705173620366
75.726825624492733 32.766270813181848 -209.222022761661663
75.080268663918787 -151.468584087281613 -210.271188913192560
70.068819290636796 -2.184348901959899 -203.044355376992598
72.203859596005444 -133.063146376389852 -204.068495645940658
74.670606910675147 -140.731842076615067 -205.145944546329076
73.481284726518297 97.380028640803957 -207.018836410546498
71.059914621017867 -138.301449198813913 -206.141033970852646
70.610671736954430 -151.689368994177499 -210.385618880527375
73.295059932055977 -9.953023433569534 -208.479296564067369
73.319259256727918 -79.542492244051274 -208.107877281770982
73.874541619998979 18.499127848435130 -206.096066534178306
72.420774989960265 -146.031489048832640 -204.278550885106227
72.131505774060088 94.788837584929041 -207.453575651028643
72.893235684240906 -12.544163317642163 -208.278217283659274
71.319807722600217 7.499363725913054 -212.190519785627600
66.861081408024390 24.753444560877533 -208.221061641038602
79.223815909122820 97.343455212998236 -211.351742571958965
79.168322297481240 97.322299902815772 -209.526204462257368
69.458583688857942 91.675655087797338 -213.585166194688753
74.756498248906070 -151.394421162924687 -208.998753284487890
68.182002464392269 -92.031248461913933 -212.971308860157450
75.366433743969210 -78.769119941071224 -212.905437991985508
72.256831476989916 -136.480825701118533 -210.572453396069932
74.087565730103279 101.707112604926635 -214.856464221467775
73.740314031302447 -150.065144952472536 -213.103657903315650
71.450108844002756 -139.708295896422300 -210.524007096860032
72.265704057862465 -142.146061647269988 -215.738315250036152
72.024602271790286 -3.324808419474998 -217.799392788774753
71.124989778738922 10.783480158797218 -219.972909059539262
73.832509648182281 89.417108465938526 -215.577568732689400
69.581041846096539 94.105077691886876 -216.252338171110864
72.447061115300173 -144.331025560081628 -214.253938905292642
72.561337669512582 -91.983059267179470 -211.253738258791230
71.792379481219541 -88.027400699523611 -213.203723836251726
73.623028593467097 -154.660841266792573 -213.118664580518697
71.148742853889459 -122.046356355318949 -219.696498577669615
74.363688152517071 1.147762195356071 -216.761925415787630
74.248568451251657 2.389949501579343 -212.740114355316138
75.519629314854242 -113.277727970072789 -215.701866694310354
75.106082376046501 -104.820784045221501 -215.311819601615838
71.685261724173188 -94.460886863670083 -215.361006936323548
70.729964293234730 -4.035250312222320 -216.934664217005718
71.764594273843642 93.807335192155207 -217.916089668837031
70.752924691669861 93.204823553455398 -218.771545392717854
70.133220874710801 -146.736057313258044 -216.493571034071550
75.098931179992618 -128.714888901309934 -219.789683672853442
72.720248483901955 -152.169662551382061 -218.481924270223743
67.079527123656334 -135.393379132447421 -217.360660688487002
73.481713058571174 -95.120608653416227 -213.248719846771110
71.781664941826890 -5.159519395595549 -215.305612732125837
75.274533910994805 29.990316958595660 -218.601909018561685
75.316182017851503 -142.644444509620314 -215.161148369178363
76.000469188139235 -135.098763900027393 -216.627325554938892
75.260552505041858 11.405621827077978 -219.218991184300364
68.484647122686525 14.397805280094536 -220.016173150963624
71.620934702483581 -114.300965030052922 -216.957633707360117
73.162262618429423 -153.205546271187103 -214.132767605565306
70.319117470445846 89.990094400602686 -218.318102075667895
71.166950922967388 -150.023297129278518 -217.591173653158108
74.284420513346873 -105.465485612586207 -219.663306841306223
74.704363995931899 -1.929910471503568 -220.667643712159645
73.977862652722010 28.386879206019621 -215.520019104395516
71.911103114573720 -98.313751097314480 -217.958914036422129
70.375793227041385 -3.497345634366134 -220.610890935980251
73.436087445791159 7.049040522885477 -215.507944936591571
71.064843921941957 -134.977020735705054 -218.781588624532560
70.821891975822865 -112.163058893482059 -221.497013545649651
74.165819646412871 -138.040660279227865 -217.686090569149030
71.657235830542845 -140.203541817795696 -220.497688721379632
72.340246360678748 17.325825950398844 -222.024160045228228
71.802385692391269 -110.578730899043848 -219.640858253343936
73.585529943057139 3.638376996823171 -219.584387787499281
74.037634606201820 92.974970213663411 -221.624891448523329
73.629132266428826 3.898851679177485 -221.772698989123370
72.756412060539319 -128.332103996133611 -219.575326767991470
70.766632436702551 -111.590029815424316 -223.173231734751340
72.587565645759369 -1.343497140163697 -221.027910910344474
76.855869847281426 -122.437558215959939 -219.148720812058826
76.835054756038716 -153.399488317979490 -222.613024101616134
72.685162825512151 -140.941317600428505 -227.270959564381940
71.242600690288029 -137.856091581580131 -222.063730814758117
72.320893831457823 -128.087075432605786 -226.060315092582073
72.952272866753205 78.342642672514941 -229.282797914484178
74.129239502972553 79.190837389383006 -223.259497084407570
72.101606950937168 15.624591674106517 -227.391941652890040
73.499074708433426 26.711976362072232 -226.037979113690596
71.930020458466473 30.296489009618263 -225.352002981281458
71.044565106797222 -141.338637517080173 -229.411209778028365
71.635633021876885 84.242315698712275 -226.071579128357115
72.860397411230323 24.991613783901311 -224.794556533103673
71.725423444370477 -4.373411976032308 -230.529930663191834
74.206154358789263 27.403304309861170 -227.394530528910877
67.339888393723001 83.161144966297883 -227.868190012435974
72.658928458045651 78.883507553343293 -231.095201867906326
75.106637097924818 3.754422638849023 -222.854022156962742
71.006011220884233 6.568022411051675 -234.131931383021879
79.389590278827072 -15.725642873514484 -228.311218476136219
72.061063176789659 10.801226828248998 -229.337212739662505
71.762589131380210 26.414976078327307 -227.577273662309580
70.881539167653870 -15.073535439357819 -229.842465602815196
72.576343716903409 14.564072211189670 -233.348885507755796
75.207927311937141 16.611634235515496 -232.376215313622112
75.281396225331179 16.322583918527087 -227.363107981858633
70.518429823623322 -9.481331071656260 -231.647858502801171
76.739878665066598 -5.513675723027209 -233.635710862137756
72.753794214719434 66.671326243783739 -230.098626667998559
71.186022044801589 22.823717931824937 -225.485908407033889
70.467613196764901 -153.180510297763561 -231.714729476398674
76.265253360987899 -132.889305268166396 -234.783962472359121
74.404839009091020 9.322971431651039 -234.144294081460060
73.695734676896265 7.273336600159579 -236.746988777137233
71.540523583268808 73.751340974370294 -234.018466597080248
72.186872498137703 0.254330619934320 -235.347572004896875
68.443806361964846 8.114172980184021 -236.691946620679005
76.769284218016480 66.983043423143641 -232.801776890595761
75.071330700530083 -52.614041483603060 -235.117984195330592
70.508807033171408 -43.414730324850012 -238.025209769115150
73.935137509231964 0.678492592371480 -236.728918346722566
76.070263394450691 66.303309016143515 -236.696601215187343
75.446201858657588 -62.709310774981788 -241.149263873804728
73.366922771827419 67.930935556869173 -238.441324615997360
73.488223618324440 -46.833969083937546 -235.792841563506187
78.891670812056645 2.407384055046910 -236.288485374170932
70.105469924405043 59.140073081114629 -242.486060513677046
71.482808319222443 -70.614003276538710 -240.079494202196400
71.262258527968498 3.005305622198295 -236.233389096070169
67.358567125348301 -52.470555467781125 -241.011717909662195
67.862716010527279 34.053433498704152 -238.820491005475390
72.825906640233157 -140.700776898874665 -243.141621229408742
77.551544745748743 -5.201273873765597 -244.290803320463397
74.429631242971240 -1.787944440687051 -240.853634739786344
71.513558378131606 31.899722043846381 -240.304667075462987
73.275261480391052 -80.464746382299268 -248.036949111344484
72.642269297751469 -134.970718921716553 -241.844226066962193
73.962303640046599 -111.508863276874024 -243.041790494489902
74.865048687750459 -91.883279858455069 -243.034091876529175
73.533889750767344 -70.848804450571507 -247.317051681438329
68.740898409619803 -127.299844012532390 -242.885167895162994
69.239431400860269 -90.268281865727374 -245.841037123479310
70.351588982212448 -92.906916425684258 -249.105104575904249
73.936999402048315 -72.828569774427251 -245.287496378765951
76.139959829375698 -106.709700922133763 -250.211920662851753
71.378504671741240 -99.006703613377553 -248.640285638855687
67.405475117571527 -92.789906065449514 -249.766895931718068
72.643377541051876 -87.678180446853418 -249.345094692531461
79.784136488130102 -100.493762403270480 -248.959036361810263
71.104708266882653 -91.273914379368392 -251.522308863011858
69.559872243234565 -130.985738233947046 -252.847259410201389
71.499196210216766 -108.463767003718843 -256.722508731274104
72.693261642215546 -124.956493794047418 -255.044791634644469
73.889271033314969 33.699112676794073 -252.350940188037782
68.483966719570958 -154.776644453301202 -257.793634037187928
75.729669489224918 -111.920822530044958 -255.690428002505769
70.882670743123725 -133.037311236266305 -249.494751648777935
74.063843516382363 35.958304500573959 -255.883605736926711
71.948653999215367 -1.411806973117736 -259.502938507562931
79.821879511157391 -129.776802319026160 -261.855037324279749
70.143223835469911 -155.073839858698506 -261.291343420565397
73.490472824865819 28.117853160852103 -271.944190131434766
72.485414571338694 4.666301686507237 -270.265476232018784
75.107750429161428 34.148026131736152 -271.634145927915597
72.766604656879849 -132.492022606501337 -272.661471926655111
73.936923120545572 6.388642880206929 -272.079835215054288
77.002147479975008 -117.023655699308364 -274.520714955803498
74.818028139554073 -128.988467116778224 -272.451822439048954
69.153265387408126 -115.429712930800505 -273.085255366006095
73.909506872533484 27.900613230280271 -271.086933515177464
72.312540889582891 -122.179991439843405 -273.033538927123800
76.489694291231672 -49.679868408240473 -276.441253999674302
76.473261211051820 -38.591040788668487 -275.849725947973809
75.104458587491095 -115.529804777910996 -274.001339164480953
69.455177446170936 -52.623242362063152 -272.173616916475112
69.280364493599279 -91.874831688481621 -274.495599844418905
68.552820223638321 -77.885603609761077 -276.549305012816887
73.892601443054446 -32.062759164601147 -277.638012992882750
75.688755375137660 -20.522347499301056 -276.540157636413710
72.884286195582519 -15.400058686030256 -281.356344544018384
73.212803811858947 -159.052719553164025 -278.268871365833377
72.753027771441268 -98.520786429158733 -277.738768394057445
75.319655503577692 -96.328358195663412 -278.734021834789189
69.380093361528083 -24.761505457642592 -272.165657465839843
73.626804564049863 -15.138516513018480 -276.921799686691770
72.089531472102394 -6.725094185286853 -275.482352493516601
72.353579725435708 22.375650254937216 -278.682762894881762
66.122846987156393 20.702099457824438 -277.412149582909763
72.168134973817743 -44.055064287939459 -278.884093067987806
72.052890812643511 -41.288987039412582 -281.768065284901695
73.410640474735942 -27.224348257030215 -283.801029325995785
75.978992969225573 -23.820980572095152 -277.485178171250880
69.839459741745912 -8.823082132478270 -279.477082368685842
73.428696492388781 -10.300607431416108 -279.373008401164725
65.424111573338976 -2.711126986772708 -284.779571825694177
73.626776832868359 2.076684650010748 -281.709388540617056
71.718457000438022 28.831006059514511 -278.670452049566848
74.543816931358350 -77.520350820355787 -284.511939881560522
77.543151365802203 -153.004267251541307 -280.363977881297785
70.593129373541274 -83.320301830756449 -283.388085130373042
74.773895118449005 11.300216096222085 -276.745876947985494
74.267103531027558 19.514310063213902 -285.430783150343757
73.126940802787729 -128.073165721912090 -282.135433606200365
69.984693955568190 27.868123964263791 -280.005140838265447
75.133772158960838 -121.928467816363963 -286.108720826120589
72.420149026098017 -135.776018525641604 -284.638023494123161
75.450052604666865 -147.792996154009614 -288.465303521688497
74.983234231634711 -142.142411089347434 -289.246543307938737
72.434706649319949 -144.992227351004658 -289.416747353453673
72.564956941592513 -142.260116456798755 -297.064407578474970
78.849863163567790 -145.395337390219282 -299.400386836783923
69.047950033233079 -142.973982151399696 -304.430129235700804
