# This PCD file was generated using the MATLAB® pcwrite function
# from Computer Vision Toolbox®.
# .PCD v.7 - Point Cloud Data file format
VERSION .7
FIELDS x y z
SIZE 8 8 8
TYPE F F F
COUNT 1 1 1
WIDTH 811
HEIGHT 1
VIEWPOINT 0 0 0 1 0 0 0
POINTS 811
DATA ascii
70.559690309180439 -45.130352082253182 -118.355257531968363
58.464445742833092 -50.708252398408860 -122.003841831742847
63.045760247963102 -44.418909713959351 -128.303046951290668
59.814982140098287 37.440806248168784 -121.822355890374638
59.969308833747590 49.309300138291412 -125.399549832308537
57.096539610543836 -46.706719006343413 -123.013653069197886
56.459808943181386 43.344110019028264 -128.248793665114988
58.332025436653581 35.250334608254306 -129.952566677176605
57.563480282335206 31.767534332112881 -128.078401553441125
60.995156462095750 -138.069734376168952 -183.239160791250612
57.839166148278842 -134.511464094822003 -181.155832817935305
60.924720656425137 -129.262171832413060 -182.256398939292808
62.606627708447945 -138.100076320948432 -186.311485598787556
56.412368601373011 -136.604048295481789 -184.714137287582901
56.951170789018065 -129.987426599115111 -189.788050782013414
58.656923734541614 -143.151613561803856 -184.400299840998059
60.674248814176188 -140.062553935109491 -186.226689880625855
62.435000389382559 -134.089638766893358 -190.438129447140568
56.895680716450833 -128.228900939689225 -193.378510167802574
55.911194014176445 -137.074474219305927 -192.577602415498802
59.691315051927170 -138.530284974738379 -188.522371039042980
62.569659119131011 -129.450928480046628 -189.914658627178170
62.276165737679712 -136.801598977227883 -195.823759345420427
61.447839513360975 -136.702661242402030 -192.985615753163330
56.157674959072388 -134.645356333835423 -194.254047797574401
63.160794570109182 -135.828737396933406 -200.258105143322354
62.520579787118287 -131.041647748313125 -201.226498724316201
61.116914781883217 -137.803580969120105 -196.929323712540594
56.533314963166966 7.116655409503970 -229.862390844754970
62.930745631700333 12.066608902533353 -231.917507473979583
59.291136139623212 24.511256580539346 -230.662699098912384
60.745697631077235 11.578009289165792 -233.514427141846767
63.795006243841463 22.728851899863052 -235.859138240534008
63.076432174889398 8.604165500456178 -237.603602787605979
63.017759498360398 32.055906721937021 -235.600721892472052
62.799871166694899 19.068017805932350 -250.402469481631613
58.604152553111668 33.656636911522057 -266.597028277786592
59.467662268330265 14.415342615610196 -273.567938860282197
53.935724931150631 55.606979972109229 -10.446475564447727
60.951897128801271 39.354038027769967 -11.079550320577827
60.530926993762279 52.865655996502511 -11.427223485090533
58.569737688961553 37.345367650533156 -12.376309440366892
62.425781595971600 27.873313514642518 -16.488906815997829
62.663454948196986 59.036347837632356 -20.740153770531336
58.035946973326524 36.613328318195997 -19.789204231107014
63.471962087202698 31.028479490161107 -23.920962592988488
65.160168635325533 56.337565920273583 -23.619208218160516
58.070356173141320 45.680415387441549 -23.546166390006157
57.524197707601708 -43.223522481378794 -36.446053822799946
54.241552884132275 -40.228167127292259 -31.063297408320118
59.665729730857485 -25.441470239548408 -40.599251288665990
60.934247167462765 -14.162627462422645 -40.358766955506397
56.987645593701522 -77.631313670709702 -37.932990613139580
59.190351724573553 -78.321777644879774 -42.362409949854182
55.761085777892077 3.998264600933364 -47.453909589648148
59.383559791692385 4.571107235319111 -48.022852538766010
58.216641997374374 94.085109652462918 -48.248397057312012
65.424787269397569 87.714827685646412 -48.262222700064058
59.560987887583437 -86.306552627184573 -54.739025538412434
60.123110452270630 105.534785294560649 -48.158900417184967
60.691953978112601 106.546405617474733 -53.123512939885217
54.908291029063790 80.348005312687917 -54.311111437206989
57.749644770621785 109.903499887378473 -55.067819154665671
56.234415494758252 73.008609886055979 -54.169753147365071
56.061298724471968 -18.338177388394005 -58.409629739957865
61.143426484220072 -87.143710501214187 -62.967041991240308
57.490055149641442 112.124090846645714 -67.936509549562217
59.639334443472883 -37.927841174148732 -68.523368979855491
61.490175285284266 -24.173829191177646 -68.680189778492348
61.635295248077298 -41.020864731836326 -70.719956979525520
56.957611472927617 -39.527721078194546 -68.851653232203589
60.179245396277040 -45.712543336681257 -77.241626483595709
62.623860287879630 69.710314728620148 -75.720158631257988
57.429896638952101 -48.216748162686962 -76.369713144090113
55.884506517514708 119.961996790127088 -73.506472489775106
58.830730414618678 -88.335550625072983 -78.559324373964259
63.017353769837122 65.540586616866079 -77.662356917270714
59.808482697957643 80.610710197706354 -78.894441366483150
58.529054140075445 70.092471352988227 -79.170880811831893
62.328029087331458 -55.415261174142728 -84.956658919648575
57.628639953507658 -62.015697274087898 -87.251768713817100
57.844714078091286 -61.633733209377652 -88.816732493303377
58.930515161822044 -60.233744329868713 -89.574158580112453
57.848882422863440 -59.946495427031451 -94.081913895262090
59.222890757601377 70.700600717350653 -94.104411995221412
60.351880194468109 -56.795074237531423 -96.179529220504591
61.323896239608075 68.781680244035726 -89.087352859141674
61.489513155402079 -53.170863123674209 -93.169114703292294
58.458873117582641 86.683091476339328 -99.502345812009125
59.071677076196323 86.889272273842522 -96.142564858082054
60.660396189583523 -57.959379618903938 -101.762003289908364
60.191342068728353 -81.914531641185491 -93.762260304069400
62.433006802209640 65.492764744991376 -95.769826705019952
56.797391423202669 -85.803950113842362 -101.955427757771943
53.852725417347692 60.697213612927015 -100.972292446979353
66.094870532262092 -48.471388567225887 -103.823897020972296
57.486984515891073 -56.611903031705154 -103.949661298896103
57.685737518777117 66.546389366851955 -103.359575511614608
59.408081091393264 -70.124545723218702 -104.498609813722311
61.069742117755709 -57.147547041394503 -101.645384827147126
58.261009153050573 -69.861807887590331 -103.589773761140620
56.632607647241301 57.514730595220293 -100.292764690559963
65.331075315407489 -58.502004518308325 -109.641480311277192
55.388676684555080 -63.084196346434879 -103.392360334685463
59.152341610002253 -74.602749705924992 -105.655318287865057
57.278325055216733 -57.392400901659911 -106.884962378442822
56.379216453765743 -47.974458258979702 -106.217732852889128
64.235898986953373 -75.632470412049173 -114.799922848967526
56.296407457232007 -79.321036085211603 -109.227739501161622
63.218698506941621 -51.707767897215760 -115.632284955715676
59.247293293567978 51.758180896155338 -111.948647728317383
59.506087418555957 -48.436662501914931 -113.566133896038451
55.964269709053895 39.231498483809297 -124.670191560645037
59.512278941420526 -50.413949234658297 -125.828871964432579
59.405586535254429 43.485584412307631 -128.201621725934302
57.030503323196143 16.679622991871078 -228.725555853789700
63.629465285657062 17.481382469339966 -232.787099491026339
61.367234105746448 31.876730755849565 -231.284080849789774
55.540462110888939 13.715195546874220 -233.806687635448412
62.183950274153460 15.409879376620445 -238.673385549687083
59.354349291308203 18.851694018633967 -237.081787603965324
56.443258126275239 30.741664721050107 -237.814214334732895
57.485446313723841 40.150395262016829 -245.894530573973071
60.129415635596160 39.774172404694568 -253.043025459668797
60.684703325370705 -6.581574476112579 -260.753995897723996
54.177627726516079 -4.514863057199022 -258.699428423366442
61.551006465213931 42.224640802567421 -262.980971905117883
58.412532882339526 -4.842155444030531 -253.093515143135278
60.946583945396220 -4.470687529535784 -263.601598432335550
56.963794356979079 1.626477512109718 -265.110470552232471
59.809850794992528 24.757594492754421 -274.628411476073893
58.430822695584880 18.919684374714766 -273.751838758962379
63.313276915525833 22.095744786272885 -280.806030360224838
58.753045707770205 21.222275910024802 -280.130159741159389
57.573343689925267 33.074073825126398 -6.859650461603415
59.415863864181070 60.884267334254169 -8.100886092688580
61.327316065783471 29.333445675365336 -8.030665937736629
59.801855489921522 35.323167128847366 -11.365521182202059
56.254738483399969 50.670335192890391 -12.100936227465287
58.887299662491372 34.268608872627937 -18.290143700274665
59.178651679989152 38.380603958965310 -20.098116498024595
55.690170839710092 30.390345099151730 -21.148310242583086
63.123954846461473 40.294324436950305 -26.515961775010865
59.924218708754054 39.017030871449542 -25.571554052797353
57.785549287354357 56.288615099046147 -28.338991846827717
55.953938436611217 44.151510855645249 -28.725326174847332
58.934248119432027 39.051936150012132 -24.737983175808978
53.808624474850561 44.038036092708253 -32.866617612210476
63.989414399632722 -35.051851280102930 -30.669464225645363
56.834544417136009 -62.292487915118784 -37.554704013077817
60.374822419466220 -32.154838579698051 -34.016002264194334
58.080001352942602 -17.760693356046524 -34.432260150089604
54.760869976642908 4.054578983508871 -41.846761281402458
60.130804588037911 -80.999300418133387 -46.370010953138745
56.491044553238581 95.098889454580643 -51.512117005967333
60.579255235701147 106.424662080784273 -49.837367408528635
56.703335543338454 84.599381304296003 -45.887123684955128
60.392358223820061 2.365422331448116 -52.747109135368447
59.024282266442256 -86.556937905696103 -51.058583958597453
59.825210025247088 -18.826345757484141 -56.005171712774327
63.888656660654497 115.546126580241591 -57.509095222277608
62.023070201963719 72.691889200149873 -56.123289305535309
61.578909303465522 -20.494988306911381 -63.723042469147231
62.423053916029922 -26.482381830125099 -68.127510399875561
55.248939239709344 -85.896050013697050 -67.462116296767263
56.799329916839035 -41.330516059843248 -71.503757086347974
60.452765481301732 74.684143544662447 -67.829673703891856
62.190355516380521 73.750019742869853 -67.875722847112485
58.032049465086530 79.698155206298011 -79.540846812286475
52.034428920098300 80.784470388330604 -78.570946104379203
60.601518248901940 72.161721027147124 -79.989529936730619
60.035485123253160 116.600530583787489 -82.173546476162130
59.153389744457584 72.629816218327875 -77.411489459592744
57.082923487262470 -56.330616685883172 -85.533478642326003
61.356366835150972 73.061337128317035 -88.046824438212127
59.884541173428090 75.820752184943672 -85.826632365575620
56.468663807366482 76.675438570309225 -84.726407553760865
58.491274283926280 82.356429771275785 -90.365952960860170
61.159839505949243 87.288447771845910 -90.864032095077292
58.964252710614296 68.498666207461497 -92.821867865719582
56.536324919379503 85.111304197915331 -91.300987216374665
54.370806550046694 77.926627634725492 -92.362316639121374
57.298647788707640 68.974715184808190 -90.928305628901313
58.775599720872727 72.094010085351158 -93.220309268954566
55.446217686613707 89.463095181504215 -88.344080079722218
57.548652798165698 112.075274217043159 -90.096410185304279
60.033259785551238 93.325322384625693 -95.861916300388771
61.612460209436378 -53.154866460393237 -89.934027588340754
57.782490502851608 -55.754541891845605 -95.770893217537733
57.119711645619084 72.946049568321939 -94.975544323873294
53.778060420194116 67.918147768343985 -97.983442610431609
56.718998683468925 -56.959399405213148 -93.738465259519074
60.537324578769493 69.270679733215161 -101.345857219777315
58.501579248422416 98.366107203672939 -95.731444790838481
56.212439065519334 -58.631532006709350 -100.352828381022647
63.278634606652290 99.659610735369796 -98.014632836879301
58.896801982032784 -61.560175987094880 -92.941562520082101
54.395541275600436 -47.098176734644362 -99.276418765369868
60.165025581118023 52.466705399025479 -103.183578682284178
54.903906677789919 -41.697029922304438 -101.203958186439451
60.369100988479033 -47.185699239996424 -104.329553113636535
58.143985355810948 -86.634835654218620 -109.112508661345615
56.016909383010841 -74.435918557846932 -110.041277771602608
54.563597930600245 -70.167439295032452 -105.962892231258223
56.909025566270778 49.944935324938143 -107.424215173347008
56.496652997300586 -55.226048063812684 -109.552492271800077
58.675873157290276 55.040771122024559 -106.033368249626335
62.879175768112887 -67.707336006637021 -110.538318969760567
61.279844815461225 -73.006050667825832 -113.270413451637666
58.242317769811343 -73.002083072652823 -112.115349031923898
58.292393775652570 -45.354960715678217 -110.588638254878049
56.691889620981115 -61.408087632567472 -108.493130867612692
56.141743588166491 56.210097814685980 -110.326352088929426
56.955329543069304 -84.162172707430770 -112.274157672998413
59.931823110409390 -50.004479578813715 -117.496605064416670
59.996970953456874 -54.827449285121105 -116.821171470362202
58.302373781326857 47.323557750137063 -115.068380203965447
59.410078266606035 -49.975946244930768 -117.362110243196639
58.353900458738401 -53.606361599887464 -117.289251843837988
55.657991760763416 -42.951885363067277 -121.649056682570631
61.886846068982841 33.729503958445825 -125.479163073870893
57.164568305826101 42.214738481345393 -125.667323195740636
54.653636400670898 39.484845256777632 -128.834496603522439
58.690152475656838 14.928136915467338 -230.096024815104698
53.635217556069186 26.482108604252961 -232.167020308113365
58.336510955926755 15.176537267333854 -234.724333335057793
59.869708462243359 24.374234220507674 -234.944660504988775
56.255132244642290 36.867124251738744 -235.215186652350866
58.829235616255112 10.955365311082730 -228.347012410181748
55.885909478103116 33.848757007479449 -241.368419664013743
56.494299658864961 14.589794336133702 -239.660386252161061
56.561116864189955 33.457621834675322 -237.603106344917137
58.589939320675491 -6.234308852169850 -248.570027720994005
55.557705482791782 -6.776260057521014 -250.351608926918743
58.844750846024908 35.924917314971836 -251.121311298917931
60.448073756139763 3.896035609822482 -251.054592338743589
58.398994400596635 -0.532162208246801 -265.110704427347912
57.409356149491330 0.879598887206036 -265.588895717143146
59.264388202538619 1.853321392679359 -267.160712027839111
55.885857097200784 20.648427588434899 -270.857299475852528
56.033351693895291 32.310414516657055 -274.219599381223020
58.866730800842660 4.502564178534097 -271.160618371461283
57.373432873374639 5.185537988817639 -272.684671414109573
57.397935601263697 21.596855144185273 -276.644452213481316
61.991088278748208 42.388971258938014 -1.625712872236358
56.253548166629962 46.007664032328684 -5.193062550648866
52.707850884604120 49.531860642700387 -14.099199306691435
59.406537699758189 56.025377459477298 -15.792982492363727
57.481965537535629 32.598332387608437 -12.909902515372341
56.896552324784153 60.766955719418711 -15.884763959377477
55.194749087770070 61.167829607886624 -20.518946331174249
54.525966950940536 61.298595242731835 -23.261813523956825
58.248037838747223 35.667523749929728 -21.607083699901715
56.282220151708934 42.115597725103591 -26.627401990423515
59.297750078737742 33.953966254029275 -25.631591396313219
58.449826891054180 -49.977902652636438 -37.086250409620753
55.450426525377729 -60.480204091927448 -32.781345217348687
57.560434193517104 -68.642007983144168 -34.990700702350480
58.674152511290828 -27.171381896445062 -36.545158732584063
56.272446452196625 -22.885121554526528 -37.495674444784960
56.060737189469272 -7.767269535656407 -38.711728251434181
54.723038921774631 -4.170800462187586 -42.300843505101078
60.438217104179209 0.298485277600276 -51.044023802200627
61.818814092002398 103.520295315429422 -48.963020604877173
56.286443429437071 83.945087535953377 -48.785815807242145
55.703942762817995 -7.178815699328176 -47.528834625926557
57.404272882562175 80.269812748459216 -58.998182585606997
55.689190836720250 -13.444789130349193 -52.482187513745785
57.890533146113796 -53.877229472351743 -59.571643402597999
58.050310881426547 -50.405329827610345 -62.536524004421125
56.809477174691935 71.862163796786504 -56.272907716161384
55.998014611044354 79.975255756348560 -64.496726092033668
56.393396434968373 -40.066423706612419 -66.303099319381658
53.071192835678467 -48.397885554003295 -71.438087549849811
57.840863002148026 -43.451964193265738 -76.429662798502179
58.881116792560746 70.262366912672292 -80.080465140727540
56.551123969635348 95.284425618176172 -82.925031638239844
56.862726361406750 96.325675902022198 -84.941702256854882
56.349334738748212 79.684423791188266 -83.519424973368103
62.065865291544434 89.606054653401500 -83.367768547719663
56.004760435374912 115.523436027491968 -87.139486161355379
59.007072823527416 74.493969268662681 -85.807118953585672
54.203758851112418 99.461212932581176 -92.381271831525666
56.702875782510482 72.126872764600591 -95.244233784671806
55.219430457675706 87.401130924277524 -88.463843305200101
58.650796904389800 113.504843165734229 -91.776978891831931
53.611345627607804 107.612486655245732 -90.640880186966797
55.251079379206274 -59.618253918591648 -88.346900902571377
56.500652643458878 84.303646646358104 -86.490312808898935
59.333014273385409 83.208456369841329 -95.230761716752724
55.803241157207736 97.903928849692178 -92.799603768690503
59.169353709573983 77.060689105777726 -97.158344879348320
59.172195030704252 96.356721614757078 -91.152101268408174
58.692916440057935 102.645638744198635 -90.714507729996512
58.178922790721437 -86.725227219771185 -99.761909183153278
54.768396201164464 85.946699442821284 -92.279906653512612
60.703937821453167 84.588057150271169 -97.609961730173183
56.675667041149850 -50.593469455303257 -93.294716469794437
60.442977349389210 93.195446416493056 -92.507510454724681
55.503355652468024 115.903617218062109 -102.477621157432708
56.159955767685261 -65.260607198479647 -98.275203995165285
56.472143235175643 93.796148858326589 -98.439089995232564
62.431637417611775 106.110689495723989 -99.192637599379069
58.277775570316372 67.308273087893809 -99.155996283547381
56.379102879028402 -56.866753056168804 -99.335994814487563
57.085178397836238 54.837640466312067 -103.608254940424089
53.956367166482515 -64.386356160569974 -104.403130527050195
57.047756945596333 55.095800610760307 -99.750193195458323
61.589123399064249 -67.761037063116845 -106.379711226733832
57.785034349334339 58.659677416741253 -102.115504846286157
59.072412097059420 -47.195704489980045 -106.170111878914199
56.492987177275850 -70.619066830115671 -104.598963675354710
56.833094601084518 47.512340336630011 -112.794663821888477
57.331216829224111 -46.490700241360067 -114.792918041567901
55.274409174500015 55.547475283733647 -113.014178362958404
56.610450327869266 -84.764607169316278 -111.789181356960839
58.835928482900258 -45.942709107008156 -118.120338988500009
60.323985190115124 -52.790497058698307 -112.380280383468957
57.314336735793631 -46.814996637591065 -116.702515832235349
55.250888702498941 48.562152885421135 -113.084727152649961
56.728914973696654 -41.645971449091448 -115.428613048737290
53.899386454715589 47.158655796514140 -119.249682545826317
55.769881506342990 46.504194267504026 -121.245350608047033
56.203801948010970 -51.136197017135224 -119.447255602624182
59.457790580572222 -44.617350869911206 -122.683180373746580
56.277128205172012 42.755686581198532 -125.254485350633644
59.593523691645125 19.771360860954299 -234.060600556675354
63.403479271975513 15.913808191681339 -232.038526280072148
58.800277402556738 21.654077225479874 -232.149416697513999
57.815015013844395 17.336769276548207 -235.628423546768857
57.955490513068732 19.151691444711211 -239.530501596517666
62.706051153480622 30.885192303494218 -247.482997486355487
58.896098506367274 22.735290116062519 -247.000291634048665
60.664675928320818 -5.687674299569320 -252.251571356461625
58.843433723074348 -2.662453910143492 -253.205059584048911
59.169623112489013 -2.982605360140553 -252.771847286456591
52.959388808292182 -5.499288652043749 -247.921359891879320
58.015268300077011 -6.710158486931377 -252.725848704965983
59.577994674688135 -1.323912665021060 -254.279369423467756
61.103565021060668 -4.888802583647767 -257.867896697443086
61.326170916151703 -1.999251260976701 -256.937617251547977
58.032503341202187 -4.227012190629999 -255.022492098826376
56.805271086500980 -0.029530487474858 -257.584220552761224
57.899584346071933 -4.023446568139910 -259.767591332274094
56.854264751323278 -6.136884488233182 -257.632787020762805
57.319689140087355 -1.071938427547263 -264.825799651311684
54.629942261676057 -5.137151025093463 -263.613864762722073
58.026487019158012 35.215273651251984 -258.772609219719811
53.107533705929420 -3.781455372620961 -266.986439038963624
59.299315955843497 0.362307352938698 -263.202038605550058
54.913381683846652 0.461716874781716 -268.661524152847164
60.895121166561154 3.088490541423479 -265.545266860957554
54.021232540743235 19.898379299946551 -273.532587207194865
58.788115617976942 4.696109725789141 -271.004645192021997
55.877717648657132 9.266530476362508 -279.165180791876594
56.172394228105020 8.245611430741153 -276.636795166930369
59.154639207345227 26.783801406299219 -277.267004618831209
58.141993101045884 40.294932570132488 -3.447963669360250
57.025647079394027 49.697300066790305 -8.188106354791348
59.764840934405264 37.358633199096658 -11.169962212465038
54.988611946636340 52.075820216689237 -15.852003261953062
54.164588916861767 61.186018025867178 -23.010728955359255
60.609075820977473 59.476884086892348 -28.239816570433803
52.125963489308518 48.407874814402611 -30.933176481516043
58.898736351729582 -45.227923933159481 -34.583615718987119
54.428052915807172 -45.659240480078232 -30.261570751777072
58.218248087180221 -36.319694952003310 -38.514481855588144
54.114484184992634 -72.072206940835372 -32.840887997766615
55.026593152091500 -23.740996368913308 -39.146104775121081
54.240364369342068 -78.952701201696357 -36.927314376244702
60.630152905531759 -12.093848097220196 -43.988995733225714
58.325456463174604 95.183651606159117 -48.212912025122854
56.903021907606409 94.931965650049975 -48.285945813499481
57.756698131377469 2.345932353544395 -55.792244680545352
57.255174563005880 -9.893426693173275 -54.671978045988780
56.076773483603482 111.922755293142117 -53.285562741813592
53.039579697943253 -85.415123748521751 -60.563345085868946
54.010255028720913 -56.091831139383501 -60.111358302264037
55.207490677269810 -50.774148742898348 -59.174946138402461
51.356637145846470 113.564660835779577 -58.345735790794151
56.982392963900189 -53.473454875318225 -55.719569954857633
57.818625292484562 115.405772658679766 -58.789734328305769
60.119543856564164 -27.813282803897245 -63.499482858134130
57.992675353596979 -89.302234150386340 -61.687404395607345
59.436518122956826 118.662444902186834 -65.532545629935569
55.789004893150150 113.446313578095996 -68.346709887360063
56.148717860052976 -36.505701420862650 -71.840488287136850
59.742763488555987 -38.357656883490058 -73.465688538041192
55.039053425144800 -31.899368065030984 -76.331344869521288
59.154684147474271 -40.501690684816083 -75.853678878442608
54.293400818338867 100.562958974880488 -72.797426831477111
51.644404451342439 75.119593382485291 -74.570815822262276
56.461354630015471 76.809269985324747 -71.200053748441789
56.873440083047804 92.133659789621632 -73.326717882434465
51.076065147691388 68.251963792380337 -80.356666025517924
55.851195578094760 93.370151054306490 -79.017166445908899
59.030433745484416 99.256524485508749 -75.779540020458128
53.700465416423526 99.812415214860593 -81.508513013572099
56.214161081851508 77.501241612184714 -84.782223170822121
57.847074493006019 90.414542287815522 -75.325505714628378
59.357466205657566 97.656876809145899 -78.518097222724677
60.977421093002619 87.000174713968562 -87.009477326443772
60.695490428906659 111.975097249497452 -84.354304343897056
53.260236826421661 103.057344553590312 -83.658732325140647
55.425006881092472 78.176214668543949 -80.739220326170297
55.448794025016667 -55.619365297703041 -87.579369134462070
57.180849914329229 82.593504065913862 -84.181348605630092
58.221700803283035 83.612587313842411 -81.381212795596625
58.580684511097786 74.651380661077923 -85.219307236811943
55.705481298570163 80.893542739119184 -81.816752968016900
55.957665554946850 101.479026391921309 -87.928227322107801
57.175673695852495 -86.626723207767157 -94.019050083935426
60.895604789452442 81.619347632507868 -90.148280613452798
53.677246220325472 111.247231596060132 -90.066915142956120
53.428843210535568 65.174405198438023 -93.915256571168001
56.779722999163369 64.140346406656874 -96.852413262106310
56.130249503018845 -42.146332246460929 -91.253715766321989
56.168531589558064 71.728868523959420 -97.288694791009917
56.969512780646269 92.635898597142585 -97.601125653145132
54.784917550352276 107.468938072563461 -96.728729341372969
56.845980778423794 97.911252394521910 -100.624937985042436
56.265458996154031 -62.626515124922932 -98.883050010311578
57.177936512042884 -51.616443487019893 -99.795077207142157
56.810977140338764 -60.839074237314421 -105.423558892194336
58.928859578162765 -47.343448772290067 -100.599939297233234
58.469457230964501 -59.313679249488956 -103.168905551360595
56.623237972551166 -68.992698710947536 -107.960079851328899
57.765533983680058 -43.431310902326359 -105.511757636856871
56.602900508264000 -54.072450195882865 -110.336906787589882
57.830383877423039 -74.121732680612652 -111.705084264742297
58.261969119416655 49.897499889937848 -109.932922185006447
56.826483016167536 -57.922661764700464 -115.051910004437730
53.378997346979979 47.368634515461245 -113.010789366442282
54.218103591278172 -53.235455521858000 -112.283920395531879
55.815280878102570 51.408850299422113 -110.332702200116799
60.324770647655569 44.593326508114195 -109.120905265383584
50.922178074387382 -46.457456234885726 -118.342324820027414
57.317991504705908 -45.450719718044461 -112.948292998999818
56.242238866791446 46.607399592960547 -113.738262516996770
55.891682123547511 -49.545400982064351 -119.947310169387009
56.099997621519371 16.061218770077954 -230.854469601779812
56.996702392358159 16.111593889179701 -232.692198291900951
58.547439589629072 27.623606280304152 -229.800831811709514
56.844630566246295 13.689383953201913 -238.350826972973778
58.478202118678482 18.542023123253863 -237.404688733516281
53.796193065410506 -1.677801239998891 -242.649789189535426
56.042474173115409 -5.726029370646337 -233.320742196032683
56.564913678488374 -7.927459597102377 -238.645370811749899
58.414976928100295 30.878913025893354 -242.060125532399695
56.250757469317769 35.236633427252059 -248.425974178620038
61.829684931671288 -5.031697999780903 -245.599105029666759
55.538195073630177 -11.861697502313941 -247.475450034999881
53.990210023389601 -6.409728110598969 -245.152219991164117
55.871593851520416 38.525155446013777 -245.777531052479077
56.662587999357910 -8.031585398837457 -249.736973295963708
57.816735493381103 -2.584484273890974 -250.879297216712928
54.613716130014488 1.566256394391411 -248.657858807677314
55.944962745411928 -9.143055288024392 -252.713497824967874
59.169284458210001 -8.170282453192812 -249.053274410189999
54.809760463547434 -0.775771480397429 -253.448272015883504
56.092032689575170 37.192315572939499 -257.758122494478471
57.572133995855175 25.462026340877724 -256.203838708720752
56.734573860683618 38.404421380506520 -256.646924060849585
55.143338591026932 -0.305467504207801 -260.543315676322379
58.099419308103350 -5.069781548423428 -257.722609687501574
55.512629286876717 -3.173049745231086 -267.609755790083170
57.530711719703852 -1.751955747758666 -269.683053352407967
51.821280680399823 3.777309483029239 -270.990060500582274
54.270919485478061 0.847615349670841 -271.216649355980792
56.652822325731563 1.567682478083903 -273.547452459482997
56.047096497318186 -3.556178496148544 -276.252333349158960
56.802116337766918 -0.301495374087219 -271.871977807032181
58.004845997254343 32.590431011916550 -272.362635481196833
52.150314189914695 31.139283010612914 -274.212187393319823
52.702980767173145 6.819064826109736 -270.818687798990084
57.437268012290573 26.247695194957608 -269.952495895126049
55.159906065488101 12.683608682835892 -282.320922584641153
55.470652996662317 10.809778085724680 -277.305118465066528
54.103328898508060 44.783875712504752 -2.436599502429164
59.109023259188177 41.533914546850454 -12.420060016539789
54.942863332068839 27.838851141720340 -22.583270873548258
57.621479949800523 52.129667305154804 -21.814678694999419
52.261956867277526 51.335164988759978 -25.152836589015379
59.087996545295852 41.247095639038662 -27.477085836558459
58.141008831542315 47.612303645156800 -31.620872787489049
50.980223958735351 -47.761732121477039 -33.730461261032765
60.718767050551499 -59.302024189631041 -37.026927167532214
54.152755214538971 -66.948702057503809 -37.180058252265255
60.312868351618057 -32.067096587290244 -35.365963928593139
53.807482571539659 -28.454012745854982 -40.825973795920937
55.038965931745579 -2.985000492587581 -39.192012952558223
54.470745642151428 -4.469705826047669 -41.421121452424082
54.650339471451474 -78.295692823546688 -42.040408634020864
53.889884309270279 3.455241823637319 -36.642201736440228
57.474713799141732 92.732913283850877 -49.743135740459877
55.183086239302682 81.646025629062706 -45.643837920399299
56.110659638553976 98.411961998960635 -49.393748168127246
55.756962962682763 -85.733849006306087 -47.876793649407048
52.272179874141528 82.631295515935591 -46.570820792402472
59.037752071741600 7.668240503313974 -53.012025670388560
58.218294175214524 -9.174213456367195 -58.151250262915795
49.941201909153477 -0.528935333484398 -54.145545677624185
56.194681229709225 104.096266354926513 -49.212049308597187
56.350081000749817 -15.141350529507022 -57.497033989117369
58.739450695386878 -51.842818230528117 -55.415452399723335
56.291872992725040 79.986301557008062 -59.584541527665806
56.412345885572471 -55.139675900864248 -58.024017136481120
54.198646091071119 -51.623716711020052 -61.191216853693547
57.179930983811481 78.155857120890573 -60.525972987133201
56.497244450650129 -25.187523418122531 -63.375205592523542
55.707537998338225 -39.394020878700651 -67.252704725734702
53.953138651242696 -28.746927090128111 -65.524469430172033
54.630503223298035 90.336812693903425 -75.084279644726891
54.669879470049622 98.592778752472611 -73.526161179378065
56.222481771847313 90.135937867304577 -75.769096563521643
56.534921305976710 88.631229998144676 -80.528793903959169
55.318791977237971 -50.088093502133731 -76.342177794765817
52.253214671239832 103.724256692120392 -75.437489924253939
61.449100477819876 -51.387720055168238 -74.550381830309789
55.144228453596504 78.978002770010690 -79.206334352138924
52.423842578972952 85.884252445402439 -76.406189154902549
56.128319523544263 -90.188208200269258 -81.904913263653100
52.991656410255992 100.556206038206653 -82.848331050315664
51.006637001813750 -55.193627771084962 -83.937030504893031
61.356161928394741 75.502053479585271 -81.776113595529225
54.590261646648841 81.899753323807346 -77.234890297622755
56.882250023070988 82.597612501479844 -80.493617554966292
55.360958644160007 82.900644197651317 -77.955482513400895
52.343443264932979 -56.521038116792113 -86.016789927067620
57.223684404853536 85.232928817353653 -86.867418400437984
54.965167835679551 -86.020004404550107 -88.415754819166196
55.909423453739436 109.306440042499105 -83.967947609823469
53.485177269491842 118.012887188099981 -84.081779846148422
56.094834284089060 73.265150175397224 -88.319973555479834
56.633725053590211 98.904871002318316 -94.943279631219241
52.562242618138043 90.177394048268269 -90.867751413809927
55.079524165189127 104.618050160142715 -90.462658203631477
54.661851179086533 107.523670901893212 -92.606137266872310
57.624836230872120 109.609480177536909 -93.347242674422560
51.333226128178850 81.014080389519876 -94.252191762318276
51.167373667568590 112.863251831407837 -91.289225249788458
58.284577971689870 -63.179458704306512 -96.041956831876121
57.072871894698572 -47.668401947514702 -91.247805265404992
55.893028243237382 107.361598007354999 -90.912616494724617
60.641724538717142 -53.207369702275059 -95.418188350255804
53.580696695583939 98.314590894422381 -98.346368315900179
56.724625201780363 101.256556120990950 -99.846751756248793
56.883004974306722 -64.080022559916188 -91.015521848108094
54.859346612282714 65.458852734610218 -97.330621554272426
51.982659084014564 57.644290524336846 -102.759714684643015
51.539809342561043 -59.455708157139853 -103.003144953341447
52.919958767094784 -64.026900240649852 -109.441884571981618
55.989152109841747 -85.811705117710062 -104.490160237932542
54.527612979958825 63.282723754920568 -108.990352641043614
53.958786035147497 54.489790275320054 -106.096773143615152
56.644670231319914 -51.564940982778872 -107.098221131064122
55.061653879959906 -69.706531735094899 -110.644843524485282
60.301654742119204 -58.345495667708050 -109.096330463828266
52.771934497949289 53.894357225332548 -103.127843343422157
54.181965212912928 -70.700507609682290 -105.406603125266912
55.722327804656103 49.788557508202430 -109.612468204001246
54.707320801740941 -76.320966058825888 -112.612087005565854
55.783274088016306 -77.596361169904355 -114.926471883074854
51.708147543480308 -49.567566399581281 -111.253041203620413
57.681046149279425 53.883892432700755 -109.602398558478839
56.713048037067729 47.119175869888956 -107.771924560129222
57.179336092453454 -43.731352745158567 -117.350441849988002
54.027175335296633 15.754903358155444 -224.701014184852369
59.697736038128028 -2.278104896670550 -231.270954949452488
59.127993288190751 12.581634713180881 -225.573720931967841
54.713002481234604 -0.731427943321611 -227.708087435657518
56.179100824764312 15.621906413430336 -232.585240569697589
53.948403944227721 11.331138832728268 -226.781452573801971
54.637322937721173 -8.173613228871712 -225.257516788285159
58.079701229249906 21.163746080656978 -230.436124879808574
53.314806953683409 -3.823606899523869 -228.303267279794937
57.205382635678717 4.670981904255354 -233.525499288748392
52.460772212921597 -0.790151357742051 -232.847278769549689
55.724792782901197 32.588182951182489 -232.213242014753831
61.577473861947325 34.031178375017760 -233.374499442221264
56.965231848645814 32.295651077031259 -231.450833621688673
54.539710151425304 14.019592638111678 -238.344516158720609
52.063764001168835 -3.905252557160813 -237.153231074841671
57.577289225067616 -7.389172300333481 -236.268239459846114
54.519629329953517 34.882422996865571 -238.726494283662305
56.825627828542594 41.453716647465697 -241.282362843458543
54.005560672883874 -1.915671447551881 -239.675590309363884
52.664973761755093 -9.208929989009317 -242.007071358945922
56.273810611237494 -6.356336501188665 -244.020511125249129
55.030783282543482 24.439983049587227 -246.813294716315056
55.431488098926280 -1.811757268074714 -241.062878355520951
58.467832257326165 -9.116442956773732 -246.974573266489472
51.616575370580023 -2.956042416468101 -251.723377108228249
56.393650323055240 -5.960789677184803 -249.303569659073673
58.977141997810534 37.056888559631552 -251.882042487255490
55.342992430186442 39.776843319680395 -249.419976984454763
55.261348191759275 40.048746681137395 -249.945708855828968
57.699728419528974 -4.149458445199173 -250.304977061997704
54.457606879434003 32.462763399709743 -254.748087896411789
55.069854662343104 38.075435771129193 -258.213978898452865
51.897038981444290 38.899547550035663 -256.795156020171135
54.071760549119382 -1.090832702031518 -260.274270861696778
58.698157781774086 26.623584676283045 -262.229751181849565
56.127064936990848 40.706159971463123 -264.246858503124713
47.748671533170651 37.169639341144489 -259.669655419084620
56.671300520150233 36.646340520181937 -264.447715622935959
56.086832577739436 -1.143541951278527 -261.921347651932820
53.305259186744514 29.636717457371368 -269.663726270534141
56.277318767199411 29.975309624564083 -265.086382820088033
52.335109094237289 35.573538231979029 -271.688164210961418
52.682491182430432 38.100431362253858 -269.179311827163588
57.244663448576489 -0.910145887181873 -271.590263853036788
52.970630680588961 40.744984090792386 -270.714538059431732
50.312861721617232 4.270675952808876 -272.631990928399375
56.284153186076267 20.653013751769503 -273.293690727278488
52.945924043189066 -2.666370425498057 -275.556122967019576
51.977125969959893 2.564611204814753 -272.293875043959872
55.651465144522824 32.098520974018470 -274.563699518274916
52.455158465455732 33.852913171246982 -275.997775019913320
54.440595273642884 23.023218330208891 -276.275051190550812
55.572765515336428 5.247329929273648 -276.001220598856094
52.847685765456845 5.179275837071618 -276.385425978657679
52.673179344607853 24.383497034633191 -273.104425848129097
51.706087347144333 10.355709544328205 -277.761031641014029
62.266351033157882 12.309579900647952 -280.800027807733329
59.168137832862158 32.136070863982326 -281.887427390101266
57.605338648737408 32.025397556127700 -278.225865613643919
51.897819361371120 12.328585410802539 -280.800901057139868
57.437353018127567 10.792759461669119 -283.308584133694183
55.602818509245360 23.205324420345850 -279.788437875858506
55.427592015240414 17.142748992031052 -282.917227220466543
51.193421187227344 16.005558185465688 -287.235273975293580
52.488808277475627 19.109135397364128 -285.360354754184868
57.981437704887732 23.455928549262318 -279.818961346043977
57.839496271869997 12.725492649796674 -282.946448535647562
51.968699666429458 18.417162327253500 -286.275091861071928
55.523852553342202 19.504251277791031 -286.579293732370672
53.260873281113120 57.421838211459374 -9.386872277284475
50.171592260510536 61.541029490737294 -11.880781374825130
52.008473587615072 40.049309214838942 -22.553282976592570
54.156528584353850 52.842325421591120 -30.874086947290230
58.033057010548582 -41.683447900410968 -32.466358832818763
56.195394290085133 -68.481690750381176 -35.619760738005148
51.260826470223904 -68.143795802805556 -39.622187688446651
51.718749713429936 3.346145727723624 -41.895134518576825
54.033031376587225 8.868908845864050 -46.505814793701553
57.794273794219947 103.593916860805408 -47.157891047335909
55.287553734583184 -9.554965532564839 -53.440499596998102
56.883720126029026 -17.372584796965491 -56.938192930810800
58.996839953198695 75.571004541860447 -54.430585130507353
55.848547817821981 111.875882944228223 -53.093188817697452
53.829002423403750 -49.881630519231976 -50.989600244748885
53.875787666492847 79.384691891143916 -59.901574838851388
54.338790619404627 72.064533701511863 -65.543051765065243
52.614652650230603 -50.214512684913878 -59.272945206102463
54.410059798231181 -60.492884732665900 -62.784202558146589
56.651589625408540 72.683774257124838 -69.315730056824449
52.818345325413404 97.936658022229267 -70.144212035952563
52.024950223731111 -36.225313386893738 -72.952165438790217
58.735026864209011 93.685902278500734 -66.592689549035271
52.149711131232927 117.530515715020158 -69.566100155679379
55.408953723450580 100.827813151127799 -67.081429598471786
52.636132718210391 75.570763795251622 -72.803445214307175
51.391417979187715 86.204246744297961 -73.796464003498116
54.455025280278498 101.058891857276834 -69.181376307582113
55.660264253488187 -42.911114081790984 -74.758037578428556
55.534173236194633 73.207013194164944 -71.929443055855003
54.292438056874715 79.532115076841578 -75.753391552209550
53.476179182291233 80.977283945921059 -72.668516486826917
55.663991141621580 -82.829357506875127 -76.318189318786722
58.207003867922118 102.301062117685845 -78.124607367775383
58.940895280431491 116.403396994930731 -81.956718973114747
55.399450239727102 81.346974148437511 -80.001958842750483
53.180715401387744 105.401334945197718 -80.597485253563264
53.572459514882006 117.998406933325199 -84.297944269526624
51.550721287482133 96.780239878749185 -84.020730550538630
56.475623723062846 100.657786499937956 -81.852715796930042
52.921402056730706 103.188787245413081 -88.877478006486697
52.974535828681560 82.079377641862507 -83.961811347962879
58.915186755152739 74.282317077312086 -84.766143612797336
51.165759064144893 96.440831732921254 -91.427744957320101
55.144709545822124 107.796558907685522 -90.485547703192168
55.113842546480328 112.642007558531773 -87.686203909736093
57.943353233318042 73.371510596216794 -84.789115873212438
52.084200407167899 89.500676352462534 -86.538633853897309
55.651814716695462 110.395338144642366 -90.119917950927771
53.417755434816875 116.763954454810815 -93.805028552218829
53.035839900161008 69.668775723243215 -86.690544851713653
54.318312418153724 75.726897114038735 -89.257027631422304
51.972527229073805 -54.567508396126073 -92.248354616508479
51.688413460136324 107.671714463948462 -91.611056448145291
53.449233562887628 73.753100281422206 -94.256036106148386
54.051245781394208 -55.887824407701899 -92.244172152839411
53.467242779472009 73.152476930054462 -98.257040408022149
55.982561813548664 -51.129030927476798 -92.265821843931136
54.225271251921612 62.267872028180719 -99.773497397828123
52.712814790427274 -57.662689256913012 -100.162255392650792
55.576816513627584 -62.882740899250280 -102.198563522720306
57.533249806267058 -43.414335492294128 -97.655252485310868
52.582517178448732 57.362113896032824 -100.222889873814609
51.538482330099377 62.734986123946733 -102.743235528206611
62.059972261923271 -66.188081730637592 -101.064875954175591
55.216955766581684 -57.605422972807290 -102.298599631660778
51.857668984478742 -50.152920789147622 -100.063521520553962
52.128489550810599 61.891099857054613 -99.014859081550298
58.326590198716247 -64.071264195177719 -101.765022403222233
54.525433567499761 60.120721072182150 -110.205729365351772
52.250090416594880 -57.294264048056803 -104.891545357771847
60.104572744503940 -48.443941346697933 -102.163320078229447
52.189960327476058 -46.989987821657657 -106.195222147829483
59.558445524349423 -43.974490524822222 -108.711612256322070
54.181111545676025 -73.545205954128605 -107.003368597591063
55.439149034791683 53.687268011891902 -108.206721050435945
53.497768023771677 -56.924188551633137 -110.715373870115670
53.423231477540583 -81.132670003134820 -110.074058517307265
50.966243796533192 -48.362285410100725 -112.936008839000252
54.087748311337549 -51.315563476069549 -113.488491301642384
52.314639242512371 -49.452031584019494 -113.370471434936903
51.328216141536679 0.309947122870597 -228.713770532128422
54.674606586132079 25.924051174713689 -224.164043139183661
52.042939631335045 12.500324879280273 -229.147852242181244
56.099046109422822 19.099992617380551 -230.212783754712291
54.643090355066249 18.480572329026334 -223.390885876195028
54.415162474721868 -4.552325525648243 -228.782199857140768
52.704246996017716 27.684090702383223 -230.594659245665014
55.189379672866600 23.287176882989435 -236.897034072089042
55.509822366744714 28.715892393589321 -231.145760261339205
54.538998341136114 6.886253055292603 -228.960733392906690
52.738459940155145 18.929353108853302 -229.036891190098885
52.752915832004767 28.763613048278945 -232.182586980475293
55.818630792591698 23.798742897964928 -227.284686173123731
53.141874346189290 10.204543976228841 -233.696723292145236
54.451291047784196 34.549368856182063 -233.700960210769864
55.199174372227120 1.456150023345586 -229.967643904626641
52.474479722855143 15.459903553329097 -230.427413269647303
59.918253982829015 17.952476560975050 -231.797450917357509
52.466871039519091 36.995471485153928 -233.154611175444188
52.967825001248748 -5.115195909539928 -232.932426860654147
55.757458633631117 -1.821867615721613 -231.719104579613060
57.175107309269585 -3.490094441574165 -240.436099893046020
51.764013408287155 37.544986043860433 -237.460804001923265
54.289857391529814 37.578388042624425 -240.147282879024289
53.411415854940124 33.584559422538007 -241.053259142306558
57.719183884286785 39.397883567596637 -240.092111543874665
52.640801953941462 38.831462639904807 -241.041843215151346
56.857145650695159 39.577263118323543 -239.615173332324957
49.885005064820056 39.363848548254616 -242.433674095311346
55.482700701864644 41.257910445785441 -244.002346845348200
58.064222092193482 -1.194980881503550 -243.529310196796757
54.259260758363666 1.571607481491249 -245.238488233562492
54.984041079442257 -6.049354716257927 -240.606363393059354
54.961903796229443 41.443251422227505 -242.048342699143006
54.665937753547780 36.173975275899124 -244.648561685361045
52.389774973426988 42.405330827377824 -245.850726418655171
59.522361583690596 -2.106598357760879 -249.220703686872298
56.603174058106362 44.298851512483154 -246.201038055973072
57.111106060526559 -8.178831731384708 -249.089089276256175
54.528198728270951 27.491281754908755 -248.721607823058548
54.670015791125820 39.810749785278347 -251.741884134549252
57.864226971090595 3.047149917204573 -256.041357385734273
59.045019422236422 -3.129029422777650 -260.842920995679549
50.020710922222122 38.391351351577086 -252.568974784894976
58.657053224147901 -1.666047117247260 -261.778647150129416
55.456667862548159 -0.335030794563750 -261.593946659424148
56.780395033252923 -6.325221868367823 -264.786022828849298
60.138282872620060 4.257743085663786 -265.281326171265789
56.745543163611586 5.150676559744418 -266.474600284731309
55.666680780040792 30.320686032883241 -266.295351658877962
56.081786049314935 5.708873663766176 -270.610453776541192
53.782817057302445 24.957063181250046 -270.321060649986634
52.361505202470660 21.007516255635664 -274.673612875807805
52.799608489882630 3.052888835966618 -272.588879870390826
50.053951037148771 25.757276395743581 -275.446441499300533
53.555323228616871 9.894553965273154 -277.027628711810166
57.054969104061755 6.706853505854007 -282.024082183326072
57.560676336971717 10.822115456546626 -280.242696473918272
57.159797234917470 33.083308557878098 -281.482447432948902
57.557887648566222 5.940555296971573 -279.144205464439665
55.161362950435041 11.810051337235826 -278.112811782958204
53.811203653850093 15.651886509598224 -284.093490592046976
56.511390617729290 12.883758446537723 -281.893692475611942
54.401865180940746 16.737242929724601 -281.071937559333833
54.880511791378296 12.773130726533823 -282.497045577701101
54.479872006263562 16.218779438890873 -283.938915044903752
51.928005001008266 45.319628773536763 -7.113007197680087
53.528554344958017 54.046704589341573 -2.575939278264979
56.568045563126560 42.033762319936137 -3.213427813443149
52.537639333051047 60.667044849494708 -26.100261503848294
56.042819780584750 -67.851085262962854 -36.205070622344316
56.089787487141905 -40.014328953072379 -36.522032672443792
51.123253102356173 -75.011072585745197 -38.864652219266340
50.432797018319633 -15.179881742009712 -35.799143126519603
53.065156563251236 -6.677110609952024 -37.278521672576808
56.953852774593230 -84.937396847673810 -44.123256204073009
51.275502323156616 102.807479881575404 -49.500155954895270
53.816959084941885 99.338814289984626 -44.214015849994581
53.206572229405552 85.559457527514354 -49.211057639794994
55.186078362589065 -5.775004357146766 -48.795044334049010
55.399280862846254 108.340221007764242 -49.334293321046275
52.674584452490187 -82.514162916168829 -52.167488800509638
56.629059533485481 -49.147139600160727 -49.987902790763833
56.440012091908187 -50.632744087688579 -57.550023272594444
53.010886036669433 -21.973211661746575 -56.526422065736568
55.310896916910501 77.731801291945573 -62.033858753998430
50.830563509963220 -22.783465496187439 -55.376296498303901
54.353882735724611 112.831012992537111 -56.032010323447793
55.976219146343716 -88.089028627903119 -59.846146913002841
51.015761904466352 -49.882227091308906 -63.453904144664591
52.701039100583273 118.107505385276895 -66.433960940885299
51.759549956541719 -26.761547997988927 -67.334381363782043
53.917634863671545 94.092705504024380 -65.642166957550174
