# This PCD file was generated using the MATLAB® pcwrite function
# from Computer Vision Toolbox®.
# .PCD v.7 - Point Cloud Data file format
VERSION .7
FIELDS x y z
SIZE 8 8 8
TYPE F F F
COUNT 1 1 1
WIDTH 800
HEIGHT 1
VIEWPOINT 0 0 0 1 0 0 0
POINTS 800
DATA ascii
79.181913661930537 28.355037210156059 -178.089287364151829
80.614293524218226 -32.620007353083572 -179.670095641261241
77.046291261959070 -9.679429775817315 -181.083563196051642
76.939401779627445 -12.550982221681235 -181.011827934556777
79.339295756829031 32.366757453340760 -182.169732497498700
78.556552872343161 -30.805464786952953 -185.008221081285200
78.919183439275741 -137.202705122836164 -184.611776425198570
78.651987957433064 -42.080210790367502 -181.597723464552587
78.111667451921335 -10.648728025512657 -185.327714924759647
77.279705314476402 -36.693324548722792 -183.569694361704251
76.193526775029326 -13.145040876071427 -182.603867385634601
77.703682786184316 -9.413094823305162 -185.801925884385213
78.547237506923182 -28.349698304113481 -187.197597690271351
79.379031240324110 -27.893588843528377 -188.312910491058858
76.317750441209171 -5.817201146011726 -187.969425204196000
81.769728707885747 -7.343569250828274 -187.502197955169919
77.708304813105897 -137.937593589146275 -190.971460060447896
79.471105477574866 -32.496957118442083 -188.725939155327524
78.434010944755329 21.313837014939836 -189.388548602005898
77.991081152507874 -26.785229219413516 -191.814343856015967
76.853519365677215 31.121513147355731 -190.225486466524671
80.581705135423533 -4.720702965252656 -193.912589322140349
78.572864824106034 -21.128946060804864 -192.078013599683374
76.552461760853106 -6.614897857222928 -196.515042316868147
78.497708852193369 -49.201661113738616 -197.258368027739493
77.449510357441895 -22.336129634432581 -196.747836195740263
75.197024062522871 0.659536256747030 -196.944224859087853
80.525471760050849 -54.278936262248251 -198.757402814657127
77.259837703787298 -54.269861581280750 -196.161575731862257
80.058401064737140 -23.763171379252412 -196.356876812325254
78.731553750871299 24.459396303948683 -198.370191141653521
79.655546520927800 28.509278874280557 -198.573560065243328
76.054208440858844 -56.257866645155417 -198.651447630046164
78.277618152975194 -2.548133625448527 -198.780631666713305
79.099288090906001 -55.925774182520883 -201.155024448464587
77.501129214162688 2.858237321263713 -199.028178022076418
79.810513407602585 -133.119916963727917 -203.370526044005118
79.826612356992484 -15.799575931312692 -202.502548424754991
76.735553400296553 -0.174128441412956 -201.843397848203068
78.708815676694869 23.576823789998144 -203.612782824837467
76.683029583681886 -74.682255286028365 -203.757110279830385
79.855693421280037 27.223283603707955 -202.587482056425756
78.903558618967267 -60.729559677992384 -204.675643420360529
80.021099709893804 -75.559425289205819 -204.083520251124298
77.993294186498986 3.255010855052317 -205.558196368179864
78.679626146667843 1.187687977802392 -204.273864622842893
80.348143352237329 -136.851232737325461 -203.577664108635986
77.756041549772746 19.870123921654208 -210.288028340417497
74.965108395395930 -9.082514292755665 -206.029025033092722
77.479777398617529 -15.653779263256418 -207.973247887294292
75.812112445314540 19.289475341137742 -207.632975465289832
78.711399934836976 -12.267035483444936 -209.218189934479454
78.917430412401217 6.147040394055852 -211.093119339391080
77.496121080287452 -7.835185453485543 -211.483455280239184
77.797718271401450 -133.265952912338747 -214.287538598295669
78.259592665677843 -138.847821518565326 -213.377766020031572
80.531836924811898 -9.170876480333600 -211.691320860911731
78.122833671182718 9.189445115978314 -213.815660834865497
78.770474953780536 8.854088267820627 -213.201355354664855
79.963317230079753 -141.086766548591271 -214.665684138790283
77.685161397980394 -129.082696128956911 -214.457809167047060
78.082456585242298 29.847091217644646 -213.207414580335410
76.862711481468665 -130.102162018545954 -217.818289135407611
74.403179320285020 -123.493619340096018 -215.252842371269196
78.146463211260581 6.767991256343219 -214.536675341221184
77.480558620873524 22.200113969024812 -218.474985082064535
77.822876546845137 25.035303046021589 -214.455342501778063
76.999733582408282 -123.699573131550608 -216.962838974304020
77.597689907596703 -133.764940795156377 -221.202319421486521
78.027499179433789 23.504422325104727 -218.929646557344910
79.787751501168444 -125.132500442143993 -221.934231213537970
77.954354906966671 -139.301834097504127 -219.482960820256125
80.363460539769477 -128.366336995619747 -220.221095454506610
75.559013803175873 10.495949298677962 -222.083670914621024
77.528660571655536 -128.637898394182798 -220.798631394998864
77.096198871295044 17.612350128934075 -220.676334422923588
77.141797887600802 -139.074956615714910 -223.372645056231164
78.081964168500065 -130.866425270605106 -223.360663946359523
77.362840207663155 29.747599130077951 -226.476889566416389
79.315704696384941 29.975106297410122 -227.462078862892213
75.873338378216005 11.771572753414464 -225.707104583972978
80.160065347710471 -132.318391198325884 -229.765231471354070
77.038010918610453 -16.246941415147596 -225.930703362632414
81.423478074466971 15.740996853473405 -231.658449106887758
77.770950520728491 -11.691564125219823 -226.548324220210475
78.403222865599346 -11.577878348027209 -231.091744494016439
79.498721144303673 -138.738106919781671 -231.732575060773769
78.649611299594795 -132.730957729011180 -229.869852903866615
76.340600638844919 18.550250250238648 -229.853774572932764
78.247932703881190 -136.721157686199234 -231.681143052636997
80.511981331464000 -12.678785708304410 -231.527099570917244
79.063980781444840 -38.627294995952482 -232.971704507562976
84.222125957054160 -14.146450225367811 -231.431608801125321
77.972045139992844 -22.481147429677286 -230.946765547657719
79.088978790597906 -46.949620656738027 -233.816099650978856
78.485106801079624 21.031978673247210 -236.786334893832446
74.729163171135241 -47.041127071979929 -237.957209365193506
78.259858001962655 16.444285278346410 -234.653289897914760
78.806089878082346 21.739303663505758 -234.368342440217646
76.460669010332452 22.108677406938924 -234.494684485669723
78.756069216500507 -47.462060298527724 -236.252540721997008
77.805937769753783 -142.441060768721400 -239.056067612752287
79.642334910023976 -40.105717042351884 -237.714670338197067
74.704554921973013 -48.331531712621249 -241.417443349372832
74.275249089609787 -45.332729959299570 -239.254144192415595
78.337782418926281 28.784853764787758 -238.822450476337536
77.442466501297773 7.894434375653033 -243.789346320916366
74.124892199472072 3.576014046286044 -239.663437104957438
79.206531059017180 -138.505137963949238 -239.724478593222528
77.700801522273863 -130.508326334100332 -245.333946210334489
79.654927756445375 -124.775012899373763 -249.874886187663094
77.430366929386196 -123.389863334149965 -247.221447716859302
77.494623232842102 -0.426324228101588 -246.800587824135619
77.701631443816453 -124.385376709772686 -250.327337810626034
79.578708629225616 -127.099549399993862 -250.666689456115989
75.226385643450797 1.002790790981024 -256.487521923642703
80.024984581384103 1.835706030662358 -260.196568712784654
76.286351670891889 -137.712343919687299 -260.338233966765983
78.439740745354840 -135.959778039504783 -263.214696839649946
75.571445792979901 -134.798737872534446 -265.782072230834160
78.294702125976798 -137.940579485226039 -265.596501501943976
76.609905416158142 -135.938524110563009 -266.232565126737370
76.261948504698708 -139.179838627532490 -268.978585770763743
78.895812548915217 4.255486488581790 -266.807058583905643
75.710363131639141 26.254585081756346 -267.413400958813952
78.076615649604875 22.469892514116545 -271.401324742890097
79.247120517857240 -134.780132288216407 -272.721477736280178
78.374102160490921 -137.120927320287933 -269.201977124627888
79.816824183788299 19.199087325488517 -275.273180345348521
76.690989053652331 -129.555170069061859 -276.754094130807857
80.644861864952489 -127.567142393700379 -279.817513860953511
75.374409117219429 -5.984382623528784 -277.849009501441913
78.948230584824813 -27.835941981764464 -276.846582768048734
79.322663617995630 -7.448445698934009 -280.073952220225749
80.143658560591888 -17.197690053293137 -277.221010143254659
78.933511114252639 -15.798842855414666 -278.983207160626534
77.793214231856211 -5.697251896643294 -280.542394910781923
73.887014783658870 -0.047819778436539 -279.082656677633736
77.796111634242649 -130.520715129183486 -281.667822301451338
79.222282336425820 23.561157155734335 -278.274024223606148
77.396727285968467 25.474009641888745 -280.499380527928395
78.756627509455484 -128.949236652900510 -281.467465607138706
75.788038402891829 28.445188896698173 -280.115516585484727
76.207682959801986 -138.829280303152046 -283.652158582449033
79.027988003229538 -139.683267017172085 -290.901680716644421
78.790237935627857 -138.865850021275975 -296.281492682454314
77.304122036531709 -139.954125653837622 -297.209948713133656
80.466420000810146 -140.895090954762026 -298.923787858469439
78.596830507406167 -136.444844038008085 -299.511143893588496
79.427592783081181 -135.232919989941877 -298.460679509055808
77.702960456273644 -44.634564731257271 -45.185451030150681
80.592598735364078 -39.082871685055281 -49.476239807826772
74.161152693257606 -31.727074512515273 -47.356448487916886
78.052742322361581 -55.364109471458534 -51.231711749128841
76.105703948369268 -37.675232111572171 -48.382716834891632
78.059871964648963 -33.882357447356128 -47.814332053959312
78.073843249276692 -28.469541762516478 -52.114552122940125
75.528633864132445 -28.020039133890158 -49.405400111301290
74.252370181395960 -65.737853190891428 -52.257966491278566
77.970453082141390 -15.869754089120732 -55.424863127883313
77.471512522087053 -14.882413261247208 -59.351162939464828
77.780501654031156 -14.169836064254504 -66.761861491328560
78.054574017116920 -17.638130415126792 -66.858905075614132
76.680651892530349 94.462255850910324 -69.010754909789796
79.097407835768365 94.441277311715808 -70.728836713847400
75.046042857351821 95.783550260338714 -70.801061176977655
77.017821616859933 102.843196170850163 -72.734583633983178
77.775273250539968 88.729302022591739 -72.602225941186319
76.593686469951692 94.933978458997672 -73.726650547865191
77.732759247428874 96.931271733348268 -76.682062529668869
79.110586719177363 89.843337728312846 -77.704550474375935
78.421542042914552 102.055356316201582 -78.446921170234319
77.450354209724765 -37.338924811059584 -79.112050861205375
76.783726969252228 96.379165834991269 -80.755431878679659
77.334891797601969 93.257575123054409 -81.873760208556163
77.818405747852879 103.515384251252044 -80.122011556876558
77.320323864750151 -42.850371478250530 -77.936235261840082
78.359525572755430 93.288644379877482 -81.360118818055582
79.328588215008807 -43.043071329295152 -83.992364911850814
75.670382960723231 97.423085287080056 -82.233857132317510
75.040967673005696 -48.277780702169373 -83.834170147784462
77.705967186150957 62.889793842797161 -90.282065803622089
75.213985358091222 53.386650244086646 -95.701044422989256
78.278764971236058 -80.571615754303195 -92.070045410669366
78.343356416130547 53.625806362867102 -100.100412914636095
75.863610097966813 -72.536054333843694 -98.317714535396576
76.068247421691638 60.566099188698999 -99.893690011260929
76.195335517875137 -79.025093986659201 -102.051501119230991
77.815540448514909 58.816551697837731 -107.962842847798470
76.988288143151891 44.069345470902689 -110.160595466129564
78.811667616233464 52.308699107062850 -114.198505750502790
81.638990399091327 55.330857728338970 -116.961067384146943
79.260662619625123 40.615486206816826 -119.845279922620108
77.210975452005087 43.904406367207905 -118.361087327494602
76.146413663064209 49.725474475936402 -123.871552050853182
77.594337864020062 50.501704341746105 -125.374729972684378
76.461149611073466 -39.968446992347168 -129.369943699381338
75.013346279510898 36.850105076130113 -130.780310348671151
78.205848754191322 -44.168610672619820 -133.847009169860740
76.373710849975225 -31.196715290993673 -133.667961439699553
75.808617235021856 -41.958996563029146 -136.520572648915845
79.258884831129521 46.348593033776964 -136.308156119725965
76.479745601455647 -37.334149550338985 -137.180102831742801
77.772591236942077 -32.956853634496966 -136.550334870900002
76.158026041663277 -35.085394502580634 -139.160462522125300
78.837584456614309 125.677451024330097 -140.934888580706314
76.086734554015919 -36.884579218729691 -138.141295544569886
78.990987973452249 -33.360574076989828 -140.459650115262264
78.762111101122528 -30.796528140858008 -141.249751163527122
77.931468408772588 38.752762338564068 -143.688488177577881
75.050181532241638 -38.031343724838720 -145.111755478849631
78.594739568470700 -57.205137976303490 -145.247479687387710
80.153374625450340 -54.358142347756555 -146.920565314835329
77.560251308469603 127.547378733876556 -144.573166994004026
75.508804713715975 124.297996785539169 -150.635325350303248
78.232104584810529 -35.007845668071838 -148.444497942706107
77.858702690116814 37.717362124457907 -152.434424495314715
74.400086975315105 122.773563181680885 -148.835426031935611
78.658177992689005 -22.802068715380919 -151.993910320787137
73.596273218487354 10.628611674372502 -153.162471689798622
78.441284161126077 43.424187344145281 -156.931125088994548
74.778133507296516 123.952256596746153 -155.538068485581761
75.059647879122792 -46.881826627558560 -152.508890187039952
74.988764295088160 -33.552575569685757 -157.268956257688984
76.722279245596852 -50.897303459751868 -157.729641733671770
76.256473026136817 122.856240882204375 -156.668699882233881
79.844504375330231 11.327302336560033 -159.585195988273256
75.674600027270131 33.917223272428309 -158.924707885004437
75.565361509064019 -46.390319066267296 -157.908583035478472
79.216359200781369 0.456844143944766 -160.322733641710386
76.817901038851147 -50.520380852319946 -161.604475637236135
80.503541074032341 120.503220071153592 -161.367942485807077
78.681680511146226 -52.694488508140481 -163.365726581886463
77.268495748665458 -42.549516732307048 -162.980226822058029
81.090931480635916 0.852654844376966 -163.185675890238372
76.509272915452996 6.985747775339667 -159.229568790361355
78.385558713120915 -44.388512123286532 -165.983656971502597
78.295655587551792 123.651353227081941 -165.376452407880578
79.169001796221877 124.588218713927958 -160.762230392792787
76.897451176177512 -17.645008955302181 -162.103832194140125
75.165823679954414 37.117622625992979 -163.023055169770146
76.776581242175425 121.749263974129448 -162.587180668982910
78.022478273906387 -20.838588987333601 -167.343659072881110
76.711520477808804 -4.335654659379149 -166.743594388723437
75.033864873646394 1.870447178461486 -169.775625018121076
76.973937924066234 -11.792529395783053 -168.398722560576175
79.037042424957733 35.586426805026221 -168.768007206796312
76.589524179744714 -39.001607081797786 -167.097708809626425
78.651585959716940 33.305191418544794 -167.622049872838119
78.115321563870211 -41.940675837140837 -168.109201392911558
76.135871116662003 -1.384070728039699 -165.564622444406069
76.507290531651194 121.319880108440927 -168.064233208097875
74.378743592015070 -5.519290505809973 -165.097194228599534
77.057195943121570 120.799264068003225 -173.159476868963964
79.472064068267812 -11.549240083452286 -172.735104455477114
76.751986596465230 32.100729408744151 -168.781367164223695
79.016254360702206 114.658682508806365 -166.891485754157088
75.585168492591308 -39.041003180632295 -171.266586670439267
77.732396536027508 121.536726476380466 -172.468080571186022
78.547301299203454 -39.279912434819437 -173.317158039023042
74.334127777681147 35.764146620531470 -173.830496895164089
77.558518342622236 -40.199442300164705 -170.782418931901589
77.225592472290316 -22.956869792281850 -172.629923535015934
76.069193379167558 -10.244954294045097 -172.515778711938509
79.218260328633221 -13.040319012159440 -173.767210740836475
76.593326712279321 33.598864971169043 -172.505297905975311
78.923732303280659 -8.017446234909585 -176.183719314494311
79.776591380805584 -135.331857050711903 -173.461385130204320
74.450108099036115 -40.081284389227086 -176.516441279196044
77.261469447549814 -34.511130544399130 -176.523737007159866
79.695299458006076 117.855815531227378 -173.745337108777562
78.369851291228329 -44.390267625893557 -175.267455516631941
78.872694397626063 -40.187659039371930 -178.278955485105627
77.082409784834553 118.189256764455635 -176.865374730032840
78.238651253922896 -20.955179335638434 -175.910689771900735
74.652678962826201 31.654651530230790 -177.642365925658510
78.981292943728093 -130.753489667045869 -180.516578125647015
79.603465303245940 116.410900261013765 -181.159427016506811
76.146278915039531 -36.777560338784916 -180.362229011465615
74.512970470071636 30.407616546246093 -180.183191629979916
77.263990745997802 -33.135345197476425 -181.794237982666260
75.534447912514608 -34.704491062015222 -181.372310866238422
78.641596184293675 -131.262362999812325 -184.941181226957895
79.999536004356472 116.266389290677253 -185.619815849406052
77.680127551468701 -30.826658446963272 -184.164209882049221
79.241584763208522 28.137159023152130 -188.109878362870404
78.186933330342328 -128.188925930363808 -183.982249239021684
76.653062394130544 -140.901881417648980 -183.776875394679081
78.841619534788620 -30.431083663706922 -183.624718665839112
78.199541831620081 109.725874031930417 -187.153736640674737
78.209967188816435 -130.041653674022911 -187.456638593815711
78.038220944784115 -28.254247704886950 -189.515702202809507
81.261568144285462 -126.460080593786358 -185.812347129239868
77.820245255393942 -33.798872848261055 -190.171148282957517
78.602435593647428 -4.389620584285129 -188.347138223525150
75.971114872489963 -4.627483301354296 -185.485909698743541
76.388567855381410 30.791157681882726 -186.606442726172475
80.588841510115614 -122.356306753775470 -188.826127004723730
77.159451375061877 -30.913471146097606 -188.176283572190101
78.850618087438150 -23.852007601036718 -187.681469992620009
76.536625754810501 29.026895054032718 -189.506454306986086
77.555808921629009 -12.342790929226322 -185.617540668390404
74.807486478421993 112.333036815543380 -187.889655456574275
79.582918695575970 24.189315920031163 -190.993337899111282
77.501642932620442 109.029759296853385 -189.000193004497902
77.596126672013995 -9.262322817390981 -191.471902311743122
78.353102476371902 -130.787836219285651 -192.917759427303395
78.679740421779186 109.587733043912863 -186.662623101243412
75.309741124928408 -133.665577036816643 -191.215255396397652
77.423971216249456 -31.063583961804966 -191.814916516780016
75.499453578244584 26.569503453560856 -194.025983053306703
75.829695742234861 -124.049782643928069 -187.513126169365478
77.608246343063414 26.080494696701770 -191.665942574673693
75.393257962119023 -2.569388631267591 -193.831043508347761
75.766223344492943 -142.286562190027553 -193.517537640298826
77.018902797434848 -27.178648875236824 -195.281041170205384
75.485898651629370 -23.248756721527016 -194.436003516056900
77.591205912231572 -130.217722390815823 -191.711114213541549
75.262978904399603 -135.955931241903784 -195.217868663769536
75.267491309912828 23.381083372070343 -192.888541876446482
77.792779486269254 -139.156237012253172 -198.666408572779915
74.635634277867808 109.703707901628263 -193.491193162528958
79.264334600440890 -130.149599932785378 -196.228845886954417
74.917623448318764 24.529733285560155 -194.837028468454093
76.002038009083918 106.769019383496527 -194.642997548387427
75.496120684935292 108.773835371130801 -197.675818146869034
75.790983874907724 -53.750007646548681 -199.247466339926973
77.029114026058124 -133.501919291249294 -198.712938055825674
78.102874676112066 -65.775603509782812 -199.525563219932707
78.513865940603282 -20.478608420955382 -199.476715468971349
75.396568431254494 -5.767676743698591 -198.461575504840454
76.600065415188681 -0.644928761571602 -198.401101595579007
78.469537791314707 -25.131790977698991 -198.982128358178301
76.620387440165871 -137.943257090710546 -203.136356126772114
75.918100637703901 -68.558321506100754 -199.926888755671712
77.679875355273992 -56.634393239711486 -198.859208048633093
73.849845167480467 -15.621261094403053 -201.323905220143899
75.809890711036502 106.501595373103200 -202.893815280118361
77.062980094213131 4.675953861630621 -201.438006453721584
75.386890104221450 105.064082007344737 -200.243817176911818
76.287612002237054 -136.394652419962711 -201.636951946179181
78.992337903410956 -59.263061459121275 -201.359439054593906
79.863223624651937 -23.914582300991526 -201.305760222603141
76.348226008837543 -14.052891993144112 -204.323882089778920
78.785130725657254 19.798310713783351 -200.829793634230185
75.773159006745033 -17.429762631307902 -203.554047955830328
77.449410668947721 -9.590577032957420 -202.028662984910568
76.244109337366254 103.354171183889960 -202.510016028001587
75.610047662392432 -74.311973629978709 -205.662944826672543
80.313209645408293 0.046042636550210 -203.030003884880472
75.788687580449945 100.572849343453115 -207.641057960443220
79.497914696918571 -78.429844254056931 -209.253811864651681
78.457103064860362 -67.725496783807685 -206.287568766286540
75.943240032565754 23.231473048560218 -204.846120826375397
75.999022786988107 29.592313780479753 -204.515681900236501
75.831875619249175 -10.517519023333811 -205.353025402950323
78.047342080791196 100.655125781596638 -205.431241560961638
77.713042013486913 -137.775171694950217 -206.879185271809689
77.610433484313106 -74.043676225628346 -206.828426193320325
78.078183793338980 -71.030122376987904 -206.932574674232256
78.130533116775936 -133.001729540630180 -208.009010174097767
75.136170397159603 7.503120533788831 -209.914140220483802
76.902018571700083 7.183223475802237 -209.559277617014004
80.050181453161713 -138.726830210140662 -208.051011672321778
78.115731914737836 -4.579834010525463 -212.869161098576825
77.519368143820117 2.894082782187811 -211.341943558234220
78.772741295940833 29.224110587708406 -212.616291516859292
78.150311224855088 30.538485852712203 -212.255889059309993
78.209524426293029 -3.545775313106526 -213.268117577536771
76.082567517928439 2.671788733210008 -215.556461042604724
76.053903274953413 15.598957942818167 -214.753727871283871
76.600105693719215 -141.185866144641210 -216.436244000670342
76.068353775150811 -126.747624692710900 -217.993441531398844
77.451968939823331 -1.496420801967245 -216.057868585053029
77.018984676430605 -123.579554558440549 -217.560350407864860
76.090047870722856 13.602976507304225 -216.945298167378752
77.559302076220362 20.924446651544201 -219.623081758101193
78.662703133413473 13.713626799112774 -218.428957463320529
77.024594584772117 9.026636027659071 -220.315172536883296
78.532373347707377 -130.055295015465475 -219.526039610970400
78.948465665789655 -125.759490387437609 -221.891068990285532
76.372364367054715 18.361875287664006 -223.800170856981822
76.575691376772255 12.599088400507167 -225.526082295932071
77.159967705179454 17.846859012083371 -226.047643153772896
76.990922581602518 -133.937032544488460 -223.787634936190869
76.961566017543177 -139.962075681249871 -226.657184742361864
75.111699114906756 10.429732242560974 -223.047050186630344
77.600486142852077 17.458845886147511 -227.202495178262780
77.508237564048187 15.256658480289779 -229.567689503215917
78.360146999751535 -8.399921916996728 -227.248866342130697
75.536156793281805 -21.282650714127819 -231.058951694611181
75.118342931646140 19.889812610455280 -230.700886882329058
78.235835504521830 22.641930110845543 -227.963183978291369
81.405945590700213 -28.938541519998907 -225.507895194108386
73.573731063349612 -4.419814614769287 -230.015158616217803
78.321929965924696 -37.345825106452260 -230.892219527296788
76.274908264437826 17.537396196244288 -230.410358268024908
76.667528281182271 -137.915463272584361 -231.609770982303871
78.654225343693028 -135.756453848874855 -232.358243545283415
76.745237375265816 -7.565860746933030 -233.306138590344318
76.109241185840773 17.528095821116082 -232.866316302237976
76.718538009919527 -15.915861375778018 -233.650756329521585
77.750997558494660 25.068251291197669 -233.771706901526187
77.048285212395285 -44.457974184517177 -234.805573591502906
78.517669459104127 -26.398314576867513 -239.532754161916358
79.264542317825885 19.029443972553601 -234.936706737976351
77.777341413257432 -139.079700592302572 -234.132317375648938
79.483750091499630 -138.390352388278671 -237.570435850963804
76.530079392387975 22.009593772968437 -235.504272603928541
79.121581101367681 -132.635621700899833 -235.720401397880352
79.018335146938796 -35.878840355607601 -233.828007083456868
79.635129335423017 -52.288025787554105 -235.271679381265272
81.221534024613277 31.307763835621458 -234.528439883197962
76.981247399072956 26.898647976032564 -238.282137621782454
79.214442511668651 34.096384412992165 -238.625765777625446
74.575310638340014 35.839678415680559 -239.464893382116429
79.637793160443067 -55.427336296905040 -242.578543438231520
74.962789819442762 -45.431075275609679 -242.068672822426493
77.501942896053009 -51.622260181878097 -237.261972063665581
75.249053746905844 31.152078218863604 -242.795819020478518
79.935504024932300 -134.251487321107305 -242.869120674329309
77.440989585367021 -139.112550487501210 -243.388290992475476
77.711690740761810 -131.582879590769949 -247.444884168259193
75.401902976464001 -145.967805387918105 -246.110266387631043
77.842974480972302 1.911328851262320 -247.395230208952569
78.425251040717669 -127.942241116111973 -246.795374304186623
77.228674220032090 -2.020135182097794 -248.042561977746686
78.007802281361833 31.620176869945603 -247.753305373075477
78.649340396954898 -128.678776654978947 -251.314372086108392
78.518742911498805 -1.376439892348129 -250.853382536493541
76.007541863115762 -133.682501676154033 -255.311678594575085
77.051164870569096 -133.554361145385599 -254.379205128349781
77.493662486079401 -137.992235907079902 -256.262392048390325
77.093823675625799 33.108966279104422 -262.038025035333760
77.070712488339950 -139.458445843727333 -258.587452140324274
80.619870282920687 33.333301965018855 -259.116774214114173
76.818093590831424 -136.651659626917393 -262.069452541388159
78.727116592120211 2.849237497583347 -264.495332295257015
76.638604865776443 5.096987188555351 -261.483631785027910
76.267912625747130 24.034223902406222 -270.682428059178335
76.813629023394185 8.670265936977147 -273.688097361645475
76.992702560808752 17.886106885506376 -273.882441739256933
76.242746933624204 14.863821830053915 -274.939390188086122
75.404328773890143 -22.428101508271276 -277.747202576640234
77.496968630274537 -15.825552005314695 -277.952035402347462
77.393227367929669 -35.946542370811365 -279.160232595896048
78.983985661810223 -27.666636877106882 -276.654956990195274
80.578080713144246 -118.727868397788626 -275.965203123399249
78.246247645512966 -1.553552866943788 -278.698745572457085
76.993145554458351 0.983308825070621 -277.746580433682993
76.836887699552634 -123.351686353741940 -273.915887462525745
75.751584251321987 -20.755543843536834 -276.993650360104141
78.791456144957934 -14.328555031412655 -275.840075023802001
75.970678994624649 -112.581837457555807 -278.697269206153010
77.997367141517202 -37.842030693615314 -281.834927912545481
78.076699520473966 11.134989975805933 -279.167273086977445
77.248574011651741 -111.990163542302909 -279.906048786799147
77.285873205096465 16.953154695640826 -278.569883577492419
79.599191345460682 23.912892478028986 -279.621473598443231
78.743276179262310 -35.644120099808653 -279.549794357804842
78.971605774296876 26.809307081761546 -280.135688897562659
77.013886196904821 -115.359268737884534 -281.278703664428633
77.972236657624137 -109.067592768852094 -280.933027048618783
79.179232305855251 -21.567337578626564 -281.500872264497218
79.152086183540206 16.522200360110304 -279.187540988481544
76.858834190113257 24.091446187826985 -281.937935202404617
78.184614029672574 -122.186325255881798 -279.467818141942871
77.766269548782375 -31.294311288161190 -281.827980225212741
75.953489620593729 -25.536681552833535 -281.581496170368723
77.893143652153171 -17.570412340624475 -283.177108723721915
77.085878057770316 8.191825302220368 -281.758241573893429
77.257314662733322 -15.726236168027022 -281.710451701608974
78.342377398023132 0.149464976375738 -283.788760060448908
79.454950368055208 7.266569583086042 -278.920098642712844
78.974557730139693 9.684867407588065 -282.584657420540509
73.221227472073906 18.099826674237839 -281.378709474168659
75.451603877672810 25.548441436107328 -283.737169164852730
75.935861392182133 -138.222634534242019 -291.638163609894605
76.262727481942093 -134.047801594619216 -292.371228196675702
78.968854806972075 -133.975281353721812 -301.144741876621026
78.422953535759021 -142.687823831233061 -296.336438831073224
77.410839316035293 -132.451678755969652 -299.362776400821190
76.428460242765127 -142.447289591803440 -302.403050726238746
76.165050695470342 -138.690761593941033 -301.570940052785375
74.567247218900860 -52.313931271438733 -45.032170498654196
78.817653299501472 -43.293120414123990 -47.155368930364510
75.151577286107241 -50.899294229951238 -47.659460929787230
78.769594528889101 -33.161588860721764 -45.615819982688770
77.507236932293083 -30.180986723495103 -46.458488254857173
78.583725247602217 -55.564303319130886 -47.411761340035120
75.941582359775666 -60.191332639855219 -50.579664708602643
78.886655898637258 -24.466949646977241 -50.854380412403884
77.402899553782618 -26.661382524185299 -55.403587656014366
76.491035531789663 -64.224840577608120 -53.529619749112221
74.754081741959951 -19.463338213806544 -53.818258855807365
75.889065434428517 -19.313397216827550 -50.591064101114831
76.973952890073690 -67.488271700147592 -52.921491517826695
77.907818931171306 -12.501433788167343 -56.223637366922389
74.043588211923904 -67.517969895823853 -56.207757029222918
74.788094872548811 -11.741173829443138 -62.195035483837927
75.340633235779933 -12.212914396676350 -60.894064950390870
77.024686953140971 100.815255486056273 -66.772923350724113
77.670071872723568 -16.299906784787073 -69.626856125708585
81.264108743652386 97.260433924054794 -69.238199247877716
77.079031553234060 -22.659694591286581 -69.100455381068571
75.815063155067818 102.044363656336259 -70.373231837645093
77.853952646307647 90.220617143569982 -71.518872804350409
78.296989667633369 -79.784199001801198 -71.627623430297788
78.842078631978765 -26.501473145931975 -72.926274258320873
76.512120155076204 86.353951473971236 -74.774013233879842
74.826682011195857 102.421947829133615 -73.954879243358150
76.082858816723558 86.187394549250612 -72.204686895370514
75.966346600527643 -78.712226574203655 -75.550516745092935
75.163404771927148 -38.255732966600640 -75.995778923882796
78.623293065463997 88.218645130925253 -74.485707894581950
77.010982186584627 104.278176065433428 -76.360337224345656
76.993198611138112 88.527169570456820 -80.028408733243793
77.340301891733105 104.955663504125638 -80.071887623049889
75.310524412155971 90.742260947000403 -80.995885070780886
75.538617115136091 88.337883104964988 -81.826049822916730
75.842171924684237 103.986075536075674 -82.070455651700357
78.545247444051242 101.342617303011863 -82.701523518069067
76.420379850814939 87.486334442789868 -84.772553506988302
77.681989054595107 62.836468568593460 -85.493951704897142
75.278579314081298 93.322037706305011 -85.253808706579406
73.512790483044895 -52.274943213576307 -85.623934672737860
78.675079769793086 98.561429852293870 -86.457282152249661
73.141289104741304 66.062078111353117 -90.082016048200032
78.918280861647460 69.476840228230856 -88.110659269111750
78.450129626345813 59.189688853476540 -90.333581243036733
74.792061789764333 -59.791630517462337 -90.815566972745216
73.445723336079169 59.762618082825242 -91.028761386073981
77.240799189460347 56.689797908415187 -94.068558410163064
72.231268213691507 -68.703313961743348 -96.266609261556567
73.828812861165929 64.685742272563772 -94.536732841448710
75.602645337548751 58.588453481177112 -92.617188615688391
75.168778719472442 58.397881957470730 -93.524860629167407
74.389078020590745 62.429952260058627 -96.296881019367731
77.116514255329051 51.626460928362107 -101.487754965914775
76.549701696996749 59.179703253990446 -103.263665949501089
76.532126465463023 -71.752697363703774 -103.525369684705367
78.084675709599779 47.616070021617134 -102.972218030948255
77.990902574550660 45.761464735160104 -109.971553435010620
75.826123164756126 53.651157540768871 -115.568473387660859
76.627283067556277 123.378244761092759 -117.180792916452646
77.641319220784013 123.384972487442624 -120.366560427153047
74.936315032992965 39.399436194819671 -123.124446511433803
75.256049900057533 49.859065247410534 -127.013348719561833
76.568975102331564 41.664306980808902 -126.992963656004804
76.940375770309942 124.682197857740107 -126.979970295284829
76.941563015235673 125.964465660838570 -126.457381599859303
75.930885356280641 -37.056437828300616 -128.162015202219550
78.222026275704351 126.174533545006994 -129.888118441883194
75.830266760699530 -36.541521530208982 -129.724225794308325
76.902523900382903 47.381173818346937 -134.880423265924463
74.509693936370013 -34.750835417328815 -134.953029853808459
77.275996852487040 130.630134370938947 -135.421849243140969
76.129896743221565 126.740558527764676 -137.232273095423949
76.001859434183302 37.878243930053642 -135.520708371294091
74.978762088175628 123.104002732527547 -136.720219453350779
77.399321312992910 -41.844949130332559 -136.942390021507606
78.955643661155506 37.632093577814643 -134.396401908309258
75.427762327251685 -61.017473985687673 -142.147659239366419
79.153728870507280 126.406060392444118 -140.324308263727687
73.749048163500163 -58.296125048802452 -139.731212716245182
79.270440832598709 -28.323853266757602 -141.272732095874005
76.705418645846720 43.987914229338948 -140.580484574298595
78.701363758325925 123.170625651623553 -140.121645572009783
78.058416148107142 125.274426427144036 -140.492761162633400
76.292925602158974 -41.718475409372545 -141.374242322914967
78.578950756927739 -57.844858156806126 -141.336882178838493
77.929261932960003 -27.026125241419074 -142.298625677815352
78.359689964284911 41.499880816310309 -142.655057249171193
75.806900863580637 -41.518178859618466 -147.594622366531354
75.789338750853830 33.912871268405809 -144.621669191005878
76.574203352144607 -51.850165826270889 -148.771805242829288
76.452586205072151 -52.661046872471971 -148.417972825852331
77.899106031417631 15.401642638191815 -151.145331577155162
75.438610545073288 127.849097808891443 -147.417531420829761
75.991926062116477 18.152567210022514 -150.354901744158923
77.880564061464085 -25.314261631324321 -151.629240520343330
74.825697463966634 19.240209301320874 -150.165482402830833
75.612865659342404 36.091191019605183 -151.524606488303647
77.900110318820154 -53.145154716075240 -152.479358396033916
75.453344196320799 -35.440517762345500 -154.586444663686905
75.580013424807248 -57.824850730191145 -153.166382864062456
74.521123439913524 40.546241868044717 -156.233917869689520
80.340868183117053 -30.902231213423093 -153.734238938350501
74.963472509558912 45.441553054007272 -154.407506754412282
76.171811163463786 126.393711851317221 -153.471560893429313
77.284843218208096 -53.104066496530479 -156.196791838249936
77.118680550544923 5.839469798608194 -157.079968790843822
77.637138173197997 -48.323600084495972 -157.645211773676039
73.683710450090643 -19.942703330737011 -158.390109176399363
76.507975033915599 34.391445521909546 -155.092693135055725
77.248977482096933 -25.518137633334284 -159.250332996590402
75.560976610790590 6.948527750120303 -165.066026458063703
75.698736955997887 -46.928329486654917 -163.686501802390893
76.620767889429032 38.556376304124058 -161.811767057896276
76.116244579651294 4.683909318395290 -159.598876515230955
73.990211434948492 -29.652718235791951 -162.188136041636056
77.730679639367395 -16.287575243630403 -164.131245516920103
74.713522955256536 -12.100511528717643 -161.761791440085659
75.966275168203694 1.497352591448243 -164.503659631185769
75.792999763976226 -44.717906118607623 -164.588142411474706
77.440416465876169 -46.919968955664984 -168.458105605571632
78.721007591693336 -49.378888738350341 -168.956419556033438
76.924863270220769 32.057361620733012 -165.262735281424909
75.656277868462510 31.449291575243173 -166.468838405994916
75.309346772658529 38.116660308883837 -166.716215938259921
73.914318564953277 -45.140811051042348 -165.827026263846932
76.722330660010854 -41.823536627711668 -167.734454032178888
77.229834221153709 -24.270306046045128 -167.739717287073717
72.955363980192203 115.308195527411684 -170.612633146350021
78.396440964387182 -22.156617768736567 -167.976394719972319
78.495923203553147 -47.240192488594047 -168.581804795679801
75.500097957042627 -37.987515046668570 -171.220291148482374
77.195318982135746 -41.932695021418944 -170.680525757653925
77.276266456652067 116.615311225860722 -171.573276236614475
78.156290571275420 -19.799011136023886 -171.426882446955204
76.400954484713850 31.217910976752677 -172.986494418554116
77.941504527854221 -10.887071095768238 -172.076750336946503
76.987730079992275 28.809885122845508 -174.373207645797066
76.196941881727369 -134.054323168244622 -177.109005114173812
75.577447539262891 -19.144111111545044 -176.880149610586699
76.342417861611807 -10.922266377965570 -174.695850431656282
78.755213647520037 -5.729827697449554 -178.350673615535129
76.434911764190758 -39.937785074691334 -180.384497566659434
75.993818690425016 25.629322983417843 -180.433390703431940
76.095820371449321 31.477349634429608 -180.744542207122464
76.594637340843619 -31.416338504542814 -182.857602328484347
79.207692708747857 -16.002544965210397 -184.568070364909516
75.844980546202720 -137.907671140721533 -182.249583403460548
76.241233077343665 36.089859112555800 -181.442495049766052
77.108631283812429 -140.623356133197802 -182.657610381624124
75.430835610231412 -37.858919502668115 -184.685024945387369
79.034560590004034 -17.707552824110824 -183.823201905673670
74.117320959204662 -3.537925035961994 -184.881652516990783
78.066744074639914 -29.814365336009708 -185.633341219987074
76.182790083267122 -127.679853399692178 -186.098635955839057
76.207719363672481 -26.229356681532934 -188.346142936408484
77.385809378260660 -141.252152889245593 -189.335519028009287
73.343424514592641 -122.213504470699974 -190.405678120990984
75.099913119775607 -142.809903638534706 -189.150941206362830
75.630061729703172 -35.548733534176620 -190.867910937809825
79.132438081617863 35.126808482292113 -191.151916740072210
74.887806874699010 -122.315390781343950 -189.102329362296075
74.187211159683329 -127.919956399446875 -190.397935600632309
76.704855539361475 -27.319969132805880 -191.761573086954940
76.288007892735038 -3.392362854621890 -189.998243125075589
76.498795424724136 -19.350016567223882 -192.382769845954186
79.012021260869858 -26.822001371182630 -191.748955823945153
76.498973079393465 -137.871199860490748 -192.235268905905883
77.394107612136594 -24.222430494041980 -196.691424584071797
76.270275062461025 -4.594410280992804 -195.262710204479532
74.573589582302660 27.166338170048245 -196.928918502447431
74.407012024620130 -27.781369512202588 -195.328174037064031
76.020661979025405 -21.850536557573172 -196.667015945658846
78.366375022276301 4.803394160803702 -197.575103813035781
76.436360745533079 -20.422359238973563 -199.725353322233161
76.627895220635210 31.901628272458844 -196.922371234999332
77.543093311992706 -25.067160806550170 -197.412741952361444
76.113339439822383 107.150983318258739 -196.852604747238246
77.576093885228346 -63.228417411816707 -198.502706801241374
77.319879482715535 -64.079313955985242 -197.361063454607233
76.816244258437123 -133.186923965594474 -201.179351287981717
76.485122304159134 -73.886976793366841 -201.867587362042883
75.377691699975443 -13.723511953398841 -201.073322117459668
76.428455390976467 -135.146990831366026 -201.276165603692704
77.075397433969911 -20.872003145436111 -199.562449053364844
75.844578039808368 26.981154327483580 -204.915038624919788
77.407212136223848 31.717141455505885 -201.586272970492416
78.082647337188646 -59.798032578052130 -199.061961331736057
76.657152921305055 102.394561088843062 -200.381146567220043
77.972203797584768 23.246488357786319 -203.232729529699981
76.043415652129170 -66.295087871501167 -202.480673449600545
76.102447027098506 105.724237782820651 -204.141076673679237
74.522245113991573 -4.200454734738504 -204.133866154762160
78.955330301915453 -1.521565864977234 -202.176210804689447
75.164722244155556 -135.653712809841466 -207.002498162078382
76.495138175171192 -12.623398424649885 -205.235907651690894
77.004806717159966 -7.654942659114141 -207.596677882567207
74.698749443907147 -79.232893405272719 -205.519759003926453
75.398718646085868 -16.406394076406198 -205.645332090332033
75.189915363295839 6.470009953657626 -208.110393573875683
77.316655090876566 17.699397658878365 -203.756416414156860
77.985891652349821 96.181805452474052 -207.817244142780851
74.919334397049724 -79.146871192741173 -207.678866510958841
77.738554039570431 -10.353997064159540 -206.100288363697388
79.293968355521187 101.751654111854194 -207.825699963334756
76.399742438875123 -79.208260730767634 -202.783504352120360
74.039221103736821 -17.247949679476942 -209.330448165666013
76.865703395888403 28.387840801523662 -207.965302552341882
77.601223404513973 92.665243658169402 -211.369679991099758
76.866625157202861 -0.877486005260760 -213.863193844820273
73.745204641390302 98.797891071120432 -210.508077497378679
76.240940285798743 31.632809058086018 -210.888101182060637
75.022523578675830 -8.331428428732053 -211.713505492210032
74.843299029925504 98.282568318199992 -216.320676303298143
76.585987863780588 -131.230934691756715 -214.182385119033000
77.661151936716649 10.283066255269532 -216.615105210739330
77.377404833255625 97.921341260424384 -217.213867567984494
73.362674430623429 18.467437751724006 -217.496252569247986
75.591209245343777 -5.656345536955772 -216.167401090871806
76.726833838899609 5.395642183394383 -215.233117632127687
76.798599125620498 -131.271599482413222 -218.149621928700014
77.576566637139805 90.655102852518041 -219.628115460720551
77.169288079280491 1.049563188732019 -216.379069036899125
74.458149508351141 14.008983833609081 -218.885926573859479
76.289767376731959 -122.850655710036079 -218.891275779388934
77.850881141253268 5.068369581133172 -218.459107285826093
76.562400968032279 29.128648088527264 -216.847506287830896
76.949613724619866 -138.702214407272521 -220.362131397934064
74.823700909386176 -3.751546480880224 -218.742322283246864
77.707453039115293 32.158844795005862 -218.625191679812218
74.690719952040496 -123.920807249655837 -219.468749430527367
76.654162636326461 19.728889055194021 -225.745765662602707
76.473542446557047 13.986566251679708 -224.561081382377154
76.762317444522537 8.617357513430022 -223.230196708169785
78.271448549846951 13.249329205659400 -223.650865132060972
78.326403510128003 21.337932097528004 -224.784894314857524
75.513783181484129 -138.431559390683191 -226.270737850191267
76.624587978906192 -133.744708492925184 -225.409255573443261
76.395441231286640 31.679643722824530 -226.959213980854457
75.645715065710291 31.942961048841820 -226.789332055574960
75.581742079816635 -16.038282783478298 -226.602189564269139
74.167390634724356 -20.644929724768090 -228.724959613929713
78.197182237255674 17.397424551138904 -229.575238098550102
77.408143813547113 18.287804420749964 -229.817898966876697
77.945505966779095 -132.715120180347981 -229.489527047929073
76.207795088168410 -9.362080091562333 -232.277004630159098
76.385517807051329 -136.444311721445018 -231.791525388157282
75.461916295618096 30.210891054633979 -232.484536358541135
77.539415933066735 -43.908025189244682 -231.834694657426866
77.384587849255368 16.005275663053879 -232.527375998334975
78.043712248531463 -19.088982689048038 -233.672903255726538
74.997261800230604 15.531342182541010 -234.308703748893322
78.175002134876522 -21.444764204126628 -232.584759846251927
75.593370554054189 34.940245470104102 -235.909349689874318
81.347779966798186 -52.801678646119186 -235.430634973421746
73.708706024495669 10.686526268060314 -240.919065871265076
76.866260194003374 5.279920239844781 -237.536409275659111
77.437384099301553 -57.084965979300648 -235.963330937167569
76.266912060238965 -38.137649943939969 -237.472983309098652
77.646806340545211 -59.241727023880344 -236.785614808695044
76.488665570853357 -57.955226268656304 -240.361600128178054
75.999737514111629 -52.111606965768559 -240.932365639874462
77.670178899736968 -62.587376962923557 -243.053160210953763
75.808939751380024 -57.285845227387597 -238.908377312985294
75.515782315808465 -138.516320212562874 -243.060994680665914
76.122143986208044 -134.635242500552010 -240.728544708875916
77.232560635913813 -130.025514918932345 -247.890711399029897
72.079114855627623 -115.626055238973692 -247.344696409672224
77.113655020348574 -123.713128926102030 -249.607281640119936
78.290778191986490 -119.599868673782510 -251.311733903149445
74.855711100556391 -116.070632749215036 -249.608663286419585
75.577905252903406 -133.050294130712928 -250.759398266952076
77.289281331582956 0.127990577316037 -255.354871218568064
77.314471652051139 -132.545606956339668 -255.225293533089143
74.505881269399083 -137.889814570065113 -255.451004906793912
77.213158463239367 34.124880243907491 -257.156725062797761
76.020231848354015 3.534100354152411 -263.335322352041317
77.984646831132210 -136.258553964989062 -265.820663850774849
73.181194901614390 -138.360384969441725 -267.328364103513820
76.530922344408623 7.258464991272096 -268.884023266871964
76.653795122286908 -133.132685227986315 -273.161306345870344
76.267877972047941 8.133423245746897 -275.332125696934213
75.848590933201137 -122.695124933695581 -274.342251898514519
77.287947626416866 -114.648534613611275 -279.154809387177750
76.334456543948264 20.146230036416817 -273.443637841353791
75.325110182872095 20.701391545887414 -275.866226807668852
78.655954980922019 -41.470865651293238 -275.616145515890196
76.891479845349110 -30.855789295828600 -277.312332983653903
76.523646117452301 0.898538945912668 -277.043483302852792
76.493858212650764 -52.625048255289656 -277.526515019563533
78.260332281707306 10.434164725019645 -278.205173301669674
76.564749845981041 -123.271504727718821 -276.330497685898933
79.804294615815891 -49.018543569099123 -278.151375495615582
76.461605764564325 18.097357497864508 -278.199660204419047
76.570011408095340 -105.655718418343554 -277.677867951033591
73.014405565744511 -61.473603818774109 -279.475386893927748
74.669346895103004 -69.026609236193636 -278.347807657667545
76.506766357384691 -44.635842113300782 -278.747219368933031
75.857438902850916 -104.267778895190702 -279.344416708808978
77.527070501209749 -54.543935525759366 -279.005000866185696
73.556709273279040 -140.943260803169949 -277.430151700612157
77.117007124976297 -132.162653773451694 -281.078273555489602
75.753817877561417 -113.237464946459141 -282.196416129225383
78.470919207514541 -41.310388106682545 -276.759553162431132
76.184755507080382 0.370019579476297 -282.111008989992456
76.683459516325001 -113.981274447739750 -285.457019173477875
76.043932794534442 15.600893840156711 -282.283093913780874
77.830078218441670 27.345515395673694 -284.344842367542697
77.232995531467154 -137.508309697900756 -290.093630856957702
77.465249057427840 -135.900245173460263 -287.480189166605442
77.481193952197401 -139.012034143416486 -286.072419805926131
77.664853093891423 -135.870734131201289 -290.351712198887185
76.003833249915658 -136.661811690825886 -290.067317627305613
73.897317353878790 -40.746631596980201 -44.855699043380497
72.813783189365992 -46.156701229377852 -44.941582061493783
