# This PCD file was generated using the MATLAB® pcwrite function
# from Computer Vision Toolbox®.
# .PCD v.7 - Point Cloud Data file format
VERSION .7
FIELDS x y z
SIZE 8 8 8
TYPE F F F
COUNT 1 1 1
WIDTH 800
HEIGHT 1
VIEWPOINT 0 0 0 1 0 0 0
POINTS 800
DATA ascii
64.945099448807483 -17.605264538070671 -64.836209899373060
65.458197606122908 78.270491891820853 -66.607928900323742
64.315702916263717 114.269013246537128 -67.102445829299228
65.101320831030193 -86.598180759918492 -68.876617230951112
67.209629194403263 77.441661738541853 -69.880356080184853
64.630052843116601 -33.882044218303996 -72.077706720053371
66.198112331002605 69.984726117828245 -73.273142951779761
65.435470814562194 -38.868716543024853 -74.536642484178032
63.601147874242450 117.091214900174307 -74.799631383255900
65.222810769007879 115.037022569339868 -74.994991334914033
65.953913339831388 64.526464286161357 -76.500286274575870
65.198899722790173 68.015437476243250 -80.059230232207142
65.254931534288943 78.314499769315788 -79.208831603758213
64.996422449008278 -51.710977554726142 -81.676431513387328
64.663540163742056 79.166085047859625 -80.492200525050364
65.506300205779169 74.223347650158757 -82.364171468223304
64.498204065002966 62.212311976666292 -82.672306362691543
65.729493637285103 -52.739903125905968 -85.905342317029834
66.076791455396659 77.020541996701610 -85.127319422024073
64.725261649410228 -55.747428580184575 -86.329979824348186
64.054374196875727 67.006643372151672 -88.163567503504410
64.959457926965385 113.773512385847667 -89.166357661291940
65.955510401195227 61.414799953119619 -88.966398893555493
64.751340021027332 61.540394059317812 -91.968269073453754
64.309488621772743 61.340336109771101 -90.970769464374939
65.065260501658798 -57.417123948372435 -92.657536577375083
64.433459711944707 -86.831023943592996 -93.681355385060968
65.710586753873571 -63.545133442218130 -94.745243377411725
64.222455827977939 84.361590456925811 -94.097849295343750
63.785843208923538 -71.398739167590890 -95.392443120154482
64.888575298065319 -58.338543354176977 -95.206268992783222
65.104280270677393 95.379816437325346 -96.953224398342442
65.568197583572626 -59.683952838630631 -96.775593072915285
63.840671101709319 99.726286428298906 -98.363341504238448
64.840934592314255 103.531922015806785 -98.492211237963772
65.777915704140668 -68.276219652671813 -100.845776363933041
65.602284117134971 -76.228095122384445 -103.189192081172166
63.679225163882919 -69.687345710185767 -104.166986791395786
65.383127964806206 -71.169375507536628 -105.360911076042456
64.581856187726913 -50.814788228522602 -106.092141657345437
65.586448011073202 -66.350930021468926 -108.455354104303254
63.643001974497395 -77.432388152485800 -111.214327800551004
65.607224204423432 -53.379918931535826 -109.423469610417612
65.379062731363334 -74.925196667920360 -109.172059359177723
66.180355719912313 -51.733731835779942 -110.857111805415940
66.018317820893714 -66.419457727704611 -111.216779901251002
64.565589616250577 -67.850372397346590 -114.990512961039556
64.458846569147497 -72.105390262462862 -114.459004704738632
64.391930400201772 -67.032822074348672 -116.001107367937536
65.518914310091105 -42.340066444185638 -115.543108637766181
64.592537145974191 -70.314779465518143 -115.941247807643009
65.866472923358614 -43.020838218741694 -116.666488236298932
66.319577593699833 -70.770649365997684 -119.058186530040217
65.050047154077419 -40.433481171356291 -117.021162825481710
63.190189605722011 -49.456309649786284 -117.428133243037109
63.856012546610408 -76.224166843287520 -117.948167305531001
64.278051437884727 -73.262374219524148 -118.693405077802652
65.054060361586707 -75.408204703554119 -119.779311424500463
64.798666221607320 -72.801005697092734 -121.296528013914667
64.782809582814707 -77.972975897389333 -122.309686936347731
65.480179636937223 -76.286880271658504 -123.757239857314971
65.251742658163323 -61.971695186278993 -124.542685970311879
63.616162960501597 -66.423487118871250 -125.035786574486309
63.865608813656131 -50.370470137666032 -122.610080183685227
65.213044093612382 -64.862188576746419 -125.539459704385820
64.795350412787954 38.185886122868716 -126.906997159841922
64.396769677535815 -48.630081134617242 -128.197444040567035
65.101497609172782 -45.185591976441025 -126.271505983158562
65.063247052657502 -41.221482708291084 -127.993249723302398
64.179621393040406 38.092015616142405 -127.118960794861522
66.279351370984244 -81.738138154657193 -127.283483786791209
65.868300406636337 -47.470919355212338 -129.190031874753856
63.517015195322529 -39.682688025630455 -131.714074636760756
65.139842121020934 -83.459947371476574 -131.798960660549682
65.149415089799291 28.286998790848966 -136.715192943514381
64.541806152672564 -79.960694621908175 -136.204380881364898
66.028366519281093 32.762360928470187 -139.536833940496109
65.728263525346577 26.059698892548759 -139.133044012932203
64.805781753288215 28.130978977932550 -140.275028842199021
65.056593368165778 -87.911278308947757 -142.283050581796601
64.345927907073062 -82.339456380217285 -142.773899966709479
66.123543799430664 -90.213960172624880 -146.895134880843642
63.292938110125775 -89.054973349304362 -147.396790562461916
63.769346844279461 -94.550601514648051 -154.284060603377526
65.024841158185239 -87.235806675840976 -156.024624029443231
65.861039649249463 -95.021704811117985 -157.119618878885490
64.008318652834689 -89.405751147201158 -160.818475075841889
64.658384076986238 -98.512402255631159 -161.592122655248545
64.672377776276193 -137.508150783923611 -167.078142370047857
65.661404633397481 -129.000155392138510 -167.967407591279084
63.503126991423990 -93.599617236370761 -167.806454182123161
65.707410417814643 -100.140125285312934 -172.027914672190406
65.311028657362712 -96.082350077779523 -174.417994027005477
63.980079643228962 -100.562543857901403 -174.336728400335744
63.398716514510532 -138.617208365548350 -180.011635883868223
63.805654995655452 -132.334089287915276 -178.538434187624659
66.011835591241734 -100.150867907487225 -180.666387496567808
64.968711986392847 -132.782108779850262 -183.756677537498803
66.005173730067170 -100.249088214256687 -183.252431713873307
66.202935551275317 -139.077691759911858 -184.870448426266705
63.955038057046337 -133.817865370065135 -183.754716686193603
64.975539471931086 -98.183578643495906 -185.746787520653612
66.487457600331538 -140.004002930056060 -185.096354552909759
64.210892781606091 -112.495453859100081 -183.499362879686146
66.019431595164477 -101.073163618337048 -186.987208301583365
66.021107841491059 -128.901534452919719 -186.822845210863306
64.324043500776114 -122.302198563556630 -188.757769991310056
64.828633541448639 -100.161077419128588 -187.305234385378952
64.733184992467940 -98.259404296381717 -188.215068866931375
63.256622026143603 -110.610834248073886 -188.402094158537778
62.319439124671376 -129.564283225962583 -189.465195532395768
64.618258232347742 -108.871248450141891 -189.801953659709909
64.633217368231229 -97.508270531289710 -189.561352006504279
63.388653460195833 -98.380026134544224 -191.251361797944355
64.226110679446222 -122.730346484318261 -193.516346339231291
65.408264357093472 -110.813768898256853 -191.713932293687719
65.298185037650185 -102.597114137212074 -190.981944886918200
64.803472535306113 -103.402608092577623 -193.502322052607468
63.385358714381269 -115.869337075821107 -194.814395856480701
63.635090985731971 -113.770390789649895 -193.123967284196311
65.831087506276830 -110.286811614561046 -195.364580094989293
65.090958550211610 -103.752641431225982 -194.262564836663131
66.743665690226265 -139.945527055628503 -194.970894117240761
65.144696076746015 -134.189082403246374 -195.979812308179021
65.300519416229051 -139.052334048560823 -197.799533125707200
65.339461348235986 -135.237849492575151 -205.790843050411922
66.947094277826181 -138.906870080188241 -212.265716360399807
64.017766850252244 -113.718792537957853 -214.944855872372841
64.587913937690203 -122.181105626430849 -215.508014815048114
66.200497879373614 -117.930247566840308 -216.619240749119882
65.645798620522285 -130.546053560288186 -219.860674003765666
64.216280807032319 -103.835270712331962 -218.098091452101272
66.363441853705211 -112.173729472884844 -217.532186251719082
65.048548202758340 -103.430991418935420 -219.249052594662487
66.215644339152007 -128.747628660132222 -221.877817424716113
63.320458998418587 -121.225310652121692 -222.699721618923206
64.411105093101142 -122.126570938570808 -222.327968816319753
65.158202099468113 -113.957034337416729 -223.314689076012257
64.192654551805020 -106.625406874591093 -223.826073584825224
63.923023909125739 16.829958653631991 -226.313905568671174
64.974065389338676 19.167800013060358 -225.875623478439138
64.391148060209630 27.360351307922528 -231.695227246072534
66.279149855051742 3.255903440794581 -234.004018677692699
65.180705978708332 20.251851165136156 -235.240363225326348
64.336740380099201 32.384632920979357 -235.312735001064908
65.821320534557501 1.817098530548336 -236.021364561671930
65.862210355428417 65.483643728421498 -238.083378011780354
64.880551674679523 60.258951453132958 -236.787805433807961
63.524381447100453 53.235537751989213 -241.906500490636716
66.341979990123221 60.958346967300827 -240.978024475929260
65.529116760773334 47.571512029460301 -241.525892173708684
64.924621945332134 8.280342232817128 -245.758317682202517
65.754023944214026 35.633600029321499 -246.925084413274988
66.197190405179853 -115.074928104735989 -247.589348389155475
64.777218539505995 -121.592078152763349 -248.664953542598596
64.928303663399092 50.682446768645043 -248.118084277050457
64.126206310937775 -113.054471597471249 -248.864931838182372
65.521194732023758 -142.761658008634640 -247.536618115624549
65.358449755028843 -137.200860378632001 -250.297942339135716
64.404680284152988 -120.329377304325533 -249.639084220245991
64.522633826318142 -113.943766268007465 -250.221665941186927
65.818457854088777 38.486238393041930 -250.305071407995342
64.604029802053148 11.674494442862478 -251.183884964985396
64.125361847440061 38.593391744250383 -253.464796444961053
64.033587751119725 43.922962453384756 -251.312219214493496
65.718593128909461 11.123973791868933 -254.071514496792304
65.706927335293983 41.049374335816410 -254.107966794065362
66.837911922535696 38.900250924275966 -253.659741197183962
65.611047473109480 12.437134376729428 -258.792764446701938
65.232183602058711 -137.776098456162373 -262.182533746562740
65.207548505719657 13.916194243724375 -263.951870554376910
65.681555297427920 -135.839114391121484 -267.426659168813615
65.543955629390624 34.200809702753503 -269.200265986228942
64.471035018349511 -135.748417468233043 -273.843513198761912
65.406643324358882 8.944815727117907 -273.044943751184235
64.273071870244280 -133.372591339710738 -273.050372297354158
65.126203245576249 -143.081076244146658 -274.794745446457341
65.716867237075320 29.833590455743899 -276.156676345605774
65.284929367613799 -139.578627184319345 -274.837611504873450
65.999173124597277 -131.019201080978547 -274.459805142284722
64.968604852374668 -131.394280457691536 -274.348043467361265
65.938166943030367 -138.001062437960258 -275.682164219173785
64.906413899719681 -135.186438325088773 -277.378563829798338
64.614677595470383 -131.654352164958880 -279.162304408163038
64.368422235982123 -144.208677921398049 -280.368598271718042
63.298120475002690 -106.809176196592404 -277.748334972722319
64.696040609287166 -135.640799422460503 -280.634382508476449
63.601228930588071 -136.733926906100919 -280.313400442090085
65.544583844580927 -130.693088905767468 -279.900424209933419
66.677622321890453 12.974869871147449 -281.960018796282498
66.473827140512924 15.136336671002368 -284.063055288599969
64.913159787983702 -140.345985922138397 -284.417906239149943
65.485017070075202 -135.426327098971768 -284.442936376457510
65.015506690155391 -140.195585610103848 -284.949967003217978
66.135846922981401 -136.045799694823927 -284.753945292418734
64.183915310095074 43.469939023314652 -3.557709529171474
64.471466246110808 52.241226234287552 -4.002282660612446
65.209729312749900 50.191500975803045 -7.570627776519341
65.408258157356727 59.740134148038749 -9.145388826596239
62.984393409348996 53.510777216826817 -9.210233373084911
62.910048351591492 61.727132248686971 -17.902750651765896
63.151882603821512 32.699091854478631 -21.405727994173294
63.755837049187555 32.376466519861509 -24.615468282044517
64.795186346260863 49.498312346792218 -25.546747102662010
63.492604317031009 36.082797371010201 -26.923621924877317
64.250883085666914 46.010914344999861 -29.770209405966142
64.479905201739413 49.568425146462275 -31.426067173304233
63.268606822657567 -34.123022658246086 -34.185300442252036
64.799282447162312 -32.081401804961359 -36.903117680416031
64.677104135778777 -17.275230805077125 -38.352667279148065
64.822388630469575 0.496387605121626 -49.357390691408895
62.966003565036758 93.572706461447467 -50.112193136282770
63.342830099336126 88.352380305470916 -52.349212521959885
64.269943191748823 2.573180422479428 -51.317017767417191
62.649803983529942 96.301085410538363 -52.723704303504469
65.051099938546798 105.389934131430323 -52.813093805298877
64.131422788154211 107.877807799334605 -55.351437850197129
64.926072538942279 82.266792833707939 -54.831014151594928
65.056513204529651 81.131011554197102 -57.636171890976584
63.580259582890996 76.466905415224019 -62.462319399843025
65.401169876731288 -30.396677768720188 -69.452025126894085
63.315378724048095 116.394532804200750 -71.003252858793203
66.568199861680284 -32.920624105817190 -71.575970023848612
62.956455193786006 73.492120157087413 -71.903647890666917
62.876747161007643 -39.426465578060466 -73.171882976881406
63.440691254307211 117.154098759766711 -72.975956991806001
64.196302671837614 74.474521568294904 -73.824267400963066
64.109248395451274 -38.001648445497118 -73.342918103569787
62.815259585323879 -40.781229400321337 -75.301495196484794
63.040600173423940 -46.905442041037482 -77.339388140250378
63.540872996767924 61.938016305771662 -79.146068942546151
64.290285372278831 116.916472563896690 -79.683389209557561
64.993376209428419 117.737590967327932 -82.785649879836129
62.495580633506997 65.628870685855901 -83.025632941424533
62.724167203908088 68.002919510510054 -82.635904948118565
65.362893076184946 69.499453811467149 -86.312902333083841
64.197453583007459 71.623718644720739 -86.626784627923456
64.663039880425401 -63.928354150379775 -93.201658702874951
63.600194007019169 84.396137374820555 -93.937044196692256
64.410826423352489 -67.057299127745779 -95.534950365343136
63.338126215634269 -59.042256041869251 -95.562772125978682
62.294160798925297 -64.759525406975030 -100.234511325641435
61.901592828503745 -61.937195769304140 -100.243695699305093
64.288157079903911 -86.481598879846999 -101.258023595678452
62.682339284920950 -68.751099436397979 -103.458839792506296
61.932250934091975 -66.830543332151436 -103.576015314444206
64.850750347356367 -66.725050081132437 -102.574892776010842
63.353277882820407 -85.906011787905541 -105.602240928307722
63.358585804731781 -64.396479916664717 -107.818027768693113
62.589377419935815 -70.158485448162651 -108.711150900591079
63.572070963472413 -50.630104307728217 -109.576294343387843
61.842940741956724 -69.278817372347092 -110.531455899907655
64.337721052304019 -46.821360155502596 -111.418489314281388
64.376062404885161 -84.874145200770784 -111.242427042086575
65.043660282347602 -70.532989567818689 -114.123772117022611
63.893274242890257 -43.488609246960436 -113.762445582046482
65.213112994703096 -53.901186149869091 -115.182910323514008
64.678623726030139 -61.998616961961105 -118.016108627820103
62.503733408169190 -69.873831574991655 -117.601837921237731
64.687418404486564 -75.458711064370718 -119.942790207585801
64.853395929620405 -51.202959896209428 -120.859630298387657
64.878927906153464 -50.946331994880381 -121.418678837418526
64.531976156262658 -63.528209577196748 -119.936758485276073
64.238791436192585 -40.528888769091793 -120.086094396138748
64.399149927845542 42.236528491844012 -123.173885874070635
64.479215105418589 -76.263238677025456 -123.028797151733926
64.003321720973872 -74.804228178228954 -123.577378081915725
63.684034315434346 39.714462401866527 -123.918077863884633
63.651262474384787 -39.496518268521029 -125.340697280014155
63.710373138663030 -77.781943115346564 -125.300412636349535
62.801239177529737 -77.440905546657262 -127.816349683617460
64.389738535910453 -76.956572391590413 -128.345716933463450
64.278123262073180 -81.338303209311192 -128.180489327087287
63.694783349014607 -46.491719986502453 -130.471579758750210
64.077453651280976 -42.490984496442231 -130.543645365247016
64.800748399517232 32.690794624517707 -131.706686433905588
65.861171995738317 36.216047394147779 -132.866340100925584
63.693005709247693 -78.828248315621792 -133.217075312116862
64.722229561258260 33.522420931254622 -137.537755098849857
66.183810749154702 -78.179329507187688 -137.085472447286008
63.449295520889933 30.226592972538921 -138.478771527431689
62.364083958277263 -86.928302289407242 -141.227483506174451
64.646775634912899 30.430208437375576 -140.603405949101017
65.059808973321864 29.766008471772235 -141.230993425869769
63.253002247742891 -81.795385422489304 -146.479271982211031
63.652498431441437 -85.117016789211178 -151.194148763320271
64.020252507736913 -92.719181717958989 -151.790763262421706
64.507260327516576 -94.317333274672620 -155.058320519723793
63.979218610763589 -95.725963668729392 -159.771995356651246
64.462741344772240 -91.389309515290307 -163.902468995054676
63.641551175923063 -97.361365006027043 -164.507219572498997
63.179260012581068 -132.289021424464266 -166.244313449585349
63.759623970476753 -130.207164535379405 -165.478859166421472
63.957843172936492 -99.002086521063376 -168.822227676673577
63.797564475578191 -138.508458717448690 -172.723045800560641
63.983928053904577 -93.790648574781358 -172.309016621872956
64.030190538165826 -96.485484488445479 -174.968496277884896
64.465489649433493 -94.611368061460567 -175.535111366771616
64.192064859690873 -139.577742255602999 -177.783637672965227
63.921835015175184 -133.537841687280547 -177.719814594214228
63.722252592904937 -135.057979993505398 -178.374471495218955
64.067763529883933 -97.053752279647568 -179.194256381332195
64.091777332763357 -134.966419147748070 -182.842217208804044
63.438923672203039 -98.498318664742385 -183.788494919905929
63.862606619094912 -120.439492406900257 -186.125339792473710
61.608866429896423 -114.946115739394216 -186.181908517733291
64.316090110697814 -112.993141587751182 -184.725976403266316
64.647544334441235 -122.296920588689915 -187.562412939026188
64.555081910515966 -105.177298363920841 -189.080341574102135
63.511357571136010 -100.104728204844122 -189.546605450557792
63.068802945627397 -101.318502430997938 -191.010176849326513
62.192121531579772 -127.959139277227905 -191.201626802158728
61.696848103023939 -123.018730148523019 -190.722219370139186
63.624084512951690 -109.260603616466696 -190.100391089609587
64.688898015275356 -120.002372470706206 -193.320467122737483
62.308510276907391 -116.957216441959957 -193.062662873906504
65.028985148480260 -111.002401053819995 -194.248525255140862
65.602798551570118 -139.616099348024392 -215.249254257929664
64.020978749222493 -121.435152832739817 -217.853753227029301
62.613293999485727 -114.399894123145600 -217.492340560498036
63.399546552304429 -122.385495389447016 -218.772549861854031
62.863048955527738 -112.656701929488079 -219.997549342025650
65.301124251291483 -123.684231096440186 -219.738031645318159
63.235698614292630 -113.144266090489410 -223.523456033096863
63.585259790447253 6.313197566363902 -230.151887722376983
64.355158492596587 20.119393035602666 -230.208868859499717
64.645092695520262 4.982349468174954 -232.235456842518033
63.144485160603438 25.971700129655254 -229.918298917353439
63.483213594652035 8.907557120384302 -232.610197697458204
63.787025332062569 7.304551271335422 -234.010428971197854
64.520811506833695 -138.270152667571864 -238.366046072220740
65.214596596418289 54.865960958530685 -239.998345018452085
65.667455133245994 55.814294072948492 -241.719476993831307
63.304799400355648 9.327478738894790 -241.028908185329811
65.371989436484981 -132.627778793665016 -244.280737676812862
65.761208879388292 -142.471142471766711 -245.942064774210820
62.614703862690199 49.568395137507757 -246.009229550625207
63.092957705724160 -135.012939621794658 -244.150099736275479
63.375365578153193 51.598090180732882 -246.740143252582925
61.442860321900355 -137.127020567500352 -247.773945115321794
62.518133310593065 12.634819415467694 -247.590749650886551
63.695455932150466 40.239360180086344 -246.989081708860851
64.506115503869594 37.568630137505160 -245.884853524723752
63.624467913819615 -138.592665083343178 -249.572318111061861
63.972065832744171 -136.843951955067354 -250.668668379067753
63.439524703972310 45.554829048182029 -252.080996993808185
64.576358326953724 -130.420051670451130 -249.908518679192980
63.028354126187701 -141.718195384547016 -252.861048491776444
64.736567117319609 -144.548251327121591 -252.842095254477385
63.278137351969910 -139.352231135246740 -253.730655599781016
63.836299543016636 -136.839886883120073 -253.509721287902380
63.758398780316462 -129.719520051033896 -251.990390296402552
64.800003665947187 36.775506168079644 -253.242501281804721
64.294259629650142 -133.829487038818996 -253.408050539109979
64.725118326970858 -139.402068600347121 -256.991166831920054
63.504649972512802 -135.895799548284685 -256.575103832216769
64.403282114670759 17.305102178736540 -257.967505216734310
65.095336958461274 14.139340584024607 -263.077351040281542
64.910843579674022 33.498232951368053 -267.658034599732048
64.562136256595409 -138.628085078292827 -269.601343300984695
64.267721394993316 34.275348932080320 -269.876074880981037
63.435730268492726 -139.407215486964077 -274.292602327308259
63.548912441294746 -141.727827462062521 -271.618106032193964
64.726082283377110 -134.299539679680180 -273.635207367537134
63.387798073904897 -135.687630955238035 -273.284576173116477
62.219591646890123 -133.786498859443128 -277.311490995558586
63.991137296667667 -132.292253522800280 -275.890529996834744
62.421663742040707 -143.975408761246058 -277.473644205171354
64.187466741050045 -142.553674674391573 -277.618749495439204
65.126767994543840 -140.136189996182679 -279.124677400298651
61.557175480369160 -133.973420207112412 -279.747591544443310
63.205487091341801 -131.906169398224733 -279.959472969087301
63.291539207221163 -143.308919635572096 -282.173163966442360
62.800432205283641 22.336153104958825 -279.165364830181886
64.278947375560350 -139.141557477978949 -282.048774639858834
63.461256286835429 -137.609204081706622 -281.021672073297168
63.433046399462761 -141.595620068945294 -284.391210360900004
63.855391876182331 -141.583358547904567 -283.672543265564912
65.564453674704012 -135.296010422517554 -285.168063173207770
64.683932231163539 -135.465004697367107 -284.190642780350345
62.757180791554255 54.856576966780771 -4.838143671042182
62.201621789677169 46.831613106216956 -8.308110554369200
64.031169798380191 33.736458896682663 -10.388996033960186
63.306129354991207 39.408182293235392 -10.627769117698538
61.924665955450479 60.605179350941917 -11.155580032411144
62.788910896513123 56.173977656642400 -14.155740177092657
63.397654857544282 37.751477612684788 -19.127656831335553
62.651311598146073 62.131332730368506 -18.437916555273556
63.713555020633109 -45.575115595440273 -34.068478133519051
62.547100610036686 -59.204461861486152 -33.837303679243306
63.065671125285782 -66.172111101570479 -35.355242276484752
61.873509399187817 -67.557122131048061 -37.003499679148192
62.808618746464340 -15.843665077135903 -39.484608468897676
63.730812380063888 -9.644744070616010 -41.698164825917061
63.084636338764959 -74.575185919600372 -40.803211916812266
63.010923558264608 -76.198310818847190 -44.875116766488468
62.126324528201863 -81.288418971226321 -48.882620589720617
62.999245815688553 85.061800200795560 -52.865375248827704
64.403192774168261 0.951520627223905 -55.614194144877146
63.168343002823008 1.761463868594298 -55.178086070929510
62.729636167517221 -14.347854260491363 -57.543018241848500
65.445771871052187 -17.277180617566160 -60.840860883663311
64.033681814926567 -85.124804751318010 -61.358815374044880
63.127944558190308 114.737212077979507 -64.561768752925090
63.648788318698649 76.086394846987531 -65.544090094690091
63.668488814581544 -31.230746170409247 -69.606467734523946
61.690717725336896 -42.941533402812915 -71.715105989235937
63.133148389298526 -38.719175878923565 -69.032971978399530
64.430934326875004 75.538899291107839 -69.648179104205866
61.222627756780248 -47.190643510668778 -71.048792070892162
63.847199748058756 77.548704662363065 -71.492240888228764
63.211381075522112 72.409950228494978 -73.073026556108502
62.709408025436552 75.257649542972786 -75.039189325432162
61.896428303075048 69.891360163849271 -77.304659776931942
62.940346809970656 -87.451708901279943 -77.418452121939708
63.436284499209684 -51.835786090165989 -78.937486714566276
64.002719269013610 63.711553196988795 -81.650816883230959
63.012759977908466 75.210314756236869 -80.652885063966977
63.680432451525490 64.708031257441263 -84.046486041529320
62.528474573599638 -53.342169030904444 -85.051785268530097
62.270469000039149 62.999369083653022 -84.715944386643287
62.939074426728254 69.051905306359103 -85.575421459131476
62.329620832558177 -51.254072182856248 -85.532257004529555
62.052438547677959 66.195616016581880 -85.651980564381731
62.339849281104804 80.158037733519876 -86.689327293752768
62.675153341230178 -86.097808638326370 -88.910769220783621
62.713908166108716 80.144627928332014 -91.548804637231868
64.965381406138647 111.869805375277267 -93.226933433502495
62.464529315556426 -63.869894351650942 -94.382719269590538
63.917253837289095 -62.528100082878026 -94.199872113216799
63.603794415464577 -60.182762600663864 -95.626439738936725
62.251244074473000 96.375028971137894 -95.920889676023322
64.777468395635921 105.748905872975300 -99.021735486989414
63.375140835175280 -62.082067008343017 -98.106675839007465
62.987921844196435 88.957905908434114 -99.500075737258612
63.539893680272492 90.032578634365677 -100.786652583651886
63.277491455098087 -72.057094642410291 -98.835171549984480
64.214435802700805 -71.112195076638983 -100.630410361684369
64.565059270863713 -69.449214142381436 -102.648901260969950
62.560657220688277 -54.710401857287309 -101.412040482607480
62.408144109059080 -53.661645807719438 -102.297371225106716
61.736326570057827 -56.325369920587789 -104.074752799108992
62.210484944318139 -49.668729001461166 -102.656044562639423
63.286261465839985 -55.942724531286387 -107.325030119170663
63.144224948653985 -46.996891160681855 -106.889118488002978
63.180624834342645 -70.148190230997642 -107.870075226809263
61.866347824060064 -50.608345261036355 -107.772537185654230
61.901534457944720 -67.251571961750287 -106.996670959921502
62.641358765010594 -45.445316467207078 -110.250138415920659
61.591205668322999 -71.734252868853886 -110.490221991026459
62.091345944727593 -50.481038705322270 -109.364238695274636
61.912421171944303 -83.856314320353022 -110.113200913741736
61.644029327449473 -45.691996847567438 -111.006566309833715
64.228204140762614 -46.387401065068012 -113.449409194645526
63.875464234674538 -79.986479929820803 -114.447810004913705
62.868085093352924 -63.520984232900616 -112.831512890336043
63.857936678114655 -50.639723799301322 -113.378019444166313
62.167916290635738 -42.362701873838454 -112.259071992178875
63.395617803681994 -64.347038954647502 -117.845197550227809
62.722635231857581 44.229568955088340 -119.714967153618488
61.785663784399418 -65.330128097326607 -119.698460808966644
63.216145543174427 42.313744762559956 -119.208915344487252
63.842790130142625 -51.608691479589375 -121.677788485632419
62.482372353028659 -50.021361211695236 -123.128082301949945
64.086861185565084 44.710390107781208 -121.690057529773014
63.633537811793218 -41.708964018342542 -124.240539510326954
63.540476757758356 -78.549480544896085 -126.343301076569134
64.243136592799829 -40.006538798141655 -125.464425885619420
62.198614562481829 -42.577835999245060 -129.495013469551253
62.155864012167186 33.770286241439997 -129.861331626211211
63.012076944060460 -80.554104373531359 -130.325907408658537
62.975200837350286 38.200807698264967 -134.098618745813809
64.645990579413876 -82.282479941992506 -133.271330405536986
63.239838916932776 -79.995123011907751 -134.543038683284152
61.205586951982397 -83.106302228379718 -135.514650958466547
63.854519682112731 -80.092420749307720 -134.708999205751070
61.945203119911611 29.620708187546292 -134.898491431486121
60.643805282509369 33.716794124374886 -136.274002558605076
63.387972761299800 -86.429380077438339 -139.135450619763844
61.932236945389000 -85.761892660349730 -141.138103051278762
63.028928970488423 32.095173441569749 -142.681784939317282
63.632841111700529 30.203059121253695 -142.598086598422185
62.217273443907992 -85.327921900422325 -143.258785803483704
63.407081128271543 -86.382775053645943 -147.540055594673646
62.807707104615943 -88.928308552451711 -147.753684317445305
62.756724312299895 -85.160692261162538 -148.177804758150131
62.047921326311588 -88.954783258973521 -150.900592497952829
62.809081552185575 -87.855420226853681 -154.619885180794626
62.151733468214182 -89.926573536658964 -156.120419030457953
63.696032240316711 -92.940657723445867 -157.566048547676246
63.308045607768243 -91.674881879564509 -158.400125048273594
61.336605296627575 -94.340526346890968 -161.698455847344633
61.926583126705168 -93.370211921399985 -161.714077261744137
61.664322835263405 -133.182705970411803 -166.705870783913440
62.087318411567580 -96.999333668398108 -166.808211232383513
62.234733528132615 -94.270420847508134 -166.681768836770345
60.802303680876079 -130.839682378409805 -168.306169918527218
62.959100962600694 -96.503413727171434 -168.740866826802403
64.354226063444344 -141.006710275422989 -169.885838835410738
63.540106087636488 -132.136441490231306 -171.384143490309356
63.976379805737103 -134.454142477036470 -179.144756417160039
63.012119232930708 -120.551834064014628 -188.792610803975492
62.990491250152033 -130.225222439214832 -186.955368098501054
63.598215965246659 -121.257673842802348 -190.207999813256720
62.071911788057740 -121.948225162462592 -190.822345849824870
62.651554115046558 -113.510428839729755 -192.560012605346031
63.982627777086002 -142.544228965884940 -216.469264875900677
63.572010872191051 -112.893276904542745 -217.497043804732954
62.337062190558186 -144.347206028288895 -218.689280500514826
62.468654558952444 -138.594029228497163 -219.924015840070638
64.729756871872837 -143.608400336343522 -220.136150630832191
61.883503685248407 -137.722562509171638 -222.761396612135002
62.782786951607960 -129.647418140415368 -222.067577961620458
61.494082063429026 -137.698036783781163 -225.138490351638410
63.906117587643791 -130.957863786803927 -223.671104859511104
62.940903653873804 -134.745932550039441 -226.269515742939546
63.666635102910924 14.213140820571542 -229.754541484628845
63.303769817505149 15.058500450540478 -229.125109996456757
62.852363778368328 -137.401895382434105 -228.857579421960764
62.723899366566329 5.837089644609813 -230.356939734939829
63.289861644189024 28.150835351829301 -230.898002064080686
63.703720796478059 31.511583025542944 -232.482515851111089
64.397507420065963 9.275366123569597 -234.366267431571430
62.666998872939743 -133.291551860510907 -233.382660678766428
61.949593131900485 22.197700552726555 -236.299871929979247
64.156058870702580 4.237725207582446 -236.292968360420161
61.804574720352967 4.985194044024213 -239.299025860925951
64.922160425281888 -138.463038584281776 -243.550584615485946
63.904660042209336 -136.310759602780820 -240.688505964810275
63.663957854578115 -134.267747338610093 -242.319456412856965
62.801167307139146 -133.355880154617012 -243.371758984054537
64.160163058675096 34.796713526849992 -244.639533098735996
63.323357605948168 37.370747568745223 -245.579458280573306
63.500346464684618 -133.640615558162068 -246.500510744162966
61.579479091285897 -141.703477699046317 -245.688249716043146
63.851519595883559 -131.266294838245329 -248.027125670168516
63.552074057534213 -143.489177384392235 -247.780584122051948
62.146535874304305 -140.060975965576688 -246.365300124975477
62.291990397530967 -135.784861629571964 -247.900001373766372
61.825514880524281 45.513937077877159 -246.923194104828440
63.649654502681230 -139.666256228550736 -247.840247695908602
62.081960965638821 -135.093683787847056 -249.116207322757759
63.791394416313388 -130.849791153596129 -248.928858678775953
63.036937611222577 -143.287184087996081 -249.266674821996048
63.501662715888813 14.409728304699263 -250.105043941507745
63.227541534855959 -133.440277754042427 -249.318293487013477
61.974025752462765 -139.943822487560737 -250.077853413392290
62.490428337461147 -129.637927958875935 -252.336213212563166
62.720145444282743 -136.413707627866415 -252.043116344250905
62.230430444928999 42.298618360304019 -252.991354370498698
62.000844264441312 -133.406667386086639 -251.931681733909556
61.829040090327595 17.236969248583158 -251.579489628972283
64.146295346385216 -141.793147205520057 -253.758323910148135
63.144538833803132 -139.748362999676516 -253.580268740662689
61.555243954063698 -135.918256900937706 -255.538402779706928
61.551847017107072 -135.736109946555473 -255.926769654848044
61.725544670933779 -135.906077416964052 -253.732581711073976
62.348913227589023 -140.249039104143378 -253.577216886979272
62.901078330931995 -139.291134441717276 -255.522808995679497
63.270385979707889 -135.640783590411360 -256.615291402067385
62.144214752499636 -138.470161910191706 -264.923661739038607
63.815034343747975 -136.931176914041828 -264.399175311310330
62.701744264431071 -139.402990376978437 -265.898263760932139
62.093206868735933 16.159879981420143 -267.379252712171819
64.123079261946387 13.186569808191745 -272.703607540680025
63.557124113460581 -138.023052660288471 -272.052751723060567
62.571804355392203 -140.475041132055480 -272.039474954376999
63.896064657115410 -136.627989492172816 -272.660825935112257
63.086161812090573 -136.955434288880042 -274.400708988655481
63.306059950235117 12.424057810729503 -275.100358197431717
62.248465965327519 28.703503830821330 -274.338804821570363
63.542955814522863 -138.347999585562491 -275.779263792310132
63.539834724219872 -135.667423730613109 -276.150884345375403
62.688403200256133 11.530270890002889 -280.105479368640204
62.273551542566850 10.757040886274222 -280.540965124475065
63.672131822009476 15.118125482351974 -282.473801799615444
62.356315854682180 19.623447743104972 -281.760581926142606
62.303742050200690 -137.950818678375384 -285.836983332477416
62.083168807256754 48.554916804295118 -1.292815602951194
62.301192197297595 53.775420003300759 -3.837260506730708
63.336043767017749 33.770038984357342 -8.808140941201216
63.004725646802484 42.649626074724310 -7.808038396040139
61.678588322165268 41.755671184617739 -8.829663738661612
62.169455832366921 33.376064060494045 -13.181433549150107
62.914406944120124 55.434567652656028 -13.836145771205683
62.338580094430469 39.312445618789766 -14.971233347160759
60.959941246064091 39.705190032873332 -21.172897248534095
61.607967940407882 56.358949943665273 -28.104251837307473
62.632294370229076 46.480138931322401 -30.879623614131084
61.955830842140585 50.202475716425617 -30.979157058668932
60.773040299894369 -42.012719501279506 -33.637082329035806
62.065455320996861 -27.152620143306663 -34.616215169881272
62.002552919135731 -2.177305547367938 -46.278777034281283
61.983232522306892 95.392267598313666 -49.723965292552130
60.572731542196863 100.206720780243558 -50.471881952742656
63.141855618717614 102.450939689091015 -51.890787293765655
62.626457591812951 -83.418170483463157 -53.077887904762484
62.823229780486230 109.694961595793472 -54.761094371786612
62.023924508548731 77.441631867730806 -61.077466522410646
62.189815076142281 -85.659593707654409 -65.811182368881560
62.936524076306853 115.148148199522367 -66.658348497915824
61.384575879887528 75.570231588167246 -69.522701627856264
60.575487502845242 -26.662196920714024 -69.473888761967046
61.579206533952650 -36.233103801261684 -70.814294428570989
62.548514206825239 71.100377880835552 -72.693812335839084
62.396797521470596 -86.777234438748025 -74.878744599626003
63.615856197828428 -50.135419191616705 -76.204148359350910
61.786962016029612 77.236292570208292 -79.415264788384150
63.903324303705851 -52.382288984857880 -80.319040760690086
63.924695983834710 76.944169415243650 -82.751373561304518
63.268817850630633 72.638030263776258 -83.252124192357741
62.999268081578087 77.718488327788975 -81.362815895103111
60.707064342778565 -57.029538190968779 -86.168708067551464
61.679713747796725 -57.576284935250683 -84.716848781059596
61.352338043451461 113.664950463112802 -91.990621815432988
62.474028770541892 -56.358063054715274 -91.581010098158174
61.669428789851843 -57.415629683987149 -92.717158186534661
60.628086021610656 -65.250464942896642 -95.516283011290298
62.750107931312115 -86.679086133757536 -95.586736683235358
62.823251550429084 109.701884678893265 -96.610457132521674
61.746394486125652 85.806357349015315 -97.107255598666384
59.859279421424503 -87.382063271742467 -97.563720152949770
61.596584207304360 -68.272312355849863 -98.222780211885677
61.559192640072524 88.916968052363643 -98.842084860560121
61.386815359320877 99.654818860304218 -99.713297370440714
63.183379532967891 -52.562782009714255 -98.529738463637287
62.391333909211880 -72.215881414864455 -103.356732260150167
62.788916164686327 -67.200557066438861 -100.799305185258916
61.213681822176262 -70.016645400030512 -102.635082781008691
61.837535791361198 -73.327273365954326 -103.739337357715115
63.819175728204193 -65.409197975177150 -104.722299348262879
60.733406707887440 -75.996836482102651 -111.018598025860214
63.576523688283409 -63.855250941354711 -110.123865658161748
61.898301734132623 -68.055918967620130 -110.293654894081683
63.292284147004565 -54.871770258304579 -110.507856401109706
61.330595898504079 -83.918987173687768 -113.291615267379385
62.020743990821373 -64.385816731294540 -112.547345413562368
62.275408772689417 -82.730169124152738 -114.567813131863289
61.478504977944858 45.288082510139311 -116.537947997738925
62.741129702466772 -65.797280029050981 -116.888003198383473
62.484805749055788 -44.761765572780938 -117.758835507282612
61.388013877906602 47.447432678854042 -119.215971504308357
62.182767540049191 -42.102866170580505 -119.902087311030130
62.678632244960070 36.766685256561850 -125.784847460768304
61.985144178211691 -44.811930123560117 -123.511222941566245
62.627900013937307 42.312464296770884 -126.711795339990999
62.924969230892444 39.350980340741970 -129.200895965648073
62.034867814171946 33.179323576534500 -132.086562241679303
62.041110911053927 35.441630720940125 -133.244101001115610
60.751385976094291 33.628187111752759 -131.534235014027587
61.407030717179865 -137.366045664551535 -164.742891309324023
60.334975452681022 -138.011457229152569 -167.417594981284395
63.001422157105274 -133.164738551154699 -168.591791947112966
62.984335323691013 -136.521609316182548 -168.313553267631931
62.123015020269079 -133.611790668641191 -171.281180952782734
60.256166322229745 -136.959775488445302 -172.865370899731630
62.736650946121586 -133.573298986075116 -172.706226682315474
62.069751957208069 -133.589394280520366 -175.606672299019237
61.432465887588478 -136.003984137802149 -175.478761252613054
62.884414058190856 -137.405923940459445 -184.060977611832868
61.070961608733818 -140.950687393293151 -186.373022221656043
61.679454643455458 -134.665802207150563 -187.447995542153336
60.600146129975855 -112.126237080031657 -189.043288029703234
60.538562641028236 -137.195255790302042 -190.193893715856120
60.601951883256760 -112.088170639029784 -188.891851167933339
61.188486824700178 -117.699860027890708 -192.745817203961366
60.120767011090990 -135.239650814092442 -192.284332401055650
61.763917798708817 -138.574179026562348 -194.345866218722080
63.659458872520489 -134.317654634913566 -199.831732665683973
61.402372906887351 -138.787635111743043 -201.082643424233453
62.162375827752889 -134.112012662882364 -205.633941374597782
63.429579820067389 -134.962186542396410 -213.588324933718951
61.468300904643385 -138.569773749929084 -213.530256741660168
61.508677201059818 -136.040306694355081 -212.030493426895703
63.686179722010301 -140.463753782417172 -215.164107777444826
62.129354652564999 -136.440210232266367 -215.209551969899906
62.362095922668253 -138.033276627140935 -215.711143954924921
62.599764973941802 -132.144336765490834 -214.611536557679329
63.741798195566545 -130.191580138627728 -215.475339870577045
60.601333792556218 -136.898440573217442 -216.698423654084479
62.152887866314359 -141.271348971203395 -217.789503882989976
64.073486111874800 -136.372617335189489 -218.671501436349047
63.711048341846492 -129.930943891503347 -219.099201043102795
62.179608818079409 -139.273523068858708 -220.080535760919872
60.863478496866293 -134.849674182791915 -220.188316577077018
62.458549196674710 -133.096322172087923 -221.712694045992322
61.554371298521367 -135.818693251868950 -222.108594565262564
60.524670753032247 -137.879784712854104 -222.809440826814011
61.923886302690256 -134.358773187627889 -221.972098899647449
60.244152057777335 -132.353284323656226 -222.501947407891322
61.834043314470335 -142.004803719019662 -223.142690300719636
62.927635964028887 -139.800884800951110 -222.481423849723114
62.337899045801805 -131.886771040652661 -223.393834540578808
62.806642298342425 -142.563512412418760 -223.003185888136159
62.226004893188673 -131.024542890935010 -224.373188245670093
61.807172126256660 -139.255568220092073 -225.621775185071300
61.534404977835955 -139.293589949764339 -226.147822141502303
63.390564034281169 -134.869601014905413 -226.922727062783451
61.476544006417171 11.449314377407072 -227.370621900577873
62.085877298731127 16.062768824483957 -228.836490216543979
62.218760992254936 28.149840708977575 -231.179452543235612
63.600869191159980 -134.799838928105061 -229.325903104774142
61.126765169271977 25.444261292558075 -233.169878478834818
61.631265424282624 17.729651762875982 -230.400076772827305
62.678887544464466 30.250862429280229 -231.088530080589692
63.263579063912886 11.724020838163865 -232.770896537897613
62.084055764811325 25.772708074699032 -231.965356872190000
61.668816089920703 21.934573531515795 -233.358860117559914
61.127903905835382 -135.910294128547804 -234.591700841342828
62.789118332404790 23.381408296889738 -234.069833427806856
62.777882677646794 34.801457522043684 -233.525612025424948
61.499398445560431 -135.895673742909452 -234.322878512205335
62.344235065222989 33.084991539105033 -235.815551519378857
62.085237066626306 6.838366098142963 -238.716930022544915
62.452475393749403 31.903332510735602 -240.720428234350180
62.633675184010336 -138.527045788700633 -239.992194056386467
62.575601788612445 -137.915765929933031 -241.730299725588480
63.435463387178906 37.243004542291935 -242.342760549892006
62.990410488365832 -136.602730641074231 -244.074348208142283
62.536123949195272 -139.005926726395245 -244.005521449981700
62.630120366765858 -133.453573323327817 -243.214656598782483
62.214313330953246 -135.529171332555535 -242.876009640834212
61.207073265477902 -134.612955649395218 -246.669252184383993
61.270424620500776 37.696397716166601 -248.813991973744010
63.193789714475344 37.408304263104355 -248.440764861616572
63.497822655680828 38.803693597149838 -252.298012040346578
62.497490161874637 34.509003431197776 -263.108154452583847
61.128571610491335 15.424828334343838 -264.114763628540572
61.570811311473186 33.981367894443949 -265.744344656164969
62.042544218142417 36.227027049357645 -266.552587245981044
64.242756342639751 30.762635340791157 -274.013330537663933
62.826399276348212 25.213680088697089 -279.816009497257255
60.050584574612031 17.881168552145272 -282.412066295707518
61.566334593724868 45.394561602572779 -2.020960297407212
60.812010154192379 47.804753863393806 -2.299594318134229
62.584663198484201 40.331228934610508 -5.309135255551837
59.730087942706071 38.257500256286306 -4.532110809514778
61.418366730425085 53.082827779358922 -7.627180753097569
61.224362326698092 60.070167823674261 -10.769177273813394
62.968234410373832 53.802891470230051 -10.288151494530574
60.491041684798851 37.185779663539627 -14.973049256304762
60.770544835236436 55.260475878509688 -21.608962833383828
61.054124716968936 58.770328689581262 -25.460178564596688
62.629233132604938 40.789805624190237 -24.744881564042608
61.634439662807353 38.043380106228838 -28.065951842650207
61.101524910660508 40.839658269269265 -31.308936305943071
61.854782961420000 -48.718003103611835 -32.819716622277753
61.561916567437386 -53.621204146989612 -33.665550625941052
61.831261690381972 -58.783369433467769 -33.954922244384086
59.903252384112236 -37.078477004262517 -34.273954893627163
60.007087397975567 -30.548342893546426 -35.455067654378141
60.835421368671483 -20.306046216099290 -38.170774406530711
62.036107920126959 -14.316738846788759 -38.637958443027230
62.604115681976630 -73.033224349539410 -39.555872046709979
60.965827817759688 -10.954506057876628 -40.272928359593557
63.256706713927073 2.307170928016166 -46.505961254465234
60.534791681441526 89.839906299178651 -49.797345473229093
60.925963121637686 4.392618506729950 -48.611382241664543
61.101010140049006 84.577998107949995 -50.627047518407196
60.675114619341755 83.153421155529855 -52.540369219938668
60.929680069739412 -3.125840632315253 -55.116352955999076
60.394007369698222 -11.156272727654340 -56.277238810193765
62.508286410462311 111.683696909063826 -56.593989835038727
62.886197234091512 -15.897679042045120 -57.069164168645429
61.524699066214311 -86.591858044688323 -57.483539428974026
60.796220545641866 -15.127131067263875 -58.980661035057466
62.900509836505073 -20.330782884215203 -62.325516187559586
61.068377579843869 -40.402009033361004 -68.142147086224256
61.691273510597128 -45.843411962918168 -70.116748183407935
60.289987470719439 116.014063537703294 -71.811009153344273
61.739872938733669 114.485397964999322 -73.721795530258348
60.231148122411845 67.466771345153632 -76.349125411235150
60.904570118569282 -53.551855574654994 -76.882885214089924
61.764230735053744 116.654869261461101 -76.850911356930496
61.447156540413928 65.712559407907975 -78.462904868255663
62.010021363540602 74.491532084518369 -80.564501993981949
60.765003365526269 65.534290222272858 -81.497393893832509
60.908010580180871 69.794666148899239 -80.831867538398484
59.753156673418978 -56.030961607040169 -82.289742134431293
61.009879290259519 114.747529646554440 -81.358352030740477
60.547360085227858 70.671665399381951 -82.580791965396756
62.273034087758155 115.552371773543570 -84.547706674062141
62.800386273460035 -53.636742234040312 -85.770215219029751
62.506682946110686 114.674824371609787 -87.807721169135760
62.324474167317156 -56.131310998602387 -91.191114275852868
61.397093180576469 114.577242304560329 -93.085094448282064
61.229109679796430 -57.339441824193685 -99.261946216598304
60.433981240647483 -50.298670307506825 -99.273902223677837
62.143345538896618 105.844215697989171 -99.690404220172013
62.575394164479007 102.254990037167545 -98.371206943971103
61.661133390824197 -52.958667611027323 -100.474612753418882
60.943988789958148 -71.863869900625730 -101.946154239865322
60.126460821084819 -55.750562647827934 -103.048676114737674
61.296462160279404 -70.454495328111321 -104.448705215380812
60.656886972723193 -59.705840748695110 -104.603362826578078
60.361710767069823 -74.495653635832923 -104.028667790383281
60.101670155620496 -68.911419697661671 -104.636808744908919
63.060280440469199 -69.687669570078086 -105.003863621695956
61.483878865557806 -58.346635082095744 -107.312871680892002
58.499033927306989 49.978533324981825 -111.908663012963274
