# This PCD file was generated using the MATLAB® pcwrite function
# from Computer Vision Toolbox®.
# .PCD v.7 - Point Cloud Data file format
VERSION .7
FIELDS x y z
SIZE 8 8 8
TYPE F F F
COUNT 1 1 1
WIDTH 814
HEIGHT 1
VIEWPOINT 0 0 0 1 0 0 0
POINTS 814
DATA ascii
49.139118003852225 21.658164806828275 -274.916665436485289
52.204772725446141 29.560938823547549 -279.669509831043911
50.534559996520720 29.635755276226675 -280.423176271145110
50.886567858423057 27.946537525224077 -281.417980988677073
50.899911045886697 28.197500284888925 -282.140248579414276
46.358112428931214 29.105805785968570 -284.974556459666132
49.630644499694959 21.761417685700970 -285.151150866161743
54.259108338121557 16.827493563446446 -284.120989363889123
51.326588316781447 22.985925587853313 -283.792947148924100
52.496526707687096 -58.266000692807751 -31.585887115159181
51.489447654684291 -63.168810338823448 -36.296022829475426
46.253523182823862 -48.792924517392819 -37.789669261296986
50.913254907731179 -41.301515714549190 -34.701119908345021
49.722324561747982 -38.663887596813538 -37.994211582349678
48.227419332202800 -72.255688347714369 -36.982926208398197
49.601697902751340 -32.653134423758210 -38.335650295713329
49.277543111514518 -23.203154695823223 -42.784224379425197
51.096032437442908 -80.173340545568237 -43.358002978336707
48.652013189250304 -10.519904340744048 -42.750368732298554
47.608287269513227 -17.246586528385365 -45.901956898458408
46.354572433580792 -47.709079035716606 -43.319805962425832
48.870513604631626 -48.335228308768684 -44.231340642512251
47.564577053362136 90.021589866558315 -49.531719155666764
48.845525956622829 2.797878702665058 -48.155663547511701
50.463882175452135 -1.000171782675272 -47.643279677271416
48.990626371425087 -49.802813049607437 -52.973707124223459
50.413919774004775 110.356193254883607 -54.204859627145723
51.695238923953347 -54.839074073832776 -53.678256511439201
48.449639433206130 83.253805831272871 -54.989255207098140
50.714068451114265 -27.198835558089115 -52.397954136290309
51.615133686621419 80.575306886674213 -57.837589367137198
48.824417588060939 85.705484673958466 -59.819304593674644
48.529315075405357 80.125791412879096 -55.061250219153777
43.808820674176950 -25.514286637175736 -59.707333928707584
50.146076872857293 78.529479150007148 -55.339611263998862
49.677893538582978 95.969950279468961 -60.441098539547141
50.704123292972454 79.600557208561611 -59.815986895609896
49.624756671333259 102.030761843363379 -64.909109617207818
50.962513635967809 115.509112948527971 -60.911099930237384
51.089669799284309 113.667503889431899 -61.653167664160662
49.803954120874373 78.675247710636896 -68.164380784743472
50.969688753903839 74.081352924607472 -65.133697470135075
45.470632654388588 75.275576990181150 -64.282972959332909
50.348709969994161 76.305699747715664 -69.081986973105444
48.484876236954463 77.863570560991661 -71.203694761032637
52.274334556614050 -41.148871346018105 -74.509036622870397
49.455291821551498 71.361280277182829 -71.519958895795554
50.555294147731466 74.125286714618198 -76.447775893315779
50.417775253093758 75.684802005674044 -85.376854930107172
49.570411324921785 74.449044991441667 -86.330601420751492
50.427245152335473 74.909813336237676 -86.336191736123837
47.515901510126177 76.602438640854231 -87.505122203163253
51.549719270727344 77.353574603979411 -91.962509484684659
47.815837693703500 -89.826939400916856 -92.919094489258526
50.551010201684605 76.842688067800708 -92.486711629327559
49.047591271403874 78.938488895213993 -91.217798248309435
46.523744774466401 -62.164106923005889 -94.391070777977376
49.478425164160129 81.511012517166506 -93.432672958781779
46.836671865581742 81.922862061259480 -95.085324551524039
52.219030016404254 87.632196912681621 -95.780503808902552
51.006620062326292 94.300848654967723 -97.159267688277509
44.639656434790567 -86.838620076123249 -99.190375084448263
49.298052721562314 92.409898600148026 -98.990885108280906
49.440689230611802 96.656678334911660 -100.851821974880991
48.780658369753162 86.189837381644267 -98.230271710029172
49.735166791906657 87.389203117287678 -98.473833550793302
50.863894869424946 95.841221712474592 -100.640988928309170
53.300964334549533 -72.454808663216951 -104.744515730832219
48.011645111680927 -77.482310735329477 -109.876368951981249
48.655066614836954 23.848056931589753 -226.924479279946297
49.140681811747108 28.364143151306607 -223.070088409407703
51.238941156264907 28.324189882427390 -229.605521664674598
49.564707001865905 30.976378501650601 -228.580560070899224
53.312896039655193 33.667112334132653 -229.565780069750531
50.879442943707069 33.168065447796977 -230.900684196821800
50.824759298225253 36.103620854020271 -231.960289647173937
46.629274958416566 25.823784416333098 -231.580039242072672
50.509865914847808 9.886929434067127 -234.044687874882925
52.912712977417975 13.254864324275362 -232.552692932664115
48.571626620815266 23.730282826393307 -234.086900175432362
49.537377083598230 26.856502345200518 -233.055161515011918
49.432921326363875 19.645809192799540 -233.857163118145422
52.007162925298211 6.522167137247608 -235.422165357754778
48.734312580881273 24.513719548428917 -235.746314292179534
51.172206657505193 26.726607325372711 -234.269728640757705
48.327277232623160 4.426662834159555 -235.111298554026064
51.677463574207373 21.611419557973434 -236.221077485072414
51.167662722774033 29.809013039170761 -235.626087369206743
48.553022828230148 -0.204478616652731 -237.351784893708469
48.369326292575508 16.201492224100782 -236.582575765148420
49.375822856992059 25.202130128863921 -240.651002097239058
49.142587603344126 2.464364442828222 -237.512918895302079
52.354807097670509 1.225292811139790 -243.154573120887363
47.760338251098958 31.224702129224635 -236.749590854068259
50.111975032329894 2.106380398890064 -240.591349116502528
50.518549478792671 18.108631797776386 -241.950507541334787
52.919130034285729 14.511738725121441 -238.868823839851444
49.723573019757552 31.677684417824171 -242.153279525227560
52.675553330674745 29.088726641361653 -246.062131451976597
49.338265147578127 21.557729365058094 -244.480084439716194
48.955940120890467 15.055589129663881 -244.553390140584327
54.265707501858707 -0.550938768397247 -245.613026254508839
50.740168174537750 9.568648361494809 -244.339918313302178
48.596261743427029 18.743875456601089 -249.274814208612952
47.676337793291523 30.334484180226973 -249.853029993021948
49.532147072724285 17.708706289841714 -249.964235698849222
53.518948764653963 30.732477049078671 -252.834711559529580
48.978472692015501 28.132448992294858 -256.020304786816382
47.053978216546462 8.565926701971540 -255.381558204483213
48.760403462666062 13.169804069593631 -253.421400713713865
48.822954203387411 17.348744778335821 -257.864435051024373
47.110998933923995 25.847857382072284 -258.630639084856966
49.689590619088200 19.226883615091602 -265.022082040247142
52.090255213110858 -1.599362892387330 -41.495626286854133
47.759457534560092 -48.823933461303305 -45.696644012677979
47.496994927488224 -47.432471476949672 -45.628183943486626
46.787352257537783 88.016205894920574 -46.661626825851350
49.514291018034889 86.059259055911255 -47.660062987109690
51.711281496556829 91.969096019436620 -44.902399043887684
48.027222064157755 101.915338053712333 -49.638994453812778
49.991976127786522 -83.199584049694764 -49.192109708119524
50.262464498034099 84.580149890546465 -49.960152747741127
50.922355410591976 98.259330012496704 -49.977602086952444
50.182767331364474 107.046598609163354 -48.775472812009923
49.312571407283535 -50.848343379846902 -49.936445119273579
47.249466889564296 -20.002484124940743 -49.471011519272565
48.473230301725586 81.215171186614285 -55.364367141885495
48.658620797946675 83.357340493035849 -51.145348493376908
50.573680545034470 79.668110738739671 -54.833258792357867
49.505163870483415 80.251646640323500 -57.297362421849016
48.719736576702317 -91.162474070336884 -57.894489442975427
46.933303994608593 90.499440050995958 -54.886473960163514
46.933846204655360 92.460236174924731 -53.897749913219187
51.517763400632269 76.613329815618997 -57.297479688475974
50.997042285357360 97.293441945208031 -60.889653617401606
52.875161568421852 74.996629806213519 -60.028526110918790
50.376009001116984 107.263236254714940 -61.983388137649484
46.088578227193196 -25.507869026755976 -68.572315479820674
50.102986106118443 -89.445920181785596 -66.597708939530250
51.461737176673338 75.803795001375775 -68.600378083154425
49.263986293611026 -33.858043519045580 -69.814704254403409
49.518513224934871 74.328959876308090 -74.236735708834644
47.006896696789447 72.526297140483109 -75.823427585172098
48.952485883526471 75.635623993309594 -79.373658570125514
47.050256806362952 75.601327616310328 -81.472778575869711
48.484449590578130 76.028624182449022 -80.161629668277982
46.850348116319267 77.269381398231673 -81.376326784005471
49.613122085329735 71.577593141319483 -81.947480897157988
50.025635641834690 75.810832506442040 -80.177498748356072
49.388476116404988 77.039448473414225 -87.233434779682455
51.716916411616843 77.450123754990230 -87.843865516743932
48.737595316184745 78.453975914201280 -88.799966795191935
50.193037537946296 -63.707368918500592 -93.829038793341127
47.722102590739638 -88.715083389322018 -99.365061418361861
49.256578562972273 97.438428750930228 -96.720900557493820
45.058853495278406 84.850413047468834 -99.043525998321101
47.241635013535230 88.519183367971436 -99.399300367750371
49.071505800514892 85.355264119178301 -95.741043159419291
51.373319889862124 91.960365528645866 -97.504971801235570
49.937491160441752 -83.370439248306369 -98.595245232768008
49.359915976625167 100.074705709447230 -101.396925739015145
50.659886621809719 100.711893483292329 -99.638086624220605
47.766505104710909 90.891464878894610 -104.008101382191072
50.513197129463101 106.537662062767879 -98.447214675102316
48.728169490221283 99.465572772325771 -99.737923784182613
48.781693054163945 -69.381851699321615 -102.043621680380710
49.028281328557355 -80.430299640483184 -111.427374667647541
50.015539565570393 7.399146786019879 -236.179050908041802
49.123846804836383 2.452499143167685 -234.458706793592569
46.549818389938856 10.201388727325618 -232.331708570958966
47.226481673986136 11.419806768369211 -234.972440501245217
49.462874088257436 1.659113102894382 -233.665672412852757
49.427594953914053 7.863465898844353 -239.337029154045240
50.937935161898167 7.787666188677439 -238.726348920724860
47.775079904013730 3.096287134604735 -246.206921714373493
51.721636145972866 11.433373497055515 -243.631413243667254
48.827110356323985 -71.891754653482636 -36.177375184498239
49.705153153021229 -45.996843876285105 -37.660615288509746
48.728148265295644 -28.995986700551320 -40.995553327575209
48.188774562581138 -82.123042315623579 -43.760468878875820
47.778864537997762 -8.239190087849117 -43.651008684215533
47.285242219600590 -5.449208161125650 -43.872190468220921
45.080540619701551 2.172606587898496 -43.624496714669966
50.590006517048515 88.292894889884849 -46.039777911529718
49.114210711800752 -84.275617407074620 -44.448201193245033
47.480128368328515 88.979829416902732 -45.934036825251560
47.211231615382587 90.286286741857026 -45.063196284224567
47.300862973444019 101.034330885267806 -49.266931714566219
45.831337899331771 85.629564746046782 -47.687888783974110
47.413988176030557 106.328640498212209 -52.383104450109045
47.866257993243956 -50.199358062116374 -49.894516826394650
46.567497418817098 -47.679433043122124 -48.515733256989492
48.341909926270617 -12.073366719566351 -49.163023652786336
51.280084830421387 82.304810415305454 -48.674870128825184
50.247068400268937 -19.543721784161900 -54.092437847045474
47.158489744584742 84.341859325799007 -51.775972600142062
45.234625645136575 97.197334762556153 -55.207605875111241
46.546011774305590 110.987287369602186 -56.535934861644762
49.844170989603420 98.353780204385018 -58.316460776240660
47.470600144537670 82.857386303652760 -56.566780860359955
47.536250893840275 100.493860709008132 -57.373549129302532
45.881884010888939 114.605260692213733 -57.344507784921518
46.556883569384262 107.851226096286808 -57.983630715191325
51.411649296920523 69.643783194987037 -61.557345004310918
48.402396954485610 79.426836909711781 -61.576927550147843
50.419010908662941 -89.728833814258024 -64.915427559831301
50.003737452270954 79.343713641930151 -65.445487638104765
45.376143629834097 71.225183360159903 -66.611682858679615
46.142337400495492 72.175929830074182 -66.065483329307469
47.508437379721563 -30.314495926325129 -69.746355709658559
49.725789464521753 -28.180168100953821 -70.430936822912258
47.910358446516661 71.922149865481856 -69.395189638391741
49.195019691506403 -30.845880165322399 -71.065412707367130
48.769463593724929 78.083253365552665 -72.377232531485419
48.812916483747237 71.908656870423869 -71.691753063288246
48.771751199160363 74.990227702209239 -71.860646427970096
48.281323707833131 -41.602169826445227 -74.406818129267123
49.800850950784479 69.410573880405536 -72.380538837416339
46.578963315310347 71.588776520301877 -78.654638537268923
48.747125540393654 80.795253395527340 -75.607987067719591
44.971810767996963 77.530187289383278 -78.237015655166488
46.221931982889565 80.547617136928125 -77.803496673397035
48.278189827360379 75.353696939088280 -80.716592659523727
46.707946902068393 78.456814015597601 -82.134857202177187
49.395975546862950 77.700148852428555 -78.867920258169121
46.832186490181940 82.832192824471576 -80.313407725909997
48.897096871149337 75.296392786554918 -80.624792172881939
49.860817550975717 74.619202368762956 -77.824030084338943
47.738344601861392 78.538357595176862 -79.089314979696098
43.710451629046268 74.492722179734514 -79.364990715154661
48.478309754786700 76.118514923464289 -82.101691367627637
47.296402312309297 79.589255497587800 -83.694842467334865
43.377558673990684 80.376863035069661 -82.864553286946489
49.034711327179679 71.902624101883191 -79.816043604200289
47.484850378295839 85.608765432519206 -84.093847216067871
50.379677509441997 81.150693883371503 -87.327340261390674
46.289571904582090 -87.998478616713939 -86.075883311901109
49.734987084591047 79.466569066886805 -88.995752346181547
49.750262346681602 70.118491624891163 -91.091465828982876
49.620608090103147 75.904865216885099 -88.612065022558923
47.363512170573557 -56.280866464151757 -92.548808659869252
50.315465774880970 112.749622505719842 -90.558566649050164
44.518362049398725 82.218853359380475 -92.674684882216980
48.730691417414604 81.073729386223945 -90.842040271965729
46.363710820478879 81.457798564851970 -88.845677356596582
47.512768158523038 77.564885962813776 -91.214616867436717
47.849969444316642 83.035314603090626 -92.411108348135656
45.685778382415492 71.978604583328931 -90.867992611879330
48.812120096458173 -62.710622747774792 -87.632883348077357
48.772898895440342 83.276500615348098 -91.831006971025261
49.001101563174664 110.891941199754910 -91.286147666403394
48.716470498725990 79.559402996375482 -92.216993205895093
49.255554098377914 113.109637791257910 -96.707540279677929
48.033104922639012 72.400481910430244 -94.982463243469851
45.129690807162163 85.886599526224586 -95.572812152287369
47.681855306171499 108.913668603051420 -92.353962751292329
47.583434489410514 79.335944725913990 -91.764674569395027
50.004321184895232 84.011848219784596 -95.665619484257633
47.812277056892832 109.847515362696313 -95.748327051105193
50.537624437995461 -62.982116928340147 -93.524849437170204
47.099468274432354 88.049648638170353 -100.000006722044120
48.120427206947490 109.239322339318690 -99.698884548720386
46.475055661325918 91.075101686077403 -94.485009364234585
47.724506814463858 80.677145156738817 -100.393117405583993
46.682967045704963 -69.218164660515384 -99.183258541302408
48.633394662827818 99.965772062703550 -98.678776825967603
47.412229600411656 94.074304117673748 -100.918049958762339
49.239921501778952 96.877516092687230 -102.587906991337277
47.752951277422532 110.373154397595300 -98.944223852174346
48.384563229674164 83.637480965128375 -103.687896588765554
42.628475341950185 98.989708420247169 -102.471848700009900
50.672386101178176 107.427580848126766 -104.023446604219473
50.529152848311483 101.380480571237641 -100.580233839620234
44.933792132058059 -85.090404362892656 -104.283221129371640
50.257725497771148 -73.981626496617096 -105.044050032011029
45.961267951075172 -83.528849299573267 -107.261318368293729
49.522134448964728 -61.118099740106558 -36.977557026283471
41.887703643962652 -49.161127985669189 -35.074578312418126
43.567989508475712 -42.324900617516626 -40.685980757737319
48.320023292415733 -38.501242059801676 -36.771139069470074
46.776433862135725 -49.141600100831589 -41.216317789498945
44.788224676380729 -76.414242196172850 -43.375457203911694
47.621038862222292 -31.707275439337103 -42.938038171189959
47.687494440646120 2.170611710418555 -45.589364532087330
48.152346911496664 93.705901763870401 -45.822556703715414
46.654419227282141 -49.343694909466478 -48.246066509776455
46.178545325369370 95.327503779872174 -46.196452070345060
46.614697709024483 95.589723214507856 -50.285401503618800
48.762590859281474 104.107939288999958 -47.340003799004599
46.644820837358168 82.694682668913075 -48.377982843313838
47.597473091016475 93.530137038356031 -45.282931334720864
47.577876175244768 109.179377212375357 -49.977839198700600
47.875292966498435 86.713791959652255 -48.887928502572578
48.030218219912861 -2.306469756093728 -49.663993905241519
46.148883257010247 95.352865327729887 -49.463720339024093
44.975910985369630 109.827493549897511 -51.853763358615929
47.756992980811553 -86.742504776422578 -50.076509002543688
47.540542834839691 86.574814963908096 -50.787427575994734
45.798906042896057 81.528084778665047 -52.557668906232884
46.709053816844055 112.817636029933269 -52.503235124001868
44.215921076574944 -87.900231346457588 -55.565478585271180
45.992677576703016 80.226709254615145 -52.158024185987692
47.810299450121562 108.729829723537421 -52.687353920361623
46.354253187960140 109.557811304848485 -53.410507121565352
47.241783185527304 83.962965984264855 -50.859360629129007
47.491471616331772 90.750057546071801 -55.538805868572567
45.666371257876840 98.569221954786499 -57.643433493373053
46.878996879911377 110.055750850862680 -56.435936958289375
47.264336522811945 100.038895322564741 -55.565556180200417
44.740108213308162 77.660285760861768 -57.203468046584632
43.815559885131940 74.557045120561611 -56.553445663175339
50.925814564885130 80.554044483546761 -54.266267884042293
47.106085669484422 84.497619964116737 -59.178739878835657
43.972990624345364 108.475260747773618 -60.700705729715409
44.607362641311468 108.578339280844162 -59.762822219228482
49.048735770154771 73.621540329055250 -59.364182746175644
46.552673468228342 80.605541965071737 -62.340188612093428
44.985905109925852 81.760356919531617 -59.120022124427706
44.013057653699647 79.786716249641884 -62.726417308617528
48.317957389894687 76.037616955959422 -62.245131224737136
46.838840321753544 85.913086471194191 -62.806009405420824
46.491949044208944 118.768143743543789 -64.050103639669871
48.233712634175241 77.054375408614007 -62.057134975062667
47.069783102685150 115.881428303365936 -62.930569725292514
43.633897630102531 82.396482622752828 -67.737133707338657
46.291089497349681 116.964100450569191 -69.321639730164861
47.461602962929938 73.772025040608938 -66.128629288403644
47.856182317945468 117.806085034053382 -75.891418259579339
45.039569345323777 86.871278411308012 -69.670546039822653
44.690642048647703 80.186207703110099 -71.268341619864316
46.571149270440934 -42.460773157370554 -71.612468743155645
43.537928021246834 119.311242773509335 -71.488138037360798
47.673876128368214 85.236219757045703 -76.967702583485888
49.029582300771168 -85.837358648959309 -79.073399213410738
45.375145890545880 77.964598542307584 -76.581832688707834
49.128031012762399 83.149334047261192 -77.904963223379397
46.478649913653200 115.279446974880983 -79.340447007945087
42.953375991749660 117.546493113208484 -79.239723945639767
47.643658519323608 -52.035961034982890 -78.090542351823572
48.475437629884446 75.307734300362512 -77.370315251578774
44.791361857302917 76.020491824137338 -82.187229314253386
45.239392645802965 90.348948693189413 -78.972467695411325
51.654974225063619 79.778811675164178 -79.466158542807776
47.249767222036120 117.842908827867319 -80.098392451118954
46.847654106322501 -90.177918113096851 -79.865839965060417
45.149511359950495 93.127441992768340 -83.314101838443406
50.112054048812332 77.050957552153633 -87.027858250557244
45.644906315822752 111.458268469427182 -86.440830538643752
45.840911249720406 115.208301362978730 -85.443400973437690
44.316740785915158 117.904426919226353 -83.425008003904537
48.056015582282100 74.928246557429162 -85.429235025754622
47.213914333189088 83.047150390258153 -87.219650524902846
44.970479101689122 89.746617729299771 -86.620208082381922
43.977792114720906 89.616729748955080 -87.763337740833123
48.792085003619292 81.934329439983159 -86.115994877536252
48.725968006354485 113.312721561190259 -87.817695061605150
47.431659319310107 88.819461768509399 -89.631689370788337
46.047548046285200 91.415361800450029 -90.699091464404773
47.129980243907674 84.212699652462703 -87.179607930994152
48.404036176946740 -62.981972154630682 -91.065805601124040
46.858822148611033 79.322646738240380 -93.305838089595511
48.264004893190034 95.247840329380978 -94.506145369054565
48.325490535673708 89.778598548295264 -93.640815727585903
47.816389679422890 90.543431037523064 -96.376408971128569
46.510824139525148 72.650960306658618 -97.528810305768559
50.206410401697887 93.448631194902234 -98.426918180199948
49.715267874895432 85.364812248037381 -100.254298300357604
45.250215062267145 76.395647541111160 -95.457994044494455
46.969618246842067 85.999371530899950 -95.897728864453143
46.020353416021386 113.014484721681399 -97.593745794365816
45.134067991705820 79.678801127858534 -97.019136468046781
48.892405531645522 105.636269629535562 -96.978450115319461
45.281376235095181 109.900633094752948 -98.771254901846845
48.595525103043130 81.074514500391672 -99.343181107014118
46.737395475472340 92.397767473721373 -97.778075315312677
44.547087526892980 86.178160145531734 -101.458186777477607
45.098093098993921 89.890907744586059 -97.883197566903902
48.374585144662568 83.530350047129119 -101.999369691155181
45.302951062859293 85.509647154673971 -101.008564811489975
46.345030589473453 103.981253769217545 -100.181533286962960
47.832894325342785 96.173337496662299 -104.206156143997163
45.937094102921485 -74.750225717500555 -109.192926445522701
46.217514916659447 -60.176992746621394 -33.413844869096238
45.368486627514997 -57.054223087936009 -32.253468558661858
42.238386250077568 -69.761383896445366 -37.229242861323357
46.718825801998513 -49.858947939566363 -37.058815664241983
44.668020924688847 -46.568129471683505 -38.595008391217434
45.588890965988817 -44.036016946134474 -40.719450614328530
42.926767294593787 -52.286077779393224 -42.127154685235233
48.519535881240543 -45.607924146008166 -44.016674786174626
48.278135457130070 -50.818373006749447 -45.130824841206376
49.990518553641188 -46.731733120145073 -47.386132631812210
45.239037053307968 4.151498352384783 -45.243855807761165
48.136531918458573 81.983295158519255 -45.497910426584745
48.225254071018725 99.498873441127756 -47.438125376750818
44.817779351016590 105.611661825182708 -50.012170696912328
47.390004218250795 99.230150400369297 -44.495141542747511
45.212547513078505 80.104820428331067 -46.727674986741782
46.053671742432080 106.376695893936784 -47.753987291409523
44.199353654007851 98.325681001097081 -50.564226706101600
44.744937414304296 105.121650959314451 -48.940761144811781
43.683860005584911 -6.660867829725792 -46.048154288499255
44.602393727302612 87.085876223834134 -51.372276174269572
48.618118854443395 111.615531341051820 -48.431890189396746
45.149605528895165 82.133451476986167 -47.674227757656645
45.891213263592704 88.321837164405579 -48.846162378841257
47.497620529238866 85.767134689697315 -51.573831925813558
45.067049378174282 84.141155162342926 -50.605904284939243
43.118666754932498 82.319877450372474 -54.080497861192100
42.919391368995228 85.944520666294693 -53.239102877252435
44.208897160091134 107.397555959022668 -49.896307622016245
44.354762243075101 83.141938582659009 -50.545700386705199
46.016880858447465 97.552716927576441 -49.682901628477531
46.504611683059927 102.368503138050841 -51.060938653326971
47.627601262588946 105.642049709888738 -52.288798559159822
46.894355792370405 81.019390025419938 -52.785472169722986
45.140294325906140 111.610184502820672 -53.355177232069053
41.331218822631094 -22.519536901409019 -51.753512185265286
42.513289755288703 107.229573353128288 -54.037693696602020
45.006988826094641 -19.500348610687670 -55.516682843066590
43.258036021522649 82.540005632081417 -57.461045003529193
45.534432913607347 93.480347235237886 -55.355929135446615
46.624741247990052 107.634451306783859 -55.643450299555496
44.544011225110381 117.895691667992367 -55.531037677087426
47.788861290567553 81.254768441458566 -60.984290805988167
44.938778125634506 78.244732808140199 -58.216792053553704
46.761167312826892 76.851655546144528 -59.402048509437080
46.032317311750361 115.142358625810317 -60.548147097688059
46.812171017705886 86.203735310516450 -60.709809169425668
44.706506210865768 92.095816460760133 -61.638939952233784
46.475881311621620 117.480933577943745 -66.143616377017025
47.864114433989776 80.424288143934433 -65.436364519593155
45.951973933602311 88.569828698601768 -63.368943696839651
47.721639128658794 94.132033959330059 -66.412516715075100
47.593486276072269 -87.964880309844716 -70.889452864721434
45.809237062974937 -37.228660578687261 -67.601998898571196
46.759525400583158 95.242978153028105 -71.406758030086181
47.269852287110552 113.659746077623481 -71.208692689302907
44.227067908657610 -43.393144190955873 -74.070169339921236
44.410628716815694 -38.332979671249682 -75.488073932094764
45.659280342335990 76.962112799650953 -73.675150030596924
45.724932408059324 100.031723774526625 -74.976635688350115
45.294637453851593 -43.139626888399349 -73.392384287218249
49.293036331766345 116.529643233158566 -73.727590016539551
49.126171019400431 79.566358811810005 -73.361590612479475
45.073000406799331 117.472460200241372 -77.415417083295210
46.717629439842852 -47.522887037138197 -78.886698092745917
41.092026290982410 94.865248808302169 -76.234393702251580
46.012781958349642 -48.809149445416999 -77.608737487071139
45.761728239048871 95.363275647085260 -78.768269734296467
46.606332222451428 99.704838249868672 -78.139343122745316
47.414841273725514 82.049286719100095 -82.629133521881926
44.651173251836788 119.066496815059693 -81.970562052963643
45.729359388934490 98.528775168861571 -83.436659333610820
45.486666656888538 82.798617176011348 -84.583268700726208
45.196142732729214 92.307053656293036 -87.512998034596464
45.627055776347191 93.838295316392546 -84.236231872395621
42.842838181154590 99.781435008134395 -84.596701590857677
45.582985755333326 -57.063374695496265 -85.990816710836711
46.405735457888419 102.192891844733651 -88.601879312634935
46.216873539964141 86.532636869678868 -87.984496089656389
44.688000211193604 114.655751813216767 -89.822823294173972
47.738336589587576 81.140069590869629 -88.130722740401424
47.851814668964785 112.518491655658991 -92.325994887794934
45.661845298349604 111.277024613681263 -90.362896224031090
45.279059042534811 89.311806599731241 -93.018956762909980
46.493959604646847 96.763582881622668 -91.006282948188854
47.022922749383149 -85.874214867002081 -92.849981372591984
47.518130313700993 88.856585741196028 -93.262086095030071
47.586879463730433 108.696941029994932 -95.979309329366544
46.708664145109601 95.830082310858700 -95.186414835149407
44.314131148359600 107.217895349379461 -93.934341888079089
45.977901770321260 109.248027120793793 -96.727805064358151
45.253739391121158 89.347762272536414 -98.180446809387945
45.332580515504091 106.719459808039744 -98.003612787521888
47.069616090087457 108.577486575230267 -100.215227528963652
45.507967644911758 95.885620354427147 -95.674421898695016
44.169327620405070 96.985525414853484 -96.611315090225986
45.286743818843078 100.658880204377169 -98.539702397474059
46.438036128715019 -84.179107201562161 -97.542220291756450
48.359039336272808 103.481862741672458 -98.739001088629848
44.313291422810991 95.890057908764106 -96.430704519307696
41.621735266023521 93.938889782446893 -100.064903198982108
47.120404808910493 97.128661934039542 -101.280107970420858
46.506707295959330 90.866493692189437 -101.631158849373875
44.635217678344873 -72.058685576189930 -102.526682758123471
44.205603488400421 90.772063319562960 -99.365565791795078
45.330531936686640 103.226572836677207 -102.665199940402985
45.065012277181324 -84.846936682079217 -102.890220197462583
45.099177811810030 -77.526022769128687 -107.715526444650322
44.342706970735300 -64.409491240183499 -36.128671972056551
44.756394974614082 -42.516198300873590 -37.794413523083904
47.728811958734724 -73.658118552334670 -41.752379391642002
44.610674541370528 -49.074554158865233 -42.795211675535761
42.178857654898401 -46.463433356561929 -44.188040316376515
45.367505237296605 -25.653339313156721 -41.280566595645688
43.741321183360569 94.789256463145080 -44.804830416820259
46.534447741726858 91.305895714490859 -45.042398037262430
45.893624782251486 85.780472383130032 -43.214557523258222
46.746054356480094 96.439881354151680 -47.617715997245980
42.006793763382383 95.528577318701821 -46.037902409933302
43.842665416133499 86.140358796929846 -46.847193089119116
44.941423455609986 104.957123002882597 -46.969601608565306
44.295793330724436 96.209960870488175 -50.637751988170621
40.025244311134223 100.682828758237207 -47.359379710556759
46.123044304948479 98.904736787685323 -48.522755043501874
45.433970031907052 83.659725073389325 -49.024395083143190
43.679011053815749 99.082553105317587 -50.225442398622533
45.680429000697501 97.245701890650949 -48.106557479310382
46.938623988685208 86.885182307777526 -49.248194217282389
43.598158589160455 90.030091573935081 -51.783023900961808
41.833812471608162 -15.415333979673044 -48.212137987970451
46.024312403829697 104.335743370740133 -53.225007570054267
42.335462872052304 99.284084484264909 -50.750858812812119
47.514758737918555 88.548108041971460 -54.166270188939606
45.993307235377408 110.793734235310623 -54.109614390947087
45.659902829951342 90.767597625207600 -48.511036815768577
43.532313996916280 110.693571845041404 -55.777864844090615
46.315545003043383 81.738086450170613 -53.513165387462792
44.078852776228864 95.924803284664350 -55.025222331517142
44.414155862863481 98.477373063023023 -55.079078790450652
41.070883281123969 111.728584133095794 -55.669329222095499
44.071434982301554 87.154401052625175 -55.217045888812578
42.608699845935242 94.016593840274453 -57.759239852904457
46.690669276783225 112.546469951872737 -61.128479502446140
46.333934099639123 -25.497435818668855 -55.267766463835272
45.625005657053613 115.235402652290844 -61.230959506732688
42.456932328959731 91.833082022468872 -59.254365470877531
43.940338069243893 104.310581354159751 -58.445087814800360
43.835734270331919 95.153156419873127 -61.811032287928612
45.759570189835514 118.822659067500069 -63.140543460823082
44.642773355455638 116.056214648631922 -62.870166395332149
47.648447232934608 -27.700277552825341 -62.363753720406152
42.086692424738921 85.659920304212065 -63.068574584560182
44.151908044305017 101.782831159282679 -62.702367460511411
44.263264374657048 96.700209963932991 -67.965134985699407
43.199973985720888 90.169380424912589 -67.014244642722602
42.056599229379955 -26.378324708714203 -66.431603019498638
43.456433313214902 116.916934410393480 -66.954216073620472
43.770550284414568 107.653653738914159 -69.399227637471910
45.534198678966376 115.873344942108730 -64.942131680023152
44.363839401970282 118.750474122316191 -68.784325388418864
47.112339168846610 -41.775251497014743 -68.886292951456483
46.406163709224188 86.164205241998673 -71.918995638783414
43.292158302662521 102.643755542530187 -70.071735422038600
46.359123880152389 93.563758151924276 -72.269106285166686
46.171050822503361 -88.048613640886231 -69.075062658651746
42.352100825055842 94.659152246112868 -74.305913044305797
46.948541346907369 114.641069539042064 -73.530557663222936
46.452637097694947 112.216321713037303 -74.861490971460313
42.182440635050057 106.247921109094122 -76.853840051818537
46.103421208352657 87.904613048888976 -79.568439710963844
43.682017045046216 115.756195202962530 -78.658039693171190
47.087672189710887 97.925558807015463 -79.667306060114200
46.722915813516217 102.405845088524714 -78.119513972097423
49.016696491410798 -90.042416944982818 -80.814086581586523
46.172572209064406 92.676288649778584 -82.139920064403540
45.292207825960070 113.070587136257103 -80.689458991946921
46.415326737047586 -54.690715289268169 -81.662860808100405
44.670912808882882 100.658220057124595 -82.846860823671378
44.992247499630160 111.663099497524215 -85.242792243734385
47.418939137796770 111.690463137431010 -85.001349209782347
45.731062651873408 100.441705943693449 -87.066190520012967
43.088411330499397 117.208501034460895 -86.133272828833000
43.886404099813014 106.072349695976627 -85.712001314466576
43.375782661838500 114.755209734568169 -84.873027898863640
47.113970739069387 112.008306936517116 -84.020055302511210
45.188232204289626 95.547274851503033 -87.310619983069401
45.240227067550421 110.478889006618601 -89.022380457563884
44.420710609678423 115.890474972078820 -91.246416398807668
46.573097727234448 -61.800097862739435 -90.300420287421233
43.791412312462882 108.711652119484995 -92.028869962952655
41.827289801883765 90.057120183268907 -93.396496582928791
44.232070862839841 -65.681383913672605 -95.359917897401758
43.114950611311727 99.662398586660885 -96.565237225119006
45.296387988405485 -71.588890103707541 -99.916705692243610
47.234112185912913 104.858769350323840 -103.597616877583818
42.984907859698481 110.085254184066400 -101.445007007406403
44.819986404892830 96.273212812848726 -102.219776751279355
45.175573102222565 105.466813313930132 -103.073691030341521
45.633442776844674 96.561089194555819 -101.077799934701389
47.686877842950885 103.318971972216289 -105.276470521722572
43.618783840060274 -84.193772723920574 -108.273750116699759
46.933842230534609 -52.612652200908954 -38.909202382932470
44.742087445201648 -39.798772808328060 -42.752440612454535
41.140291981838381 -47.697746097376388 -40.227187603000139
46.214151345942994 -50.177217882428131 -42.537368065729240
43.285063435793148 -34.814479578083898 -44.883289691320613
44.053240027197845 96.399278582375260 -42.471293512656096
44.170689973111543 -82.651350469614755 -44.651965310952711
43.501173481767793 98.559395519844273 -47.467076745132907
45.442916677661316 101.589359880676142 -39.924436723119072
45.336699686744240 98.172889330361613 -45.445627263626420
44.014810710113679 105.479510029996050 -50.542116875838744
44.486692962132786 102.374339557860807 -49.033630931215406
45.308878180088314 112.608848318354106 -47.543013923267587
45.518711548441431 4.096473332135989 -48.604729754388508
45.236173606306458 99.346243404008831 -45.650697202383554
45.941216641930147 97.651194548091738 -49.246442788192006
41.067064273973358 106.101875315203770 -48.906420057586651
45.294500167302367 1.619093362857985 -49.194503434882336
45.921900895168449 111.636095367578690 -52.109208320354234
45.811027752039294 112.257168014052169 -50.227962006135023
44.618573750077651 104.949717073156776 -51.724214691509758
43.885386887876265 -19.342010593831304 -51.600966364642396
47.345649404210846 93.415715411107669 -52.896823161427022
47.741809948892659 112.722047206306783 -49.005022715974917
45.390336269734163 -20.056573653476789 -53.503303116376642
45.080970842904861 99.186668907361593 -54.042740139008899
43.666465396518838 108.873854642026060 -50.124084822790962
43.009102206060945 93.133845763550610 -51.134273856770335
41.185445141649232 -87.727380725562597 -55.557590933329294
40.957218128180507 108.747157294681031 -55.688751434192213
44.902814248442141 100.427019870320379 -56.737352246843514
44.185378522144909 94.060093001437750 -54.255695146052432
44.096272952953740 115.800329703444589 -57.432380556889143
43.675361879186035 112.689994412900504 -55.830486288054900
45.550723526542157 101.299382721590760 -59.116502442791671
42.159448708549029 94.476042586869042 -57.493066181879627
44.250072748408336 116.184674672248690 -60.207393999672746
46.099703507168059 115.030948021160711 -61.704952086512407
43.148107489123298 98.586637895058800 -64.302084582966259
44.792642782674513 109.453670553502718 -62.689297054878523
46.503868945132574 119.004494933152458 -64.478656064037523
44.252372275188179 92.144714010748643 -61.176528235137937
40.651233556988998 105.031807595236032 -63.918942658990531
42.269196010963142 112.347360261473654 -63.557812450867161
44.469922581465859 -26.103137398222437 -62.128393318560057
44.551676888313395 99.390311662592950 -66.746138881972740
42.579931210430701 115.567082507976195 -68.127546160661879
47.431257629664564 -28.774102888015484 -68.510990772333273
43.392977437921971 107.497165353975916 -64.702748541949859
42.978862774454761 114.479289339284904 -69.138247694704987
45.081828325652147 118.104326549346197 -68.871990263339853
45.471844825395181 -35.772794509240541 -70.868575706034051
44.808739264878440 113.114907682077103 -70.236302275093138
44.100078611535423 -46.273958984537586 -66.544603510913191
42.870192300048181 112.975685802101793 -67.801567562538921
45.097878643337957 -37.295137456868645 -69.828409777215114
45.193179442157060 96.565893278108149 -70.731841474320220
44.690819482969331 117.352828850710964 -70.119755203279240
44.677623585061149 -46.649015790232852 -71.307370829269772
41.095924031603595 118.865485098512494 -70.750527861960592
45.494309563232356 116.860958269306224 -72.792012890539723
44.488412423351910 117.737675458147265 -70.945057150386575
46.573256549795708 115.066197435451997 -72.594828091279240
43.251595935729611 101.691374351293661 -74.683165054699884
45.280362217017988 113.610137604707788 -71.148497470968323
45.122364756821774 116.193931918223299 -71.205559315006170
44.590049466976524 114.832637162958406 -72.296211824560615
42.424686007699627 114.614318095966325 -74.185110496092747
45.871017290741214 116.602952871259802 -72.050246715762555
41.714337108623589 115.160620587459931 -74.481531806843520
43.104147605835685 120.798359175587350 -73.369697917821256
42.362835132515251 115.322229881193437 -73.929418536584649
44.221062950837990 117.899826470916196 -70.584648963713974
43.429546387092543 112.396127572165284 -73.092061099738402
45.766696618295974 114.447084116482372 -74.684718529165622
42.525967675870248 113.842473781142942 -75.081226844414076
43.321607095396850 -89.848032437653458 -76.227412102595977
43.856659134795528 118.607684234629176 -76.386608049704748
42.858527670087710 109.212403913783902 -76.114699908438624
43.278052264993470 113.990484693518411 -81.769390135050259
43.643397558986770 114.787052578024387 -80.656417010679533
45.613683391307553 116.280881228481803 -77.995497782319063
43.442738246608663 119.218495160075889 -77.471287297437229
45.817009449710390 98.744144372941705 -81.644415838507598
46.536478444162128 112.684173320483822 -80.825467720167353
47.234148437465684 115.270188574042635 -81.246437413865877
43.780553529683061 116.641753939224088 -82.309524585991866
41.235486865703940 107.217318260461397 -83.392815435750578
42.824054801710410 118.326563481348202 -88.952070519324010
45.471226433400446 -86.213470041540319 -87.220201108078811
42.599315119801958 99.704136589840402 -90.618927282662298
46.654557739533303 111.450844912612766 -86.908286668343393
43.970318225602576 114.855634752971810 -92.016077739810370
44.381057263563363 106.423173011621714 -89.737310655232989
42.635087194560079 101.173791093143336 -92.846111691240267
44.177268219754687 114.897309841170355 -89.748832039965535
44.745841343969019 112.452998451401783 -91.119034087773571
42.186426677479773 106.986998111460295 -90.598267748904675
44.995310649449223 109.186702061008759 -92.564584395445607
46.394095933715633 107.383920241043313 -98.579926260044232
43.283851144580204 -70.476217352840607 -96.229889393243383
44.995277736432477 103.383534024497209 -98.665731178517319
46.145469030205888 109.821207497354564 -96.817800323090736
45.659412852817269 109.342840375876349 -96.231223630773172
42.305136155972136 -84.904154206412031 -99.644265692426472
44.820325109965900 107.597334936635875 -102.686973245829563
44.471372421987660 104.583380734757384 -106.337718780287389
42.836059258221333 -59.101731313151348 -34.864133792543569
43.650749680143441 -52.696163342548616 -38.558225956912018
43.167609361874860 -31.747093697635911 -43.686703545911520
42.868688911817621 -17.542165172249504 -46.086498569275136
41.222167429872918 105.706240623935940 -44.871995286792931
44.121829603020473 -87.849724339253100 -50.221402131983773
43.637561591332911 3.303174501928339 -48.588722987318405
45.987205148555603 -16.390925374055069 -50.728340425495702
46.564741203702567 103.388800166945572 -53.950882323171037
40.211167054265339 114.494427605746893 -53.106753527930813
40.431955892931533 112.608243613659795 -54.542373638752593
40.563479716658222 101.845603515353247 -50.814881552128135
44.001605207093874 112.561853410500206 -55.145477754576973
44.374040238666616 104.710022239421008 -56.417470880944151
45.937827484391548 113.152502781957637 -59.625608993106255
45.529657597097220 115.370950976293145 -56.454711958208279
40.696880854014715 99.045575717940309 -60.441917658327682
45.703816218798679 -86.759556699022085 -62.159126711048941
43.749722497723575 112.471488330076710 -60.250225705327182
44.439985070210533 106.275266443753836 -60.268922969334014
43.530891051290524 117.266199646529699 -59.101990133915606
43.146863941427938 116.830773775732425 -64.312243163392367
42.758515180659863 113.557205845233128 -61.901945128963646
43.607749192708276 101.032955295293192 -64.127165804564356
42.960698689820369 -44.210760336619522 -66.359564256564582
41.386213278237477 117.314447425874079 -68.836205305123670
42.461845899491856 115.962063089775000 -63.811169611469978
43.449120222397447 -46.145157154502847 -67.242511367791792
42.246661207202102 -42.544482913158170 -67.426547953555740
39.691118670666064 108.964414589094687 -67.718424869762600
44.327995276280781 103.324263443810509 -70.339235593575253
43.345278785388480 114.476683250377164 -68.439805160112229
44.977118209619945 120.825282458026010 -71.297153321633843
42.028539739439729 115.720487230479307 -70.611026742061128
41.021162748683736 115.357953186214615 -70.199446296467116
41.082915105947748 118.026123381437330 -72.442228172558913
43.971065255853418 117.470847008073235 -73.197286771201604
41.870869115527420 110.070271063487112 -71.875883081808951
45.524233659607965 115.136508293006230 -72.995719569785649
44.090186604177880 113.068319990233036 -70.858079764105753
45.033198789405724 113.839426740847898 -69.084591372890927
42.512969913990936 115.463747349965587 -74.785262501218369
42.037004777011553 110.701656946464141 -74.085465115344746
40.524038651925380 -45.805512090357560 -76.457888422957652
44.181513439113573 114.394518079679600 -77.988223354742431
47.069009477399533 118.657013342599512 -77.485265925469946
43.254569822090865 110.239513317691120 -78.593408054705591
40.318977582300874 -89.548789197600840 -77.804670212749429
42.761608650208686 111.930134896491310 -78.196639041466852
43.028339983036858 110.201058657843902 -79.394831450584562
43.282204989350561 115.281045418157348 -79.642987350993934
45.561505360322727 -49.646568756305925 -83.912488011941122
45.163589809613590 118.586752710093634 -79.295453841958789
39.697651521224373 111.356489387293990 -84.931767927857251
45.133267126969535 106.471804103237417 -90.640475027539821
41.761988104379199 107.467761673212536 -89.267119721621825
45.319890151236926 -85.535901349703096 -94.097072330602572
42.681816490490966 -69.772309561266312 -97.894103611751234
46.192767699240790 -72.007718786385951 -95.926346839611085
46.033990508870424 -74.131329225421922 -106.117113211341945
39.683076808492494 -64.948160744427469 -37.801456677783200
44.814249079022055 -46.041241532889075 -41.020432660245227
41.635681840117599 -30.210821240393749 -43.328953351616342
43.975706733573467 -20.302729099351417 -47.393365375820061
38.092805505498340 -2.714030460899471 -44.901602415589451
43.573991133129361 0.162499921233101 -47.895024914572112
41.290674335632929 -8.777271678534152 -46.870723995903148
41.160766051494370 -14.388301145403464 -46.320102753449063
42.778739356099770 -0.440322031587513 -48.112546236646715
42.026457249220790 -3.958126593066378 -52.142049991382919
43.472660429692176 -15.198548228817955 -51.283661115053761
42.527224368542463 -85.296500481087733 -51.855242060171030
39.019029395044420 -23.357983364923257 -53.676598863557523
42.613478593575600 -25.815979089098406 -56.180361213322811
39.726787774393173 107.334218623744363 -52.738618578285489
41.761801521233295 -27.841845280238125 -59.429878232332783
41.886933386004841 110.243316185076992 -58.157462236679194
40.168041065116192 117.445146331995190 -58.668618748324548
44.358435999110114 -89.007935974488760 -63.511529010638711
42.848212738934443 -27.042477521279899 -64.460447486194582
42.649801763942037 -29.460197943635585 -63.969538131399815
41.278598132845069 -38.850609323532744 -69.542731410550971
41.473399219668515 110.473889691447980 -66.470948930823354
41.733134200702359 -43.518009004338921 -70.057371014589023
43.172215640631329 -87.739262201901894 -74.480643966815776
40.155916313871074 -45.196538717866993 -75.667193562748935
42.595718324100844 -52.368515854427542 -86.319328938671717
41.865793091928232 -88.228160244480733 -88.037834004958640
43.398320892701932 -62.688460498907148 -92.636151187870993
44.320399464014891 -87.970058049020977 -94.355237733967428
40.302875967927854 -78.809765104760061 -105.415511035449768
38.980758920584940 -70.416880890730042 -40.544821599262583
40.917478055155165 -50.484486373197122 -40.597797456453222
43.029365358839790 -47.274547991758375 -39.933916962995212
43.711431965495940 -76.431354308346783 -41.520610741464054
44.027826774677436 -32.202620457710182 -43.457799867726820
39.963070060578495 0.261151885711264 -45.873541703745353
42.036181626478054 -30.809323644349540 -46.904500171794709
40.660644461915233 -27.021734000243626 -48.150709195094265
41.501107448131549 -18.364411844878806 -49.275644657629890
40.628712336901103 1.496698240521575 -49.783280598703698
38.344010888509310 -18.360966256808421 -50.624993761360933
41.437122073821229 -1.325855434736486 -47.044091436190897
43.493498903335009 -23.283719481112740 -53.910797758472711
40.626734497187613 -20.877619240572052 -54.330747299695261
40.293889532541804 -5.306818299029661 -49.276916823024742
42.365356025033876 -7.826190336636174 -49.323819577226196
42.626999613608163 -43.308885587091041 -62.156552355489197
40.954237598621141 -36.775740872645194 -66.570490068656468
40.280436517899489 -50.508671563496875 -81.609958155344628
40.979033774359316 -55.875116833205823 -92.589053758728312
38.530850858155731 -68.604296885911396 -97.516051467839844
42.475286442690965 -82.097268928795728 -103.526588442739410
39.353039305982762 -78.201207551724423 -101.652782540565127
39.568182757430449 -60.471814748416605 -33.124651599371923
42.684966420898576 -81.659935262883977 -41.473167516761471
42.014870487632912 -36.523565164725611 -41.118399596720963
40.256983822149856 -81.899215462132531 -45.993970191182612
43.110985128557857 -9.484774045971182 -46.099575797313271
39.961108364608933 -3.085526258859147 -47.354541614414117
40.762440574937010 -16.531559615109046 -49.830468518678323
40.676986699991019 -22.128617960285901 -48.677006300905745
40.928406230225058 -23.434403059055754 -50.981388909053891
41.749305646429498 -18.977144838689458 -49.600417294202735
