# This PCD file was generated using the MATLAB® pcwrite function
# from Computer Vision Toolbox®.
# .PCD v.7 - Point Cloud Data file format
VERSION .7
FIELDS x y z
SIZE 8 8 8
TYPE F F F
COUNT 1 1 1
WIDTH 799
HEIGHT 1
VIEWPOINT 0 0 0 1 0 0 0
POINTS 799
DATA ascii
74.259017388143533 -10.759122171828547 -172.615766253388131
74.761909323144280 -21.036808547582943 -173.711150883993156
74.103114623334847 34.955832833688362 -175.296578100104114
74.650183156474398 39.672581023159815 -176.024675747319293
74.554611983929632 24.302186426159107 -175.949386244020531
75.608437698146773 -40.113890657337016 -175.777795241481954
72.996182531190854 -134.098856311884049 -176.617452978602387
74.416628591630072 -137.339841715256114 -176.174018065611421
74.452005056926311 -37.986318419914689 -177.195949271731109
75.651637599312139 -19.285682365687968 -180.271161972800655
74.103311081563945 -38.641819961583266 -178.341299133983711
73.937720537708003 118.707105515514243 -179.549511094426919
73.865785709249067 -33.600309271133220 -181.867639907999688
74.684815418395885 -136.704449664501453 -182.836962951780180
75.040387421687470 -34.348468245532729 -184.565505661801410
74.765842854923520 35.057914218686271 -182.983916549620290
74.384100560763812 32.163506820710040 -185.546057640924460
74.437394838956095 -33.006684436285340 -187.395278745784481
75.154313422815690 -30.421977955712954 -186.958391025345463
74.136762105522934 23.969844383879643 -186.682370594367598
72.905708058583599 -129.211283711187320 -188.649381839977394
75.324009511698648 0.969108698432116 -190.816277815153597
75.171134963045120 107.463973652455280 -191.393867585066687
73.011594796599894 -30.870255931406689 -190.724144007505515
74.890319843437752 32.703351229607492 -191.020039912142323
75.055768956426107 -128.919073460616374 -192.443605882275307
74.091524260253422 -22.903825755309931 -193.406714901253167
75.860509347337654 113.561907275575933 -193.587318608850268
74.174707842582166 30.259883610940360 -194.742505398881917
73.106403892647833 -25.204307492575104 -196.248481436676713
75.477726823002342 -7.261170951324210 -196.791962660972672
73.707286691129838 20.880050046832309 -195.902114320620342
74.842473387464295 -19.479161885173351 -196.628962709739625
74.800258111632104 31.901039978258787 -198.281420384981828
75.121047515213874 4.351445309632762 -197.888543684164176
75.671734330278582 -24.936926011933416 -200.015796641345304
74.733098831138633 -64.990638979831289 -199.526208826851473
74.378892013605750 -66.549266582552008 -201.188648773221530
74.612328711581355 -5.324779173015795 -200.113331550904718
74.312538702980262 -66.079258036674958 -201.980670297207439
74.147729782905657 -135.909911152245229 -200.362665978250192
74.440173439230236 -72.347604468293994 -201.836647571794970
72.727047669743612 -66.387901599596120 -201.493662853650875
74.707999052546995 4.866160920843160 -202.096394645929593
73.971812685421497 102.553468668815398 -201.412162395795065
74.952604415789438 -76.056918649697636 -202.991380622206606
75.672603325938169 103.714506233514243 -201.452838012498148
73.799264554891124 18.169223332195209 -203.133301202514986
75.004386476177174 29.200632357374488 -203.811608078395665
74.710039563228023 21.095297960899195 -202.562743582633459
74.950500845981708 99.918349198138216 -203.583621747385479
75.700165336838651 -78.537437669155864 -205.148187658947251
74.287594657544005 -21.091028707519385 -204.766591286558622
74.330130737070945 -67.966939068415869 -204.879429191554635
74.174589559314200 101.226022705958584 -206.112759316199657
74.326532149415797 -133.107674424268339 -207.268122458390565
71.769587556219861 101.552194940450065 -207.426310572033344
74.220972271195265 -9.857321390244596 -207.279262729273142
75.197906752270399 -2.197356747468216 -208.412265551174130
74.724099107674220 10.733641781281879 -207.184568963165276
75.925664632206463 -5.103847306747856 -208.233299745124583
74.163852339889772 28.108204003606993 -209.013429265923349
74.024643404419876 95.441281643068720 -208.537518032684517
74.097932178035194 -11.727374045856404 -209.683815634737726
72.267123176741620 -88.479721938040996 -209.640861712436930
74.972244224410744 -86.305009164766687 -209.476640872981420
74.589824193681238 -80.964957270742801 -210.303768135382199
75.123704448823162 8.172240335792424 -210.244126540433996
74.545333695208527 17.760529283423896 -210.942454660122849
75.114714924079294 -16.084902230625623 -210.571718358367235
75.778136958579395 -6.387723660314936 -210.779380139878469
74.253875691808133 -86.922099985670812 -213.110749369595055
75.747392636019597 101.492775362244316 -211.701710092461980
74.746250832427506 28.130407863377727 -212.568325987805309
73.865979956978364 -131.679090832980819 -213.432792670847988
74.627065675799457 -3.853215660442361 -214.368648057153990
74.263613946060261 31.523491308360615 -214.491366101690176
74.847432476685725 95.383656844728335 -214.269451880564986
75.110272391148357 -130.551877609438975 -213.590591508471221
74.752372957233206 12.648704341875780 -216.105932706116988
74.602321416105980 92.871433356448875 -215.780970276790811
74.354174600636469 -2.576495929003185 -214.340230880705519
74.968051328838314 1.418085207437805 -215.502959004841387
74.337257806680881 20.606322229758881 -217.893391987909098
74.115211355117211 -120.602563481431901 -217.531571544759231
76.096008381486669 -113.534611393217887 -218.015466752659506
74.187770371804618 27.636024622825744 -218.883402443685952
74.450389231404770 -1.196015243401753 -218.563978979204961
74.974623546965844 16.699353321140173 -218.602205810392888
74.162308299688718 -129.304909235530715 -218.905807782337803
76.100471967895928 3.822629855590396 -219.170679354662013
75.281391780961130 7.657468561427821 -219.020147367489869
74.828899099809746 -120.875619124439680 -220.744344118405223
75.589674704740233 -114.528665386212026 -220.422336016189689
74.870888104331740 6.319773652719157 -220.197288432880100
74.470934757105681 16.991730285954315 -221.643760593466567
73.473395626613524 29.805623814096101 -221.599727939747083
74.075359015740673 -117.230033967181754 -221.853668740156252
73.924532690592500 19.585597723367062 -220.846255902745213
75.549987383024018 4.278018566122888 -222.196533342597860
73.750043394056803 7.700959495703922 -223.950445844413167
74.629267370597773 11.998849627852106 -224.248713195522754
75.650432271875118 87.723154739894071 -224.011781835877258
74.218111072249670 81.595437776015544 -226.349848160420891
74.561366386063142 -6.881681962045956 -227.490737918851693
74.508126445643995 83.945027596664531 -228.029880353375148
75.096423756316256 -9.784715152426518 -227.432405008402469
75.284145995299767 -11.875710025851340 -227.604922926681809
73.583574203406585 -150.481803226746337 -228.947968002709217
75.679500029515083 77.758202518530396 -227.246639608704982
74.469886726043626 23.097367635549091 -228.722026479109388
74.974626454924532 19.342597169125934 -229.044934367377948
75.802788057838114 13.557721540812972 -230.151410418634612
75.196029928909397 75.731014943661108 -230.643804606764775
74.569534738716456 -28.532599648019726 -231.585668730691935
72.603827868234333 -23.239410774671576 -231.724542588734920
73.076587223431687 -13.744103370772685 -232.422304435310963
73.958837348381607 -11.020206903419314 -232.704437462472953
73.992515147222747 -35.438252223390869 -231.754417517973479
74.728400480001056 -32.453196626553030 -231.525450955246214
75.361378115380674 -23.157179308607056 -231.921477606202870
74.678997551873621 -43.533515587453572 -235.008041705778169
74.000689999083008 -26.996519907575006 -233.621449736407072
75.795257802492088 20.782076650497526 -233.061326822947279
74.077172582838543 32.287703470989591 -232.976920304259011
74.510424088401891 24.220628347753134 -234.304782502774884
75.038892796155949 30.414715018171655 -236.716357894220153
72.935142945934501 32.579597892680610 -235.570357915137151
73.416627906299510 32.881394847113853 -236.919471080730887
74.795557562681665 -138.896305697664218 -236.367097894046083
74.279034042451030 -42.062810008742311 -236.445941548178126
71.600993209479071 -41.481546833897568 -238.076949596467728
73.920278579002201 5.604559124747143 -237.834438014958778
75.112180620569234 -67.731966242192172 -239.106784911784558
74.418230867073945 3.783023546136866 -238.596914075898212
74.593384944995009 -148.895905548245167 -240.296543457787664
74.318474631441561 -133.584669259193134 -241.547633472226238
75.703677767359522 -72.382633344265770 -241.784468524512562
74.018637171566155 -74.309753890841890 -240.716849571749435
75.246198848425948 -58.647594833153960 -242.472559098493576
73.846194438067059 -137.941358490373489 -243.095797468434995
74.513744864838372 -77.993446949717892 -243.646833836684181
75.044012566416924 -66.011736735292374 -243.394228238377195
73.810875148681163 -153.543921242455724 -244.235595566923337
74.170839985644321 -80.088771692039913 -245.043068155190639
74.897862366217211 -77.544373902152799 -247.034730651990571
73.749948573105385 -72.166759215590517 -245.695347025892090
74.573762251547166 -77.268277628754021 -246.864996292037745
74.367817311225139 -104.479084557714586 -246.524036119532298
74.658563586134591 -136.581447881045932 -247.137155230127746
73.694797684222436 -136.176724040575152 -247.259915862491255
75.740974238011560 -128.586821832990495 -247.195844595529479
75.437599184296829 -124.765004995080375 -246.595778459442613
75.105884414113348 -144.431693046817031 -248.019772990448359
74.879856109021603 -135.787159388543103 -249.246619858009865
72.869081105538427 -152.406375730061825 -249.518099350225441
73.803772490519506 -112.089125181974637 -249.790022059673220
74.318157939692881 33.357055590930415 -250.771390806693034
73.624857292881927 -150.541556008813984 -249.646985355947891
75.068326483046732 -135.362529083809704 -249.731793033989277
74.397404524887619 -136.817485337235809 -251.384787919706753
74.560978526021159 -123.709806744108135 -251.597326875429189
75.376358792855683 -153.307694309014408 -250.762364753042732
72.509401925810380 -151.813192672256065 -253.020613494944428
75.310322102715915 -2.868125557219575 -251.969736324244025
75.704696572127730 -143.349280405686017 -253.242410750810961
73.532110058324321 -119.967347745524137 -253.217788384941173
73.499281213757129 -151.806396021833422 -254.067182366467648
71.558557467879240 -141.328868965857254 -254.024734049570213
73.413251998240128 -114.738517888608953 -254.793710626390293
74.636283036179279 -137.962568150511288 -255.506486992539521
74.210481803621960 -135.367505473400456 -256.661261037340239
73.200588236000200 -149.753874829137516 -256.830837587318229
74.270817634809490 -152.133471062966805 -257.362173463948807
73.638179575435757 -139.405729294493000 -258.312727166350214
75.307341326180321 -146.190410113666729 -257.425575096085311
73.577500319647896 -0.814650007165085 -257.888480316778782
74.120264314478916 -134.535771916847608 -263.445996159352148
75.156082809992071 -151.928287977680441 -265.198721278785229
76.239175534916342 31.376398909772554 -264.852257153346898
73.967446200413278 -151.125366273844492 -266.392362855178817
74.004739235252757 -141.883099839845443 -267.729871765001917
73.824085850943277 -141.117771358003381 -267.573600738680682
74.021361727583624 -140.205404570645754 -268.338195327010169
72.918914786080890 -140.744010670538017 -270.935787482714886
74.926865468243761 -154.983363351162666 -272.275560562582484
74.487556565543727 -114.631420801167195 -273.996821950222056
73.641426075482059 4.808902626847763 -274.496628100808209
75.323598840130174 -151.954326576494338 -275.614985146632193
73.332705034641464 -18.555325623776024 -274.543363808466665
75.533327517192475 -132.892231870407244 -275.258602107075660
74.927233056944331 -123.827050632605108 -275.998467456047422
75.155031187942384 -47.293421715055537 -275.733860012571199
74.460048389855658 -41.494797828595942 -275.993695725133762
74.382196876635618 -31.651453143248233 -274.760737640174170
73.620893908020776 7.484465103179033 -275.486950681236692
74.199673764039801 -145.448312087385119 -276.685963614880677
75.432022977736679 21.978045240014310 -275.386438360708325
74.798449356250956 -14.755896666908928 -275.224394714208870
75.409735420831367 0.751610235653537 -276.990546318215024
74.282772628761435 -78.022195789100877 -277.657955775078733
74.842890594619405 3.472831630364260 -278.309837497725482
73.316056003224773 -86.963746220311890 -278.152492978136024
74.833147398962140 -137.522291253980967 -278.934125059624535
74.570005894491104 -112.518645203038034 -277.945935003716102
74.739695485434979 -104.061799981945541 -278.535591524557617
73.358429242540723 -101.374752884499927 -277.700433805564330
75.368175490016739 -86.377864746218251 -277.830069810343900
73.210319765002652 -100.209796161897629 -278.883493606885054
74.860483660223323 -87.577404535320071 -278.501956090751776
74.048692001572903 -138.821437807995920 -277.079306067640175
75.126281712605021 -136.428251734292814 -279.867366423414069
74.133922478813091 -83.968644390133917 -279.985955899613941
74.864487641825392 28.341817362493231 -280.133706392689021
75.342493339333615 -105.157987795439155 -281.149796455950195
73.611686222248139 -103.567805583904047 -281.241581372552730
74.048017254856603 -99.462980779129765 -280.485093115641803
76.001429126399984 -59.100691513970233 -281.998782988665255
74.356197364811536 -47.683266583563118 -280.294805187027066
74.035373021122993 -89.270658281472834 -280.267161013953626
73.253295674025068 -76.481458248349909 -280.871415916975991
75.310531347631041 -145.033735903509637 -283.115157611964491
74.337703138484244 -11.584397895911131 -280.350084786588525
73.276304041573781 -2.286272019007598 -282.260484559221254
74.375623977079258 -130.512567012923256 -282.407086863742734
74.242248301618346 -122.867837406753665 -281.932802661063761
73.815618322742239 -113.762716938089710 -282.129319952566732
74.714240754252486 -147.067322184538909 -281.508137793378069
72.464244519841159 -131.962312201423487 -282.994902545974014
74.608837351935776 -141.820315817901218 -285.276546505578779
73.431669680309426 -143.943934685830982 -285.762256556269392
74.218090506779120 -134.203085338011505 -285.343479770187400
75.477120915551637 -141.365417716325226 -285.749934541123423
74.207139256880794 -134.549588351956970 -289.744179816315295
75.751863901572932 -131.124328715123966 -292.384717482196436
74.986863776507576 -133.518912062534639 -295.365681511478158
73.816847684740395 -132.427145771969720 -299.420015027485704
75.988278831229707 -134.428887638278326 -302.341831708731434
75.257525584372161 -48.581974956351104 -40.473448927961002
73.552756885859594 -39.832102627440030 -39.723486383408883
73.304208892216053 -55.450876225411832 -42.811767464517416
73.876608157464489 -56.592402679412857 -43.655171372365302
73.890912359416603 -27.152791743931637 -44.656877485753256
72.862686664721195 -20.827318758525607 -47.337221707027865
73.046801136760337 -73.278952859328811 -53.421123544341583
72.282321597767790 -8.470932442456174 -53.535582624808050
73.161272994967305 102.007646633567518 -60.925764598921148
72.359686315006869 88.431984266928126 -60.495526774691598
74.421763323415732 88.571833685204794 -63.198904266752834
73.032231982749238 -8.351888111481117 -64.099349001670888
74.009644635266710 88.500473798027770 -67.111623935256389
74.753596255461318 107.796711733374195 -66.107501253328337
73.599677114198087 82.841449184391067 -66.091003837165445
73.601793361674567 -25.762191991720719 -67.531651392189346
75.204109320963866 109.174219999108345 -66.967484305568362
73.123637916962593 -26.555327663382215 -68.833370065333341
75.646888103796300 105.238939801572300 -69.957490861015089
72.858487730733842 110.031436727061759 -71.877563093959807
73.671967242533285 81.684456806019213 -71.552009309425372
74.399322255756374 108.353924209579006 -73.958181965843451
73.754432357991135 -80.019204202077518 -77.519087526507249
74.907084170959010 69.901286383246998 -79.905164102300731
73.377601417558324 70.785341313061593 -79.885701908524283
74.008087673896583 82.989094634022010 -82.988490431427891
73.562434013160981 71.873016639992386 -82.501808255357602
73.042442466542184 -50.772851693703558 -82.464243125298097
73.216722611977545 67.706581590306200 -83.488113249031130
74.145486826110542 -52.428967415782608 -83.791474878656132
73.336118993072546 60.911376158058523 -84.098918293386021
72.884932235171206 67.245226027055651 -85.978886485833115
75.195015956237953 108.601999290713394 -85.568648896157910
73.024912063020835 84.875668642957592 -86.029622551943689
73.131446236202493 88.894839874637611 -89.093862640725277
73.184061824834444 117.123176730181058 -88.834138805055915
73.522313580470808 92.026940879660643 -88.918436008804306
74.128274914984516 55.753345716802841 -89.041108998685672
74.623937867310588 89.606052343051374 -90.816339915142521
75.156208506624282 90.266832741844965 -90.684495656435573
73.899877568764836 58.083047599178805 -90.367162906320488
73.543771543569832 67.366902656951325 -92.214879571929202
74.288477922555103 99.316201594886536 -89.798593316057250
72.092546226585696 118.582769547420867 -90.326295283036060
71.879311932195833 100.973053440146430 -90.641182142000673
74.852069283894963 115.587741794514059 -92.798258471119638
73.385197548489543 -83.233891326240538 -94.195959972756782
74.451243011028126 -70.736598771707136 -94.124515819207701
74.163585114783672 51.927794442400860 -95.614710778007264
73.164343404845965 123.222479835460717 -96.467871485198799
73.004221890868834 61.086510302308703 -100.346264357295439
74.219951575352113 -75.286028122768045 -103.994181614160780
74.218700694318329 49.713826736075404 -105.339891827275295
73.445470339888800 44.705114458435034 -107.890615693269496
72.934853749173314 57.691701055189291 -109.258327547467985
73.727568559399415 123.835065278249260 -113.272807857229765
75.553967406862768 120.254444999097714 -112.509296314287525
73.898234007408504 126.995502399224847 -114.278217725094066
73.159897455205510 40.410207444652571 -115.100743585676568
74.139917303276050 43.477905057897971 -114.870710812846482
73.700124492377597 123.646209677523643 -116.660236742235483
71.482286342354911 125.635655943112980 -118.102020557258044
74.031184150530990 54.807170797555600 -118.388961357847023
72.852541647834840 120.305269020963962 -118.926609819142158
73.980610386189426 50.588779159013534 -119.196344542582949
74.697134175080208 40.120984750205047 -123.446117416311068
73.235870911943636 -44.597856224800722 -122.568050106510924
73.035931717555172 37.941814651258994 -125.614644106383196
73.356124422283926 125.925579099010633 -124.962680401651625
73.075304763801981 -42.163241657101054 -126.278118054525407
73.348016545494730 125.295366083506437 -126.804613458514183
71.946483331058616 -39.437556073611113 -126.047625806201381
75.049921796921595 -60.864083368106037 -126.534235634006393
72.244373299499671 -64.380753831057490 -128.159542531961137
74.036268652819075 48.079837760744304 -127.157252610210264
74.744557303535558 35.641378487645980 -129.570763952098815
73.535295345667109 -60.004566480392654 -129.202683706763480
71.700064715786510 -34.387543464083741 -130.479567069613694
73.892589783571381 129.184246256790175 -131.213979752453128
73.395670523068517 46.414938576150611 -132.369580443246520
74.159373249731246 122.015513167615708 -132.969384479498274
74.185233799879811 -42.365819418908451 -133.222086582335834
74.021152806198799 -33.515215449471398 -133.315230124894811
73.569978064726456 -43.787862014729939 -135.836585089441854
72.553585690402045 36.391146673631141 -136.504866370021858
73.483624169068804 123.798718777081874 -134.924973519587638
75.089565060521196 -62.283206217295856 -137.190379380560017
74.673500194898693 47.278965553308502 -135.802234357539191
73.052762426005614 -59.664246921994263 -139.368750471514574
73.819052174344549 37.362983930764173 -136.747374907920914
73.991194507703213 126.489292830187608 -138.413511713885441
72.566292261820180 -58.052823443138806 -138.355211672682458
74.197318498769008 -58.038763717055602 -139.729233510072646
73.175347556524414 -61.572024969376756 -142.389259421621659
74.203673180351046 -39.023297436783977 -140.068861626153137
74.343037804770191 -54.041112596106913 -141.893577751847772
71.576390740442790 -28.093007326451414 -143.406961663617977
73.657784967407892 -27.467164137813832 -143.651072712700227
74.413816816241393 22.813120790446611 -141.868191536902486
73.941003535246026 21.864197254540677 -143.638963402099677
74.520033260085498 124.030708540394883 -143.501950774077244
75.168221291028416 128.114867658801472 -142.494761554296275
73.679318971720917 120.738206303869831 -143.774021205958945
73.886087301472358 -27.476102209597116 -144.353825112812615
73.209331065288822 34.762911804387599 -144.874396558897757
72.384256787847377 24.832529876484848 -145.295470391459475
75.595693956756463 23.018205975303452 -146.590808211623454
73.696745227999571 43.118427747985265 -145.455521168192945
73.825800263278609 -54.138108317795428 -146.764274348825950
73.644651350417348 16.262132847275616 -146.124824531365505
73.548260365524541 44.791822025974845 -147.607624912178011
73.922084724751556 -56.343802559955478 -147.550711487711197
73.108290910105978 -22.784180526604501 -150.922067606203058
73.558936389265980 12.878845538732852 -148.663506843095007
73.658508441761796 21.024327419223880 -150.131788546032880
74.992111057456341 31.938862021511316 -149.926731521959738
73.603822308451527 42.868057334512841 -150.885168939875598
73.482318653878039 43.721480657221349 -152.669738819790638
74.681977258143164 -31.338220357622085 -153.704992375024858
73.883450941926824 9.601061400899365 -153.374785485416368
72.307674439937358 15.756415362501514 -154.181113408199849
73.959114853778232 122.366102992373271 -156.704765309902911
72.045914181745033 -46.572967129514076 -155.618754130647915
74.209971846381293 8.758842389250571 -156.621126620652319
74.046320796261455 125.548998313163807 -157.092525878636422
73.908952374841675 8.671827685724825 -157.659920876196168
73.910190559997730 -53.217501852876978 -157.749621349505418
73.229135325682037 -19.885272670108318 -159.391341823628238
72.280906020364426 31.894524388070259 -159.857454509132737
74.396919692311641 124.250461750906325 -160.503656578180284
72.503973381234673 -50.555145266521770 -162.341373143572980
72.952235055405467 28.180520232360173 -161.673406525358672
74.064585156170352 -16.569638131836335 -162.716018090034282
73.197129339346759 -45.488322862537537 -164.476321731976100
73.851006149513736 118.114663720722689 -164.580828668637452
74.387214441736134 -25.913233388649367 -163.750376659107644
73.760576047447088 38.772004001598432 -164.087270742072008
75.184601384016204 120.501423920110980 -165.192671367232776
73.538697537458006 -135.421619172129112 -165.249481867614776
73.270053285069622 -12.034312313050432 -167.347836112649162
73.195236818973697 39.884424726315771 -167.491833687841876
73.738708931426103 -133.643260620598454 -167.399013640397868
73.371904272013765 -22.751136332706977 -169.255064936439510
72.651385504496446 -25.497333366212146 -167.477877760537638
73.048979397476231 -135.919620964223014 -169.486928518562337
74.337165021675361 -44.033230664544476 -168.128870723887246
73.644570821566788 115.943009941816612 -170.798108519127851
74.334511770724049 121.043103077942845 -170.620051406052056
75.372288565353855 122.501660351642428 -169.325128712892649
73.123651788505924 -136.475221305827773 -171.174471138072391
74.026267255459757 -134.011133501683020 -172.456296077060472
74.036428127154821 117.381985119034724 -172.597357513042368
73.683820549840931 -9.147457673909891 -173.038622801845918
74.721816724534264 118.892650281618998 -174.018603025649725
74.409422241871567 122.619708587221226 -174.719195455446510
73.466710458441725 -10.394426025944107 -175.692099584473794
72.813500692274474 -137.269645139686531 -175.963745538530702
73.732568986591559 26.147970893464123 -176.771327114976742
74.608499128538625 113.966046331907009 -176.392771605122078
73.369045657458429 -17.229552704094530 -178.037618941858142
75.991756145099814 118.819018542663969 -178.909337302025165
75.184337847145613 25.727197935370910 -180.229116727191865
74.148949357773077 110.485261982546646 -180.922578523996123
73.636102816497342 115.021717431490288 -181.461431104408803
73.572093693761445 -6.724367821663421 -181.705037107074872
73.361697143775075 -15.732519479773337 -182.593875624906588
73.878864052599198 23.860548990149415 -182.426600685048925
74.741771219389150 110.304403940744379 -185.011923616875180
75.346927179372202 -13.919577957194360 -184.905456750417869
75.098965738655309 -2.479626634195490 -185.964847334677842
73.433271081772617 -15.745139512628040 -187.226756725006879
73.944056046127159 -120.269466778696881 -186.316487705584365
73.916137757317927 107.447633658168257 -187.668130265715490
73.284489011889534 -112.615144780669922 -187.859535489864072
73.763710790232921 -2.677881740401913 -186.852188776610461
73.117992053282265 19.150090729513067 -190.650022536355834
72.288874832524129 109.676776868032306 -190.488043588216271
74.117502003522617 115.622534287146138 -188.963686148131586
72.987271333773691 -119.356163483198543 -190.133527644775398
73.507405630902483 -111.957059421782247 -191.557838213223192
74.552091314564251 30.705044794039335 -191.240060811569037
74.922269343289827 112.802667279369743 -190.178813002864302
73.543705793966836 -111.816032708140625 -191.565428184405334
73.913589467999884 -2.926366599530816 -192.006437169493552
73.663262500184928 21.860278114008672 -194.020439506023507
75.144460304506524 -10.016228045538966 -192.289433196836313
72.873698039752924 -24.889524714332069 -196.293307042325949
73.216425167404950 105.288401350701633 -193.559159817090517
74.694706061644453 1.689918550388628 -197.332975214740515
73.485096966394380 106.213924855250127 -194.264621944050418
74.038631009922582 -20.479192835819248 -197.038916904828881
72.810026596639418 19.836288289158023 -198.132206015753894
73.706067946595951 109.560530856736719 -198.693093476250795
74.071502490751698 -65.941939848210481 -199.750030069538639
73.039250387435160 28.611438343269000 -199.415465818297037
73.080882752048211 106.446373250466593 -199.724391046853981
73.518958649559849 -16.447137845520832 -200.023650489298632
74.347191323299285 107.094921515600774 -200.570447895602371
73.282713527334167 -5.396446808842324 -202.147749457028283
74.248985186981457 -72.167836447690220 -202.989315441475611
72.770324883057356 -69.285860008242409 -202.746624627658036
74.097285797848016 30.628409861249402 -202.033151842629451
74.543336784155400 -19.121185451186474 -203.792956011525916
73.010361227672334 18.959801134613237 -202.218393006250636
73.831327615518219 -2.843145938816514 -203.747761029701110
73.129941088854750 -12.375749208391813 -203.786925189989034
73.484659557921660 17.472879880091270 -204.160589803636242
74.216327167439957 107.014476345700842 -205.036098727072613
73.888439743048224 9.203322877555852 -205.775063920083767
74.092517524769661 -71.204445341959072 -204.194074279833558
74.880066283110764 -5.536017175053306 -205.174457726501345
71.644315657774669 -137.795919940689004 -204.023777142480753
73.274046360233868 6.662456268718350 -206.965093686269739
73.789767949909674 0.259741686187274 -208.107346061129903
74.243238820918322 -134.389249742037038 -207.692015742526792
74.823733839434823 -77.017700175774294 -208.233616164929288
73.886843660564296 -6.374980642453675 -209.084418627532870
73.696072607885469 102.825786229852241 -209.524153160098905
73.189842144569113 -88.130524086511500 -208.446590007242179
74.332378449575444 19.105345590185024 -209.098359002496238
74.131483556681360 94.180507521390865 -209.014313569383205
73.732894748555736 -15.362209576287380 -208.949130455781756
74.803806732484531 -6.833951851977211 -210.865020014772824
74.652298383236740 -10.901472851142394 -209.673602094543696
72.552278112118216 -133.398454964937713 -212.144150026161697
72.807089754387604 1.070513939422257 -213.777160151109598
74.059965545645440 26.809811846708421 -212.734176452147665
75.414755799717852 94.219821258922721 -212.679073793681994
72.732331131833377 15.508385697885933 -214.803334319543779
72.492762934241270 -91.443791412511175 -214.570114472046413
72.518985699471344 -149.830725638607248 -214.503843523432039
75.028549689621656 89.138535093395987 -213.481075938157858
73.129415125047700 -120.406104212672886 -216.068180059299038
72.206403338573921 -116.678551698047329 -215.427440918368717
74.483467277974796 -8.533545526975061 -215.920270015551239
73.690889584990956 -1.232583182723126 -216.228926170196871
74.549519732962324 2.308294309595915 -215.906176193381128
72.699850488815855 -147.937062842470311 -216.235395110186090
73.399258437407269 -113.206295529750378 -216.188440355799401
73.507109827281468 21.272348430188799 -214.858513661810264
73.534331368968736 -121.703724019097393 -218.453560705729785
74.324420046466315 -111.408617256537212 -217.561275897152058
73.308998440083926 -137.758930304458318 -220.130402098644538
75.012414414123711 -127.983926272084943 -218.520862716911864
74.396716485707699 83.554392990347168 -219.247572874898282
74.126601059292028 -129.752353109991873 -220.763528322356677
73.709597467059623 -121.966534454578778 -220.427418494201333
72.719372650813227 -152.395384391280146 -221.945528293968493
73.116388549786294 86.402512741873892 -220.361716261954797
72.969244552197438 91.439217564098357 -222.374675001369894
74.411824506102491 -140.853105111437202 -222.688277596500114
73.456402506235534 86.756532081342129 -222.336035298502935
73.129469897552653 -121.009754117071850 -222.791972725701953
73.681028309909777 -114.249563363995264 -223.484253146093522
73.534680523462171 22.187046402613898 -223.785237676302586
74.518420013866148 2.610165739769672 -224.605379988485197
72.807786428626713 -147.344920420825616 -225.066156429885439
75.023093307394802 -138.362013373106180 -223.981467925242384
73.155681250349403 19.167692860030368 -225.285155903302353
73.364658766092674 -133.343482854598022 -225.595208083338264
72.706705995927919 -147.356049238805156 -225.986017441436530
74.240095141762964 -138.593452650258342 -224.685517449936356
74.176600531654003 28.300272806649573 -226.148560718254174
73.406963604078825 -152.533610162136767 -225.376883949260588
74.094645237866018 6.419162827177479 -225.948497824903853
73.154525000067721 8.957346157160506 -228.353746916408056
73.444437161292555 -2.977129155209994 -228.096974039514464
73.737884922345017 -145.563930953565290 -227.446994412757135
73.507579298980914 6.905607787975399 -226.883814282510968
74.621143357198477 -134.448564462246821 -228.448098301255328
74.239779856321263 -14.190650298815459 -228.254873458605999
73.390732434800640 72.314619109502217 -229.096841012630705
73.352838314536129 81.613379561976870 -229.937806403532022
73.964594246174286 -152.502587737897755 -229.753547066597605
73.559636453154368 -14.774237835971114 -228.852876728624636
73.940928480314824 22.559957072745839 -230.765072998255022
73.803992127390913 29.061593797514725 -230.710286127601307
75.234284859321662 79.067504244269884 -230.549070570123149
73.251388375372244 -139.887894334601384 -231.223518184019355
74.298343137752425 -147.144491585519347 -230.674923700265822
74.442422901765326 6.570058656620146 -230.975301911858622
72.466334207726405 -154.020980465801301 -231.435713053243404
73.477115479410116 -135.049609707993369 -231.065301010403772
73.258800228924542 26.139144844171177 -231.829945499247629
74.582388427752477 6.704566857710271 -231.700156340692274
73.866516789428246 32.816437726159606 -233.385615594176784
73.369887098189949 -5.779113166585766 -232.066175860616511
73.841621835436769 69.221808768148094 -233.287341637631982
72.500534333043277 -46.539278795081209 -234.058987513406095
72.654476716303748 -42.605153092891996 -233.941574774185028
72.655365534043767 -35.920289232980799 -234.654242933104399
73.251413139984123 9.345160022938794 -234.909162241582976
73.426343353613106 20.456783400473284 -233.051346696409269
73.955741713632534 72.121723780624919 -234.074665498412458
73.802337828466193 -151.227556363832946 -233.454284270715789
71.450992749567206 -43.499389174450926 -233.878973160597610
74.357373525789328 -33.614501982720604 -234.554171003084804
74.097162378011561 10.019470125778282 -234.664659550628983
74.218225278151394 -138.811287214171557 -235.404331486656758
74.444903072800145 -56.436538241005465 -234.806475680285473
73.310524210328950 29.699970793999228 -235.007371662790661
73.204929907763528 -140.439422330043328 -238.160643966019080
72.837179774406849 -151.058277232281142 -237.887870539392878
72.427539747176397 -41.807603791880801 -238.072282405665959
73.472970584017460 28.226694839691550 -235.659111008675779
73.008106941570020 5.295789151005376 -234.541834856578475
74.397304329894666 -62.005268129089202 -237.663178933643138
73.955237225078477 -145.935226730037186 -237.737201283004481
73.604212439096187 -45.310486528472573 -239.292015689638134
72.472672393418875 -151.392315685189089 -240.498171541324353
72.700293658589388 -72.989271634594914 -240.949951144378190
75.237077177860030 -49.822255391146996 -240.948132364907025
73.687686296252622 -145.602235243268922 -240.848102827450447
74.255688697039304 -140.091897390533177 -240.547959261639079
74.551219551125371 -55.967331389724166 -242.564258469441057
74.769724383714347 -134.428527245725746 -241.700876546634788
73.521869137139859 -151.818358199523146 -242.145010187916427
72.641511366423387 -140.180632585832342 -243.044724257999121
73.265983037445096 -77.588819846888924 -243.710901271615285
74.551497470230402 -61.379516531427129 -242.616306419555087
73.712317350006401 -150.168029709732537 -241.709339855548222
74.224768412387320 -82.261997847654030 -241.386233986663484
73.193594921339852 -142.608231584318588 -243.280815128750902
74.727642897174803 -140.538728779527816 -242.815512432668470
73.449852630328280 -114.335129380703904 -244.239149849317812
73.059960814603343 -121.279019085011470 -244.514829906741369
74.223214761466267 -3.143347823397207 -244.331032417667501
73.413235638615006 -143.786594893705029 -245.938930994574605
74.038115877794738 -74.780132005318237 -246.549510704980605
73.355756982480841 -105.495450074312686 -246.110569504022465
72.982988870268130 -87.822221775541351 -244.971769981528496
73.136195826282560 -81.577790725803695 -245.734289284503006
73.743473761381452 -123.253935899814678 -247.105581850949079
73.755679667994571 -152.552589807303093 -247.628397644526331
74.509717956553658 -112.168266341851336 -246.691693151394475
73.090204756245114 -91.923584951628172 -246.086027080853228
72.846921238778293 -85.431297503975316 -247.338324709385006
73.350129234343754 -79.969638589501557 -247.105450610867706
74.305072870788052 -137.882714390218354 -247.969493020675657
73.406063012518786 -106.149833281525375 -248.135528330487716
72.309114888163279 -136.181869567411411 -249.243832465846140
74.031925911643825 -87.082856123548154 -248.003696163833865
73.213585393211218 -94.020107035441555 -248.105384307352551
73.561209659847606 -147.889471831304803 -249.247059739447138
72.655617598608060 -103.245093329701874 -249.405545478349325
73.022942866517340 -97.670688605410874 -249.365629274841353
73.866289428171726 -138.489799685750370 -250.007742815866436
72.598786189423407 -154.153993927327633 -250.714075562773928
74.108629313788271 -144.796171571413595 -249.494351331713801
75.225605307723555 -136.251974639095351 -251.040975520146958
73.789027240911636 -136.333952109972387 -249.870419245067865
72.818616374536347 -102.001092262375309 -251.369667594678276
75.351314947389326 -3.655007135030832 -250.629546464955354
72.782238206370778 -112.413676436325105 -250.751972836042739
73.841028382830174 -142.785301001742994 -252.847131434442758
73.367002745801173 -130.578174719798824 -252.814015837111185
72.752075805552508 -123.997404561904261 -253.904491092095157
73.881224901876649 -1.908392618458944 -253.661318963794372
73.232631659555707 -141.821950616445406 -254.193756448356112
73.720000006346623 -133.911224915568880 -254.657778336463934
74.466820964446896 -154.587307463037604 -256.344793995571308
73.593117622339818 0.969440061785216 -264.801199290019838
73.034249526254655 -154.840790586408900 -267.874202781985502
73.770759526200123 2.923837904325048 -269.657452116094760
73.878582368660403 -132.491733360845728 -271.954680155562357
73.533707935655116 -156.494009869863390 -272.084674301369034
73.820808778140972 -132.787599662472871 -272.409117270055276
73.654356230054418 -132.554670892322918 -275.411780389544788
71.445797497512814 -130.022744074587592 -276.052161108760288
72.756598164858801 -124.235120004573389 -276.600453914516777
73.172500814781955 -52.268029243857072 -274.142136937069438
72.812639700092831 -113.485307075042684 -276.971030116504551
73.788474245991125 -60.551505605302651 -275.317243451452896
72.774491770418109 -26.770027367891792 -276.738221069061069
74.477016443542411 -22.415517769167465 -275.673468236395934
72.594722772556310 -15.375642985400546 -277.260092235268758
73.561417250351255 -113.029173186097040 -276.433288063546570
73.307997774951076 -73.569672991419097 -277.534919394735141
72.885273987455577 -19.710793854472907 -277.365274365844300
76.710319270752876 -1.220116847938844 -276.790053571659541
71.681299145442836 -104.187021762735341 -277.714276170264270
74.472833550838004 6.764811351935045 -277.686129761504276
73.980197692715024 20.602942235929525 -277.301228835340339
73.740765654676466 21.088635747558321 -278.236340842072593
74.078265049179805 24.756169025465859 -277.983023801623290
73.338434607358721 -153.676679547526163 -278.888172086775000
72.900662127653590 -34.394028087119366 -281.671723320061687
74.346862670121496 -96.193910401965923 -281.784274941504350
74.492758256787994 -76.400495967966322 -281.158011004135517
72.724371060841449 -64.070029593117809 -279.834950371363902
74.306278295880730 -54.198611289156261 -280.663207428260932
73.740540289811591 -86.775470696265131 -281.826649791342049
73.042988607960496 -20.492169519218386 -280.892301009292055
74.503948964195487 -104.693744816199782 -281.738484730995822
71.947228637406724 -102.397128123169793 -282.442356949364068
72.782748969943810 -92.628425083901206 -281.945894813273128
72.815584526437917 -6.493395148155475 -280.566258761815163
73.745832549800099 -4.897111278330627 -281.918800863714409
71.848620795829987 -1.258059959078818 -282.248207341305715
71.485106983315319 3.430689111827705 -281.321196025736299
72.886562946513180 -107.978343250141407 -283.366386410154348
73.369586329946074 13.138582627675916 -281.831227569977329
73.237422172155249 18.295200851941136 -283.356240900200362
75.004324861838541 27.389552754352671 -283.605504967987258
74.721621526659007 22.643598071618712 -282.663667230497026
73.071571419264856 26.636914827529793 -282.831708888622586
74.830570399562419 -146.119981349706791 -285.395691563460957
73.041619161433843 -131.993462727839074 -301.317533125639670
71.849653778145765 38.045386937348184 -6.597794987599226
74.016968658357300 42.904625296860210 -7.643220257296672
72.813641326208966 38.002499970704207 -10.314711500986949
72.804771676058181 37.750007120830702 -12.328320171897399
74.836803632379173 36.599439358668604 -14.266492394773834
73.462989153993362 34.773588889986087 -14.369525920498273
71.987151132296447 37.334995830316302 -16.121067791721931
73.134066105208348 33.387810998026623 -19.110332587921089
72.742027846570650 35.296316669366732 -22.918745318934604
71.502169729810078 37.673620655347648 -21.682322520033960
72.729096937172898 40.376183395616387 -24.842623413216785
71.399089692890655 53.712345759099676 -24.966558762751433
71.271303057370233 37.636477143218002 -25.927498698370833
71.060241761255057 44.928698209086207 -28.054483714011084
72.725230054671087 49.263147464520344 -28.205181427398919
71.864955467792598 42.265538194268075 -31.468220839397965
73.201464426993780 51.609472762857244 -30.275482734136183
72.420513456485921 45.252317545941452 -30.837773053502836
72.048775153276935 48.658578313157754 -32.404462299703589
72.430502966526745 -45.416071036667731 -40.483999392189347
72.462142909602179 -31.579174928104401 -41.155395707380237
72.614925676910417 -22.293070861182279 -43.217002161093980
73.364427713565647 -67.219661294702334 -46.650205041687364
71.570437595337310 -17.414097430236847 -46.258612004170978
72.537265927634976 -69.773800329985704 -48.070542000107807
72.696414847062655 -10.878346955851352 -49.502667842629307
72.310735267509813 -75.294664755164618 -56.716257106368602
72.564792163703430 -3.899637135579740 -53.759609406573610
73.527144641693170 94.776931511083731 -59.825889737347794
71.859080169278968 100.095544623923956 -58.850987385357811
71.454306819696541 91.886405974980079 -58.755917420486568
71.455771144802853 -3.638907798033770 -58.941484489006470
73.777305047792822 98.032690495037244 -60.018065890973531
72.154134820034344 -80.569677668009859 -62.625755766498145
72.772556001413065 104.668360089123354 -61.672545689481126
73.374430234474417 84.771496191584021 -62.278876465559250
73.452500354149990 105.696366924375511 -63.938596285945565
72.296635385014199 -79.596933372288746 -66.286490589580652
72.343025413378285 -12.246371638724316 -67.830543258753920
74.239266587985057 -17.024952192457377 -68.466109948920689
72.748528643233612 110.648396879011713 -69.277124116127098
71.444755439037223 82.176794040586159 -71.029824908437291
72.165715297194140 -30.628300802096781 -74.009852180535702
72.870801742990324 -37.370679137750429 -75.514397837388003
72.340537058255663 109.983327689099696 -75.240997341153829
72.304460182411077 109.251308963972448 -78.152359232532220
71.935145577758021 -82.494211075463937 -78.712707875847812
72.571376112550297 109.800115530803978 -80.655645967951031
72.596767257757477 110.560403867667759 -83.269323875327615
71.569167632965204 72.258351212684914 -85.108502592448971
73.394518473052997 60.028892027493697 -85.860184777929533
72.723071341195293 66.904141366675560 -88.562421152616920
73.046013503186472 -65.394828409735339 -88.360334249298148
72.489336734872325 106.238248083870275 -89.157100645509061
71.631763329047274 -58.245284924680703 -91.311072714574635
73.897837505948573 -63.176802941409250 -90.424188767855213
73.118445676012584 -62.306348500017364 -91.394272342649074
71.988520497558895 92.467325484214385 -93.006673614644058
72.804439397828389 103.940128537929482 -92.534698256616338
74.382071126522462 -68.756154018195929 -92.665984353482628
71.548586467452537 54.456386264441200 -92.585982308830850
71.465125208227036 63.902702987152239 -93.423431946376439
72.710066760605301 54.404674133423889 -98.170620289803750
73.234828016428878 63.859534286717391 -100.453246882454124
72.960579834237052 121.658897819002405 -103.260245714311125
73.552818141167975 46.409902562917949 -104.820139996353134
71.648921564294284 -81.082160875745728 -104.516462144976316
72.765593369591883 120.765492496673190 -104.689857234655818
72.327433067737445 60.253350100736299 -105.129574989517735
72.297539905870792 47.777641754453747 -105.757505441115086
73.203755026052747 -76.905106552697703 -106.339507412603666
72.651030691813787 119.018393559118522 -107.500441237727713
74.106060172293155 56.615811598430490 -108.213430028776969
72.857009609751316 -80.818284695769449 -108.055166176864546
73.147146392086796 126.431942620689171 -108.836952030590098
73.051401935213633 120.859729024613941 -111.620810717786867
70.589401093534832 56.774235573947010 -110.982866497295078
73.244845224056803 126.562017088816049 -113.422761609698028
73.107423482884499 52.377569827411165 -114.094755908113555
72.377093175214384 50.902356341036501 -115.160663850799452
73.677336573552083 119.164270722718896 -118.115716013663132
72.222130111336838 43.849031304297256 -119.665249161171602
73.085161853777848 122.327005274251917 -119.397026689801862
72.340491036238930 -43.043950761428881 -121.149843528908434
72.897530784605664 -39.325215435844505 -121.111183679253088
73.057388865687486 121.371791376405724 -121.616184787781918
72.039916079609966 125.405882474220675 -123.415693547386752
73.183696247279514 -65.518411070658416 -125.061835247273137
73.142478947241202 -61.791446666843626 -125.778497800717275
73.399007082371796 128.197342050757698 -125.118167220382816
72.192879544028941 -46.784730991756518 -125.911988382825257
72.856818555659245 -35.860057754762728 -126.004189363985120
72.229508739242263 122.961555622258004 -126.364332234299354
72.177595257354554 49.926802479108581 -128.186543374849975
71.602411347162530 120.818744308361403 -129.043633345435751
73.484897014324972 -47.161112096951030 -129.057164625069845
73.208580098825976 -58.259906430091760 -131.334048772142893
73.072230448527904 126.560280527374374 -133.062647178010110
74.040010014045066 -31.430342869416421 -131.991225427579593
72.335357194131674 -62.354187073699507 -134.424196816576654
71.558135884647456 126.025233677312826 -135.411273951262302
72.593634297488762 -54.625676088782029 -136.475703190975764
72.978686546680322 37.885633585818475 -134.916009214260413
72.930947474972569 -41.621430260425328 -136.563389238046540
74.108695706229668 -60.851592666626757 -137.090860726415031
72.272725319193455 -32.068676991826486 -138.028183707779192
72.091660916195096 123.891338272050646 -139.099652696164526
72.930647532453449 46.066195282124760 -138.242957074813006
72.649272056784127 32.769045084326578 -138.710021246489845
74.781182893201972 122.360326931366131 -138.070218265819847
71.774804598463874 126.899314972149696 -140.150451671287016
72.647478293161313 -55.636096206281948 -141.895513502084071
71.960311663741663 -56.748335713120596 -142.626612590146834
71.777149213819484 21.399609671568903 -143.383565565040669
73.358411811808622 26.011241379928819 -143.283701435107048
73.224070008797824 124.529628269108471 -143.624624451074624
72.852096214943842 -57.378111241145888 -142.846081507594050
72.872881078022971 -51.932334021746890 -144.200321307353818
71.766406130466081 125.163849874657132 -142.866305293183416
72.717024462708622 -40.403186124512892 -145.078224496126921
72.812599238199212 -25.545592878494155 -146.056668097290810
74.575899127454221 32.842498255730447 -146.514090480101288
73.099735309846039 -37.547586574566886 -145.806893526920959
72.549993512870302 32.144618815545215 -147.231081635655016
73.935631074035399 24.314684485779097 -147.427188661808032
72.280865066147470 -51.227568909459926 -147.425168527987097
72.706350100388519 26.919461988943365 -147.663777755108100
73.906960089432999 126.122488408549401 -147.913365520727325
72.210440116624241 125.039432633068628 -147.103177733948854
73.472979800323486 22.655625842036066 -147.788916533392182
73.582248221518967 27.399193960304427 -148.469258315734663
72.872042987631488 -58.008782763139735 -147.671710655461823
72.418772877343443 -25.145579183842877 -147.723221604211545
73.235752517706487 -35.012703958582868 -149.816577313205471
73.014327520817105 33.561214196947589 -149.534614916867952
73.793536665262408 120.737411643340863 -150.583550983985305
72.532636498613002 -34.294620900435469 -150.841738970589404
73.688351400475796 127.917288689481509 -151.870041280717743
74.077256228369365 11.539480164319043 -152.532488500766306
73.307699873229424 124.326708224547716 -153.577240263360636
71.583703522989580 -55.614882081163586 -154.361367755298659
72.369710138695851 -20.199245129350111 -153.300043990311792
73.589176832067736 -49.942405291713925 -153.811950147515432
71.658976840795134 124.286379307985314 -152.399112136128423
72.161012751850507 -30.933236973753871 -154.436019086992019
72.427919182321219 11.462045018103590 -156.682924039544901
72.088526931243209 12.771358909855705 -157.198532219546536
72.799609144167619 -54.255751907800018 -155.404792202962994
72.339542636321610 -52.469323976114381 -157.045815593615941
73.013826359423845 -20.569001840598503 -157.066106327139551
71.784009625580950 40.528641595784890 -156.988602148820718
74.439679210313727 119.316314915093528 -156.769191416145645
71.798888955007826 121.559236985252369 -158.216179864322669
