-161.078979492188 -59.502628326416 -245.815765380859 8.826251029968
-157.854293823242 -66.464454650879 -243.658340454102 2.783591747284
-163.954086303711 -72.336639404297 -246.294036865234 2.080130100250
54.234882354736 -72.331962585449 -246.665237426758 1.850022435188
-96.867790222168 -65.987297058105 -250.891738891602 1.258631587029
-126.160133361816 -64.616073608398 -252.684280395508 2.433116436005
-109.057548522949 -74.356620788574 -249.908218383789 7.740421772003
21.290775299072 -78.899848937988 -257.018249511719 1.470152258873
36.695636749268 -69.402877807617 -251.453781127930 2.099285602570
-102.596824645996 -63.885269165039 -252.532257080078 5.220807552338
-94.883605957031 -61.242256164551 -246.327362060547 7.699516773224
43.082832336426 -80.347961425781 -255.591369628906 9.282930374146
37.944492340088 -70.337333679199 -257.074920654297 1.086553454399
-156.578170776367 -73.444122314453 -254.345672607422 2.492185831070
25.266624450684 -72.948455810547 -260.006866455078 2.248538017273
-146.603347778320 -69.653900146484 -262.802215576172 2.908376693726
-114.807075500488 -67.539741516113 -260.796661376953 1.850939512253
-141.147537231445 -62.587474822998 -259.403900146484 1.136341810226
31.214496612549 -71.569877624512 -262.573638916016 3.163414478302
-128.749618530273 -65.471221923828 -260.100860595703 2.251275777817
-14.051077842712 -68.964385986328 -254.761657714844 2.338207006454
16.636421203613 -77.037513732910 -270.515747070313 3.159779071808
-6.047348022461 -80.185958862305 -262.495513916016 2.718140363693
15.701593399048 -76.214416503906 -279.993408203125 2.127906084061
-158.145309448242 -70.522476196289 -279.668609619141 2.583637952805
-14.887823104858 -68.689132690430 -280.052978515625 4.551390171051
-155.239456176758 -70.950325012207 -278.352966308594 2.578543663025
-124.689682006836 -72.248291015625 -282.511077880859 2.321052789688
-168.333450317383 -74.978248596191 -282.995025634766 1.916431427002
-118.191040039063 -67.519874572754 -284.526977539063 3.919874906540
-106.137870788574 -69.742713928223 -288.478790283203 2.563737392426
-9.897591590881 -69.807800292969 -283.077667236328 1.691697597504
-110.435821533203 -71.390907287598 -285.566711425781 3.749172449112
-120.044387817383 -64.986907958984 -279.892303466797 8.671131134033
-126.994354248047 -63.171951293945 -289.817321777344 2.074515342712
-143.512619018555 -68.003997802734 -287.710845947266 1.372583746910
-130.522018432617 -62.185672760010 -288.357971191406 3.419550657272
-162.351699829102 -73.779876708984 -286.158477783203 2.164073705673
-150.318939208984 -62.239532470703 -288.075622558594 1.937040448189
-164.273818969727 -62.527286529541 -300.910614013672 11.615044593811
-157.981384277344 -64.946800231934 -307.954742431641 5.763993263245
-164.692306518555 -63.019844055176 -298.580505371094 10.462862014771
-141.677474975586 -69.224754333496 -307.262054443359 5.077125072479
-151.975936889648 -71.917816162109 -312.497650146484 1.170405507088
36.137485504150 -66.738121032715 -5.386209011078 6.853037357330
50.240798950195 -73.625518798828 -17.017370223999 3.898342132568
24.139354705811 -65.056617736816 -20.287439346313 2.709337234497
52.083255767822 -68.221992492676 -24.660047531128 3.348953247070
27.885572433472 -69.625320434570 -33.038642883301 1.586950421333
31.592327117920 -67.706115722656 -31.599395751953 2.979805469513
-56.659267425537 -58.425807952881 -47.814643859863 5.262479782104
76.209289550781 -63.136966705322 -58.533550262451 1.498734354973
83.691581726074 -71.528823852539 -67.954597473145 1.669039964676
-89.085098266602 -66.170097351074 -61.484687805176 2.381888389587
-12.714568138123 -62.500324249268 -57.733325958252 2.679276943207
-92.382797241211 -65.178596496582 -70.629905700684 4.029068470001
96.886985778809 -73.950546264648 -66.294769287109 5.440720081329
-10.768574714661 -62.783100128174 -65.805541992188 0.862875282764
67.461776733398 -73.826538085938 -82.247474670410 2.799100160599
-45.373199462891 -70.316917419434 -80.393798828125 3.948959827423
-25.626844406128 -68.758049011230 -71.875144958496 2.870383501053
55.664813995361 -62.268177032471 -86.581008911133 1.801276445389
-42.896179199219 -76.460052490234 -81.505088806152 1.051726341248
65.468391418457 -57.415275573730 -87.675880432129 1.922342538834
51.615463256836 -75.869903564453 -91.364540100098 1.873768210411
56.204524993896 -67.810417175293 -94.538360595703 2.006910800934
56.885967254639 -78.451164245605 -89.734588623047 5.628454685211
55.839424133301 -62.868209838867 -95.328163146973 1.769182085991
98.376815795898 -66.000419616699 -98.813468933105 2.634503126144
107.671783447266 -64.307151794434 -100.628494262695 3.113772630692
60.846775054932 -73.166267395020 -100.783462524414 3.829930782318
108.104476928711 -65.784950256348 -101.428253173828 2.216148853302
-78.439704895020 -63.594211578369 -96.661231994629 5.602280616760
-74.051567077637 -65.555587768555 -101.965156555176 1.680047988892
100.161979675293 -66.274208068848 -98.409393310547 2.206412315369
52.997356414795 -70.884300231934 -100.596336364746 2.357699394226
69.915153503418 -72.559753417969 -96.167190551758 2.093435764313
-71.011589050293 -65.480392456055 -107.938148498535 1.772070288658
-86.276313781738 -62.804969787598 -106.689765930176 2.944330692291
85.204498291016 -75.982009887695 -102.242881774902 3.856850147247
37.860832214355 -72.067848205566 -101.198448181152 4.024333000183
106.503669738770 -66.402580261230 -108.522758483887 1.260939121246
48.480869293213 -73.792373657227 -113.105636596680 0.682907879353
111.028579711914 -72.723487854004 -101.435569763184 1.623874068260
-77.662277221680 -65.483581542969 -110.983306884766 1.472084641457
102.038085937500 -65.115577697754 -109.090843200684 4.374298095703
-82.971725463867 -61.478309631348 -120.196182250977 1.334762215614
-58.819847106934 -69.133277893066 -126.045776367188 1.862258553505
-58.080486297607 -65.671257019043 -121.783378601074 1.182408452034
-71.327522277832 -68.712890625000 -129.049819946289 3.442961215973
-50.861320495605 -68.086212158203 -129.790115356445 1.882098436356
-84.459373474121 -67.323486328125 -132.890350341797 1.596298098564
-77.984649658203 -59.958843231201 -129.423095703125 1.449953079224
-79.188438415527 -66.723724365234 -131.862197875977 1.183103203773
-62.733303070068 -72.642723083496 -140.953918457031 4.364500999451
-70.921936035156 -66.729461669922 -140.169342041016 2.433622360229
-61.649677276611 -73.475578308105 -130.187454223633 3.221537351608
-57.079559326172 -66.002708435059 -141.791061401367 2.108014106750
10.217000961304 -63.242893218994 -145.551330566406 4.955459117889
-92.194259643555 -66.590866088867 -137.918807983398 0.842838823795
-49.949520111084 -74.063667297363 -148.337188720703 2.697077751160
-94.547416687012 -63.576274871826 -148.118850708008 2.060397386551
-102.940719604492 -60.897670745850 -144.655609130859 6.138731002808
19.660869598389 -72.916831970215 -154.437744140625 1.910025954247
14.150850296021 -71.059516906738 -158.483337402344 1.562662601471
-95.942146301270 -69.282020568848 -159.078002929688 1.676370263100
-105.379623413086 -66.116729736328 -148.159729003906 6.103473186493
-100.314300537109 -63.743900299072 -165.223144531250 4.225920677185
20.074966430664 -69.399101257324 -169.944412231445 2.042145729065
-114.048332214355 -65.074806213379 -171.613327026367 4.778233051300
24.775764465332 -69.553161621094 -163.245544433594 2.238833427429
-149.386901855469 -64.684020996094 -174.404693603516 1.578376293182
16.995077133179 -69.119812011719 -175.038604736328 0.651541233063
23.911027908325 -71.966049194336 -185.312637329102 2.420626640320
-152.753036499023 -62.052280426025 -183.093292236328 1.688180804253
19.483362197876 -72.620864868164 -173.212081909180 1.913760066032
18.111371994019 -60.468589782715 -181.125762939453 6.273900985718
-147.627593994141 -69.479644775391 -178.981079101563 3.230433702469
-153.185882568359 -59.530555725098 -187.080215454102 4.819709777832
18.213497161865 -71.421752929688 -186.404464721680 2.816044569016
17.059103012085 -74.814163208008 -189.464797973633 0.726676762104
-142.905181884766 -68.010482788086 -191.971145629883 1.294002175331
-111.484497070313 -66.453926086426 -195.325988769531 1.681286096573
25.609226226807 -71.321205139160 -199.142593383789 3.826540470123
-127.377563476563 -66.509666442871 -192.227127075195 3.967674255371
7.070691108704 -74.434516906738 -200.565948486328 2.202432632446
-129.244613647461 -56.616794586182 -191.518875122070 8.805485725403
-165.010101318359 -60.716777801514 -184.503906250000 13.561444282532
-161.289352416992 -61.838867187500 -193.423950195313 5.839030265808
-157.257736206055 -67.296333312988 -189.149337768555 4.022746086121
-23.823486328125 -70.483757019043 -207.473052978516 3.511712551117
-171.332214355469 -67.074317932129 -195.764343261719 7.544948101044
-30.052110671997 -63.059288024902 -191.845336914063 5.657006263733
-17.601556777954 -71.086578369141 -191.087219238281 2.129048824310
3.622334003448 -62.174961090088 -195.410095214844 8.730138778687
-158.090881347656 -65.821784973145 -205.146011352539 3.431671619415
-107.454490661621 -63.988632202148 -200.914886474609 2.409481287003
-17.800003051758 -64.545249938965 -197.225204467773 3.275397062302
-163.393295288086 -55.749317169189 -198.059646606445 9.812994956970
15.966700553894 -71.921150207520 -201.912857055664 2.660580873489
-174.050476074219 -60.997283935547 -203.775695800781 9.533326148987
-121.001243591309 -68.569519042969 -199.678863525391 2.606445312500
-118.031433105469 -62.409351348877 -207.668090820313 4.778864860535
-124.360816955566 -65.610061645508 -200.964065551758 2.141453027725
-18.281497955322 -67.667655944824 -200.787048339844 1.386601448059
-22.033111572266 -70.612953186035 -201.636947631836 1.909396290779
-165.822738647461 -63.844478607178 -209.336776733398 3.108349800110
-161.333496093750 -61.101627349854 -208.320312500000 5.630034446716
-166.748565673828 -65.481674194336 -216.467330932617 3.192053318024
-140.383605957031 -68.824287414551 -210.708435058594 3.691071748734
-147.636444091797 -63.957622528076 -222.866424560547 1.066075325012
-2.046024084091 -67.956207275391 -217.375320434570 1.964494466782
-10.728475570679 -77.421485900879 -215.774505615234 1.940961956978
-103.409210205078 -63.266777038574 -218.101486206055 5.734292030334
-10.313664436340 -67.824264526367 -235.762786865234 2.404823064804
-171.975280761719 -60.117435455322 -228.747146606445 7.768017768860
-105.950866699219 -64.185424804688 -232.859817504883 4.594746112823
0.628872990608 -71.324462890625 -225.413757324219 0.906951069832
-0.626644015312 -70.058227539063 -228.074142456055 0.655460655689
-114.177932739258 -66.238578796387 -232.009552001953 0.801972985268
-3.836613893509 -72.341911315918 -225.179611206055 3.017360448837
-121.212417602539 -61.611888885498 -231.554214477539 3.730982303619
-10.416400909424 -65.448600769043 -229.648925781250 2.307297945023
-3.642433881760 -69.049285888672 -233.931304931641 1.776485800743
-5.376354217529 -69.085258483887 -238.613616943359 1.974999427795
70.824775695801 -68.023246765137 -236.638931274414 1.320030927658
-11.230415344238 -74.263870239258 -236.406936645508 2.011034488678
9.383359909058 -72.013847351074 -234.192977905273 1.655403137207
9.129364967346 -70.042625427246 -236.019470214844 0.939373254776
2.554173946381 -72.958427429199 -237.517959594727 2.718784570694
2.755029916763 -73.613243103027 -240.897857666016 1.132973194122
60.409481048584 -65.662742614746 -239.980972290039 2.589550495148
66.606712341309 -66.864852905273 -240.741073608398 2.435971498489
3.131865978241 -69.878211975098 -248.654754638672 4.899952411652
47.943511962891 -75.196044921875 -242.183471679688 4.929145812988
52.469268798828 -78.710266113281 -239.462539672852 6.765079975128
44.569595336914 -66.728668212891 -251.650283813477 2.283683300018
40.661388397217 -67.455268859863 -251.325546264648 1.230082154274
38.257133483887 -70.793067932129 -259.490600585938 1.688387274742
-131.302917480469 -58.480449676514 -258.743255615234 6.210870265961
-10.336251258850 -68.986137390137 -245.124755859375 1.498964667320
29.294576644897 -68.862983703613 -256.500213623047 1.176295995712
40.511875152588 -70.008316040039 -243.528244018555 6.088205337524
27.985235214233 -75.934486389160 -251.136444091797 6.245892524719
-107.511901855469 -70.819465637207 -257.826538085938 2.457484245300
26.694637298584 -73.735107421875 -254.979568481445 4.225946426392
-146.622894287109 -68.427642822266 -259.778564453125 1.687025547028
-119.422637939453 -70.612434387207 -252.970809936523 4.049482822418
-114.686614990234 -67.147369384766 -256.572357177734 1.424572229385
-3.406265020370 -75.371665954590 -257.411773681641 6.862421035767
-155.580429077148 -66.951354980469 -254.158477783203 2.257188320160
35.406711578369 -73.192016601563 -262.974975585938 5.574930667877
-109.350608825684 -65.230079650879 -252.843750000000 4.523664474487
22.652212142944 -78.494590759277 -257.352569580078 2.641050815582
-137.313247680664 -70.938674926758 -263.176422119141 2.623631715775
-119.490028381348 -66.422760009766 -265.390472412109 2.277259588242
-114.614906311035 -66.625488281250 -260.955993652344 1.427463889122
-116.192466735840 -76.424057006836 -258.251037597656 2.953466176987
-145.286026000977 -68.461807250977 -250.733123779297 1.925505757332
27.536609649658 -72.865882873535 -257.329956054688 3.403254032135
-119.169357299805 -64.118789672852 -259.760650634766 2.952601909637
-147.677459716797 -67.583854675293 -260.817352294922 1.726348757744
-7.515009880066 -67.580123901367 -269.212921142578 1.129176259041
-152.225860595703 -69.052383422852 -276.627777099609 3.097709655762
-12.314564704895 -72.699462890625 -289.415008544922 1.715013623238
-8.421787261963 -68.218872070313 -279.077453613281 1.747147798538
-137.342178344727 -65.867607116699 -287.832580566406 2.665493011475
-133.476165771484 -67.559982299805 -290.707519531250 1.144448161125
-138.442062377930 -65.543449401855 -293.096160888672 3.117522001266
-129.682403564453 -62.962677001953 -286.385559082031 2.732175111771
-159.513610839844 -65.431030273438 -291.343139648438 3.872433185577
-162.060073852539 -67.014648437500 -296.729766845703 5.831606864929
-152.101516723633 -71.600357055664 -299.115386962891 1.548244595528
-152.225051879883 -69.556434631348 -302.768035888672 1.818653106689
-147.917678833008 -65.707519531250 -294.577301025391 1.620859265327
-154.689559936523 -66.073165893555 -304.325836181641 3.486319065094
-148.400161743164 -63.117023468018 -314.863159179688 4.361093044281
19.706670761108 -68.836822509766 -23.880161285400 2.131345987320
51.685710906982 -70.931427001953 -36.102481842041 1.659389257431
24.079051971436 -74.084701538086 -34.589424133301 2.905616044998
32.149333953857 -66.288185119629 -43.708412170410 2.419669389725
-40.516056060791 -55.166748046875 -47.632881164551 1.133760094643
-73.119422912598 -57.723766326904 -48.181640625000 3.703055381775
80.178062438965 -68.790512084961 -60.905838012695 2.714156866074
73.346511840820 -69.841331481934 -60.788681030273 4.096590518951
73.136459350586 -72.215232849121 -63.378746032715 5.210412025452
-101.578109741211 -62.355968475342 -68.754348754883 3.198024988174
97.822387695313 -75.770347595215 -74.939033508301 3.316855907440
-26.939075469971 -68.772979736328 -85.209365844727 7.583889007568
60.789096832275 -65.598937988281 -73.797889709473 4.533599376678
-41.519172668457 -60.012912750244 -82.961524963379 3.072684049606
-56.986377716064 -61.905334472656 -78.988945007324 1.856015324593
51.729877471924 -68.499862670898 -89.804275512695 1.396521091461
102.298622131348 -67.406181335449 -90.653625488281 1.149143934250
62.295928955078 -66.559944152832 -91.440635681152 2.040126085281
55.611808776855 -66.577713012695 -89.926368713379 2.476801156998
47.352619171143 -64.004974365234 -101.799011230469 2.664761781693
55.773242950439 -64.093368530273 -102.544998168945 3.761821269989
101.974098205566 -67.958465576172 -97.430953979492 1.161700129509
68.063629150391 -68.730232238770 -108.209449768066 5.805900096893
52.541362762451 -69.122161865234 -105.451004028320 2.252213001251
74.516059875488 -77.083274841309 -107.320198059082 7.937114238739
100.322052001953 -65.909393310547 -107.186111450195 4.037750244141
-73.503730773926 -60.138301849365 -95.599853515625 2.891802549362
-86.877182006836 -63.489761352539 -107.998542785645 3.594247817993
-82.274551391602 -64.312561035156 -109.659393310547 1.384868860245
-61.375011444092 -65.099052429199 -117.218307495117 1.333751678467
-58.229251861572 -69.796974182129 -124.757347106934 2.117160797119
-95.349258422852 -62.678398132324 -119.099411010742 3.721570491791
-73.978477478027 -67.896202087402 -116.582382202148 2.271348237991
-78.106742858887 -69.354637145996 -131.184814453125 0.473795861006
-60.806255340576 -60.525043487549 -125.625556945801 3.326499938965
-88.314140319824 -59.511634826660 -128.774490356445 4.394846916199
-90.511322021484 -62.253601074219 -129.197402954102 3.951958179474
-49.607563018799 -69.054008483887 -133.138275146484 1.714582920074
-51.257179260254 -68.178688049316 -136.179321289063 1.887833714485
-78.915443420410 -69.415885925293 -136.081466674805 2.028455972672
-56.107383728027 -68.758407592773 -139.403060913086 2.616057872772
-74.348815917969 -71.137191772461 -143.710464477539 1.042271494865
17.781511306763 -65.337013244629 -138.848281860352 3.162056207657
-59.352676391602 -71.504158020020 -141.910003662109 1.941328048706
-57.016033172607 -61.345565795898 -144.833770751953 4.977521419525
7.497117996216 -73.607559204102 -154.091873168945 1.505088210106
16.819467544556 -66.785896301270 -149.589340209961 2.117191076279
-142.324615478516 -64.835304260254 -170.110305786133 4.883755207062
-111.185073852539 -62.271160125732 -175.241912841797 1.755013108253
-113.390235900879 -59.887111663818 -188.356948852539 5.526883125305
-154.889862060547 -66.122047424316 -186.569015502930 2.490042448044
-114.797767639160 -63.997753143311 -184.066848754883 3.739034652710
-152.301040649414 -57.469860076904 -194.337295532227 3.830626010895
-115.805335998535 -64.052124023438 -196.969482421875 0.994033396244
-152.820190429688 -59.532791137695 -198.886718750000 0.786942720413
-150.826934814453 -63.089050292969 -204.162353515625 2.281925916672
-156.042739868164 -69.681182861328 -201.113357543945 2.073841333389
-151.697113037109 -64.340942382813 -222.235702514648 2.417070150375
-150.690048217773 -68.290321350098 -224.110275268555 1.241873145103
-107.265556335449 -61.936470031738 -227.388351440430 3.573888778687
-100.866577148438 -66.162704467773 -217.636840820313 3.620153188705
-124.546401977539 -58.913196563721 -230.899002075195 5.262953281403
-108.522270202637 -66.244949340820 -222.866928100586 0.979604661465
-159.598419189453 -64.336433410645 -227.883743286133 3.071771383286
-5.418371200562 -68.879608154297 -222.703582763672 1.758436203003
-134.829223632813 -69.816032409668 -226.844604492188 1.834956169128
-155.767288208008 -64.754310607910 -232.966537475586 2.014952659607
-142.023178100586 -69.511512756348 -229.232528686523 3.602977514267
-12.051999092102 -67.157836914063 -231.841934204102 2.082593917847
6.804131031036 -70.102714538574 -243.675521850586 1.926103591919
60.895385742188 -64.879684448242 -239.606201171875 3.247857332230
15.168395996094 -76.243492126465 -248.910430908203 1.748624563217
51.072528839111 -71.463768005371 -240.925369262695 2.271264791489
37.707042694092 -75.298477172852 -249.051528930664 6.134051322937
61.086257934570 -67.412689208984 -252.807174682617 5.186267852783
-156.008438110352 -64.861267089844 -245.248718261719 4.815308094025
-148.450531005859 -69.479949951172 -252.139892578125 2.393757581711
41.898357391357 -70.169860839844 -255.499603271484 1.491044878960
24.588596343994 -71.438957214355 -252.619018554688 1.891803264618
46.679237365723 -67.234100341797 -253.811050415039 1.151541948318
-148.028640747070 -68.894554138184 -261.788238525391 1.377569079399
-140.697387695313 -63.710098266602 -251.491058349609 3.731761455536
-125.869720458984 -62.990776062012 -257.593841552734 2.544108867645
-135.201248168945 -65.199905395508 -253.241455078125 3.173385381699
-141.895401000977 -67.042213439941 -255.533096313477 1.065794706345
-125.062759399414 -65.092193603516 -257.734466552734 1.628044366837
-145.646957397461 -62.799961090088 -257.425598144531 1.491347432137
-130.355331420898 -69.431465148926 -254.664779663086 0.728564023972
-121.458236694336 -68.002372741699 -263.031585693359 3.349631547928
-132.517730712891 -66.316322326660 -263.108398437500 2.125788211823
-125.528747558594 -61.375549316406 -261.952819824219 3.031515836716
-7.691390037537 -70.955894470215 -265.623413085938 4.128489017487
27.850248336792 -65.975776672363 -260.254882812500 1.402001261711
-147.649978637695 -57.830028533936 -265.198272705078 3.872915267944
23.556779861450 -73.862167358398 -271.316162109375 2.921404361725
-9.159270286560 -62.846248626709 -276.377197265625 4.857841968536
14.706181526184 -78.714859008789 -281.748443603516 2.890457391739
-143.610763549805 -66.818305969238 -286.998382568359 1.824151039124
-127.155853271484 -70.302436828613 -284.363342285156 1.608446002007
-132.575637817383 -60.487827301025 -288.500915527344 4.627126693726
-163.008544921875 -59.930675506592 -290.677429199219 8.481483459473
-129.691528320313 -59.600662231445 -287.181365966797 5.542603969574
-120.736236572266 -64.703849792480 -286.432647705078 3.451776504517
-127.120674133301 -70.970199584961 -296.071563720703 2.195153951645
-156.159622192383 -69.856224060059 -288.069488525391 0.917580664158
30.178195953369 -69.208763122559 -9.874406814575 2.685105800629
28.515258789063 -70.396324157715 -16.944961547852 1.406538844109
37.679176330566 -63.850437164307 -21.104270935059 3.028817892075
47.803394317627 -61.029529571533 -22.530771255493 1.955642461777
29.603540420532 -72.692176818848 -27.027462005615 3.722500085831
18.411045074463 -69.018486022949 -31.951911926270 2.525963306427
-33.227500915527 -66.663673400879 -43.551349639893 4.764259338379
-80.250785827637 -65.719306945801 -51.867267608643 3.125769615173
-17.536302566528 -65.073226928711 -58.558544158936 2.757835149765
74.859054565430 -65.612152099609 -64.227195739746 2.549396038055
104.856803894043 -68.312416076660 -68.823524475098 5.022348403931
64.261268615723 -64.500297546387 -83.952682495117 2.005053758621
60.814605712891 -61.361984252930 -84.481040954590 2.426571369171
96.201606750488 -70.728378295898 -84.555679321289 3.148597478867
-65.000930786133 -60.529476165771 -89.647926330566 2.108806371689
-66.949028015137 -64.272254943848 -86.974052429199 5.042524337769
51.527713775635 -63.982551574707 -90.650154113770 1.131439328194
-68.837242126465 -68.043334960938 -94.011383056641 5.015360355377
-74.407669067383 -63.197669982910 -100.554161071777 2.213114023209
-94.765342712402 -63.565090179443 -101.393280029297 3.609587192535
-76.709777832031 -57.896484375000 -97.201576232910 4.906996250153
46.603385925293 -62.398197174072 -102.076538085938 3.854675054550
-65.205558776855 -67.459114074707 -101.669700622559 2.523262739182
46.545597076416 -64.923744201660 -104.411727905273 2.046824216843
94.549057006836 -68.017852783203 -105.034416198730 2.088775634766
88.248107910156 -69.842361450195 -114.784149169922 8.345812797546
-71.641250610352 -63.301097869873 -114.502204895020 3.393778085709
-88.608634948730 -65.648666381836 -109.867866516113 3.183485031128
-62.736270904541 -63.839138031006 -117.085098266602 1.422553181648
-96.007438659668 -56.923713684082 -116.229728698730 3.549817562103
-76.956085205078 -67.230224609375 -125.295013427734 1.091452479362
-94.844345092773 -53.657497406006 -125.698143005371 4.237324714661
-65.302299499512 -62.788364410400 -114.594718933105 1.055031180382
-60.818904876709 -56.614234924316 -120.791923522949 1.479090571404
-91.704338073730 -66.067588806152 -128.911605834961 2.342134952545
-64.985641479492 -67.647270202637 -124.237907409668 2.404927968979
-84.648529052734 -62.665840148926 -132.145629882813 2.528919458389
-86.610473632813 -64.237525939941 -133.490570068359 1.818879485130
-61.806701660156 -71.425331115723 -136.083938598633 2.185391187668
-60.837745666504 -60.382720947266 -132.095794677734 1.475759983063
-56.056419372559 -56.054904937744 -131.415161132813 2.483150482178
-101.376213073730 -58.865257263184 -128.448776245117 8.089673995972
-98.528869628906 -57.522441864014 -143.210708618164 7.344616413116
-93.217285156250 -63.577144622803 -134.912200927734 2.981346845627
17.220859527588 -71.027626037598 -150.778045654297 1.467743396759
-51.544033050537 -65.910163879395 -138.022933959961 1.362022161484
19.432359695435 -68.675872802734 -151.411483764648 1.733700275421
-99.248748779297 -65.129516601563 -164.035308837891 2.559388875961
-105.064155578613 -71.170715332031 -168.200988769531 2.793512582779
-103.690803527832 -59.059032440186 -169.183837890625 3.743026494980
-109.856986999512 -54.731193542480 -173.733978271484 8.215990066528
-111.225257873535 -64.364295959473 -176.066406250000 2.063729524612
-111.978973388672 -63.376487731934 -177.202392578125 2.610619544983
-144.116958618164 -59.184223175049 -183.822341918945 1.842761516571
-112.819717407227 -62.371936798096 -183.282455444336 4.038608074188
-135.945358276367 -59.855552673340 -200.595199584961 4.407288074493
-153.324630737305 -66.114196777344 -195.815994262695 1.792317509651
-131.632583618164 -63.968158721924 -196.336318969727 1.284088611603
-160.782852172852 -65.049613952637 -192.069534301758 4.903418540955
-149.083908081055 -68.251724243164 -199.968597412109 1.865215539932
-128.906799316406 -56.065601348877 -194.133224487305 7.506724834442
-136.455841064453 -60.218757629395 -196.718856811523 4.795909404755
-140.589965820313 -71.559097290039 -204.148147583008 2.230633020401
-132.229064941406 -66.220535278320 -220.072692871094 4.815931797028
-110.140991210938 -68.414817810059 -229.038909912109 2.631267309189
-143.256286621094 -64.469894409180 -224.468139648438 1.657016515732
-122.982635498047 -62.753231048584 -230.737670898438 2.934261083603
-119.210472106934 -57.512985229492 -228.545318603516 7.599780559540
-122.991523742676 -66.628684997559 -229.685836791992 2.070518493652
-136.723251342773 -63.040157318115 -231.399566650391 2.107241630554
-116.720130920410 -60.390388488770 -237.507995605469 6.348999023438
3.776731014252 -67.693061828613 -236.175659179688 1.229821085930
-155.187942504883 -65.988433837891 -237.070281982422 2.024849891663
3.406794071198 -69.022331237793 -236.690216064453 1.227570056915
1.033395051956 -63.603919982910 -245.054534912109 3.221305131912
0.202186003327 -72.259727478027 -242.339874267578 1.568687915802
10.367938995361 -65.493743896484 -240.623229980469 0.802258908749
-144.738220214844 -59.786251068115 -232.226898193359 2.143903493881
-8.948528289795 -72.300674438477 -248.188674926758 1.489912509918
17.045415878296 -69.402420043945 -237.841049194336 1.468819856644
49.986541748047 -68.119720458984 -250.840835571289 1.634111166000
48.279743194580 -68.728507995605 -252.213134765625 1.452811241150
-149.215911865234 -66.519111633301 -249.877868652344 2.293740510941
-7.371798992157 -71.082626342773 -249.729293823242 3.610885620117
17.586734771729 -71.088317871094 -253.011947631836 3.065654516220
-132.720733642578 -56.620273590088 -255.561294555664 8.122504234314
-123.514457702637 -63.425666809082 -253.717330932617 3.683830499649
-125.707901000977 -68.072532653809 -255.933792114258 1.977527260780
24.985700607300 -69.279975891113 -256.733398437500 1.931467652321
-135.497940063477 -59.708923339844 -265.040649414063 6.000138759613
32.296710968018 -66.965126037598 -258.340698242188 0.800046086311
32.612594604492 -69.899940490723 -262.499237060547 3.033884525299
-157.273864746094 -66.499526977539 -266.116851806641 3.048859834671
-148.299224853516 -71.326911926270 -283.343383789063 1.569722414017
-150.418411254883 -58.619365692139 -284.654571533203 4.445487976074
-147.063903808594 -63.196979522705 -294.316345214844 1.039565443993
12.754235267639 -74.364555358887 -291.453887939453 2.544532299042
-157.430328369141 -62.337902069092 -303.410766601563 6.782761573792
47.514343261719 -70.183433532715 -25.636480331421 2.188977241516
36.133026123047 -72.588600158691 -38.943904876709 1.325441837311
-57.628002166748 -57.730491638184 -45.908916473389 3.249630689621
-70.738021850586 -58.816387176514 -46.332912445068 3.188491344452
-26.173627853394 -59.203411102295 -50.441078186035 3.300987720490
-23.457996368408 -68.293136596680 -53.755199432373 3.028739452362
-8.558761596680 -60.241447448730 -66.576789855957 3.490593194962
-28.710021972656 -58.121971130371 -69.760368347168 3.614992141724
63.941074371338 -67.285949707031 -75.141319274902 2.480211257935
-95.475250244141 -53.544227600098 -78.352783203125 5.222170829773
-45.948810577393 -64.368537902832 -87.673835754395 4.308497428894
53.983028411865 -68.875114440918 -85.784233093262 1.828831553459
61.374568939209 -67.815399169922 -85.047805786133 0.962143719196
58.874984741211 -68.054458618164 -88.079017639160 3.000732421875
107.426399230957 -67.523490905762 -90.971916198730 2.631751060486
52.107772827148 -64.523765563965 -87.964981079102 3.113349437714
97.409561157227 -59.120452880859 -100.241172790527 3.897048711777
-85.175491333008 -65.125892639160 -103.079940795898 3.291144132614
-91.132751464844 -61.090488433838 -98.959495544434 7.760961055756
73.168968200684 -63.116111755371 -114.988502502441 5.730771064758
-80.066177368164 -63.491531372070 -102.765319824219 2.163574218750
-78.640937805176 -68.700157165527 -109.937347412109 0.951629281044
-85.801193237305 -71.509361267090 -118.154846191406 1.710386872292
-56.304450988770 -65.306755065918 -125.005912780762 0.562768101692
-76.802619934082 -62.168197631836 -128.502166748047 1.832833290100
-64.720726013184 -57.445495605469 -126.399299621582 0.983539283276
-88.828620910645 -65.191276550293 -134.834091186523 2.284600019455
-77.706298828125 -61.569797515869 -131.700592041016 2.109819412231
-80.086830139160 -61.510326385498 -123.861938476563 1.251158237457
-91.540664672852 -61.077690124512 -127.792114257813 4.504715442657
-69.237648010254 -59.615947723389 -134.958343505859 7.042029380798
-91.624511718750 -63.701461791992 -129.416351318359 3.967759847641
-51.882122039795 -67.157821655273 -130.996826171875 0.878583848476
-56.165718078613 -71.545928955078 -137.739608764648 1.678629398346
26.841117858887 -66.849403381348 -142.674880981445 1.412607550621
-56.561386108398 -56.191082000732 -134.879165649414 3.352020502090
14.266739845276 -72.910530090332 -141.556900024414 6.196551322937
11.868601799011 -63.748973846436 -146.721740722656 2.933155059814
16.173456192017 -61.615726470947 -154.565826416016 2.954365968704
-100.429672241211 -60.882499694824 -144.024978637695 5.392397880554
-90.399772644043 -63.059921264648 -146.624511718750 1.835174560547
-98.077667236328 -58.919696807861 -148.285339355469 4.082145690918
-108.443710327148 -63.594406127930 -163.290695190430 3.884426355362
-100.304313659668 -60.921783447266 -158.938476562500 2.370357751846
-154.210617065430 -57.154396057129 -173.914581298828 6.516798496246
-155.824249267578 -61.217773437500 -172.948852539063 5.187281131744
-116.258522033691 -59.811183929443 -180.483352661133 6.987696647644
-142.302658081055 -60.014225006104 -174.608169555664 3.886921644211
-111.293113708496 -58.416618347168 -181.100387573242 3.783431291580
-148.814468383789 -51.362140655518 -185.336685180664 10.373872756958
-113.037490844727 -58.386440277100 -188.335968017578 6.292879581451
-112.985572814941 -64.903350830078 -178.236892700195 3.483954668045
-148.699813842773 -61.178131103516 -199.027587890625 1.411775112152
-128.774429321289 -64.852462768555 -194.803268432617 3.201976299286
-106.973793029785 -63.848209381104 -196.033050537109 2.116508245468
-117.963409423828 -54.886993408203 -196.392013549805 8.017253875732
-115.913627624512 -65.681457519531 -198.428497314453 1.439980983734
-118.893783569336 -56.261386871338 -200.933700561523 7.091278076172
-136.169296264648 -58.937549591064 -194.061645507813 5.747271060944
-144.800521850586 -62.338119506836 -201.654571533203 1.731155395508
-131.291854858398 -60.428302764893 -208.120971679688 3.309604644775
-131.412582397461 -55.758148193359 -197.766815185547 5.559370994568
-123.350463867188 -59.867668151855 -202.908325195313 3.589113235474
-112.723052978516 -62.598651885986 -203.636627197266 3.643607139587
-152.109924316406 -60.384185791016 -209.705703735352 3.461503982544
-155.675918579102 -60.806514739990 -214.891769409180 5.635864257813
-155.621063232422 -62.224540710449 -218.661376953125 5.394358158112
-140.990097045898 -68.623191833496 -222.433761596680 1.194495081902
-133.515838623047 -56.637546539307 -226.071929931641 7.601898670197
-122.064476013184 -65.608261108398 -214.139022827148 9.129773139954
-142.645599365234 -65.705520629883 -228.178375244141 0.791242837906
-154.691284179688 -63.748031616211 -221.220428466797 3.863917112350
-135.490036010742 -64.247955322266 -223.432296752930 4.026470661163
-135.680587768555 -58.886253356934 -225.880081176758 5.899567127228
-149.113540649414 -60.331275939941 -225.810958862305 0.384163141251
-138.309951782227 -53.054599761963 -225.403152465820 8.785673141479
-132.186767578125 -62.223411560059 -230.794052124023 2.185569286346
-16.243406295776 -68.994613647461 -236.298339843750 2.274452447891
3.122719049454 -65.948822021484 -241.945205688477 2.816434144974
12.270395278931 -60.594917297363 -243.542785644531 1.601277589798
6.575599193573 -71.378684997559 -242.802566528320 1.374228596687
-9.599723815918 -71.177108764648 -235.466735839844 2.033976554871
-16.612173080444 -67.955490112305 -245.518157958984 3.570553064346
31.801746368408 -66.721313476563 -248.283294677734 6.854216575623
43.637908935547 -68.188476562500 -254.285934448242 2.254369735718
-150.446945190430 -62.068111419678 -251.397552490234 1.233703970909
40.200119018555 -66.129196166992 -253.918441772461 1.452824711800
38.128654479980 -71.091247558594 -253.434738159180 1.685600399971
-163.579788208008 -69.086441040039 -252.832244873047 1.546216726303
-152.885589599609 -63.682006835938 -253.431869506836 0.769515335560
-156.349517822266 -65.168563842773 -255.711608886719 1.567945599556
0.292692005634 -70.537055969238 -262.054199218750 4.726092815399
-153.542831420898 -64.759826660156 -265.276031494141 0.968411505222
-3.972556114197 -68.755500793457 -272.963287353516 1.967287063599
-148.672424316406 -67.832046508789 -273.012695312500 3.129088878632
-151.095916748047 -64.791625976563 -278.030426025391 2.927907466888
-153.918670654297 -63.725872039795 -285.175689697266 1.402720212936
-152.655181884766 -51.890869140625 -280.378479003906 10.790369033813
-149.315078735352 -61.292980194092 -291.573242187500 2.627742528915
-157.786056518555 -62.518535614014 -281.911956787109 4.680257797241
-154.496215820313 -64.912635803223 -283.642700195313 0.893856227398
-156.674972534180 -58.819232940674 -285.944702148438 4.777072429657
-151.646545410156 -63.134075164795 -286.603332519531 0.775563359261
-147.520782470703 -63.966545104980 -284.182800292969 1.565091252327
6.465907096863 -70.909187316895 -280.594940185547 7.433959960938
-149.400314331055 -62.960727691650 -294.413055419922 0.860095739365
-161.804595947266 -57.513111114502 -290.774902343750 8.850983619690
-160.902450561523 -55.475879669189 -285.242919921875 9.495139122009
-152.368423461914 -60.577251434326 -290.192749023438 1.864017248154
-149.980499267578 -53.979774475098 -284.658386230469 8.514344215393
-150.370346069336 -67.054519653320 -289.739044189453 1.099073410034
4.517996788025 -71.527107238770 -291.587005615234 0.171438559890
-146.647033691406 -59.515037536621 -292.643707275391 3.943880081177
-151.329193115234 -58.754222869873 -289.900787353516 3.441797733307
30.176208496094 -56.640388488770 -13.368479728699 2.776377439499
43.476345062256 -69.650787353516 -21.418590545654 1.447759985924
43.175460815430 -60.802234649658 -20.860399246216 1.499343037605
15.207307815552 -67.371406555176 -31.416116714478 5.906670570374
24.165739059448 -52.391448974609 -34.956787109375 2.124640941620
36.153900146484 -62.014125823975 -36.421237945557 1.413714528084
-54.774257659912 -59.759811401367 -44.571777343750 1.791911005974
-49.973667144775 -60.822120666504 -38.966445922852 5.306895256042
90.978202819824 -66.447494506836 -67.643455505371 3.884307384491
-94.922485351563 -57.822967529297 -63.652790069580 3.743916511536
97.400947570801 -78.736412048340 -60.268497467041 12.649042129517
68.433822631836 -69.113929748535 -72.537925720215 2.188141107559
97.699966430664 -69.718826293945 -79.727256774902 3.804168939590
61.817550659180 -72.967819213867 -76.651519775391 6.435280799866
-42.917644500732 -61.909824371338 -76.361038208008 2.479655265808
58.798130035400 -63.198093414307 -82.182182312012 2.261180639267
-48.968658447266 -58.223876953125 -75.024032592773 2.084920167923
53.615539550781 -65.411773681641 -82.655555725098 4.033982753754
63.184913635254 -61.125984191895 -87.304817199707 1.873720169067
-98.678825378418 -59.310108184814 -82.927482604980 1.594243168831
51.224967956543 -63.098522186279 -82.963523864746 5.613306522369
50.952957153320 -72.669265747070 -93.119361877441 1.421947836876
65.459373474121 -67.107406616211 -91.663703918457 1.904635190964
51.512283325195 -65.065795898438 -96.851608276367 1.991523385048
-80.678207397461 -59.083572387695 -105.389480590820 3.223119735718
81.637550354004 -72.331993103027 -106.635551452637 3.048149347305
-85.362380981445 -67.005897521973 -119.419189453125 1.214846253395
-78.157363891602 -58.809028625488 -102.429634094238 2.733845710754
-80.540672302246 -62.841857910156 -122.791404724121 1.896522998810
-85.200843811035 -59.484157562256 -115.593284606934 0.231922417879
-96.920028686523 -54.799980163574 -118.000862121582 2.060580253601
-83.049697875977 -62.757408142090 -118.186439514160 1.388446927071
-50.662239074707 -61.129783630371 -122.535400390625 3.659126281738
-79.300849914551 -58.350265502930 -134.198471069336 5.858166694641
-57.786132812500 -56.207454681396 -126.699882507324 1.874511003494
-89.633506774902 -57.623645782471 -135.828186035156 5.349590778351
28.717517852783 -64.859489440918 -137.831314086914 0.760525465012
18.197719573975 -65.239913940430 -140.853103637695 2.062607288361
-95.789337158203 -48.062541961670 -143.856567382813 14.953150749207
21.583608627319 -68.590003967285 -147.694198608398 2.596576929092
-90.784126281738 -65.611839294434 -145.883911132813 1.077716946602
-95.593864440918 -55.186157226563 -146.070175170898 7.744000434875
16.526550292969 -66.545989990234 -163.708206176758 5.549270629883
-97.509689331055 -60.227390289307 -147.081970214844 2.961138725281
-100.742515563965 -58.296497344971 -144.052902221680 7.217947959900
-106.023948669434 -59.993598937988 -152.704101562500 7.472420692444
-94.698944091797 -61.658515930176 -161.250518798828 3.734649896622
-104.294876098633 -65.890289306641 -179.490219116211 2.451486349106
-112.630706787109 -70.092811584473 -167.744842529297 6.145023822784
-97.577758789063 -63.367450714111 -163.581054687500 2.385334253311
-105.896629333496 -63.057765960693 -164.859329223633 2.243624448776
-141.538375854492 -61.272014617920 -177.000595092773 1.547066211700
-113.867675781250 -61.180118560791 -175.424148559570 4.235025882721
-141.044464111328 -60.718540191650 -185.533569335938 4.149667263031
-149.949356079102 -55.124088287354 -189.350845336914 7.866502285004
-157.199066162109 -52.692668914795 -184.156799316406 11.634585380554
-122.830406188965 -57.779319763184 -194.661193847656 4.461742877960
-129.405822753906 -66.494331359863 -190.299499511719 4.743082046509
-123.714996337891 -57.888099670410 -199.767974853516 4.159046649933
-147.008331298828 -63.290306091309 -198.634460449219 1.517636895180
-124.940910339355 -66.120773315430 -201.093109130859 2.918447971344
-149.248275756836 -60.627563476563 -200.162841796875 1.034483194351
-154.577987670898 -59.403301239014 -202.558776855469 0.998684525490
-156.305282592773 -58.453086853027 -223.712768554688 4.814446449280
-146.446350097656 -68.459075927734 -229.065322875977 1.377008438110
-130.986434936523 -57.948928833008 -228.758346557617 6.178354740143
-154.771286010742 -59.071971893311 -226.668655395508 2.770225048065
-5.229206085205 -72.456817626953 -239.433212280273 1.375876307487
9.245411872864 -62.910121917725 -236.994659423828 2.578883409500
-3.287137031555 -71.611381530762 -243.006256103516 2.170922756195
-154.321456909180 -59.383468627930 -242.403732299805 4.591119766235
-11.428797721863 -63.568775177002 -239.411575317383 3.017409086227
-157.683761596680 -68.467613220215 -251.049880981445 2.246876955032
-10.139706611633 -73.447624206543 -249.593002319336 1.660308957100
-150.486663818359 -64.328926086426 -252.469650268555 2.257035017014
17.324275970459 -68.119888305664 -250.692031860352 3.778861284256
-154.096191406250 -54.835346221924 -252.973205566406 7.608284950256
-152.653305053711 -60.988716125488 -253.130432128906 2.265405893326
-153.436508178711 -60.783256530762 -251.410232543945 2.863468885422
-151.789077758789 -59.804965972900 -256.392425537109 2.322072982788
29.077716827393 -68.801338195801 -259.976715087891 2.318510055542
29.584627151489 -68.241844177246 -265.057769775391 2.702290058136
-147.406829833984 -61.932399749756 -250.990814208984 1.766586899757
-155.097244262695 -54.554748535156 -256.793487548828 8.493944168091
-156.016586303711 -66.464622497559 -257.059326171875 2.053106784821
-148.932647705078 -58.202335357666 -255.596374511719 3.491177082062
25.217187881470 -66.261940002441 -262.578369140625 1.290542960167
26.988416671753 -66.902297973633 -267.722656250000 1.846841216087
-160.311325073242 -62.968585968018 -259.565643310547 5.184021472931
-146.252944946289 -60.828235626221 -261.479919433594 2.365303754807
-149.945358276367 -56.491397857666 -259.792388916016 4.712211608887
-145.718383789063 -60.798576354980 -263.409210205078 2.799488306046
-145.109527587891 -65.229934692383 -259.139831542969 2.395535230637
-146.391784667969 -68.855445861816 -263.167022705078 2.310966730118
-150.631179809570 -58.374629974365 -264.394256591797 3.663620471954
-152.960983276367 -56.319984436035 -285.075012207031 5.926867008209
-148.165222167969 -61.341529846191 -279.606811523438 2.366425037384
-150.286712646484 -61.970333099365 -275.673248291016 3.761753559113
13.195347785950 -66.575675964355 -280.571380615234 5.879607677460
-156.867126464844 -56.123149871826 -283.892913818359 7.362344741821
-149.574279785156 -60.472068786621 -289.440979003906 2.712022304535
-9.828104972839 -76.106666564941 -285.148132324219 1.912795186043
1.946778059006 -66.033187866211 -291.159942626953 1.674495458603
-156.698165893555 -61.687900543213 -291.309570312500 3.105530261993
27.469564437866 -69.323265075684 -20.816823959351 1.850238442421
47.399936676025 -64.979393005371 -27.451402664185 4.049487113953
50.358127593994 -69.627967834473 -32.901271820068 2.688479423523
39.908672332764 -58.543952941895 -38.019676208496 2.522904634476
26.458154678345 -71.073799133301 -36.493049621582 1.832628488541
46.007602691650 -65.912651062012 -41.400981903076 4.207092761993
78.046821594238 -60.770706176758 -64.591735839844 5.222440242767
77.671714782715 -65.301971435547 -64.129554748535 2.546437025070
-20.236736297607 -61.852111816406 -71.282432556152 4.903705596924
68.825836181641 -61.695850372314 -71.961723327637 3.892336130142
-27.428123474121 -63.189765930176 -70.194816589355 2.267797946930
-37.831806182861 -68.017082214355 -80.408653259277 3.277850389481
-58.423130035400 -59.523960113525 -73.092712402344 6.111552238464
-56.815773010254 -56.241176605225 -77.525787353516 4.132463455200
62.540634155273 -71.634056091309 -81.869422912598 3.063906908035
109.402343750000 -71.951812744141 -92.546234130859 4.891939163208
-58.931064605713 -56.250667572021 -83.714332580566 0.512474119663
58.659328460693 -65.122634887695 -96.657531738281 1.328611373901
66.299186706543 -63.558502197266 -96.427665710449 2.003040313721
103.452323913574 -64.332290649414 -94.078575134277 2.103940725327
-66.054779052734 -66.018402099609 -91.097976684570 3.066524982452
54.872238159180 -59.299682617188 -96.269309997559 3.598335266113
-61.622680664063 -65.768562316895 -103.285476684570 6.129912853241
68.353210449219 -64.586349487305 -95.408035278320 2.074904680252
65.964843750000 -65.326866149902 -103.981361389160 3.379885673523
-77.475852966309 -57.649635314941 -107.793426513672 2.247506618500
-97.081604003906 -57.710067749023 -112.464660644531 4.249380588531
-70.182563781738 -52.894565582275 -112.162841796875 0.544036030769
-84.201728820801 -61.687019348145 -109.619606018066 2.507645130157
-60.919284820557 -64.515113830566 -114.926544189453 2.413053750992
-83.949150085449 -57.095420837402 -105.018348693848 6.920044422150
-74.101661682129 -61.747070312500 -112.135551452637 1.673272728920
-77.609405517578 -64.319061279297 -111.733024597168 1.187708973885
-71.399208068848 -65.072174072266 -117.505607604980 4.101462364197
-87.017898559570 -63.734466552734 -126.012451171875 1.650477886200
34.460170745850 -64.935935974121 -129.584808349609 2.950772285461
-47.622306823730 -61.112197875977 -129.974380493164 4.105020046234
33.100128173828 -63.763534545898 -137.217727661133 3.771472215652
29.974685668945 -65.259742736816 -131.371749877930 2.712713241577
27.972826004028 -69.793739318848 -129.768875122070 2.222239494324
-55.435779571533 -58.223358154297 -126.640930175781 0.999549984932
21.603240966797 -65.462066650391 -145.889877319336 1.626359581947
20.704801559448 -65.458534240723 -144.360366821289 2.182136535645
-147.446197509766 -62.372638702393 -175.266647338867 1.952288985252
-152.487716674805 -53.525585174561 -172.083572387695 9.267205238342
-154.227096557617 -58.428821563721 -181.830566406250 5.295269012451
-147.189880371094 -55.701400756836 -181.343750000000 5.952353000641
-152.740798950195 -61.397232055664 -194.274917602539 0.365252912045
-153.393630981445 -62.412643432617 -190.781982421875 4.054792404175
-139.055313110352 -61.579074859619 -190.311996459961 5.459825038910
-144.190124511719 -57.414878845215 -199.740615844727 3.427004814148
-121.602607727051 -65.640396118164 -197.967605590820 2.091592550278
-137.397369384766 -62.443122863770 -203.804443359375 4.201598644257
-151.398468017578 -62.681140899658 -213.753204345703 1.569682717323
-147.230926513672 -50.412605285645 -218.191848754883 10.281575202942
-153.504379272461 -59.510086059570 -225.707443237305 2.364902734756
-147.754394531250 -62.155063629150 -226.531555175781 0.969598472118
-151.804321289063 -59.559127807617 -228.017150878906 2.885414123535
-151.998703002930 -54.728656768799 -222.954696655273 6.754768371582
-147.449264526367 -62.239673614502 -230.189102172852 1.627386331558
-146.736541748047 -62.481685638428 -230.571731567383 1.301603674889
-143.301803588867 -57.951187133789 -237.651550292969 5.261415004730
-148.101287841797 -62.958152770996 -223.817779541016 1.429213285446
-157.985488891602 -58.648967742920 -231.654251098633 4.659014225006
10.824743270874 -63.587333679199 -239.189224243164 1.598405838013
-9.638931274414 -70.614723205566 -240.599029541016 0.954574406147
-146.486633300781 -56.033035278320 -243.160232543945 7.003618717194
-155.512908935547 -61.010677337646 -235.207046508789 3.103482723236
-158.055816650391 -63.798484802246 -239.490676879883 3.313894748688
5.720485210419 -67.923530578613 -241.166976928711 2.222977876663
-151.104705810547 -57.897426605225 -233.861175537109 3.675186157227
-152.024826049805 -66.189849853516 -250.251525878906 2.979325294495
-7.621267795563 -67.467185974121 -247.168395996094 1.987611889839
-148.383468627930 -59.913311004639 -248.711715698242 2.786142349243
-142.777938842773 -59.796447753906 -252.857101440430 3.879092931747
-141.999084472656 -61.376407623291 -253.998794555664 3.215006828308
-145.310104370117 -60.557739257813 -251.777008056641 2.375115394592
27.399887084961 -72.450759887695 -264.302825927734 2.718192815781
-151.844467163086 -66.982254028320 -260.454254150391 1.741410493851
