62.868488311768 -73.168724060059 -245.653717041016 3.415457487106
14.922546386719 -70.947761535645 -245.291931152344 2.189138889313
-171.660217285156 -77.396751403809 -242.332214355469 6.327813625336
-53.312633514404 -75.155555725098 -237.273025512695 5.416569709778
4.746376991272 -82.836891174316 -249.109863281250 2.265808582306
16.358629226685 -75.300308227539 -242.653106689453 3.057242631912
-54.723545074463 -76.457939147949 -247.108886718750 1.135267376900
-2.854298114777 -68.694839477539 -251.119888305664 4.701324462891
19.557952880859 -83.617698669434 -249.072174072266 2.519119024277
-174.591598510742 -76.682106018066 -248.179809570313 8.731170654297
-65.141357421875 -82.185905456543 -249.001739501953 3.881418466568
-54.056903839111 -74.015533447266 -247.492782592773 2.188150882721
-84.799812316895 -75.062049865723 -253.156906127930 2.140132188797
-163.504745483398 -81.757408142090 -244.913116455078 7.291478157043
-152.059310913086 -67.839843750000 -246.208053588867 2.061670541763
-61.949756622314 -79.485633850098 -249.403335571289 2.670889377594
-69.758399963379 -76.388084411621 -247.769165039063 1.648871660233
-154.914245605469 -76.136619567871 -250.854797363281 3.571680545807
-153.251724243164 -81.232391357422 -250.978027343750 2.483070373535
-75.457214355469 -71.073997497559 -254.882553100586 2.724279642105
-94.900695800781 -73.504623413086 -256.822845458984 1.269101977348
-164.047897338867 -71.125549316406 -253.418197631836 0.794249653816
-158.884246826172 -80.342674255371 -261.047851562500 4.380999565125
-136.892822265625 -81.786437988281 -260.324401855469 1.794225096703
-84.596908569336 -76.468399047852 -248.442413330078 3.967677354813
-162.814071655273 -74.369377136230 -253.083068847656 0.746993362904
-142.839233398438 -75.509246826172 -256.607330322266 1.944774985313
-85.757659912109 -76.019897460938 -246.696350097656 4.308366775513
-99.182800292969 -75.906509399414 -261.977172851563 4.248530864716
-143.235534667969 -80.654533386230 -253.845520019531 0.992663145065
-93.116958618164 -77.464340209961 -254.944595336914 2.653376102448
-156.916793823242 -76.552360534668 -254.066818237305 3.825427532196
-105.830673217773 -77.424339294434 -253.450256347656 4.675494194031
-173.610397338867 -78.322441101074 -257.458862304688 9.526837348938
-163.722885131836 -82.641365051270 -266.704193115234 6.333150863647
-129.796524047852 -84.300239562988 -254.906799316406 5.934012889862
-154.145095825195 -80.213256835938 -258.689727783203 1.502166032791
-110.139976501465 -73.254417419434 -262.740081787109 2.397763252258
-15.074885368347 -72.765502929688 -262.079742431641 0.703591465950
-141.595825195313 -78.567237854004 -259.493072509766 0.832939505577
-128.759048461914 -77.371444702148 -259.325683593750 1.073698401451
-154.232315063477 -76.542167663574 -262.848907470703 2.639961719513
24.062644958496 -76.197135925293 -273.149169921875 3.604922533035
-151.389770507813 -82.963684082031 -278.825286865234 1.882569074631
-170.816848754883 -80.734779357910 -282.298614501953 6.943632602692
-10.732451438904 -73.967605590820 -279.892425537109 2.632994651794
-145.900512695313 -78.274391174316 -278.012054443359 2.126467227936
-12.814442634583 -73.582084655762 -283.848388671875 2.006083965302
11.506224632263 -77.165634155273 -287.170074462891 1.066515207291
-138.808273315430 -75.844413757324 -285.061920166016 3.215286970139
-66.258018493652 -80.911788940430 -287.292144775391 4.114941120148
-34.554382324219 -80.912513732910 -289.736511230469 2.011860370636
-113.401138305664 -79.059555053711 -281.040374755859 7.594118118286
-99.178665161133 -84.907394409180 -289.141876220703 9.523583412170
-89.327903747559 -79.128753662109 -291.157226562500 5.927075386047
-52.861278533936 -79.345787048340 -292.723236083984 4.611624717712
-117.133064270020 -86.456863403320 -285.563232421875 9.215113639832
-117.915786743164 -81.082366943359 -289.562225341797 3.274523019791
-35.551994323730 -72.612464904785 -287.092895507813 2.070392370224
-118.621803283691 -81.193328857422 -293.637207031250 5.858425617218
-130.672058105469 -72.603523254395 -287.650512695313 4.029301643372
-146.408615112305 -83.539375305176 -294.077392578125 1.445452928543
5.548669815063 -76.450424194336 -290.497497558594 1.352233648300
17.722103118896 -77.996879577637 -292.720520019531 2.813287258148
-163.917770385742 -79.643043518066 -290.923889160156 4.238516807556
-163.035278320313 -85.579887390137 -299.780029296875 11.013769149780
-150.727645874023 -82.241645812988 -308.712951660156 3.643395185471
-155.093139648438 -79.694679260254 -309.037628173828 3.640760660172
-154.284759521484 -80.457962036133 -314.097259521484 3.127346277237
28.287305831909 -74.872543334961 -13.383957862854 3.191297054291
36.829250335693 -65.490585327148 -20.581573486328 2.232355833054
21.406568527222 -69.874732971191 -26.360246658325 1.662138342857
29.614347457886 -65.721969604492 -39.575092315674 2.548137903214
-59.206478118896 -71.426948547363 -50.373001098633 3.286689996719
-64.429145812988 -72.382591247559 -50.703216552734 2.255157470703
-39.068168640137 -77.328689575195 -47.930484771729 5.533872127533
-88.021514892578 -64.911033630371 -67.192924499512 6.297417163849
79.889472961426 -73.318267822266 -76.763557434082 1.837547063828
-11.776412963867 -66.142570495605 -71.810470581055 3.711457252502
89.538452148438 -69.407348632813 -62.169990539551 2.131341218948
101.325996398926 -68.633644104004 -75.795455932617 2.067596435547
-91.802604675293 -70.021385192871 -73.684127807617 2.988139629364
64.910568237305 -69.918426513672 -81.255218505859 2.552597045898
-39.175182342529 -76.628044128418 -87.213973999023 2.607320785522
101.916519165039 -69.156494140625 -81.020957946777 1.540718913078
-58.564319610596 -69.024383544922 -87.957504272461 2.272487640381
49.129322052002 -71.346214294434 -91.371109008789 1.705648899078
69.664237976074 -79.167892456055 -90.074760437012 4.539619922638
52.937648773193 -68.589958190918 -95.957450866699 2.929928541183
52.484165191650 -72.292778015137 -99.598419189453 3.323787689209
75.927497863770 -74.651557922363 -97.077911376953 1.634041905403
47.292873382568 -69.791313171387 -110.691307067871 1.188455581665
96.475540161133 -70.507041931152 -103.673927307129 2.125746250153
104.744934082031 -76.367912292480 -109.206542968750 1.968025445938
76.103927612305 -67.907173156738 -104.937294006348 2.420817136765
94.722091674805 -71.432586669922 -106.641883850098 1.866166710854
99.588241577148 -70.013374328613 -93.482177734375 0.596451044083
110.101432800293 -71.462081909180 -105.592643737793 2.132926225662
39.629787445068 -69.717155456543 -107.356193542480 0.639383196831
113.705604553223 -66.474334716797 -118.414222717285 3.230924606323
114.596687316895 -71.794441223145 -120.873336791992 1.948812127113
28.942165374756 -68.835838317871 -125.656883239746 3.127289295197
44.166702270508 -73.296455383301 -118.300460815430 0.915673732758
114.986656188965 -71.405670166016 -134.397781372070 2.203956127167
32.402828216553 -70.696792602539 -127.374443054199 2.425394535065
117.469177246094 -77.124031066895 -127.520187377930 4.332230567932
107.026084899902 -72.269348144531 -123.725807189941 2.623714447021
27.163257598877 -75.113235473633 -133.298004150391 2.356416463852
-46.731056213379 -74.458961486816 -132.777160644531 3.023823499680
-52.498538970947 -71.510810852051 -134.311035156250 1.831389069557
111.180923461914 -70.197013854980 -136.816482543945 0.816226243973
-67.057838439941 -80.865478515625 -138.491271972656 8.526238441467
-71.113693237305 -74.972808837891 -140.195541381836 2.190494298935
-61.042716979980 -74.529159545898 -138.049880981445 3.746794223785
29.638370513916 -73.756134033203 -146.191452026367 3.686749696732
120.350509643555 -74.345977783203 -148.759979248047 3.833291530609
-71.250373840332 -69.606185913086 -148.056121826172 1.427313208580
-50.433181762695 -74.936431884766 -140.413497924805 2.165127515793
31.885942459106 -72.861907958984 -154.043930053711 1.967876195908
-68.868347167969 -76.314949035645 -147.382705688477 1.472146868706
113.924842834473 -68.878524780273 -139.911514282227 1.964752912521
110.378234863281 -68.106971740723 -159.108352661133 2.418184757233
115.906036376953 -72.361236572266 -156.150466918945 1.599995732307
-39.047996520996 -78.472351074219 -151.909194946289 2.576529026031
-64.009475708008 -74.342857360840 -165.897918701172 1.592441558838
-66.555282592773 -68.449958801270 -157.984924316406 1.654243469238
27.823574066162 -73.890830993652 -143.284271240234 2.318693399429
-2.518251895905 -76.178543090820 -161.889114379883 1.810627818108
109.868095397949 -69.174919128418 -164.309036254883 0.925690114498
111.842208862305 -67.984207153320 -153.028366088867 2.589728832245
112.470451354980 -76.304275512695 -161.048171997070 2.496891260147
-62.875186920166 -71.756561279297 -156.877716064453 2.297770977020
-45.100006103516 -77.466697692871 -168.737976074219 3.640712261200
-4.845551013947 -73.226013183594 -165.357040405273 2.199493169785
-32.563121795654 -75.852684020996 -175.106475830078 3.725433588028
104.836807250977 -69.602569580078 -169.324539184570 3.362219810486
-32.076522827148 -79.766181945801 -159.564743041992 4.175453186035
107.829826354980 -68.787956237793 -167.962692260742 2.172696828842
-42.361347198486 -74.989837646484 -174.635910034180 1.990442037582
106.954734802246 -67.748565673828 -171.735198974609 2.458576679230
-154.741485595703 -78.924163818359 -177.404052734375 8.188673019409
-25.726472854614 -68.432624816895 -178.070266723633 3.043858289719
-19.586126327515 -75.232940673828 -184.429443359375 1.702487468719
24.144138336182 -78.498413085938 -177.006851196289 1.614001512527
13.230416297913 -71.849151611328 -184.764541625977 0.690574526787
28.711925506592 -74.196701049805 -183.074951171875 1.727346897125
101.272712707520 -79.752586364746 -185.945022583008 3.895843029022
-153.228988647461 -72.261016845703 -182.086334228516 2.281191587448
-19.343301773071 -77.285064697266 -180.786315917969 2.283799648285
100.168693542480 -74.438957214355 -179.442245483398 5.032913684845
102.040931701660 -66.168998718262 -189.816131591797 4.392662048340
109.328720092773 -74.141304016113 -176.694992065430 1.483882546425
100.328475952148 -74.281555175781 -193.654708862305 0.960941791534
-151.283920288086 -75.512084960938 -198.189010620117 3.219520330429
98.716972351074 -73.142181396484 -207.876556396484 2.692612409592
-28.842998504639 -72.438072204590 -199.775955200195 2.656287431717
95.112335205078 -72.131401062012 -194.714782714844 2.549679279327
-118.550003051758 -83.162734985352 -201.732528686523 10.077411651611
-30.759891510010 -80.787658691406 -187.293762207031 2.328984260559
-143.730087280273 -70.459709167480 -197.686462402344 2.413344621658
95.731445312500 -72.188865661621 -198.047668457031 2.585745573044
7.509899139404 -74.174011230469 -200.306365966797 1.974682927132
24.292701721191 -70.603164672852 -191.412948608398 1.320250630379
-149.866058349609 -80.597869873047 -204.247604370117 1.731949210167
-137.508926391602 -76.929008483887 -202.181167602539 1.990745544434
-9.897669792175 -74.323753356934 -209.911651611328 1.271934986115
-124.962219238281 -76.491004943848 -205.874038696289 4.662835597992
-145.336517333984 -78.785766601563 -194.719879150391 1.225260138512
-0.672232985497 -75.167724609375 -198.316452026367 9.384578704834
-27.402090072632 -77.720428466797 -199.584960937500 3.697053670883
20.812170028687 -78.976379394531 -200.979354858398 2.139600515366
4.212788105011 -77.060020446777 -213.954086303711 3.696395397186
80.351325988770 -67.161354064941 -210.249664306641 8.252232551575
-18.327331542969 -71.411567687988 -212.237808227539 1.724049210548
89.389709472656 -68.882598876953 -210.062179565430 2.783010005951
98.157279968262 -76.467880249023 -207.791549682617 1.908313632011
-148.310302734375 -80.383575439453 -212.406677246094 1.732804179192
94.271087646484 -76.175186157227 -212.390274047852 1.869559526443
2.925508975983 -71.695945739746 -205.604721069336 3.430424213409
1.139987945557 -77.274909973145 -214.613616943359 4.253485679626
-32.088817596436 -74.643898010254 -205.064620971680 1.600891590118
-90.160507202148 -75.941390991211 -212.270675659180 1.752399206161
-24.866529464722 -78.426918029785 -209.289505004883 2.160346984863
84.951583862305 -70.801383972168 -219.374389648438 0.532952904701
90.587074279785 -71.347076416016 -215.586975097656 1.998711347580
-31.850795745850 -73.719947814941 -211.158493041992 1.560510158539
-84.263717651367 -71.550094604492 -220.093612670898 3.286029100418
-0.223311007023 -77.123229980469 -220.023712158203 1.362903237343
75.779319763184 -66.518943786621 -211.706405639648 9.201141357422
-153.506088256836 -86.231964111328 -220.092315673828 5.868860244751
-167.477905273438 -76.035194396973 -213.516128540039 4.445633888245
-164.982894897461 -84.123092651367 -220.486679077148 11.260399818420
-22.558006286621 -78.074615478516 -226.997375488281 2.731759071350
-155.879180908203 -84.873016357422 -221.180541992188 6.245979785919
-4.495584964752 -75.238563537598 -223.643157958984 2.969162225723
4.736187934875 -77.380661010742 -218.704025268555 3.431942939758
-171.266723632813 -78.980628967285 -225.795730590820 7.940096378326
-156.829803466797 -78.835884094238 -228.021347045898 3.383376836777
77.717018127441 -78.625305175781 -233.140609741211 2.802714347839
-3.219706058502 -74.609939575195 -225.584091186523 2.755463838577
-161.446044921875 -70.176994323730 -226.051818847656 3.110245227814
-143.675964355469 -81.894790649414 -221.651184082031 3.779343843460
-19.377794265747 -72.720054626465 -223.665924072266 1.896260619164
-3.705804109573 -79.882728576660 -219.606552124023 2.599497795105
78.659736633301 -68.678039550781 -228.350357055664 1.173915266991
-161.782897949219 -75.743255615234 -227.152587890625 2.651594638824
-141.739440917969 -74.148849487305 -233.328475952148 0.350516825914
-127.198394775391 -75.127120971680 -231.718643188477 1.760279417038
76.788017272949 -76.906394958496 -226.336608886719 2.170737504959
-116.840888977051 -78.152687072754 -229.076202392578 4.173610210419
-143.546142578125 -78.148994445801 -228.960556030273 2.039875984192
-152.526123046875 -76.571777343750 -231.736175537109 1.896464586258
-151.284896850586 -79.784881591797 -231.688766479492 1.498755335808
-156.562744140625 -80.071769714355 -228.479370117188 3.359650135040
-165.603149414063 -79.890274047852 -227.380493164063 7.179984569550
-133.003768920898 -79.959487915039 -237.417510986328 7.151519298553
-134.057632446289 -79.543342590332 -233.243072509766 3.413557291031
-152.037017822266 -86.308731079102 -233.237197875977 3.532139062881
-146.683563232422 -73.427185058594 -238.102996826172 2.970030546188
-151.477676391602 -79.980850219727 -235.278793334961 2.454334735870
75.172584533691 -77.595306396484 -234.580566406250 4.322061538696
65.901977539063 -65.060287475586 -234.843017578125 3.296594142914
-155.328750610352 -76.114341735840 -234.771942138672 3.710257768631
72.358123779297 -65.985076904297 -233.792602539063 1.274229168892
-21.994750976563 -72.292175292969 -236.451553344727 2.204361915588
12.306443214417 -77.575347900391 -239.133239746094 2.889123439789
7.395067214966 -75.776954650879 -236.057907104492 2.259963274002
-157.432785034180 -79.145721435547 -239.876861572266 4.977545738220
15.631555557251 -74.008102416992 -241.789413452148 2.892218351364
57.237129211426 -71.367820739746 -239.524093627930 2.589180707932
12.051915168762 -70.767890930176 -238.865264892578 1.412293672562
3.313769102097 -75.010391235352 -241.426132202148 0.906787455082
-7.787283897400 -70.763298034668 -239.474746704102 1.399448752403
-23.233209609985 -73.254013061523 -243.147521972656 1.346930980682
-3.825726985931 -75.529731750488 -240.194442749023 2.497431993484
4.446413993835 -79.499656677246 -247.058776855469 1.250243186951
56.553306579590 -75.974533081055 -241.001556396484 2.371266365051
-55.072650909424 -83.625015258789 -244.634613037109 3.287899971008
19.827579498291 -73.522331237793 -248.904724121094 2.188500165939
-58.368106842041 -77.263442993164 -239.167587280273 5.286510944366
-12.002346992493 -76.197380065918 -248.471588134766 2.057966232300
-68.518821716309 -71.702636718750 -250.820983886719 1.740271687508
-86.689926147461 -73.292846679688 -254.633438110352 0.854853391647
-83.117225646973 -79.833503723145 -254.626037597656 4.508228778839
-8.260823249817 -74.858940124512 -257.690612792969 3.876777410507
-124.263587951660 -78.984634399414 -262.559753417969 4.242505073547
-14.900579452515 -76.523818969727 -250.860092163086 3.428719282150
-117.884078979492 -77.956130981445 -253.866165161133 4.227847576141
-119.559486389160 -76.027130126953 -258.802917480469 3.382615327835
-104.931983947754 -77.926734924316 -253.479782104492 4.972124576569
-143.904388427734 -77.031898498535 -259.060485839844 1.970594882965
-145.393981933594 -79.005897521973 -268.443145751953 2.170112371445
-170.411026000977 -79.922752380371 -262.356262207031 6.470200061798
21.331115722656 -80.959480285645 -281.051177978516 7.049030780792
-62.830505371094 -74.326087951660 -284.940124511719 1.546911001205
-69.942718505859 -76.342048645020 -281.389312744141 5.045903205872
-43.309955596924 -79.496788024902 -281.736053466797 4.970412731171
-27.297487258911 -77.392044067383 -287.944183349609 1.715121150017
-96.496406555176 -82.511825561523 -291.390350341797 6.543230533600
-33.469074249268 -74.094421386719 -284.229034423828 2.071147203445
-4.528150081635 -75.508369445801 -285.488647460938 2.014422893524
-168.404434204102 -80.811050415039 -289.452606201172 7.645631313324
-21.264354705811 -80.080650329590 -285.055450439453 3.697372198105
3.769582033157 -77.697967529297 -288.027923583984 1.767285227776
12.968274116516 -82.994888305664 -278.562255859375 3.302776813507
-58.132450103760 -82.387367248535 -284.242187500000 6.352953910828
-37.493644714355 -79.160614013672 -292.398315429688 3.385046482086
13.119763374329 -73.355865478516 -294.681701660156 1.092068433762
-73.414611816406 -75.347183227539 -294.668853759766 5.148443222046
-44.877170562744 -72.809501647949 -287.550506591797 1.879817485809
-19.521766662598 -73.886970520020 -289.282806396484 2.889421939850
12.710602760315 -79.501251220703 -292.164154052734 2.702020883560
-13.678682327271 -80.144111633301 -296.664581298828 5.982811927795
3.492054939270 -75.171440124512 -295.842712402344 2.493041753769
13.466580390930 -80.167564392090 -287.887359619141 2.488936901093
-136.198608398438 -78.636177062988 -293.850891113281 2.068412065506
-146.397155761719 -83.053619384766 -296.747924804688 1.686815977097
-156.178146362305 -79.566772460938 -313.136322021484 4.102478981018
46.031074523926 -67.982505798340 -14.835441589355 1.445297598839
29.903924942017 -69.041702270508 -11.864739418030 1.179180026054
40.961421966553 -69.313011169434 -15.068584442139 0.964649856091
23.574913024902 -63.580444335938 -18.037212371826 1.713157534599
46.180252075195 -65.123146057129 -24.214759826660 3.320771694183
26.770944595337 -65.320281982422 -26.020433425903 3.101251602173
23.752937316895 -69.601440429688 -26.264125823975 0.909352004528
27.819183349609 -70.827476501465 -42.579292297363 2.430171966553
36.517597198486 -73.908706665039 -31.221696853638 5.224082946777
26.144824981689 -76.159217834473 -38.270015716553 5.341525554657
44.417697906494 -66.979087829590 -41.179824829102 2.925442457199
32.519615173340 -70.384956359863 -42.316905975342 2.255559921265
41.822292327881 -71.809852600098 -35.364879608154 1.892413496971
30.714500427246 -67.487564086914 -40.499191284180 1.424788951874
46.181003570557 -69.469932556152 -42.968616485596 3.905423641205
32.019123077393 -68.448646545410 -37.061286926270 1.247968435287
-42.943122863770 -70.776191711426 -46.926906585693 2.995140790939
-29.077867507935 -64.622604370117 -49.993347167969 1.880790472031
-90.585739135742 -73.966972351074 -52.537815093994 7.557508945465
-90.606071472168 -73.660629272461 -66.133804321289 2.957440614700
76.777168273926 -72.640022277832 -63.668384552002 4.843894004822
84.463638305664 -66.961204528809 -73.595024108887 6.313804626465
-21.541669845581 -68.972488403320 -75.871070861816 3.083512306213
-87.884979248047 -70.497245788574 -72.098564147949 3.419012308121
-24.937753677368 -69.594116210938 -76.741935729980 2.416262388229
-49.317756652832 -74.127983093262 -84.313926696777 2.078189373016
65.950096130371 -65.631011962891 -87.137809753418 0.074148230255
51.589694976807 -67.905380249023 -94.736206054688 1.326676130295
99.356010437012 -65.828300476074 -92.415359497070 3.795044422150
68.718643188477 -73.043624877930 -97.605728149414 2.646030426025
-70.969825744629 -72.612724304199 -87.853439331055 8.207628250122
-58.624267578125 -67.689598083496 -99.265289306641 7.143217086792
44.397315979004 -69.364860534668 -97.976509094238 2.355170249939
77.286369323730 -66.626502990723 -97.700996398926 6.093486785889
55.765583038330 -81.196449279785 -105.740432739258 4.528170108795
102.020385742188 -68.372879028320 -95.572204589844 0.878628432751
-94.360801696777 -77.623764038086 -107.124900817871 3.558236837387
42.239933013916 -69.449691772461 -109.248588562012 1.078699111938
107.682373046875 -70.756866455078 -110.818023681641 1.604115605354
49.600273132324 -70.637893676758 -112.085975646973 2.393132925034
99.836402893066 -71.259857177734 -112.339256286621 4.647030353546
-84.482727050781 -72.355934143066 -117.968254089355 2.211560010910
35.367237091064 -75.291679382324 -113.575019836426 2.534066915512
107.553588867188 -66.321983337402 -117.531707763672 2.719437122345
104.495208740234 -65.221366882324 -117.321166992188 3.427119016647
102.930900573730 -69.762306213379 -115.902175903320 3.366642951965
111.325950622559 -66.728668212891 -114.429443359375 1.284590601921
41.871551513672 -74.800483703613 -107.282684326172 1.621889829636
32.317447662354 -64.622589111328 -115.159904479980 6.940733909607
38.116100311279 -69.986427307129 -111.857032775879 1.798197984695
104.083091735840 -71.890563964844 -121.116798400879 2.189614772797
41.491691589355 -67.876693725586 -120.901641845703 2.660497426987
109.891746520996 -67.429801940918 -133.708297729492 2.155383586884
109.153190612793 -67.282859802246 -131.948699951172 2.187666416168
33.401092529297 -66.832046508789 -117.719139099121 4.732130050659
-78.860633850098 -74.598320007324 -121.297088623047 4.330503463745
111.310287475586 -64.288208007813 -134.123733520508 5.163771629333
-52.567958831787 -73.384521484375 -138.235000610352 1.290996789932
34.234821319580 -72.132385253906 -133.950378417969 2.436977624893
-73.994735717773 -73.935165405273 -132.202560424805 2.653479099274
24.646577835083 -75.618103027344 -128.930633544922 3.477711439133
-81.910339355469 -75.354995727539 -143.837478637695 5.649648666382
-45.679515838623 -76.961418151855 -141.499710083008 1.680707335472
-76.487350463867 -77.137878417969 -138.273178100586 3.071690797806
108.260940551758 -68.070251464844 -136.242080688477 3.426698207855
120.938056945801 -65.893928527832 -141.800186157227 7.541588783264
119.376907348633 -73.705955505371 -148.980178833008 2.795415163040
-82.585968017578 -74.438644409180 -142.433364868164 6.043044567108
5.405264854431 -66.695480346680 -150.668441772461 5.445157527924
-50.271705627441 -73.909103393555 -146.470077514648 3.308679342270
-52.899623870850 -75.241310119629 -154.084716796875 2.797057151794
104.979797363281 -71.006362915039 -164.756088256836 4.233148097992
-40.679416656494 -76.585494995117 -147.170135498047 2.334129810333
14.253765106201 -68.060134887695 -158.755950927734 1.748914003372
22.196327209473 -74.899536132813 -156.940307617188 2.114371299744
113.696868896484 -67.175437927246 -166.088394165039 2.791150808334
30.031545639038 -70.266723632813 -168.122894287109 2.434744119644
-1.187819957733 -74.656738281250 -163.722244262695 1.292192578316
31.540752410889 -72.416114807129 -159.952163696289 2.067730903625
-68.042404174805 -72.421234130859 -154.693344116211 1.184213280678
-67.450675964355 -74.353828430176 -158.391479492188 1.301947116852
-70.794158935547 -71.138206481934 -166.056198120117 3.812505245209
113.675392150879 -64.239494323730 -162.614578247070 5.898285865784
-45.332252502441 -74.355842590332 -162.520828247070 0.891091763973
14.843572616577 -72.039527893066 -164.615692138672 3.506853818893
-64.464569091797 -71.890258789063 -169.453933715820 1.788975954056
-66.228172302246 -70.714614868164 -171.109924316406 2.854758262634
-44.526229858398 -75.854103088379 -160.556991577148 2.705456018448
-35.837722778320 -78.043289184570 -166.557891845703 2.082308053970
115.753440856934 -73.446258544922 -172.052642822266 2.765206098557
-38.431613922119 -65.246047973633 -182.680343627930 6.905636310577
10.978455543518 -73.635383605957 -171.654907226563 5.963244438171
109.817604064941 -74.250762939453 -187.452224731445 2.436225414276
-147.489273071289 -78.753852844238 -174.772949218750 5.575985431671
-147.234375000000 -75.117294311523 -169.818374633789 5.863927841187
-146.674331665039 -73.389167785645 -181.290588378906 2.529795885086
-142.494247436523 -79.774345397949 -183.707839965820 4.254080772400
-34.062755584717 -71.373802185059 -183.967971801758 1.503750205040
-24.146041870117 -74.453567504883 -184.724304199219 2.635266542435
22.883111953735 -65.708770751953 -193.070938110352 4.656501770020
-141.001586914063 -75.297912597656 -185.247955322266 2.647165298462
-148.961944580078 -77.266395568848 -187.674316406250 0.448658704758
-23.266937255859 -70.998001098633 -184.355850219727 1.639994502068
7.941105842590 -71.966529846191 -182.415954589844 5.906723976135
-151.494430541992 -76.412727355957 -194.903930664063 1.384199857712
-32.393589019775 -73.338066101074 -189.552185058594 2.260733604431
98.859802246094 -71.107093811035 -188.553894042969 3.222145318985
103.822463989258 -67.631347656250 -190.187606811523 2.842175483704
24.415142059326 -65.258285522461 -193.374084472656 5.028755664825
-9.432148933411 -72.832015991211 -188.030654907227 7.645221710205
-29.879150390625 -76.250335693359 -191.826812744141 2.036043405533
-157.619110107422 -79.937728881836 -201.029373168945 5.409159183502
-133.793106079102 -77.663917541504 -195.472534179688 1.412801384926
-126.891639709473 -71.694091796875 -193.342102050781 1.628943085670
-127.829696655273 -74.464424133301 -196.172714233398 2.570219516754
-22.512767791748 -67.822418212891 -194.046844482422 1.709816932678
14.362975120544 -76.316436767578 -191.539688110352 1.124424338341
90.186653137207 -78.564292907715 -201.414733886719 4.598709583282
-153.022918701172 -70.627044677734 -192.387847900391 1.485787034035
-144.728729248047 -72.463333129883 -197.791107177734 1.013790488243
-153.112838745117 -77.096015930176 -200.282043457031 1.813659429550
-155.644348144531 -73.345527648926 -194.466842651367 2.630136966705
-24.380746841431 -71.971542358398 -199.264678955078 1.740296959877
-7.983234882355 -67.892555236816 -194.278442382813 6.803770542145
-145.125671386719 -69.655273437500 -202.222412109375 1.958781480789
-22.003726959229 -72.585693359375 -202.642944335938 0.595672428608
-161.082565307617 -76.325469970703 -201.250473022461 4.818530082703
-135.600616455078 -75.769668579102 -197.794799804688 1.301156282425
13.799366950989 -77.539253234863 -206.477981567383 2.763679981232
-159.609268188477 -71.294784545898 -203.239898681641 2.067707777023
-147.315689086914 -79.711555480957 -205.495574951172 1.656410813332
5.024683952332 -69.853622436523 -205.089172363281 4.149693965912
-155.493392944336 -72.704910278320 -200.833633422852 2.674643278122
-26.838138580322 -72.121902465820 -202.922485351563 3.142437696457
91.365684509277 -72.661827087402 -199.008483886719 3.426893234253
-161.673095703125 -79.315658569336 -208.084869384766 7.213650226593
-164.938507080078 -83.133216857910 -203.994735717773 11.553442001343
-76.041358947754 -71.774078369141 -204.859481811523 5.133538722992
89.663688659668 -70.284507751465 -207.845382690430 2.398840904236
-4.911386013031 -72.746040344238 -220.381774902344 2.950882673264
-158.701034545898 -75.415588378906 -211.406372070313 3.510466337204
-87.815399169922 -76.659599304199 -211.287139892578 1.901971817017
-11.056967735291 -78.307067871094 -210.238159179688 1.301100969315
15.369305610657 -72.288536071777 -216.925613403320 1.286522030830
-144.569213867188 -77.718086242676 -220.237625122070 2.867141485214
-5.030505180359 -80.956161499023 -220.344024658203 2.492315292358
-17.278520584106 -77.225425720215 -214.909057617188 3.032836198807
-15.615165710449 -69.923492431641 -221.717712402344 0.209824323654
91.276138305664 -71.675102233887 -222.708511352539 3.470645189285
-20.490468978882 -72.060569763184 -215.207382202148 2.646419286728
-35.617305755615 -73.448890686035 -218.013946533203 5.040928363800
-109.114112854004 -68.209243774414 -225.357620239258 2.369730234146
-17.833396911621 -71.566444396973 -223.934906005859 2.058613300323
93.876556396484 -68.813186645508 -219.282913208008 3.261166334152
72.775718688965 -73.746543884277 -222.508834838867 5.218057155609
8.331096649170 -74.971969604492 -217.944976806641 1.859841465950
-12.852846145630 -69.034255981445 -225.431991577148 2.033807039261
78.400207519531 -71.712272644043 -221.709915161133 2.845810651779
-121.677429199219 -82.907135009766 -224.313064575195 8.608132362366
-17.666437149048 -71.118209838867 -223.642089843750 1.502100586891
-95.542488098145 -75.433364868164 -222.334793090820 0.500778198242
-100.663078308105 -76.126663208008 -221.176986694336 2.269360542297
-129.197708129883 -79.688934326172 -228.631988525391 4.067718505859
80.013969421387 -72.824211120605 -223.214340209961 1.963368415833
-123.354354858398 -78.020965576172 -226.481109619141 3.052204132080
2.818450927734 -72.200683593750 -229.486877441406 1.727971792221
81.309547424316 -69.788154602051 -225.244812011719 1.659105300903
-17.964981079102 -76.228340148926 -235.121643066406 3.444018363953
-15.875692367554 -75.220855712891 -223.797210693359 0.800375163555
0.426054000854 -82.701461791992 -229.727554321289 3.815922975540
11.458476066589 -77.202026367188 -227.824050903320 2.246658086777
90.924591064453 -73.824562072754 -228.750991821289 6.897733211517
7.790031909943 -71.377441406250 -230.780120849609 2.032954454422
6.713522911072 -71.921234130859 -229.907028198242 2.019116640091
-10.066969871521 -74.898658752441 -232.185256958008 1.335854172707
-7.606832981110 -76.098548889160 -226.620559692383 0.773505032063
19.821287155151 -71.870071411133 -233.940841674805 2.516124248505
-13.749382019043 -69.603591918945 -232.513885498047 1.633475422859
69.682586669922 -73.205589294434 -241.882919311523 1.813753247261
-11.270535469055 -72.819526672363 -239.857360839844 2.225847482681
18.530212402344 -74.447868347168 -235.673782348633 1.072843790054
-160.416137695313 -74.504676818848 -238.013946533203 2.193851470947
-7.385007858276 -70.353576660156 -235.021789550781 1.634711861610
-7.740667819977 -77.207763671875 -238.303680419922 4.394106864929
-168.384643554688 -80.026542663574 -248.630172729492 5.957421302795
-12.393419265747 -71.110580444336 -243.552947998047 1.385061383247
13.112203598022 -69.551727294922 -244.656112670898 0.680925071239
-149.743011474609 -79.865409851074 -250.432510375977 2.649034500122
-78.771774291992 -76.584609985352 -252.275268554688 1.362745165825
-63.634647369385 -77.958183288574 -246.844070434570 1.762212157249
49.420520782471 -68.585205078125 -247.284347534180 0.784266531467
-73.182296752930 -75.016365051270 -244.999023437500 2.740707635880
14.283417701721 -74.241775512695 -250.016815185547 3.323136568069
-73.707267761230 -78.111961364746 -249.694183349609 2.575586557388
-17.416595458984 -70.798980712891 -240.837539672852 1.309744000435
-146.222137451172 -82.282142639160 -251.227600097656 0.751467764378
43.089195251465 -67.053199768066 -251.892501831055 2.758179187775
-82.644989013672 -81.737312316895 -256.817352294922 6.724839210510
-104.853851318359 -71.872657775879 -254.700408935547 1.573734164238
-102.184730529785 -78.596481323242 -253.249282836914 6.016178607941
-123.628318786621 -72.317749023438 -249.669265747070 5.005915164948
-107.732376098633 -71.262573242188 -256.625183105469 2.334648847580
-105.939933776855 -75.376838684082 -256.101470947266 1.458866119385
19.236459732056 -67.538269042969 -256.966400146484 3.664038658142
-132.657989501953 -73.763671875000 -264.254577636719 2.040500879288
-17.836801528931 -76.166252136230 -274.463653564453 5.864888191223
-151.277603149414 -73.779747009277 -283.685852050781 1.606899857521
-170.323013305664 -81.942382812500 -286.069641113281 7.695092201233
-126.676528930664 -79.376647949219 -281.103332519531 4.988801956177
-115.962432861328 -73.002555847168 -285.880584716797 1.740392446518
-77.602272033691 -70.864738464355 -281.324737548828 4.819790363312
-59.827327728271 -78.941505432129 -286.160552978516 3.906255722046
-42.574981689453 -74.105003356934 -285.164855957031 1.916110634804
-17.355928421021 -81.747146606445 -291.673522949219 3.584804296494
-15.615778923035 -71.959884643555 -294.390197753906 2.061292171478
-40.823032379150 -80.636276245117 -291.028533935547 4.118584632874
-36.463592529297 -76.249061584473 -288.425018310547 1.650915265083
-21.544919967651 -70.476135253906 -288.381317138672 1.623245477676
-76.262031555176 -75.689071655273 -294.518218994141 4.333895206451
-58.922931671143 -75.534828186035 -291.115325927734 1.749676465988
-21.876777648926 -69.972412109375 -292.063629150391 3.626210927963
-15.818082809448 -78.510002136230 -288.271789550781 2.915567636490
-5.488869190216 -74.780166625977 -294.182800292969 2.889846563339
0.572259008884 -69.280410766602 -293.509643554688 1.600737690926
-96.708885192871 -77.354881286621 -293.285339355469 2.254991054535
-139.124542236328 -82.737960815430 -296.015380859375 4.734397411346
-116.871810913086 -79.128532409668 -291.888763427734 3.424499034882
-155.391281127930 -74.808135986328 -291.653808593750 0.591782093048
-151.527267456055 -80.311180114746 -298.200134277344 1.135418534279
-149.935684204102 -74.593078613281 -299.346069335938 1.885735273361
42.984683990479 -62.780227661133 -23.948249816895 1.722392916679
20.800836563110 -73.206962585449 -23.321212768555 1.024859309196
50.592720031738 -61.544620513916 -23.698114395142 1.944227337837
47.521476745605 -68.834045410156 -36.342048645020 1.248523116112
88.714836120605 -66.702529907227 -73.310775756836 6.364676475525
96.358581542969 -69.708885192871 -75.517021179199 2.559664726257
101.666435241699 -67.650650024414 -76.303863525391 1.808730840683
98.216346740723 -66.598922729492 -85.428474426270 3.087813615799
54.955924987793 -69.628738403320 -90.931556701660 1.567439675331
42.693626403809 -76.947586059570 -88.639343261719 8.235532760620
63.374816894531 -66.997024536133 -91.326148986816 1.247425675392
-65.932884216309 -69.764999389648 -94.087615966797 2.238967657089
72.449432373047 -65.349662780762 -87.458267211914 6.096185684204
98.930427551270 -56.493312835693 -100.997131347656 2.491907358170
74.204132080078 -67.842414855957 -103.006896972656 1.461180448532
92.417800903320 -65.849700927734 -104.676750183105 2.359913110733
-88.435073852539 -73.177185058594 -105.522224426270 4.641761779785
46.161689758301 -66.231201171875 -94.880622863770 2.243240833282
-89.019317626953 -74.169349670410 -98.036155700684 3.156959772110
51.819259643555 -69.822669982910 -110.279953002930 2.576316595078
35.886631011963 -78.943008422852 -102.700004577637 5.494530677795
97.739677429199 -66.028793334961 -104.013763427734 1.138475060463
36.039310455322 -69.522438049316 -103.748970031738 4.767579078674
45.862606048584 -72.447776794434 -122.598503112793 2.109307765961
41.901569366455 -70.176284790039 -113.307136535645 1.037333846092
112.152954101563 -65.514312744141 -111.575920104980 2.019455671310
-80.215919494629 -80.627410888672 -121.519538879395 9.521068572998
113.195281982422 -74.518661499023 -122.338455200195 2.350774049759
42.183921813965 -63.235683441162 -126.108604431152 4.034079551697
39.229923248291 -69.617813110352 -119.935348510742 1.361246347427
33.590969085693 -70.848320007324 -119.384872436523 2.974319219589
-54.738571166992 -79.369079589844 -128.698394775391 6.854423999786
28.943162918091 -68.161209106445 -123.261123657227 3.532826423645
-78.987724304199 -67.793190002441 -138.498962402344 1.363321423531
-55.076629638672 -78.296066284180 -131.750137329102 4.865701198578
-80.100547790527 -69.379722595215 -134.451461791992 2.115272998810
37.058834075928 -66.933639526367 -133.121444702148 3.441382408142
-60.636505126953 -75.288421630859 -132.751373291016 4.158568859100
34.892826080322 -69.135681152344 -132.904327392578 1.227104663849
-71.368247985840 -69.846672058105 -139.228668212891 0.866069316864
-60.068439483643 -66.200073242188 -143.152526855469 2.617203950882
21.837951660156 -72.394439697266 -145.874893188477 2.793098926544
112.104988098145 -71.786788940430 -143.478973388672 1.011429429054
113.935127258301 -61.584407806396 -138.917984008789 7.002723217010
29.572257995605 -71.195983886719 -143.868774414063 2.182184219360
-51.430191040039 -75.954696655273 -138.881240844727 2.008572340012
103.127128601074 -65.127677917480 -153.869827270508 7.046804904938
-77.711296081543 -72.772193908691 -141.409088134766 2.334009885788
-59.071716308594 -72.204231262207 -141.536117553711 1.746199250221
30.965087890625 -62.219066619873 -145.506835937500 6.386344432831
-79.398254394531 -75.502456665039 -145.125885009766 4.039320468903
-70.813133239746 -71.948486328125 -148.951705932617 0.760712385178
112.700332641602 -75.123970031738 -149.839782714844 1.638634800911
-65.188751220703 -70.284866333008 -155.623458862305 2.151381254196
-40.549339294434 -66.911827087402 -151.018875122070 4.451418876648
22.980264663696 -68.691490173340 -143.796157836914 1.961631655693
-71.937324523926 -73.794128417969 -142.108505249023 1.735374927521
11.703634262085 -68.913246154785 -148.295715332031 1.428719401360
31.107984542847 -70.181678771973 -159.649230957031 1.716288685799
30.746984481812 -66.641090393066 -153.240829467773 2.959269762039
18.058074951172 -76.829071044922 -153.275451660156 4.609734058380
-51.959262847900 -76.015869140625 -152.303573608398 1.314762353897
21.250074386597 -74.765144348145 -153.215469360352 1.284653067589
-48.349716186523 -71.206619262695 -151.420242309570 2.044313430786
1.706434011459 -71.309356689453 -154.395355224609 4.425409793854
17.834333419800 -69.423332214355 -150.170989990234 1.197825551033
-66.919631958008 -71.278793334961 -158.756179809570 1.456350326538
-48.710441589355 -68.411781311035 -153.896514892578 2.104883193970
-69.625457763672 -73.129135131836 -150.203125000000 1.820508360863
20.715528488159 -69.016197204590 -158.999954223633 2.600191354752
22.395896911621 -69.440338134766 -150.329742431641 2.007887125015
1.523619055748 -71.676292419434 -167.899963378906 3.292667865753
21.438465118408 -68.744308471680 -151.287780761719 2.676116704941
29.566694259644 -69.202987670898 -170.172683715820 2.275679111481
-48.048339843750 -73.514770507813 -164.361862182617 1.437477827072
-40.333370208740 -83.846191406250 -164.766143798828 4.569507122040
-43.086009979248 -74.483482360840 -161.009735107422 2.516131401062
26.813407897949 -71.702102661133 -156.991287231445 2.264648914337
-45.919784545898 -68.758644104004 -165.678314208984 3.496589422226
-40.037872314453 -70.390434265137 -170.224960327148 0.193118125200
21.059757232666 -68.321098327637 -165.298645019531 2.582057237625
-40.597106933594 -73.513366699219 -176.978576660156 1.877584934235
25.737415313721 -64.217468261719 -170.462554931641 3.355362176895
108.345008850098 -63.014636993408 -163.429885864258 6.626945972443
-35.862857818604 -72.798820495605 -172.098114013672 2.039675474167
97.219795227051 -65.309600830078 -174.544799804688 9.943170547485
-35.745040893555 -72.208923339844 -178.039718627930 1.944033503532
-39.402118682861 -77.656494140625 -182.255874633789 5.248467922211
22.906524658203 -75.065757751465 -179.328292846680 2.830644845963
105.864471435547 -70.423324584961 -182.807006835938 2.239125490189
-35.421630859375 -70.049423217773 -180.965820312500 1.723308086395
-37.817543029785 -72.523658752441 -180.804992675781 1.968099236488
-23.488430023193 -79.713500976563 -187.645782470703 1.503878355026
-150.483139038086 -75.907928466797 -188.882873535156 2.260228872299
8.770310401917 -70.784606933594 -183.566421508789 5.175682544708
102.086357116699 -67.426818847656 -194.002136230469 4.793914794922
-163.453460693359 -75.710433959961 -190.605880737305 7.774369716644
-20.889793395996 -66.418090820313 -187.212585449219 3.357935428619
-116.916572570801 -78.158157348633 -197.447433471680 5.894432544708
-128.829620361328 -77.809188842773 -192.896286010742 4.812865734100
-106.998847961426 -76.654716491699 -199.630966186523 7.255615234375
-117.040779113770 -73.353187561035 -199.366287231445 3.471360445023
-11.614471435547 -74.072853088379 -196.249908447266 2.060894966125
18.223577499390 -68.158531188965 -196.060806274414 1.839097857475
-17.461606979370 -66.978843688965 -202.276519775391 2.731868743896
-130.831802368164 -75.469512939453 -205.721496582031 4.441957473755
-21.583713531494 -66.535011291504 -199.927185058594 2.270485877991
-128.466537475586 -72.046577453613 -202.049591064453 3.401458263397
-18.835964202881 -71.928947448730 -197.531829833984 2.521149635315
-149.265197753906 -74.040718078613 -199.486709594727 2.007145404816
90.171485900879 -63.035636901855 -206.577331542969 8.178207397461
-165.482467651367 -66.970512390137 -199.905456542969 1.973199486732
-2.829844951630 -73.213317871094 -222.122528076172 2.086011886597
11.447433471680 -74.475990295410 -210.730972290039 2.845018863678
8.825258255005 -77.055747985840 -217.479034423828 1.348341822624
80.659286499023 -70.486701965332 -216.226577758789 1.638501644135
8.817607879639 -73.692283630371 -213.717147827148 1.886472105980
9.052657127380 -70.565353393555 -215.451492309570 2.719614982605
-17.083215713501 -76.569061279297 -214.842864990234 2.687587738037
-91.626396179199 -76.306457519531 -210.932464599609 3.268728971481
-100.294906616211 -74.884567260742 -216.124191284180 3.280724048615
2.528645992279 -71.315238952637 -217.490463256836 4.039085388184
-167.969787597656 -80.210540771484 -219.411529541016 7.969516277313
15.541456222534 -68.089370727539 -217.237365722656 1.370433449745
-146.261367797852 -75.228721618652 -218.264938354492 1.080018520355
12.725579261780 -72.986671447754 -225.024871826172 2.593592643738
-137.110626220703 -78.682388305664 -224.042892456055 2.636418104172
-116.416854858398 -76.887298583984 -228.390304565430 2.870186090469
16.281858444214 -71.173225402832 -219.919326782227 1.621800065041
78.930572509766 -70.506362915039 -218.810989379883 2.634631156921
4.442202091217 -73.578987121582 -223.901214599609 1.413125038147
-109.582176208496 -73.594474792480 -231.121002197266 3.369710683823
66.390335083008 -72.701499938965 -227.724227905273 4.019968509674
85.296714782715 -72.448196411133 -229.992797851563 3.520503997803
-128.641479492188 -75.433616638184 -237.219543457031 4.827187538147
-121.509170532227 -75.139007568359 -228.800552368164 2.100447177887
-10.335231781006 -66.695533752441 -224.913101196289 2.741659879684
70.607727050781 -71.447898864746 -234.604507446289 0.304613023996
63.088142395020 -71.564750671387 -232.080413818359 4.893713474274
69.903129577637 -70.042480468750 -228.278503417969 2.774650335312
-138.912414550781 -70.456375122070 -232.755294799805 2.257823467255
67.037345886230 -72.723701477051 -229.889602661133 2.317660808563
63.831577301025 -66.970359802246 -235.342605590820 2.429993867874
-167.323120117188 -73.681137084961 -231.078430175781 3.287068128586
1.287286996841 -82.901954650879 -242.972564697266 5.613336563110
20.202568054199 -74.430541992188 -238.890441894531 2.120695352554
-7.806120872498 -68.530166625977 -242.289245605469 1.522773504257
16.200639724731 -63.575687408447 -239.623382568359 1.372822165489
66.419136047363 -72.253837585449 -237.930862426758 1.352749705315
4.849875926971 -69.192466735840 -245.842224121094 4.119472026825
-13.748744964600 -64.864311218262 -239.943572998047 2.096830368042
-4.227663993835 -67.918647766113 -234.272384643555 0.860831439495
63.284641265869 -71.580879211426 -242.353637695313 1.359901189804
-1.178437948227 -72.339843750000 -242.386581420898 0.189872041345
-6.865563869476 -73.938262939453 -243.128295898438 2.006885766983
13.568885803223 -76.973464965820 -241.257568359375 3.062482357025
-168.986938476563 -80.853858947754 -239.857910156250 7.258414268494
51.561439514160 -73.566833496094 -247.417984008789 1.224089860916
45.985141754150 -62.058578491211 -254.873733520508 2.160397768021
59.242500305176 -71.999725341797 -243.791412353516 2.258303880692
-13.952083587646 -69.554756164551 -247.982208251953 1.383590340614
55.369567871094 -70.051368713379 -244.875762939453 1.066661238670
-76.578002929688 -74.573547363281 -251.193740844727 1.141436815262
48.315067291260 -72.110298156738 -248.085952758789 1.473493933678
-88.289375305176 -73.824676513672 -252.686706542969 1.865225434303
-122.455360412598 -77.013214111328 -258.278015136719 3.432891607285
-133.156295776367 -76.731575012207 -250.878723144531 5.403330802917
46.736820220947 -74.376335144043 -251.451736450195 3.107948303223
-130.792495727539 -80.267974853516 -249.733276367188 8.982447624207
-109.578651428223 -71.558097839355 -252.633483886719 4.548864364624
-120.189125061035 -73.096511840820 -257.444183349609 2.105132102966
-86.440414428711 -75.250198364258 -253.700698852539 1.715461850166
-111.950515747070 -71.077743530273 -256.812408447266 1.365804433823
-125.795059204102 -81.304756164551 -261.946228027344 4.641253471375
-149.629714965820 -73.490913391113 -268.311676025391 1.557096242905
-16.993234634399 -70.953849792480 -269.239929199219 3.400610446930
-176.429687500000 -81.758255004883 -263.882293701172 12.054624557495
-16.936576843262 -71.823493957520 -275.711120605469 4.152086257935
-160.155273437500 -71.973899841309 -266.140960693359 2.791737318039
-154.426574707031 -78.659172058105 -270.577362060547 1.557943940163
-173.379089355469 -77.482070922852 -276.641693115234 6.746500492096
-17.666988372803 -75.012855529785 -283.655212402344 3.872508764267
-128.394195556641 -80.229148864746 -281.601654052734 5.668233871460
-158.143371582031 -77.151115417480 -285.379974365234 3.414521694183
-144.380401611328 -75.360969543457 -279.245422363281 2.823953151703
-136.571289062500 -79.650558471680 -275.334259033203 9.434617042542
-10.335576057434 -64.026382446289 -284.107666015625 4.673197269440
-128.086730957031 -80.580146789551 -281.552093505859 5.824460029602
-142.506088256836 -72.261436462402 -285.199218750000 1.256326913834
-116.726325988770 -82.055297851563 -284.519500732422 6.107341766357
-84.368431091309 -71.535301208496 -289.311767578125 2.278964042664
-60.833282470703 -77.182815551758 -286.367828369141 2.527007341385
-10.468955039978 -75.498634338379 -287.564636230469 1.010908842087
-56.974483489990 -72.830062866211 -281.867614746094 4.167552471161
-58.490066528320 -71.267494201660 -288.375915527344 1.665530323982
-73.919502258301 -72.891250610352 -289.848907470703 2.395744323730
-91.642707824707 -73.414398193359 -295.718597412109 3.954761266708
-93.933052062988 -73.573051452637 -286.546966552734 2.504066467285
-160.506591796875 -77.286949157715 -290.600372314453 2.242607831955
-161.590759277344 -78.428512573242 -294.210418701172 4.558418750763
-125.536148071289 -80.966690063477 -292.137176513672 3.888169527054
-146.123489379883 -76.493286132813 -293.006134033203 1.081725597382
-152.485733032227 -80.663681030273 -305.456268310547 3.085111856461
-155.608016967773 -82.349853515625 -310.007781982422 5.017915725708
48.812606811523 -64.652786254883 -12.233152389526 3.884248971939
13.816329002380 -70.247695922852 -32.820011138916 6.302105903625
42.621181488037 -60.621597290039 -36.083686828613 3.135143280029
-14.104916572571 -73.083656311035 -65.782371520996 1.896664977074
81.136917114258 -63.692295074463 -65.649459838867 4.065331459045
91.265205383301 -60.172801971436 -66.881332397461 5.234935760498
79.177497863770 -73.385520935059 -65.331222534180 3.546984910965
