10.723669052124 -78.049224853516 -229.603515625000 1.773176193237
90.224342346191 -75.922882080078 -231.104385375977 7.925664901733
7.126594066620 -72.125404357910 -232.447982788086 0.827685654163
6.048182010651 -72.664436340332 -231.574295043945 1.515637874603
-10.794660568237 -75.341804504395 -233.763061523438 0.949422657490
-8.311834335327 -76.660034179688 -228.235351562500 2.129395008087
19.124055862427 -72.764083862305 -235.709426879883 1.521705508232
-14.394213676453 -69.984703063965 -233.987838745117 3.059012174606
68.895797729492 -74.778671264648 -244.059600830078 3.519416809082
-12.023048400879 -73.134399414063 -241.395309448242 2.307881116867
17.778741836548 -75.296005249023 -237.468551635742 1.217230081558
-161.158218383789 -72.473937988281 -238.408798217773 1.812285780907
-8.061903953552 -70.799880981445 -236.555847167969 0.596755206585
-8.552187919617 -77.599967956543 -239.931610107422 4.456494808197
-169.294555664063 -77.716178894043 -249.039474487305 4.414831638336
-13.146477699280 -71.355201721191 -245.057403564453 1.257144093513
12.371717453003 -70.186508178711 -246.337951660156 2.087219476700
-150.666961669922 -77.825752258301 -250.985183715820 1.876851081848
-79.668334960938 -75.647888183594 -253.336654663086 1.088403224945
-64.514305114746 -77.339431762695 -248.044082641602 1.751020312309
48.669837951660 -69.759994506836 -249.236312866211 1.605435371399
-73.999336242676 -74.272834777832 -246.082885742188 1.333779811859
13.426921844482 -74.817520141602 -251.773544311523 4.555149555206
-74.609466552734 -77.292297363281 -250.817153930664 1.561481952667
-18.143241882324 -71.002586364746 -242.298629760742 0.872917294502
-147.191375732422 -80.286560058594 -251.841949462891 1.276734232903
42.329017639160 -68.061828613281 -253.772613525391 1.409220337868
-83.657958984375 -80.672943115234 -257.920806884766 6.679127216339
-105.689308166504 -70.487640380859 -255.490615844727 2.197519302368
-103.117225646973 -77.273094177246 -254.155807495117 4.739479064941
-124.429718017578 -70.705970764160 -250.319519042969 4.004142761230
-108.572242736816 -69.804420471191 -257.383972167969 2.320051193237
-106.841972351074 -73.953735351563 -256.932617187500 1.402379035950
18.433706283569 -68.095024108887 -258.666046142578 5.038683414459
-133.591964721680 -71.799613952637 -264.852722167969 0.897995054722
-18.904838562012 -75.881576538086 -275.993072509766 6.680297851563
-152.356552124023 -71.242019653320 -284.135955810547 2.467400312424
-171.547790527344 -79.065895080566 -286.485992431641 5.529798984528
-127.829338073730 -77.265716552734 -281.825561523438 3.797541141510
-117.051170349121 -70.995201110840 -286.595764160156 1.281195759773
-78.628181457520 -69.532920837402 -282.310455322266 5.098909378052
-61.022090911865 -77.821395874023 -287.399139404297 3.198546648026
-43.687450408936 -73.274551391602 -286.470062255859 2.231320142746
-18.644168853760 -81.222976684570 -293.283477783203 4.455106258392
-16.768236160278 -71.426811218262 -295.874816894531 3.842747688293
-42.084907531738 -79.748420715332 -292.439208984375 4.015316963196
-37.636123657227 -75.468719482422 -289.808013916016 0.363439887762
-22.627029418945 -69.934959411621 -289.799285888672 1.753261089325
-77.465652465820 -74.188980102539 -295.581024169922 4.770602703094
-60.100944519043 -74.359092712402 -292.312072753906 3.032261610031
-22.978752136230 -69.373474121094 -293.471405029297 3.936143636703
-17.028886795044 -78.059623718262 -289.848388671875 2.284362792969
-6.686494827271 -74.410438537598 -295.786621093750 3.608259677887
-0.533147990704 -69.017929077148 -295.083099365234 1.586213827133
-97.926597595215 -75.546890258789 -294.211883544922 2.944437980652
-140.442535400391 -80.215286254883 -296.685882568359 5.404181480408
-118.104148864746 -77.019477844238 -292.682800292969 3.388734817505
-156.546600341797 -72.090927124023 -292.085266113281 1.012287974358
-152.821044921875 -77.560638427734 -298.738922119141 1.515064001083
-151.146881103516 -71.852783203125 -299.816162109375 2.723753929138
44.025066375732 -67.044586181641 -25.796882629395 0.554245293140
21.682525634766 -77.125152587891 -25.143991470337 4.597304344177
51.653591156006 -65.933815002441 -25.588819503784 4.318962097168
48.370040893555 -72.992103576660 -38.310302734375 4.159940242767
89.310142517090 -70.987960815430 -75.566375732422 4.285459995270
96.887794494629 -74.083648681641 -77.874732971191 1.083850860596
102.221778869629 -72.099044799805 -78.673858642578 2.842372417450
98.719741821289 -70.862342834473 -87.755378723145 2.428518056870
55.375782012939 -73.124969482422 -92.962097167969 2.642996549606
43.015644073486 -80.279907226563 -90.677879333496 8.853782653809
63.832485198975 -70.622085571289 -93.385253906250 3.111998319626
-65.520217895508 -71.293853759766 -95.173599243164 1.528676867485
72.961441040039 -69.174652099609 -89.565559387207 4.907069206238
99.477203369141 -60.547985076904 -103.184455871582 2.699423313141
74.557807922363 -71.472610473633 -105.161193847656 2.410772800446
92.787834167480 -69.746109008789 -106.945144653320 1.608813047409
-88.160400390625 -74.184097290039 -106.478942871094 3.855511426926
46.607311248779 -69.531951904297 -96.793701171875 1.597356319427
-88.703552246094 -75.273696899414 -99.003326416016 2.600657463074
52.089473724365 -72.992568969727 -112.286155700684 3.276467323303
36.070922851563 -81.965766906738 -104.711685180664 5.990183830261
98.111045837402 -70.019256591797 -106.326423645020 4.382123470306
36.366439819336 -72.534782409668 -105.628280639648 3.884963035583
45.998119354248 -75.346374511719 -124.593658447266 3.098201036453
42.144676208496 -73.145149230957 -115.240333557129 1.622373819351
112.472831726074 -69.626045227051 -113.993110656738 2.362956285477
-80.183380126953 -81.534774780273 -122.643997192383 10.742738723755
113.289047241211 -78.491157531738 -124.889915466309 3.534142971039
42.440830230713 -66.027740478516 -127.944046020508 5.371890544891
39.432022094727 -72.449630737305 -121.838859558105 2.091594934464
33.778434753418 -73.598060607910 -121.261756896973 1.972812414169
-54.744438171387 -80.579284667969 -130.003479003906 7.409218788147
29.144926071167 -70.782279968262 -125.063072204590 1.584095835686
-78.878921508789 -68.480453491211 -139.449035644531 0.853091180325
-55.088451385498 -79.457550048828 -133.036972045898 5.074282169342
-79.986213684082 -70.106750488281 -135.415832519531 2.302779197693
37.204048156738 -69.543182373047 -134.968231201172 2.117595195770
-60.606910705566 -76.347877502441 -133.951965332031 4.579632759094
35.004772186279 -71.713371276855 -134.765380859375 1.305065035820
-71.299064636230 -70.644195556641 -140.267364501953 1.737587094307
-59.972457885742 -67.122055053711 -144.227508544922 2.235834598541
21.801212310791 -74.578506469727 -147.678222656250 1.859773278236
112.082015991211 -75.440559387207 -145.980438232422 2.270648479462
114.109878540039 -65.334770202637 -141.289886474609 3.996022224426
29.568738937378 -73.531967163086 -145.715927124023 3.847003221512
-51.459285736084 -77.072822570801 -140.162521362305 1.013129115105
103.133224487305 -68.491767883301 -156.205368041992 5.532750606537
-77.704528808594 -73.437042236328 -142.439285278320 1.848153710365
-59.059741973877 -73.163780212402 -142.704132080078 1.553485751152
31.092626571655 -64.555847167969 -147.237533569336 4.274901866913
-79.463172912598 -76.086753845215 -146.181060791016 4.928482055664
-70.851570129395 -72.615455627441 -150.023239135742 1.087485790253
112.575500488281 -78.695571899414 -152.392349243164 3.114565134048
-65.252136230469 -70.946334838867 -156.714569091797 2.056276321411
-40.527595520020 -68.031639099121 -152.255645751953 3.279114007950
23.018428802490 -70.924263000488 -145.556274414063 2.482568740845
-71.953140258789 -74.540557861328 -143.198287963867 1.247511625290
11.705826759338 -70.902381896973 -149.970123291016 1.819783568382
31.000549316406 -72.316871643066 -161.491958618164 1.842060923576
30.744989395142 -68.862907409668 -155.031433105469 1.334325790405
17.894691467285 -78.846298217773 -155.111053466797 4.150347709656
-52.091251373291 -76.933822631836 -153.579833984375 2.172967195511
21.119689941406 -76.834457397461 -155.046813964844 2.575477838516
-48.398559570313 -72.195678710938 -152.656738281250 2.178703546524
1.625481009483 -73.051841735840 -156.024658203125 3.748327732086
17.813146591187 -71.483039855957 -151.900360107422 2.010772705078
-67.022460937500 -71.867759704590 -159.847412109375 1.734344244003
-48.733299255371 -69.360366821289 -155.090286254883 1.426480054855
-69.692497253418 -73.796836853027 -151.300506591797 0.980516433716
20.633317947388 -70.995681762695 -160.744949340820 1.010074853897
22.372516632080 -71.570304870605 -152.095031738281 1.303871870041
1.334200024605 -73.222854614258 -169.531265258789 2.093071460724
21.419097900391 -70.845527648926 -153.035583496094 1.889301538467
29.395202636719 -71.163558959961 -171.988128662109 1.132397890091
-48.232528686523 -74.323211669922 -165.631713867188 2.903555393219
-40.687255859375 -84.769172668457 -166.242645263672 5.655938148499
-43.261013031006 -75.418495178223 -162.332580566406 1.837669134140
26.702499389648 -73.806632995605 -158.822296142578 2.449222087860
-46.038162231445 -69.583213806152 -166.897293090820 3.769479274750
-40.217845916748 -71.243209838867 -171.512481689453 0.943606376648
20.940757751465 -70.216232299805 -167.035644531250 2.177163600922
-40.878314971924 -74.260047912598 -178.305068969727 1.504552721977
25.644144058228 -66.114143371582 -172.177383422852 2.970825433731
108.311470031738 -66.325607299805 -165.775085449219 3.587829828262
-36.096286773682 -73.690666198730 -173.452178955078 2.477931976318
97.066795349121 -68.284355163574 -176.833969116211 8.158833503723
-36.014190673828 -73.017898559570 -179.385574340820 0.771022856236
-39.789951324463 -78.345840454102 -183.649703979492 6.393282413483
22.572639465332 -76.788284301758 -181.173431396484 0.933289587498
105.565460205078 -73.416336059570 -185.235168457031 2.596231222153
-35.678493499756 -70.822227478027 -182.283233642578 1.383181571960
-38.112419128418 -73.260101318359 -182.138732910156 2.618761539459
-23.952650070190 -80.578414916992 -189.192581176758 1.745657324791
-150.875900268555 -74.736701965332 -189.381759643555 3.030682325363
8.474982261658 -72.222793579102 -185.239761352539 4.283516407013
101.750839233398 -70.200508117676 -196.356826782227 2.737075805664
-163.854125976563 -74.308395385742 -191.000244140625 6.931566715240
-21.138261795044 -67.333557128906 -188.591476440430 2.125213861465
-117.415718078613 -77.397804260254 -198.239761352539 5.454213619232
-129.286712646484 -76.924507141113 -193.591033935547 3.983027696609
-107.492065429688 -76.021217346191 -200.479324340820 6.594617366791
-117.477546691895 -72.564544677734 -200.089340209961 4.108269214630
-12.055627822876 -75.004951477051 -197.808609008789 1.312798619270
17.873867034912 -69.569137573242 -197.769287109375 0.956791579723
-17.834062576294 -67.733489990234 -203.688217163086 1.988877415657
-131.348587036133 -74.370300292969 -206.365768432617 4.299134731293
-21.930561065674 -67.257774353027 -201.300628662109 2.539496898651
-128.900985717773 -71.038223266602 -202.664367675781 2.412868738174
-19.251403808594 -72.728385925293 -199.003494262695 3.085890054703
-149.708831787109 -72.737800598145 -199.967300415039 2.064159393311
89.812591552734 -65.441215515137 -208.774932861328 5.636962890625
-165.813537597656 -65.405357360840 -200.158935546875 1.719909191132
-3.455221891403 -73.915687561035 -223.734420776367 2.825229167938
10.886162757874 -75.567825317383 -212.473983764648 2.273921251297
8.171817779541 -78.008895874023 -219.237167358398 2.145176649094
80.109260559082 -72.601478576660 -218.454010009766 2.508631706238
8.246605873108 -74.699821472168 -215.428085327148 2.007850646973
8.518503189087 -71.552566528320 -217.119750976563 1.988330841064
-17.704765319824 -77.148010253906 -216.391693115234 2.421223163605
-92.202323913574 -75.756019592285 -211.894714355469 2.660075902939
-100.886161804199 -74.122444152832 -216.997787475586 3.210151433945
1.968016028404 -72.169418334961 -219.118026733398 2.869717597961
-168.660675048828 -78.324142456055 -219.830520629883 6.465451240540
15.032355308533 -69.154815673828 -218.921096801758 1.831578254700
-146.867187500000 -73.705032348633 -218.783401489258 1.720819473267
12.079335212708 -73.894966125488 -226.754913330078 2.082671642303
-137.817077636719 -77.220870971680 -224.681121826172 1.919086694717
-117.130859375000 -75.693130493164 -229.164505004883 2.477154254913
15.702887535095 -72.211425781250 -221.652191162109 1.745169639587
78.360870361328 -72.556724548340 -221.024841308594 3.054370880127
3.796312093735 -74.371490478516 -225.574966430664 1.469250082970
-110.265281677246 -72.470733642578 -231.901687622070 2.875012874603
65.719718933105 -74.424629211426 -229.869857788086 4.214583873749
84.609954833984 -74.439598083496 -232.282501220703 3.810219526291
-129.397384643555 -73.919265747070 -237.876327514648 3.631056308746
-122.197502136230 -73.858406066895 -229.510070800781 1.221877217293
-10.876282691956 -67.240173339844 -226.373596191406 1.457147240639
69.904243469238 -73.140075683594 -236.764480590820 1.846823573112
62.403144836426 -73.173393249512 -234.183532714844 3.273583173752
69.270324707031 -71.814155578613 -230.413894653320 0.340998947620
-139.553085327148 -68.843612670898 -233.261779785156 1.086541652679
66.349822998047 -74.426177978516 -232.040313720703 3.218142747879
63.195236206055 -68.545272827148 -237.386047363281 1.083653092384
-167.998229980469 -71.639839172363 -231.408462524414 2.365283966064
0.347703993320 -83.369705200195 -244.751174926758 5.239889621735
19.426670074463 -75.259315490723 -240.697631835938 1.656809210777
-8.508981704712 -68.866371154785 -243.793228149414 2.595939636230
15.593592643738 -64.332839965820 -241.245422363281 1.086912870407
65.678123474121 -73.831710815430 -240.069046020508 1.538485527039
4.107427120209 -69.679008483887 -247.454177856445 4.845192909241
-14.374155044556 -65.140373229980 -241.349441528320 2.815463066101
-4.860375881195 -68.426422119141 -235.796768188477 1.798372030258
62.521289825439 -73.045883178711 -244.457168579102 2.233538627625
-1.944074034691 -72.779167175293 -243.996383666992 1.754323005676
-7.661536216736 -74.276199340820 -244.716125488281 2.203770637512
12.735326766968 -77.662368774414 -243.048553466797 2.883383989334
-169.843338012695 -78.659042358398 -240.275360107422 5.729413986206
50.729648590088 -74.772621154785 -249.457229614258 2.592549800873
45.281826019287 -63.071815490723 -256.705383300781 2.916337490082
58.462150573730 -73.379821777344 -245.869049072266 2.163527250290
-14.713644981384 -69.711669921875 -249.451873779297 1.193764567375
54.612781524658 -71.354835510254 -246.895370483398 1.603524804115
-77.434494018555 -73.687622070313 -252.243942260742 1.782071590424
47.502029418945 -73.255256652832 -250.079086303711 1.475397109985
-89.143379211426 -72.731369018555 -253.634460449219 1.351772665977
-123.397544860840 -75.296028137207 -259.002807617188 2.245516777039
-134.036056518555 -74.950004577637 -251.516754150391 3.740485429764
45.862174987793 -75.447593688965 -253.464172363281 4.018540859222
-131.720550537109 -78.539543151855 -250.440048217773 7.123130321503
-110.392623901367 -70.127548217773 -253.382522583008 4.049974918365
-121.062622070313 -71.428161621094 -258.131347656250 2.567492723465
-87.325241088867 -74.171478271484 -254.682983398438 0.858819425106
-112.788177490234 -69.549888610840 -257.535552978516 0.991174280643
-126.833305358887 -79.481079101563 -262.705200195313 4.394254684448
-150.587493896484 -71.199089050293 -268.772613525391 2.956155061722
-17.938255310059 -70.758399963379 -270.702789306641 4.133481979370
-177.481948852539 -79.101676940918 -264.251159667969 11.788300514221
-17.944704055786 -71.536300659180 -277.185913085938 5.707379817963
-161.070602416992 -69.546066284180 -266.498321533203 1.787592887878
-155.483566284180 -76.257522583008 -271.073638916016 2.914004802704
-174.460342407227 -74.692687988281 -276.972198486328 6.899395465851
-18.786430358887 -74.599830627441 -285.168426513672 4.785831928253
-129.564178466797 -78.083595275879 -282.322448730469 3.557901859283
-159.288101196289 -74.479240417480 -285.823913574219 3.244020938873
-145.452011108398 -72.995994567871 -279.772491455078 2.118019819260
-137.683090209961 -77.464645385742 -275.983703613281 7.611712932587
-11.283705711365 -63.725978851318 -285.522583007813 6.224873542786
-129.262008666992 -78.440109252930 -282.280273437500 3.976446390152
-143.573608398438 -69.841911315918 -285.696289062500 1.558898448944
-117.949539184570 -80.053169250488 -285.357116699219 3.917761802673
-85.464714050293 -69.981636047363 -290.252990722656 2.554363489151
-62.001304626465 -76.044151306152 -287.573608398438 1.729528546333
-11.627011299133 -75.144096374512 -289.140533447266 1.724716544151
-58.039222717285 -71.818038940430 -283.042541503906 3.181041717529
-59.579006195068 -70.138748168945 -289.515960693359 0.784022510052
-75.043212890625 -71.495750427246 -290.891021728516 2.150132656097
-92.816619873047 -71.653106689453 -296.628662109375 5.181283473969
-95.039451599121 -71.906333923340 -287.442535400391 2.711805343628
-161.692810058594 -74.502883911133 -291.027008056641 1.450402259827
-162.822509765625 -75.575378417969 -294.644287109375 3.493546009064
-126.798439025879 -78.715896606445 -292.889434814453 2.504569530487
-147.317535400391 -73.903739929199 -293.533782958984 2.239269733429
-153.840148925781 -77.794158935547 -305.991577148438 0.230926454067
-157.023529052734 -79.365280151367 -310.541931152344 5.116103172302
49.911117553711 -69.176757812500 -14.155449867249 3.981830358505
14.674313545227 -73.919807434082 -34.544975280762 6.273065567017
43.603965759277 -64.707305908203 -37.897312164307 2.519242525101
-13.538433074951 -75.840232849121 -67.324668884277 3.918634891510
81.839820861816 -67.967361450195 -67.804122924805 3.734411954880
92.013511657715 -64.592124938965 -69.065254211426 5.438547611237
79.727935791016 -77.631759643555 -67.607879638672 5.374914169312
71.990402221680 -73.728935241699 -72.981468200684 3.074545860291
91.063293457031 -72.596084594727 -79.812103271484 3.922797203064
-98.283668518066 -68.060218811035 -70.529663085938 3.983488798141
65.255180358887 -71.100570678711 -77.568191528320 2.738825082779
-35.961132049561 -76.137977600098 -79.123344421387 1.782053589821
97.815368652344 -69.837158203125 -88.198593139648 3.122102737427
63.143905639648 -65.919166564941 -93.241058349609 1.468299627304
108.162834167480 -77.723342895508 -94.564193725586 6.856132507324
98.154304504395 -77.491516113281 -102.274345397949 5.514652252197
73.975288391113 -71.291938781738 -104.829124450684 2.096348524094
-83.267356872559 -68.209632873535 -104.262603759766 1.092848896980
54.234855651855 -69.521942138672 -109.449623107910 3.542665004730
108.613800048828 -65.467300415039 -110.601440429688 1.539760947227
44.816963195801 -70.386451721191 -117.493186950684 2.063877582550
79.094223022461 -69.045211791992 -109.733505249023 4.773716449738
40.889667510986 -70.635093688965 -110.817878723145 2.025499343872
101.317855834961 -70.506278991699 -106.250671386719 2.104443073273
46.962776184082 -71.075759887695 -110.365928649902 1.820056319237
104.912620544434 -79.461242675781 -111.926620483398 5.234218120575
110.892242431641 -76.310241699219 -112.376998901367 2.709343671799
-81.119644165039 -69.150856018066 -115.014137268066 2.549736738205
-84.207893371582 -69.379684448242 -121.847053527832 2.599918365479
43.043270111084 -75.438087463379 -121.734092712402 1.640802502632
112.868377685547 -72.822158813477 -127.504577636719 1.275666236877
112.434471130371 -70.882194519043 -126.807586669922 0.856161594391
-90.909439086914 -71.308654785156 -126.972946166992 3.291865110397
103.772155761719 -74.128257751465 -131.327255249023 5.957075595856
-60.645553588867 -79.467803955078 -132.922622680664 6.394023895264
-87.041336059570 -73.623992919922 -128.892150878906 4.274082660675
-70.382392883301 -73.979560852051 -127.144081115723 5.307545185089
-61.656181335449 -67.839492797852 -127.777770996094 2.019554376602
31.419708251953 -71.492279052734 -133.575134277344 1.329401373863
44.345088958740 -66.471931457520 -139.102569580078 8.666833877563
-71.363861083984 -72.228950500488 -136.729553222656 2.682552576065
27.980556488037 -67.449020385742 -131.365722656250 4.047650337219
112.414672851563 -70.337715148926 -149.496780395508 2.771420240402
-38.160957336426 -72.859237670898 -151.591110229492 1.777648568153
34.059177398682 -74.941665649414 -152.216094970703 2.165827274323
111.413894653320 -67.976333618164 -153.308456420898 2.323917388916
35.381755828857 -72.613929748535 -144.407318115234 2.587446928024
108.413154602051 -68.946334838867 -142.258682250977 2.341325283051
-52.496200561523 -71.592185974121 -150.929351806641 1.092660546303
-76.059288024902 -68.129913330078 -152.674697875977 4.293827056885
-60.153560638428 -73.047088623047 -150.952270507813 5.737400531769
-44.285350799561 -78.754882812500 -166.193878173828 2.084630012512
1.611042022705 -75.396301269531 -157.413558959961 2.767546892166
107.005233764648 -71.684623718262 -156.016845703125 2.846678972244
106.709938049316 -70.277992248535 -164.911483764648 2.656560420990
10.290700912476 -71.820251464844 -158.333923339844 2.025981664658
-0.145155996084 -70.407203674316 -161.763977050781 2.522018671036
21.263689041138 -68.616165161133 -155.559387207031 2.638163805008
25.007408142090 -69.473114013672 -157.773574829102 1.370820403099
105.005538940430 -70.462242126465 -168.484191894531 2.929088830948
110.375801086426 -75.359779357910 -170.787918090820 1.804569959641
22.502590179443 -67.781959533691 -179.294784545898 1.224750876427
22.385862350464 -76.012435913086 -167.981414794922 1.672692775726
109.688278198242 -67.279693603516 -165.606948852539 1.939722895622
-32.016460418701 -70.250007629395 -181.318862915039 1.324169754982
109.409782409668 -71.364807128906 -170.506561279297 1.410259127617
16.715187072754 -71.847297668457 -165.389633178711 1.538454294205
19.734802246094 -71.730293273926 -172.101318359375 2.295474290848
106.145820617676 -71.427177429199 -175.606918334961 1.594008088112
26.440847396851 -70.187217712402 -171.898071289063 1.581694364548
112.860649108887 -68.287734985352 -189.284774780273 5.636391162872
-40.458465576172 -71.840446472168 -181.800888061523 4.367469310760
21.895217895508 -71.700691223145 -170.440399169922 3.029347419739
106.369209289551 -70.598693847656 -188.547698974609 0.990660786629
20.747465133667 -73.079277038574 -178.158767700195 2.278909921646
-152.689010620117 -71.140182495117 -185.319244384766 1.484075903893
-29.581802368164 -67.822265625000 -191.767181396484 2.154896259308
22.152976989746 -67.693038940430 -187.522033691406 2.308878421783
-118.247383117676 -76.233688354492 -192.579116821289 5.287025928497
-114.350242614746 -68.969688415527 -193.684280395508 1.499716997147
23.950525283813 -72.595504760742 -189.452087402344 0.929123818874
8.499387741089 -67.337242126465 -186.358749389648 6.924912929535
-28.981929779053 -67.044349670410 -192.072158813477 2.361049413681
-30.219919204712 -78.778396606445 -190.682876586914 1.477255821228
-31.225376129150 -72.968452453613 -190.211502075195 1.117282867432
10.124974250793 -68.048858642578 -182.124206542969 5.332156181335
-152.571029663086 -73.477294921875 -196.025085449219 2.413725137711
-148.723495483398 -72.523384094238 -191.464431762695 1.640904545784
-149.599426269531 -78.981132507324 -199.621261596680 0.909458458424
-25.886316299438 -70.732086181641 -192.913818359375 1.737087965012
12.922392845154 -67.498519897461 -201.824951171875 2.137733221054
96.347152709961 -68.570495605469 -195.271759033203 3.298897266388
-115.349143981934 -70.799102783203 -198.558959960938 1.587431669235
19.362903594971 -77.562683105469 -199.479614257813 1.776092410088
-14.612089157104 -70.063125610352 -195.952728271484 1.328589439392
-18.835201263428 -72.031333923340 -199.885375976563 3.084695100784
99.947570800781 -68.397232055664 -203.818603515625 3.201207637787
4.768010139465 -75.515022277832 -199.387939453125 4.871354103088
-24.209447860718 -69.787948608398 -198.339355468750 1.318644285202
-122.051887512207 -77.667900085449 -205.017562866211 4.985730648041
-136.575775146484 -74.161758422852 -202.883132934570 1.945322871208
-116.523628234863 -65.214172363281 -206.794494628906 3.227581739426
-144.120315551758 -78.459587097168 -202.659790039063 1.867981553078
14.456911087036 -71.197616577148 -199.979797363281 3.067882299423
90.100769042969 -73.486701965332 -201.821533203125 3.523233175278
-167.101516723633 -66.331451416016 -198.575576782227 2.970958232880
98.317245483398 -69.332275390625 -204.284545898438 1.895187854767
-26.232547760010 -78.917030334473 -206.200302124023 2.842749595642
92.682769775391 -65.779312133789 -211.634887695313 2.928470849991
86.390632629395 -73.979637145996 -211.340576171875 1.729687690735
7.833735942841 -75.265563964844 -203.497894287109 2.517885208130
19.248041152954 -69.774711608887 -215.584655761719 3.361433744431
11.638712882996 -66.544448852539 -210.560974121094 2.050962209702
-13.104782104492 -72.018104553223 -226.010208129883 0.924886465073
-95.518287658691 -77.214492797852 -220.768905639648 1.144871115685
-15.219923973083 -75.552635192871 -212.116897583008 1.535744071007
85.113647460938 -71.841560363770 -221.176956176758 1.079963326454
-96.913436889648 -77.081535339355 -216.124221801758 3.684393882751
-101.356040954590 -68.089569091797 -222.830902099609 1.656230092049
-99.355346679688 -71.720458984375 -219.053955078125 1.564319610596
87.612617492676 -74.451873779297 -225.861373901367 3.119165420532
-138.317520141602 -74.737068176270 -224.944778442383 2.281053781509
-132.551101684570 -82.073089599609 -228.118896484375 1.974649906158
-118.558860778809 -73.705863952637 -224.654876708984 2.099568128586
-115.707389831543 -69.530120849609 -220.526184082031 4.933830261230
-134.633636474609 -70.058151245117 -228.146438598633 2.936154842377
-116.302688598633 -84.276596069336 -228.689285278320 9.965030670166
-112.966835021973 -71.865043640137 -228.725936889648 1.819405555725
-9.275592803955 -77.935295104980 -225.063034057617 1.543280124664
-16.821491241455 -76.460334777832 -224.660446166992 2.471303462982
-3.013185977936 -68.008666992188 -231.188583374023 1.689398288727
-12.117233276367 -67.102600097656 -228.364715576172 1.746981263161
13.623741149902 -73.194648742676 -236.369476318359 2.192053556442
-23.482301712036 -69.078964233398 -231.096435546875 7.010702133179
-168.958648681641 -71.771163940430 -219.011199951172 1.864409089088
-8.430546760559 -73.328117370605 -235.692779541016 1.974081873894
78.864509582520 -65.757736206055 -235.825851440430 5.549392700195
10.382013320923 -74.848693847656 -234.921630859375 2.719601631165
-7.387312889099 -71.165710449219 -237.430175781250 1.536382555962
-159.600646972656 -70.663002014160 -234.908721923828 1.670282363892
-146.104919433594 -71.132858276367 -226.999572753906 1.988710641861
57.707736968994 -69.978858947754 -239.633163452148 2.075418233871
-7.784348011017 -73.007232666016 -234.264389038086 0.668713212013
9.965578079224 -75.057289123535 -230.137634277344 1.744570136070
67.504501342773 -75.506195068359 -228.369201660156 4.386041641235
74.505271911621 -70.398040771484 -237.683776855469 2.687616825104
69.641357421875 -72.903266906738 -245.855407714844 5.120281219482
-4.354125976563 -77.072631835938 -235.836654663086 3.221153974533
56.546958923340 -67.963325500488 -238.545379638672 1.998062968254
-21.833597183228 -76.705970764160 -241.890625000000 1.439513802528
-16.207178115845 -67.427604675293 -240.951477050781 2.620425462723
5.209345817566 -71.625175476074 -239.785369873047 1.768276691437
61.271060943604 -76.845176696777 -238.555007934570 3.319621324539
66.264640808105 -68.508705139160 -244.683334350586 1.672858476639
45.682514190674 -72.267570495605 -247.870071411133 2.449646711349
58.510208129883 -76.454017639160 -245.090591430664 3.774910688400
-17.526332855225 -80.497200012207 -250.015670776367 7.609554767609
-86.756233215332 -68.147140502930 -258.602355957031 2.651665449142
-79.567115783691 -69.733505249023 -254.683746337891 0.430616110563
41.502346038818 -76.256576538086 -248.803283691406 5.286248207092
-155.962478637695 -76.478317260742 -248.736968994141 3.586500406265
32.246417999268 -70.941230773926 -259.749725341797 0.666856765747
-94.977027893066 -80.106063842773 -252.185852050781 6.080561637878
-160.413116455078 -67.467399597168 -252.982696533203 1.810077548027
-142.193145751953 -62.000633239746 -250.958419799805 4.364063262939
39.585964202881 -70.454383850098 -256.741760253906 1.478341102600
-128.583389282227 -68.416351318359 -258.735565185547 3.469773292542
-120.725769042969 -75.353462219238 -254.091278076172 3.039385318756
-93.856163024902 -66.886451721191 -256.710906982422 1.301952362061
-15.217698097229 -65.815765380859 -247.942016601563 3.034924983978
29.650053024292 -70.897026062012 -257.903686523438 2.200515508652
22.347330093384 -67.467758178711 -260.666137695313 3.159020185471
-163.597091674805 -65.703483581543 -260.668518066406 3.457300901413
-117.089630126953 -76.910690307617 -262.646850585938 4.197634220123
-15.872571945190 -72.176277160645 -263.744934082031 1.264962911606
-134.147766113281 -72.850242614746 -265.722839355469 2.166837692261
-17.623926162720 -70.522384643555 -271.648498535156 3.863092660904
-165.660537719727 -73.276176452637 -269.655242919922 2.920994997025
-8.174661636353 -73.271446228027 -279.288116455078 2.378486871719
-162.501449584961 -75.329513549805 -286.689056396484 1.331171274185
-168.342651367188 -78.746009826660 -277.398132324219 4.566868305206
-145.122543334961 -74.615966796875 -284.440216064453 0.908067047596
-175.617584228516 -77.600578308105 -283.401214599609 7.423176288605
11.672891616821 -76.344726562500 -291.073608398438 2.378820180893
-106.150108337402 -75.075660705566 -286.339569091797 2.984084129333
-91.105934143066 -65.199134826660 -285.418609619141 5.426724433899
-172.281356811523 -69.495521545410 -282.774475097656 5.485714912415
-96.071739196777 -81.912574768066 -280.513153076172 9.787884712219
-160.174636840820 -75.242576599121 -288.616027832031 1.768690824509
-81.339508056641 -75.676170349121 -299.106536865234 8.232082366943
-76.186408996582 -71.904060363770 -289.290374755859 1.985083222389
-86.985687255859 -75.872138977051 -292.564910888672 3.722196340561
-6.472599029541 -70.199874877930 -289.022369384766 1.205766677856
-94.709007263184 -73.055015563965 -286.555999755859 3.289608478546
-102.471633911133 -76.450775146484 -290.153564453125 2.721624612808
-122.836837768555 -73.684066772461 -292.804107666016 0.877324938774
-120.042335510254 -68.368896484375 -292.920593261719 2.448272228241
-137.314758300781 -74.708160400391 -290.188293457031 1.281525731087
-145.368087768555 -73.006774902344 -300.029144287109 0.758823275566
-148.204391479492 -75.387733459473 -311.610015869141 2.433552265167
25.372325897217 -65.533752441406 -15.847062110901 2.377144336700
34.895336151123 -69.167396545410 -17.482177734375 0.665866315365
31.124349594116 -73.261009216309 -19.609664916992 2.498896598816
46.116561889648 -65.242935180664 -21.145698547363 2.089937448502
24.044435501099 -69.138046264648 -33.579406738281 2.544316530228
-73.990570068359 -70.042022705078 -46.636157989502 1.833662748337
89.787994384766 -62.947063446045 -69.938369750977 6.358124732971
-19.692310333252 -65.939605712891 -67.783874511719 4.400467872620
105.432876586914 -69.351318359375 -77.099899291992 3.785994768143
93.405342102051 -74.806167602539 -78.535820007324 1.461003661156
68.371559143066 -70.617103576660 -81.635581970215 0.989328563213
73.305236816406 -75.214591979980 -84.330116271973 1.651908159256
-43.889019012451 -75.459030151367 -82.389137268066 1.710343480110
60.745616912842 -76.840629577637 -82.870223999023 6.366382598877
-92.806068420410 -72.041061401367 -89.413101196289 2.615185022354
-46.563602447510 -67.912986755371 -84.660171508789 1.792797565460
-56.317317962646 -78.466613769531 -84.293754577637 7.111448764801
103.424743652344 -78.240943908691 -102.106353759766 4.129227161407
60.765403747559 -74.348205566406 -91.904380798340 1.620179176331
68.238754272461 -69.110443115234 -93.209655761719 0.601901471615
-93.999053955078 -63.207607269287 -97.480255126953 4.719601154327
108.347335815430 -72.137924194336 -93.130485534668 4.305797100067
41.622844696045 -68.169204711914 -101.479965209961 2.350748777390
102.756088256836 -69.082405090332 -101.410270690918 1.883443832397
107.391853332520 -65.647750854492 -109.746147155762 0.676338553429
99.549324035645 -70.103317260742 -106.078750610352 3.783628940582
74.548492431641 -74.720474243164 -100.736808776855 2.361811637878
86.705032348633 -72.759994506836 -111.338325500488 6.998480319977
50.474349975586 -68.075241088867 -113.308395385742 3.982519626617
110.525909423828 -63.989868164063 -104.691978454590 4.116234779358
48.378921508789 -75.779647827148 -105.817306518555 2.072460412979
37.483718872070 -68.501594543457 -104.252571105957 3.546836137772
113.735450744629 -70.780494689941 -113.711715698242 2.083859443665
-78.145393371582 -66.144798278809 -108.646438598633 1.627264499664
45.207592010498 -68.497993469238 -114.772727966309 2.118230581284
32.293464660645 -74.487342834473 -118.413085937500 1.375047206879
106.170738220215 -66.374816894531 -113.924392700195 0.613269329071
36.333709716797 -66.970298767090 -113.562171936035 3.647394657135
-86.800315856934 -71.344017028809 -110.264900207520 1.130129933357
-95.087936401367 -66.202339172363 -113.971946716309 3.428774118423
100.965217590332 -76.702743530273 -123.221000671387 7.376394271851
-95.109992980957 -72.045639038086 -118.796791076660 1.735366702080
39.597358703613 -75.338867187500 -122.656257629395 1.798969030380
36.133476257324 -70.877693176270 -125.445579528809 2.579713106155
-86.001220703125 -71.536827087402 -123.646720886230 1.019355297089
33.339992523193 -68.037841796875 -135.525405883789 1.830078244209
112.532089233398 -71.263130187988 -134.506042480469 2.031755924225
-53.993309020996 -71.264572143555 -140.119338989258 2.030705213547
-88.150611877441 -69.323593139648 -133.820861816406 1.195651769638
38.225601196289 -76.343765258789 -131.667678833008 1.796446681023
-86.203475952148 -65.268844604492 -136.897293090820 1.418249726295
-88.160606384277 -75.772575378418 -141.342529296875 7.951673507690
-50.848800659180 -71.110580444336 -136.508590698242 0.864188432693
-71.681381225586 -67.950233459473 -138.771026611328 1.226052045822
-51.055339813232 -70.481773376465 -132.473663330078 1.447053670883
117.597137451172 -65.502433776855 -139.427917480469 5.500747203827
-71.590194702148 -74.190216064453 -133.635467529297 3.616375684738
37.741241455078 -72.067199707031 -132.109878540039 1.250062108040
-78.980194091797 -68.545799255371 -141.641952514648 1.933364868164
-72.208137512207 -71.829994201660 -135.228210449219 2.575609445572
-95.723838806152 -68.743202209473 -142.839279174805 1.649542927742
-56.459445953369 -66.246467590332 -145.347946166992 1.609448552132
30.939878463745 -63.941303253174 -147.954711914063 4.622414588928
26.592855453491 -68.808403015137 -150.470993041992 0.820219635963
20.188611984253 -62.801147460938 -146.241638183594 0.919564485550
111.716705322266 -68.908790588379 -149.208969116211 3.224664926529
-90.708137512207 -69.270469665527 -151.071166992188 2.976550817490
9.414277076721 -72.321571350098 -153.834442138672 1.508310079575
-72.241081237793 -70.516204833984 -155.895050048828 1.368216395378
23.255554199219 -68.261337280273 -150.546524047852 1.725371479988
-50.195121765137 -69.400833129883 -155.947845458984 1.513240098953
9.267027854919 -68.733894348145 -155.716705322266 1.557076334953
16.878787994385 -74.521675109863 -161.067718505859 3.691614389420
15.918790817261 -77.586349487305 -165.396148681641 4.382755756378
-52.602756500244 -74.475143432617 -164.456176757813 5.528529644012
-38.988960266113 -68.816963195801 -156.471374511719 2.026494264603
-48.744388580322 -72.685012817383 -163.393386840820 1.382971644402
-103.998756408691 -72.919540405273 -173.256500244141 4.384512424469
20.920850753784 -72.977928161621 -177.020004272461 2.693734169006
-34.287025451660 -71.401550292969 -179.950637817383 1.877575397491
14.541267395020 -77.146759033203 -179.931793212891 2.569588661194
-142.896209716797 -70.854804992676 -175.571060180664 1.483505249023
-32.233074188232 -66.147964477539 -173.248626708984 1.722963929176
-157.964309692383 -81.092216491699 -177.479919433594 11.406777381897
24.171447753906 -62.718925476074 -183.396652221680 5.888580799103
-35.569328308105 -73.592483520508 -170.693618774414 3.531523704529
-107.500152587891 -68.035736083984 -174.846145629883 2.246798276901
-107.926223754883 -79.384963989258 -184.409072875977 9.942277908325
-32.172885894775 -63.466136932373 -187.065414428711 6.563887596130
-25.599117279053 -77.692886352539 -182.520538330078 1.286897301674
10.504511833191 -69.169769287109 -190.534622192383 3.471154451370
14.109699249268 -66.266227722168 -201.355834960938 2.678663015366
11.740316390991 -71.562942504883 -189.310470581055 0.838486552238
-143.632476806641 -68.994491577148 -185.848937988281 2.666621208191
23.929477691650 -64.577911376953 -191.493392944336 5.748065471649
3.528239011765 -69.441940307617 -198.327148437500 4.860006332397
-135.410797119141 -69.444396972656 -192.383697509766 3.118185758591
-113.325477600098 -70.832176208496 -195.040100097656 2.449687957764
13.482378959656 -67.761947631836 -206.672256469727 2.559534788132
-121.010818481445 -69.216018676758 -196.648330688477 0.707415282726
-108.917678833008 -62.585186004639 -192.561325073242 3.713322877884
-168.834960937500 -74.003105163574 -201.424789428711 3.684902191162
-25.867639541626 -68.494491577148 -200.977722167969 1.289102435112
8.387813568115 -67.917343139648 -201.040588378906 1.717091917992
-147.390319824219 -73.022483825684 -203.643936157227 2.411684274673
-140.092559814453 -76.640457153320 -207.121963500977 3.738103151321
-24.108404159546 -67.955390930176 -209.376724243164 4.599319458008
-14.157640457153 -71.690376281738 -207.073348999023 2.919009208679
-14.824502944946 -72.670143127441 -207.106826782227 3.653886795044
-139.099868774414 -78.168724060059 -201.444610595703 2.536390304565
-19.345699310303 -70.231552124023 -214.121200561523 2.941609382629
-10.023260116577 -78.193305969238 -216.076400756836 2.240127086639
16.656850814819 -65.919227600098 -213.160003662109 3.841368436813
-19.606027603149 -77.737625122070 -213.148727416992 2.579638481140
8.672396659851 -72.383621215820 -210.302139282227 1.404909849167
-13.129353523254 -72.905220031738 -216.316024780273 2.123916387558
-26.158746719360 -65.839050292969 -212.614196777344 6.582994937897
9.572356224060 -79.306045532227 -222.208374023438 1.891185879707
-4.529088973999 -78.624206542969 -220.289474487305 1.675186514854
9.298583984375 -64.761512756348 -221.787857055664 3.142750978470
-8.606242179871 -75.028724670410 -230.443939208984 2.347094297409
-163.059387207031 -74.347267150879 -226.624359130859 1.962562441826
78.681663513184 -73.984405517578 -222.011718750000 1.405591011047
-137.814239501953 -68.762908935547 -223.253219604492 2.808403015137
-137.154602050781 -75.643684387207 -220.771026611328 5.695333480835
-9.632707595825 -71.933189392090 -226.454193115234 1.409559249878
3.719856023788 -70.052856445313 -237.703475952148 2.240356445313
-160.870208740234 -72.291038513184 -231.483489990234 2.196716308594
88.418952941895 -67.457923889160 -222.921752929688 3.581234216690
-3.178700923920 -68.803054809570 -228.315582275391 2.289712190628
-0.984507024288 -71.377197265625 -222.078445434570 1.604496359825
72.034065246582 -74.548828125000 -234.284561157227 2.392017841339
-2.014014005661 -66.815032958984 -238.568481445313 1.386047720909
-15.143366813660 -72.554046630859 -225.213623046875 1.893817543983
-130.069427490234 -67.361831665039 -233.392562866211 3.249312162399
-7.846467018127 -70.354454040527 -239.945632934570 1.528331995010
0.632322013378 -67.465003967285 -231.004760742188 0.334780931473
64.084915161133 -66.065711975098 -240.413650512695 0.792196452618
-159.995391845703 -75.979621887207 -236.251235961914 3.080336093903
-15.946773529053 -68.357757568359 -247.296295166016 2.336902856827
-172.901336669922 -76.777076721191 -238.482177734375 7.268294334412
8.686090469360 -64.186073303223 -242.841308593750 2.241634607315
-165.175994873047 -75.110473632813 -238.095092773438 2.558142423630
-161.927520751953 -75.523094177246 -247.036178588867 2.367678403854
56.381031036377 -71.273689270020 -247.036315917969 0.780926823616
58.302719116211 -73.397979736328 -244.227890014648 1.149250984192
53.012027740479 -71.776771545410 -248.653106689453 0.459830045700
48.962375640869 -70.448005676270 -251.812026977539 1.855904221535
-154.159225463867 -74.887290954590 -242.015457153320 3.823982715607
-158.429473876953 -67.527992248535 -245.458129882813 1.693216562271
-14.431055068970 -77.313407897949 -250.804168701172 3.385546207428
-152.726211547852 -71.640556335449 -247.358581542969 2.809991598129
15.055244445801 -70.783325195313 -252.756149291992 4.957911968231
-174.158309936523 -81.058624267578 -250.919372558594 10.218343734741
-171.899154663086 -70.573692321777 -250.633972167969 5.072757720947
-84.447143554688 -74.845657348633 -246.930664062500 3.325393438339
-173.722869873047 -71.467193603516 -256.585418701172 6.212229251862
-87.503250122070 -71.660102844238 -259.298126220703 3.021731615067
40.729301452637 -68.998741149902 -255.953720092773 1.603150844574
19.080850601196 -74.620819091797 -259.441894531250 4.260705947876
-160.200119018555 -74.658020019531 -263.462921142578 1.051300048828
-104.024627685547 -62.830570220947 -260.552246093750 3.163207054138
37.695594787598 -69.888381958008 -256.348510742188 0.771641492844
-110.417930603027 -83.192222595215 -258.096099853516 9.251136779785
-155.958908081055 -68.988967895508 -266.110473632813 1.677737712860
-105.845108032227 -71.178367614746 -256.254760742188 1.573253989220
-172.514373779297 -77.163383483887 -258.745788574219 7.850172519684
-115.818511962891 -73.248504638672 -264.421905517578 1.919354796410
-156.384948730469 -75.887565612793 -266.191375732422 1.846328854561
-162.453735351563 -68.758346557617 -262.013580322266 0.718541800976
-168.151199340820 -71.691726684570 -263.399536132813 2.593682765961
-168.553207397461 -70.721786499023 -261.795349121094 1.072397828102
-168.445953369141 -73.085762023926 -263.438323974609 2.819879055023
-172.542663574219 -74.150924682617 -258.124847412109 6.469141483307
24.479274749756 -72.293060302734 -267.718536376953 2.108484506607
-149.802474975586 -79.265457153320 -261.910034179688 2.121490955353
-155.293380737305 -72.919570922852 -285.417053222656 2.884404182434
26.687501907349 -70.241653442383 -277.222991943359 4.854512691498
-15.427255630493 -75.183906555176 -276.130798339844 3.218129396439
-127.985313415527 -68.969505310059 -285.087799072266 2.432682514191
-139.428619384766 -72.659324645996 -286.587982177734 1.160664319992
-136.223129272461 -72.100112915039 -289.918823242188 2.160594224930
-131.685974121094 -72.703346252441 -285.824707031250 2.551787376404
-115.385597229004 -70.718643188477 -293.142547607422 1.285486817360
-106.495651245117 -66.521102905273 -283.775390625000 4.498413562775
4.005702972412 -75.953277587891 -297.796936035156 4.624313354492
-87.027687072754 -73.767936706543 -291.722137451172 1.976725459099
-151.496490478516 -73.491821289063 -285.466552734375 1.457231283188
-105.779838562012 -73.719047546387 -291.589202880859 1.552565097809
-137.049865722656 -69.610626220703 -292.752807617188 1.182369709015
7.312210083008 -73.372062683105 -288.923767089844 1.376026511192
-113.548904418945 -63.187137603760 -286.620269775391 5.384745597839
2.000252962112 -71.534919738770 -295.974456787109 3.704587697983
-146.214172363281 -72.419326782227 -285.490417480469 2.508389472961
-155.212615966797 -72.847244262695 -294.524169921875 1.240225911140
-163.556549072266 -71.302368164063 -317.487274169922 9.423752784729
-159.653961181641 -70.028610229492 -310.471954345703 2.893405675888
47.139869689941 -72.988296508789 -27.239805221558 1.645560026169
26.588966369629 -68.393188476563 -39.819194793701 2.631300926208
29.158445358276 -70.196563720703 -38.372768402100 1.044185876846
-40.122798919678 -73.842399597168 -48.074741363525 2.429617643356
-9.447343826294 -66.359970092773 -64.886451721191 2.570185184479
95.760948181152 -69.212486267090 -70.604415893555 0.710584402084
68.623008728027 -61.568740844727 -71.051101684570 3.757217884064
-25.407642364502 -68.232780456543 -75.375305175781 1.089506745338
-101.108917236328 -76.067375183105 -89.400711059570 7.572058200836
-42.651371002197 -69.391021728516 -87.614715576172 5.390636920929
57.163681030273 -68.822937011719 -82.024093627930 3.309123277664
66.288223266602 -73.247856140137 -86.719078063965 3.185692787170
50.903923034668 -65.675559997559 -90.122772216797 1.560878038406
-59.523567199707 -69.201690673828 -91.824867248535 1.422217607498
67.919792175293 -62.683456420898 -91.750236511230 2.357802629471
42.586551666260 -74.486183166504 -101.092048645020 2.614983558655
69.754432678223 -72.489051818848 -97.830062866211 1.990041494370
-59.574539184570 -68.067909240723 -97.661598205566 5.792466640472
51.982276916504 -71.419944763184 -93.346214294434 0.446082592010
47.318534851074 -72.825424194336 -100.226852416992 1.291790962219
103.110710144043 -63.752441406250 -106.609405517578 3.610948085785
-64.409729003906 -70.151649475098 -98.715820312500 2.089826822281
112.115295410156 -67.781753540039 -102.677299499512 3.108801841736
-78.989128112793 -75.179519653320 -102.424110412598 1.945985555649
53.296192169189 -72.731887817383 -109.857841491699 2.328361988068
48.237331390381 -67.265747070313 -103.842796325684 1.172830104828
90.387519836426 -63.124980926514 -107.392631530762 1.713127017021
82.629173278809 -69.933700561523 -108.536735534668 3.737045526505
57.322673797607 -70.753387451172 -107.756225585938 4.195510387421
-77.549804687500 -71.496841430664 -113.446449279785 1.328908562660
-79.368110656738 -70.108589172363 -118.483566284180 1.128512263298
-81.774116516113 -71.643371582031 -118.021232604980 1.384736776352
-94.608558654785 -78.362396240234 -117.317131042480 5.078283309937
101.665596008301 -60.324642181396 -121.200912475586 9.448363304138
-91.739929199219 -74.899314880371 -118.381439208984 1.456693410873
-74.973274230957 -64.455322265625 -122.479553222656 1.621638417244
108.395431518555 -67.681373596191 -120.285568237305 1.151195287704
-59.445362091064 -59.383754730225 -117.629669189453 1.938600420952
112.707527160645 -75.141365051270 -134.913299560547 1.833087682724
109.431503295898 -71.633522033691 -133.106887817383 0.792450606823
103.939987182617 -71.720794677734 -131.924362182617 5.697004318237
-94.551879882813 -71.779754638672 -136.684249877930 4.782887935638
-45.518169403076 -70.411842346191 -142.925262451172 2.355157375336
-82.967178344727 -66.421974182129 -143.488189697266 5.822176933289
-70.125274658203 -70.297760009766 -148.684967041016 1.388291120529
-68.763969421387 -69.380760192871 -150.940933227539 1.169686436653
-55.652873992920 -69.724182128906 -144.706451416016 1.163173556328
-46.057239532471 -77.109779357910 -144.309127807617 1.873780488968
11.491076469421 -70.029533386230 -149.755233764648 0.927123248577
-94.320983886719 -64.863227844238 -140.569641113281 1.855958104134
-47.559993743896 -68.070716857910 -146.808776855469 1.579459547997
-51.428180694580 -59.343013763428 -147.074295043945 7.986808300018
-43.586593627930 -67.153022766113 -154.825561523438 0.663302898407
25.581922531128 -73.386054992676 -161.759155273438 2.476089477539
-52.290050506592 -72.575500488281 -152.863616943359 1.214616537094
-104.182807922363 -63.285236358643 -147.832351684570 5.264787673950
-49.539501190186 -65.438316345215 -154.882705688477 4.609424591064
24.306070327759 -74.204704284668 -146.572814941406 1.148006200790
