-155.039108276367 -79.105468750000 -186.845108032227 5.362210750580
-50.560703277588 -75.915580749512 -189.494979858398 1.778909444809
97.960929870605 -76.609748840332 -196.519332885742 1.714277625084
-145.394668579102 -80.008308410645 -189.673660278320 2.309988260269
-145.244644165039 -75.973899841309 -195.326858520508 1.659668207169
22.487665176392 -75.501335144043 -196.986343383789 2.268907070160
-139.531402587891 -79.266326904297 -195.426971435547 2.226269245148
12.031269073486 -73.212333679199 -200.278686523438 2.032943248749
-138.110580444336 -82.293632507324 -199.630538940430 1.416078686714
12.743379592896 -73.113121032715 -198.901428222656 1.378553986549
-132.995422363281 -74.560760498047 -194.657989501953 2.215260744095
4.170031070709 -73.582992553711 -202.345397949219 3.259465456009
-152.883102416992 -78.774635314941 -201.377243041992 1.255011796951
95.187141418457 -77.495735168457 -208.542343139648 1.513829827309
-17.770004272461 -80.975234985352 -210.070678710938 3.004385232925
-31.079336166382 -76.833610534668 -209.755981445313 1.378265738487
-13.071334838867 -71.888732910156 -205.931304931641 1.630609869957
-145.204437255859 -84.194107055664 -210.018005371094 1.390001416206
-35.998764038086 -78.021301269531 -203.213058471680 0.671584606171
-85.040672302246 -80.586654663086 -202.296615600586 10.031044006348
-27.375698089600 -79.736778259277 -208.592498779297 1.341588854790
13.282887458801 -78.633628845215 -215.352554321289 1.586082935333
-146.732803344727 -75.999061584473 -215.263412475586 1.559335231781
-89.327362060547 -81.454803466797 -219.871459960938 5.207223415375
-29.746889114380 -76.891677856445 -221.286331176758 2.526941776276
-28.276355743408 -78.329704284668 -221.657379150391 1.871160984039
-7.782684803009 -79.986213684082 -209.135574340820 2.819776773453
-27.821485519409 -77.133399963379 -207.647323608398 1.180349230766
-85.304878234863 -79.024787902832 -222.755432128906 5.725362777710
-91.106124877930 -84.935104370117 -220.004730224609 8.625268936157
-23.285724639893 -77.325149536133 -222.775177001953 2.730452060699
-2.479964971542 -88.121192932129 -226.264923095703 8.631744384766
-158.002685546875 -81.625061035156 -216.793121337891 8.028219223022
-3.043821096420 -79.876235961914 -222.844070434570 1.121702194214
87.736244201660 -82.995262145996 -229.682510375977 9.173430442810
-139.357177734375 -81.769233703613 -222.379867553711 4.548573017120
-3.473782062531 -78.695045471191 -221.472106933594 0.930298864841
-139.508407592773 -80.802604675293 -225.180419921875 2.672384977341
-147.720733642578 -87.739845275879 -224.200393676758 3.853029966354
-6.190638065338 -77.144088745117 -228.667083740234 1.144655704498
22.206491470337 -79.257659912109 -213.871994018555 5.338133811951
-139.175552368164 -76.757385253906 -229.004104614258 2.064676284790
-18.971395492554 -80.413467407227 -228.044464111328 2.514432907104
70.284576416016 -79.054367065430 -226.237548828125 6.845108509064
73.770362854004 -78.469207763672 -235.789123535156 5.146718025208
10.386713027954 -80.727310180664 -230.504302978516 0.825416147709
-36.063278198242 -79.819564819336 -235.882659912109 4.069430351257
-25.523954391479 -87.687385559082 -243.137756347656 8.358141899109
1.363069057465 -76.608413696289 -244.005233764648 1.063864707947
-47.258567810059 -73.387992858887 -244.357360839844 2.263864278793
-21.158863067627 -76.026153564453 -243.540130615234 1.956046938896
10.033047676086 -74.530471801758 -238.780944824219 1.607277870178
-63.808082580566 -79.447166442871 -245.813659667969 2.237417936325
-37.920944213867 -84.607559204102 -244.311294555664 3.914960861206
-38.325866699219 -77.399276733398 -245.985702514648 2.259011507034
-148.182327270508 -76.474044799805 -245.418807983398 1.278747081757
-45.161514282227 -82.315490722656 -249.071548461914 4.250524044037
-53.120941162109 -69.719635009766 -247.512756347656 3.304619073868
-66.200531005859 -78.533859252930 -248.704345703125 2.123775482178
-11.090031623840 -83.855155944824 -245.438247680664 8.992957115173
-79.235862731934 -80.891670227051 -255.777175903320 4.793050289154
-157.624969482422 -86.369628906250 -252.150375366211 4.636873245239
-140.916732788086 -77.537170410156 -252.538619995117 3.473328590393
-121.350273132324 -81.403297424316 -257.685729980469 5.773339748383
-160.323776245117 -75.768005371094 -256.624450683594 1.606826186180
17.815801620483 -86.557823181152 -267.941406250000 5.471265792847
-15.835542678833 -81.638389587402 -269.565063476563 5.051754951477
-156.657577514648 -82.889900207520 -274.209136962891 5.154143810272
-154.023086547852 -87.441047668457 -278.168975830078 4.087787151337
-147.154342651367 -82.124031066895 -285.359893798828 2.221607446671
-59.780960083008 -73.805534362793 -278.964813232422 6.365826606750
-39.785762786865 -72.903900146484 -285.769836425781 0.799030542374
-18.102842330933 -76.513153076172 -290.621978759766 1.898958683014
-9.434123992920 -74.107284545898 -278.008666992188 2.474507808685
-67.216865539551 -83.159118652344 -284.775177001953 6.576799392700
-82.284118652344 -84.831535339355 -285.763427734375 9.328307151794
-2.529375076294 -80.090698242188 -282.144622802734 2.912870645523
1.057796955109 -80.935844421387 -293.650726318359 3.794448137283
-141.541137695313 -78.058433532715 -284.779449462891 2.971266269684
-82.084884643555 -75.404563903809 -285.497131347656 0.483162432909
-147.847961425781 -78.385772705078 -286.745941162109 2.941416501999
-95.532859802246 -90.153755187988 -284.496032714844 15.524717330933
-79.709320068359 -78.726661682129 -284.947052001953 3.912704944611
-87.463768005371 -76.378105163574 -296.714843750000 6.654694557190
-64.652214050293 -78.920562744141 -292.218200683594 4.746269226074
-32.482307434082 -71.615608215332 -296.463134765625 3.955575704575
-10.353487968445 -78.556938171387 -290.772033691406 1.963343620300
-151.528106689453 -71.890235900879 -299.782257080078 2.386593580246
-149.132858276367 -77.150695800781 -300.521789550781 1.156482100487
-144.466217041016 -78.130462646484 -305.528045654297 1.556748270988
-159.443954467773 -79.465782165527 -303.727783203125 6.340380191803
-55.619136810303 -70.993118286133 -56.772098541260 4.333705902100
-48.277622222900 -74.714004516602 -53.199066162109 1.695876836777
-39.093639373779 -77.256271362305 -53.684047698975 3.518527030945
-77.068176269531 -78.840103149414 -63.279254913330 2.526269674301
-28.900320053101 -73.573341369629 -65.873733520508 3.632673501968
-35.050914764404 -74.558914184570 -80.382225036621 2.348471641541
74.587463378906 -79.875999450684 -84.838150024414 4.326111316681
75.538009643555 -75.071769714355 -80.260330200195 0.658886313438
72.388092041016 -71.880920410156 -84.584251403809 2.849697351456
101.420776367188 -70.849845886230 -92.005111694336 2.455330610275
67.775909423828 -77.950195312500 -90.167503356934 4.982426166534
47.341751098633 -78.933830261230 -89.037155151367 7.060245037079
53.140434265137 -82.003799438477 -102.834960937500 4.079301357269
-65.919105529785 -73.895172119141 -102.933494567871 3.411184310913
-74.312927246094 -71.196525573730 -102.930839538574 2.224112749100
45.181236267090 -77.009674072266 -104.068611145020 0.865401029587
-81.688232421875 -82.348037719727 -110.500038146973 2.961646556854
-92.436599731445 -74.080116271973 -110.129722595215 2.042839050293
51.607795715332 -75.570358276367 -110.225357055664 2.571232080460
107.574684143066 -74.199058532715 -118.482009887695 1.760141134262
33.485813140869 -78.076690673828 -127.723518371582 2.036971569061
42.245189666748 -77.628128051758 -119.573745727539 1.372738957405
39.721752166748 -73.782821655273 -123.442276000977 1.826934099197
30.382968902588 -77.746452331543 -122.407173156738 1.492972016335
109.572723388672 -75.573875427246 -123.127304077148 3.160137176514
39.320213317871 -79.482688903809 -133.157333374023 2.603727579117
35.740154266357 -71.116142272949 -133.898941040039 2.035309314728
-43.827125549316 -74.782089233398 -141.952407836914 1.018597602844
-69.606788635254 -80.528755187988 -142.843673706055 5.910455226898
-52.583404541016 -75.524543762207 -150.381942749023 1.970790743828
-75.448493957520 -82.280464172363 -145.981948852539 6.909824848175
-37.788875579834 -76.397689819336 -148.491516113281 3.146033763885
105.475082397461 -77.141471862793 -159.298995971680 3.405144214630
-71.722091674805 -79.555099487305 -156.880477905273 3.305173158646
23.359952926636 -82.515174865723 -146.506866455078 5.145701408386
27.562284469604 -79.378074645996 -149.798187255859 1.471693634987
110.355247497559 -80.093856811523 -164.930603027344 3.349029302597
9.860086441040 -80.668197631836 -160.042617797852 4.581765174866
33.556682586670 -73.308158874512 -156.493133544922 1.258025169373
-62.547657012939 -80.051551818848 -159.759689331055 1.880723595619
-39.806060791016 -79.603462219238 -175.208007812500 2.945717573166
22.002101898193 -76.810630798340 -164.109207153320 2.000712871552
-65.634185791016 -75.774536132813 -155.450881958008 0.849164962769
-70.721572875977 -76.970336914063 -166.016311645508 4.382648468018
115.325378417969 -78.794654846191 -167.710327148438 1.971157073975
-8.620764732361 -78.714065551758 -165.010391235352 3.138008117676
-66.616622924805 -75.076957702637 -171.187179565430 2.407881021500
-36.356594085693 -79.369255065918 -166.589324951172 1.106951355934
-54.257717132568 -75.733917236328 -171.614120483398 2.286958694458
30.875310897827 -75.709609985352 -177.386184692383 4.154094696045
111.483703613281 -73.046318054199 -174.335815429688 2.310092449188
101.783966064453 -74.501762390137 -184.847030639648 2.472963333130
103.913154602051 -75.872711181641 -190.764434814453 1.077593564987
106.157569885254 -73.195968627930 -177.208801269531 1.629203796387
-51.154750823975 -75.642959594727 -193.444992065430 2.523026704788
-47.267799377441 -73.189453125000 -183.842773437500 3.108408689499
27.460533142090 -76.393989562988 -184.786163330078 2.312763690948
-47.826835632324 -75.840789794922 -185.389144897461 1.087591886520
-21.270807266235 -77.250450134277 -184.149322509766 1.364156007767
-51.505931854248 -81.061492919922 -191.669158935547 3.347404003143
-152.825164794922 -76.572288513184 -192.021423339844 3.258232831955
100.526321411133 -79.442298889160 -193.596969604492 3.201033353806
-44.633815765381 -73.956161499023 -195.681915283203 2.831248521805
-11.958333015442 -79.069404602051 -200.171096801758 3.042275905609
-139.675125122070 -76.823249816895 -191.673873901367 3.241559505463
-41.178558349609 -74.461700439453 -199.789611816406 2.169760465622
100.196052551270 -74.801483154297 -197.634033203125 1.698187232018
107.709770202637 -73.870986938477 -186.062927246094 1.717342853546
-42.858348846436 -76.938552856445 -195.512802124023 2.002242326736
-22.482582092285 -86.154907226563 -200.296981811523 6.716162204742
-147.255340576172 -80.881935119629 -199.971725463867 1.502281546593
-25.568634033203 -76.569046020508 -195.320846557617 1.607215166092
-161.305374145508 -78.310111999512 -195.842590332031 7.176991939545
-153.177825927734 -86.707275390625 -205.209533691406 5.727811813354
-145.912979125977 -80.455131530762 -201.410400390625 2.419285535812
-39.107116699219 -78.397224426270 -201.775177001953 1.475369811058
101.532554626465 -78.276046752930 -205.306488037109 2.085404396057
-43.179264068604 -75.060752868652 -200.353164672852 1.564365744591
-142.501831054688 -82.229454040527 -204.384521484375 1.906139373779
-37.738159179688 -72.620193481445 -205.664840698242 1.773706912994
-23.341169357300 -84.063713073730 -210.295608520508 5.697726726532
97.614753723145 -80.410949707031 -207.301696777344 3.932405471802
89.180397033691 -79.131500244141 -216.696548461914 2.489110946655
-38.935760498047 -75.285583496094 -217.630554199219 7.338529586792
-89.209938049316 -79.718254089355 -209.628356933594 4.155490398407
-76.363311767578 -79.356651306152 -211.748535156250 1.621797442436
-20.178443908691 -77.508758544922 -208.774505615234 3.031376361847
-150.571121215820 -81.140090942383 -199.687057495117 1.470989704132
91.591896057129 -75.956512451172 -215.524856567383 0.871145129204
87.616966247559 -72.557487487793 -219.148559570313 1.487527132034
88.998077392578 -77.860679626465 -222.356979370117 2.528440237045
-103.649711608887 -79.724647521973 -217.683319091797 7.432429790497
-156.025817871094 -81.115928649902 -219.965347290039 6.301596641541
-21.193105697632 -75.175827026367 -224.979812622070 1.108712792397
80.291053771973 -72.659896850586 -229.311523437500 1.531016230583
-151.251983642578 -83.221626281738 -220.261657714844 2.880343675613
-30.368257522583 -79.493621826172 -216.826019287109 1.855250835419
-135.439193725586 -76.340530395508 -233.355270385742 2.770879507065
-11.733602523804 -80.996322631836 -232.886856079102 5.514698028564
16.229887008667 -75.976852416992 -231.135269165039 1.611439108849
19.568843841553 -78.581649780273 -234.516967773438 2.248442888260
-156.655166625977 -81.876914978027 -235.407272338867 5.604651927948
-127.716453552246 -73.765716552734 -232.431137084961 0.908438324928
-9.197566986084 -77.476150512695 -236.417098999023 3.920343160629
-0.688848018646 -76.573143005371 -238.670333862305 1.396196603775
68.237907409668 -76.910598754883 -231.548217773438 3.625549793243
67.686454772949 -73.063339233398 -240.994476318359 1.506117343903
-1.149801015854 -74.654083251953 -240.972015380859 1.695648193359
14.870935440063 -72.451965332031 -241.129760742188 1.928532958031
-32.944652557373 -68.016639709473 -242.448608398438 6.686643123627
-32.736042022705 -89.170776367188 -242.967666625977 9.055795669556
-50.585239410400 -78.169700622559 -235.039123535156 7.116129398346
-42.073360443115 -75.349411010742 -239.797424316406 2.766962528229
-16.870183944702 -79.317382812500 -243.690277099609 3.699163198471
-52.645763397217 -75.751091003418 -244.873809814453 1.782100081444
0.672201991081 -78.633644104004 -246.116653442383 1.529627323151
-69.479042053223 -81.491546630859 -242.263031005859 6.937181472778
20.914205551147 -79.438026428223 -248.155593872070 1.275320053101
-142.462692260742 -81.758728027344 -242.953063964844 2.314393281937
-74.290283203125 -81.652458190918 -254.658370971680 5.377680778503
15.967988967896 -78.574371337891 -251.277404785156 1.351193428040
-162.060195922852 -77.649101257324 -248.663116455078 2.923539876938
11.096764564514 -82.997467041016 -255.017242431641 1.950160145760
-81.740394592285 -70.738128662109 -251.111541748047 1.898123979568
-77.159896850586 -78.808631896973 -250.325241088867 3.436220407486
16.876953125000 -80.283493041992 -254.620422363281 2.567636966705
-90.742416381836 -77.782722473145 -250.271362304688 4.235592842102
-127.012725830078 -74.171974182129 -253.932662963867 1.766002655029
-132.908020019531 -84.128959655762 -260.531005859375 3.040571212769
-137.828018188477 -82.788955688477 -250.915328979492 5.704896450043
-147.880554199219 -82.022377014160 -261.410156250000 0.996872544289
-148.115753173828 -74.682731628418 -250.493545532227 2.772189617157
-135.035095214844 -77.090164184570 -261.340515136719 1.940864443779
-162.982116699219 -74.642547607422 -259.551269531250 1.293395757675
-129.831253051758 -79.467689514160 -267.478790283203 6.815398693085
-138.211441040039 -72.018981933594 -262.812469482422 2.963586091995
-163.012924194336 -75.381294250488 -270.931945800781 2.700067043304
-156.226119995117 -75.916397094727 -264.248413085938 2.405502080917
-148.627395629883 -76.918006896973 -265.351776123047 1.784893155098
-150.415435791016 -80.245651245117 -265.151519775391 0.804790198803
16.260778427124 -80.789978027344 -280.130462646484 3.925532817841
-167.825271606445 -79.518714904785 -264.365356445313 4.739203453064
-152.478454589844 -81.638687133789 -272.825225830078 2.716294765472
-5.874524116516 -87.498352050781 -272.978302001953 6.212423324585
-155.157577514648 -76.201194763184 -275.948852539063 4.323538780212
10.535804748535 -82.027259826660 -284.973449707031 4.697269439697
-154.309432983398 -78.761291503906 -280.653015136719 3.482882261276
-168.184982299805 -81.390167236328 -288.362976074219 7.855164051056
-156.986160278320 -83.202453613281 -276.037017822266 5.733050823212
-165.636413574219 -76.495704650879 -289.213653564453 3.095899105072
-1.253440022469 -83.028923034668 -287.597015380859 6.252470493317
5.995272159576 -84.596092224121 -281.463928222656 4.190017223358
-108.403915405273 -76.607330322266 -293.563781738281 3.467613220215
-158.676177978516 -87.788528442383 -287.032257080078 6.065708637238
-149.258132934570 -76.300842285156 -284.099731445313 2.455931425095
-106.637458801270 -77.809020996094 -292.468444824219 4.058883666992
-155.194107055664 -83.849281311035 -293.016540527344 2.664846181870
-149.562347412109 -85.133186340332 -287.642730712891 0.895460367203
-77.991378784180 -83.653945922852 -293.941894531250 8.199879646301
-170.454528808594 -82.664009094238 -287.766357421875 8.850606918335
-123.654785156250 -74.643562316895 -291.303161621094 1.489077806473
-43.980697631836 -84.478256225586 -284.928497314453 7.129164695740
-151.601531982422 -79.042884826660 -286.636016845703 1.908597469330
-131.926528930664 -73.333282470703 -293.536315917969 2.543821096420
-22.279882431030 -75.726562500000 -296.009735107422 4.701936244965
-131.126144409180 -74.157867431641 -292.545104980469 3.511676549911
5.095949172974 -80.021514892578 -296.312164306641 5.331383705139
13.660926818848 -75.097595214844 -293.356658935547 1.228002190590
-134.574783325195 -73.739929199219 -290.024932861328 0.890927851200
-146.789520263672 -82.124824523926 -298.844726562500 1.415104031563
-157.902175903320 -84.632926940918 -315.460632324219 8.744874954224
-70.796585083008 -69.187980651855 -53.359169006348 3.352899074554
-20.874902725220 -67.207244873047 -67.966506958008 4.254119873047
-18.353563308716 -78.460296630859 -65.762924194336 4.119085311890
70.939353942871 -71.360450744629 -81.123085021973 1.640127182007
90.531196594238 -73.020057678223 -77.716262817383 3.050939559937
-35.293384552002 -75.062522888184 -81.119331359863 2.044843435287
77.082191467285 -72.886581420898 -83.247558593750 3.347694158554
91.082626342773 -78.548919677734 -85.025299072266 1.836059451103
65.862541198730 -74.870429992676 -86.262840270996 4.165166378021
74.038848876953 -72.521545410156 -93.422241210938 2.535854339600
-49.750019073486 -75.311614990234 -84.895248413086 2.746970891953
-91.297943115234 -78.692184448242 -90.294418334961 1.844308853149
60.150852203369 -78.403961181641 -95.526824951172 4.995652675629
50.938323974609 -77.789405822754 -102.193305969238 1.584526419640
92.658233642578 -69.394737243652 -104.575912475586 1.916570305824
-89.714912414551 -68.816474914551 -101.909194946289 5.653734683990
79.471611022949 -67.820472717285 -102.856414794922 2.626599311829
71.376998901367 -75.567489624023 -103.765281677246 5.733042716980
91.467567443848 -77.839546203613 -99.777458190918 3.225964307785
84.421020507813 -74.982093811035 -97.456687927246 0.992576301098
79.744972229004 -77.884292602539 -101.048385620117 4.499735832214
-89.730926513672 -77.554267883301 -102.950187683105 4.145367622375
45.294456481934 -70.889282226563 -105.364540100098 1.924326896667
104.835037231445 -76.311141967773 -112.822036743164 2.246326923370
106.446998596191 -75.626632690430 -112.685066223145 1.385486245155
50.939300537109 -79.345008850098 -122.740135192871 6.644093513489
114.465179443359 -79.167304992676 -120.800064086914 4.843030929565
117.861305236816 -79.538963317871 -137.319549560547 4.980688095093
-50.160728454590 -72.038688659668 -128.902740478516 3.855923652649
27.975854873657 -74.832572937012 -136.436904907227 1.523937106133
41.394214630127 -80.032936096191 -135.245132446289 4.631312847137
24.166761398315 -72.336585998535 -142.928405761719 1.677338719368
112.687889099121 -80.207931518555 -138.264572143555 3.450289964676
111.325904846191 -77.107780456543 -131.378295898438 2.125909090042
-73.714942932129 -75.533302307129 -148.749710083008 1.643317937851
-43.442844390869 -74.178985595703 -139.865417480469 2.852821826935
-71.643028259277 -73.556831359863 -153.820495605469 2.162330627441
17.797004699707 -72.765884399414 -148.446884155273 2.243571758270
111.610130310059 -71.283493041992 -149.469924926758 2.485987186432
-54.593723297119 -78.224769592285 -153.409347534180 4.518397808075
-73.184425354004 -74.810417175293 -153.464492797852 1.646954298019
-39.632228851318 -79.368148803711 -151.460586547852 2.272181034088
31.035474777222 -68.793357849121 -155.782470703125 1.447709798813
107.805244445801 -70.129394531250 -152.090133666992 3.499741077423
117.359977722168 -73.935966491699 -164.834289550781 2.999991416931
-68.581008911133 -72.131790161133 -157.193038940430 1.201972246170
-76.506736755371 -79.308349609375 -160.035415649414 7.002882480621
21.747362136841 -81.521530151367 -164.796905517578 3.823738336563
-60.833396911621 -72.981559753418 -167.857543945313 0.526748955250
-32.623657226563 -72.720771789551 -164.921173095703 1.827669978142
8.666562080383 -78.048049926758 -165.578994750977 3.991594552994
106.188453674316 -71.483390808105 -163.513122558594 2.591284990311
10.895798683167 -80.803268432617 -170.294967651367 7.714292049408
-32.535888671875 -76.175247192383 -166.841033935547 1.628946542740
-4.698194980621 -68.598327636719 -165.317596435547 5.627457141876
105.720527648926 -70.179473876953 -168.224166870117 2.326900243759
-42.328174591064 -73.108993530273 -163.273666381836 2.096086502075
30.568567276001 -72.795310974121 -175.618362426758 3.578238725662
114.981079101563 -81.343551635742 -174.388488769531 4.840930938721
-57.544231414795 -71.987495422363 -176.012969970703 2.062317371368
-28.074142456055 -80.298934936523 -177.026428222656 1.131713867188
100.463737487793 -76.538536071777 -176.615447998047 5.695298194885
29.120647430420 -72.420478820801 -168.155273437500 2.021126031876
102.348114013672 -77.348899841309 -178.265563964844 3.680765867233
-37.349346160889 -70.515602111816 -180.783050537109 1.685496807098
110.082138061523 -80.577888488770 -182.889831542969 5.560537338257
-64.609687805176 -71.703521728516 -178.164123535156 5.792270660400
-26.345478057861 -81.328872680664 -177.931503295898 1.514814853668
-148.652160644531 -68.506072998047 -184.958145141602 2.903889894485
-54.395439147949 -74.813308715820 -178.632385253906 1.852341771126
-148.100952148438 -77.167831420898 -185.435577392578 1.626227140427
-36.060874938965 -73.139488220215 -183.360275268555 2.496499538422
30.025501251221 -82.606117248535 -178.236434936523 6.061595916748
104.877677917480 -77.095825195313 -185.712432861328 2.916290283203
-38.314300537109 -74.704177856445 -181.599441528320 3.156199932098
9.616076469421 -76.495544433594 -192.184310913086 2.317106723785
14.761841773987 -75.604568481445 -207.866241455078 2.919595003128
-150.475265502930 -77.176834106445 -186.732635498047 2.113123178482
106.868110656738 -80.007141113281 -198.130035400391 3.436656475067
-25.183431625366 -73.776290893555 -193.556243896484 2.313813686371
99.639999389648 -77.628684997559 -188.370346069336 3.284811019897
10.778756141663 -72.260414123535 -192.271652221680 2.635252952576
-142.573699951172 -76.701698303223 -206.712768554688 2.364190816879
-137.664291381836 -75.293083190918 -198.948348999023 2.513170003891
102.873657226563 -80.919700622559 -203.630096435547 4.476873874664
-12.325792312622 -81.488403320313 -200.483123779297 4.114194393158
-18.532001495361 -76.635108947754 -206.017410278320 2.167681455612
11.229336738586 -79.216194152832 -208.661926269531 1.501665353775
-150.569900512695 -76.236083984375 -206.079818725586 2.190035104752
-147.349411010742 -78.122726440430 -210.061828613281 1.264466166496
100.981582641602 -68.294029235840 -208.331161499023 4.965633392334
-86.784042358398 -76.233146667480 -207.323471069336 4.321982860565
-35.374034881592 -78.052429199219 -200.531631469727 1.099316000938
20.184833526611 -80.857948303223 -217.341064453125 4.631263732910
-24.890516281128 -77.144287109375 -211.454269409180 1.398360371590
-74.702987670898 -73.988113403320 -204.850662231445 5.180531501770
90.344947814941 -76.174217224121 -210.422256469727 2.029290437698
-79.173263549805 -73.016647338867 -212.381881713867 1.694886565208
-149.154708862305 -76.357360839844 -219.235290527344 0.352395981550
-81.246139526367 -74.098785400391 -212.390213012695 1.227918744087
-11.442944526672 -68.771125793457 -207.221145629883 2.764842987061
-21.145458221436 -72.879425048828 -221.679153442383 1.774716138840
17.585582733154 -77.300643920898 -216.571777343750 0.202976763248
-5.742230892181 -78.383773803711 -224.403182983398 2.094776868820
-89.230728149414 -84.240745544434 -219.511001586914 7.482048034668
92.574821472168 -74.788078308105 -215.768875122070 1.342016100883
-101.803710937500 -74.399803161621 -215.349914550781 4.390504360199
-155.611495971680 -74.137229919434 -225.658370971680 2.247691154480
-31.962427139282 -75.690971374512 -225.800155639648 5.763041496277
18.937545776367 -77.963973999023 -216.658264160156 1.661887049675
-103.046539306641 -77.852882385254 -220.069564819336 4.839358329773
6.544217109680 -70.084053039551 -217.844436645508 3.162910699844
-28.745761871338 -76.092109680176 -214.798171997070 1.046601057053
81.342109680176 -73.225379943848 -226.971771240234 2.460554122925
-144.776916503906 -74.375518798828 -216.036422729492 2.360897064209
15.563596725464 -75.716529846191 -227.017456054688 2.153037786484
-10.242350578308 -80.890373229980 -229.961471557617 3.158695220947
17.053335189819 -66.809654235840 -225.384017944336 4.480409622192
83.366157531738 -77.886260986328 -224.704635620117 2.714019536972
-15.729797363281 -81.269157409668 -230.394012451172 5.635580062866
-131.168869018555 -79.619483947754 -227.044586181641 2.512605190277
-16.393556594849 -75.845619201660 -224.864837646484 1.892021059990
15.880089759827 -75.637825012207 -229.347396850586 2.189289808273
-129.114608764648 -80.610549926758 -226.750000000000 4.595237255096
-155.296554565430 -72.886413574219 -231.622985839844 0.802515387535
-144.332427978516 -75.501564025879 -229.019485473633 1.465956687927
-127.908409118652 -73.953826904297 -225.429885864258 0.504112660885
-11.285312652588 -72.363525390625 -224.511398315430 1.216359853745
71.175621032715 -75.806541442871 -228.165969848633 3.114973306656
-146.044540405273 -71.359992980957 -240.946762084961 1.546603679657
66.620613098145 -77.071067810059 -229.446990966797 5.422140121460
-22.404130935669 -81.360740661621 -232.828216552734 6.224591732025
-143.499221801758 -79.797584533691 -227.168807983398 1.717105984688
75.355888366699 -86.041526794434 -230.963317871094 10.288054466248
9.688106536865 -82.607795715332 -232.166839599609 2.647749185562
-140.094543457031 -80.751869201660 -236.356170654297 4.787927627563
-150.154907226563 -75.944473266602 -232.410034179688 2.247351408005
17.342197418213 -71.034240722656 -231.389541625977 1.010157942772
-3.178682088852 -81.342422485352 -240.828582763672 5.055429458618
-31.540811538696 -75.201896667480 -237.285751342773 0.945511341095
-2.309102058411 -70.760154724121 -236.550491333008 1.112143039703
-161.268203735352 -81.326118469238 -237.526885986328 7.372349262238
3.732752084732 -73.301155090332 -243.267776489258 1.418275713921
-165.776107788086 -78.978340148926 -241.576110839844 4.802668094635
-12.278901100159 -77.746017456055 -238.165863037109 3.715361118317
56.439296722412 -77.453498840332 -240.565124511719 3.787762880325
-14.657762527466 -74.428405761719 -236.548095703125 1.937829494476
-26.036785125732 -76.528778076172 -249.611755371094 6.093163013458
-24.922758102417 -76.066146850586 -242.456359863281 2.011493444443
-10.576739311218 -81.764442443848 -240.266311645508 7.865698814392
-147.206283569336 -78.048942565918 -226.440353393555 0.901252567768
6.825364112854 -74.781379699707 -241.985107421875 1.389464855194
63.120704650879 -76.007888793945 -246.854446411133 5.339907646179
15.240733146667 -72.668029785156 -246.373428344727 1.281263947487
-171.435348510742 -74.767631530762 -243.038711547852 5.488337039948
-53.057468414307 -75.325874328613 -238.228424072266 4.576261520386
4.781153202057 -84.292945861816 -250.238800048828 3.642139911652
16.580015182495 -77.068580627441 -243.763488769531 3.828109264374
-54.518890380859 -76.536445617676 -248.068649291992 0.538634240627
-2.490564107895 -69.965255737305 -252.148651123047 5.699518680573
19.570444107056 -85.420265197754 -250.238494873047 3.560070753098
-174.361343383789 -73.949882507324 -248.875503540039 8.161126136780
-65.071830749512 -82.007774353027 -249.972137451172 3.514095783234
-53.796058654785 -74.108070373535 -248.439620971680 1.911290526390
-84.566734313965 -74.401397705078 -254.041732788086 1.037269830704
-163.389556884766 -79.302482604980 -245.663314819336 4.840485095978
-151.624191284180 -65.649047851563 -246.901580810547 1.487734556198
-61.818740844727 -79.380569458008 -250.364868164063 2.648942947388
-69.549331665039 -76.110946655273 -248.695205688477 1.434123635292
-154.682189941406 -73.849006652832 -251.590789794922 2.647935867310
-153.139663696289 -78.981460571289 -251.747695922852 1.546887516975
-75.136947631836 -70.622825622559 -255.764526367188 3.300543308258
-94.635986328125 -72.586341857910 -257.676086425781 2.134508132935
-163.701354980469 -68.610488891602 -254.104400634766 2.353804826736
-158.770706176758 -77.900413513184 -261.799621582031 4.231203556061
-136.817657470703 -79.862541198730 -261.133361816406 1.828926205635
-84.387023925781 -75.840087890625 -249.336074829102 3.297092676163
-162.543090820313 -71.884231567383 -253.791107177734 1.961226701736
-142.607772827148 -73.470146179199 -257.366241455078 1.627529978752
-85.533332824707 -75.374938964844 -247.584823608398 3.249968528748
-98.983818054199 -74.856727600098 -262.834960937500 4.511206150055
-143.118667602539 -78.621063232422 -254.633911132813 1.212226629257
-92.941528320313 -76.597793579102 -255.825134277344 2.340950489044
-156.700592041016 -74.198699951172 -254.800765991211 2.250327348709
-105.647689819336 -76.269241333008 -254.302429199219 3.411039590836
-173.438064575195 -75.557571411133 -258.166198730469 7.895890235901
-163.673553466797 -80.051635742188 -267.458679199219 3.703823328018
-129.770904541016 -82.573814392090 -255.746383666992 5.466682434082
-154.024948120117 -77.895919799805 -259.451263427734 2.904559135437
-109.877487182617 -71.944541931152 -263.557983398438 2.181302785873
-14.825808525085 -73.683731079102 -263.105224609375 1.436831831932
-141.442276000977 -76.539192199707 -260.272705078125 1.072350025177
-128.580703735352 -75.645057678223 -260.126678466797 1.274641275406
-154.034835815430 -74.199142456055 -263.588562011719 2.495209217072
24.197622299194 -77.964233398438 -274.281280517578 5.061380386353
-151.376556396484 -80.590385437012 -279.608734130859 2.218169450760
-170.753295898438 -77.887008666992 -283.025848388672 4.182497978210
-10.549678802490 -74.881263732910 -280.934265136719 3.892285346985
-145.777343750000 -76.035713195801 -278.780059814453 1.490145802498
-12.630281448364 -74.423645019531 -284.883239746094 1.181991696358
11.592899322510 -78.555404663086 -288.279815673828 0.755211114883
-138.644821166992 -73.730491638184 -285.831176757813 2.032747030258
-66.237823486328 -80.480445861816 -288.251800537109 3.844069480896
-34.548027038574 -81.208358764648 -290.766326904297 2.779233217239
-113.311607360840 -77.562980651855 -281.884857177734 6.585782051086
-99.246749877930 -83.693725585938 -290.052154541016 8.206649780273
-89.267631530762 -78.135253906250 -292.055236816406 4.963868618011
-52.819400787354 -79.196060180664 -293.703247070313 5.039349555969
-117.225036621094 -84.843963623047 -286.442962646484 7.396594524384
-117.890045166016 -79.428962707520 -290.408477783203 2.186850309372
-35.345596313477 -72.903091430664 -288.071655273438 2.019035816193
-118.606918334961 -79.499168395996 -294.482482910156 5.894579410553
-130.440368652344 -70.665512084961 -288.418640136719 3.498247861862
-146.441894531250 -81.191848754883 -294.874969482422 0.407212257385
5.646822929382 -77.681259155273 -291.589782714844 0.400029987097
17.776084899902 -79.498855590820 -293.848815917969 3.534163713455
-163.848464965820 -76.905754089355 -291.659820556641 1.659974575043
-163.123580932617 -82.808914184570 -300.552703857422 10.672510147095
-150.759735107422 -79.706512451172 -309.493011474609 1.431394696236
-155.065078735352 -77.056228637695 -309.793029785156 2.392417430878
-154.285293579102 -77.808143615723 -314.858856201172 3.132035255432
28.991218566895 -78.281921386719 -14.522738456726 5.428590297699
37.735473632813 -69.059783935547 -21.683860778809 3.140805482864
22.202436447144 -73.047515869141 -27.454101562500 1.409595847130
30.477731704712 -69.009483337402 -40.662399291992 0.510565638542
-58.474533081055 -72.570693969727 -51.297069549561 3.693053483963
-63.718814849854 -73.401916503906 -51.621345520020 1.870028376579
-38.474857330322 -78.956367492676 -48.933944702148 7.019421100616
-87.164001464844 -65.282638549805 -68.014495849609 6.751540184021
80.483993530273 -77.558845520020 -78.006172180176 1.718147277832
-10.978350639343 -68.270141601563 -72.807991027832 5.320796489716
90.252143859863 -73.961494445801 -63.411212921143 5.338467121124
102.026268005371 -73.382843017578 -77.057952880859 3.331392526627
-91.077140808105 -70.264488220215 -74.527297973633 2.550552845001
65.579490661621 -73.782875061035 -82.444557189941 3.499243497849
-38.646965026855 -78.020065307617 -88.212295532227 3.599511623383
102.593544006348 -73.888313293457 -82.287734985352 3.484692096710
-57.854312896729 -69.960594177246 -88.868103027344 2.004813194275
49.748176574707 -74.780967712402 -92.533721923828 2.221369028091
70.097030639648 -83.088478088379 -91.328926086426 8.086815834045
53.610450744629 -72.087356567383 -97.112174987793 1.797547340393
53.062862396240 -75.756866455078 -100.773872375488 1.783778548241
76.449745178223 -78.678382873535 -98.319206237793 3.436951398849
47.908535003662 -73.068778991699 -111.840316772461 1.139601469040
97.075447082520 -74.976615905762 -104.936164855957 5.442640304565
105.193885803223 -80.996368408203 -110.521499633789 6.603856563568
76.767684936523 -71.893402099609 -106.139099121094 2.644039154053
95.294654846191 -75.843238830566 -107.905639648438 5.875431537628
100.219993591309 -74.616447448730 -94.748603820801 3.469067335129
110.671241760254 -76.238761901855 -106.890640258789 3.831011295319
40.256225585938 -72.835174560547 -108.487869262695 0.929489314556
114.364555358887 -71.260620117188 -119.690567016602 2.028496026993
115.125762939453 -76.585418701172 -122.182937622070 3.631119251251
29.554199218750 -71.595375061035 -126.759346008301 2.680924892426
44.685390472412 -76.454566955566 -119.463043212891 0.597909808159
115.496658325195 -76.125541687012 -135.705703735352 1.916107892990
32.966785430908 -73.526542663574 -128.495498657227 3.451919078827
117.858909606934 -81.941169738770 -128.867401123047 7.283743381500
107.540206909180 -76.866127014160 -125.021385192871 2.430088281631
27.612987518311 -77.783935546875 -134.433364868164 2.345711469650
-46.244541168213 -75.404190063477 -133.745086669922 3.739740371704
-51.944606781006 -72.312858581543 -135.248794555664 0.659496724606
111.715240478516 -74.813835144043 -138.108810424805 1.526905775070
-66.727531433105 -81.299354553223 -139.451828002930 8.604126930237
-70.647872924805 -75.303390502930 -141.112365722656 2.268771886826
-60.564834594727 -75.108230590820 -138.986434936523 2.787271976471
30.092424392700 -76.408538818359 -147.324035644531 2.300497293472
120.760391235352 -79.105163574219 -150.096801757813 6.424865722656
-70.675209045410 -69.888435363770 -148.940872192383 1.786014795303
-49.972667694092 -75.749549865723 -141.375885009766 1.426379799843
32.344013214111 -75.520515441895 -155.176071166992 0.998156130314
-68.449478149414 -76.654975891113 -148.312271118164 1.512925863266
114.482841491699 -73.541542053223 -141.202072143555 1.216943740845
110.915435791016 -72.573204040527 -160.386154174805 0.757572591305
116.348266601563 -76.973121643066 -157.465621948242 2.486153364182
-38.697250366211 -79.482505798340 -152.917388916016 2.444812536240
-63.584205627441 -74.687149047852 -166.826263427734 0.713875412941
-65.974952697754 -68.783409118652 -158.873077392578 1.757721543312
28.281009674072 -76.518013000488 -144.413681030273 2.306914806366
-2.144603967667 -77.984695434570 -162.964462280273 2.237117052078
110.369644165039 -73.598007202148 -165.591888427734 0.958841562271
112.394500732422 -72.520835876465 -154.308792114258 0.870180070400
112.811164855957 -80.805541992188 -162.378845214844 3.895356655121
-62.370975494385 -72.181724548340 -157.793502807617 1.821607828140
-44.758972167969 -78.235595703125 -169.726516723633 3.078445672989
-4.409348011017 -74.957977294922 -166.409790039063 1.227719187737
-32.200988769531 -76.877517700195 -176.113128662109 3.473464012146
105.319328308105 -73.878036499023 -170.598678588867 1.366246819496
-31.773872375488 -80.893585205078 -160.595840454102 4.529244422913
108.333412170410 -73.141769409180 -169.238677978516 2.056635856628
-41.975330352783 -75.788490295410 -175.615814208984 2.168076992035
107.475059509277 -72.059799194336 -173.003051757813 2.133206129074
-154.422302246094 -77.076103210449 -178.158294677734 6.383506298065
-25.198688507080 -69.601959228516 -179.048294067383 2.144592761993
-19.232414245605 -76.506172180176 -185.460998535156 0.607914686203
24.424751281738 -80.837852478027 -178.154602050781 1.477573871613
13.653583526611 -73.889114379883 -185.848800659180 1.198426485062
29.079378128052 -76.608207702637 -184.207351684570 2.815332651138
101.484138488770 -83.842979431152 -187.270721435547 6.678732872009
-152.763961791992 -70.422462463379 -182.804580688477 1.214180469513
-19.030130386353 -78.585021972656 -181.830566406250 3.330797672272
100.518295288086 -78.543701171875 -180.734329223633 3.629104614258
102.562072753906 -70.258331298828 -191.063446044922 2.279669284821
109.688461303711 -78.476753234863 -178.005661010742 1.452632665634
100.652221679688 -78.305656433105 -194.945938110352 2.335341691971
-150.928955078125 -73.622436523438 -198.930404663086 2.654192686081
99.038314819336 -77.044433593750 -209.157226562500 3.122491121292
-28.453157424927 -73.404396057129 -200.770248413086 2.654453516006
95.485656738281 -76.027801513672 -195.981781005859 3.444468736649
-118.390502929688 -82.015617370605 -202.591369628906 9.229013442993
-30.539062500000 -81.780845642090 -188.333251953125 2.401055574417
-143.257904052734 -68.751235961914 -198.414825439453 3.127411365509
96.096328735352 -76.079933166504 -199.316314697266 2.192338705063
7.847971916199 -75.987144470215 -201.391357421875 1.586987614632
24.728183746338 -72.862800598145 -192.514236450195 1.274775981903
-149.643096923828 -78.703918457031 -205.021957397461 1.203744530678
-137.199203491211 -75.337493896484 -202.961303710938 1.833798527718
-9.578231811523 -75.672546386719 -210.958801269531 2.519584178925
-124.653373718262 -75.171218872070 -206.679306030273 4.170431613922
-145.052612304688 -77.054916381836 -195.493774414063 1.873728990555
-0.351031988859 -76.800971984863 -199.389221191406 8.771926879883
-27.135898590088 -78.720046997070 -200.613555908203 4.312540531158
21.032762527466 -81.095329284668 -202.122055053711 4.125673294067
4.455893039703 -78.714111328125 -215.048492431641 3.773897409439
80.812805175781 -70.621589660645 -211.454406738281 6.223707675934
-17.942228317261 -72.550178527832 -213.249099731445 1.035336375237
89.808799743652 -72.554893493652 -211.297073364258 1.238111138344
98.401107788086 -80.356575012207 -209.090576171875 4.406025409698
-148.099685668945 -78.477615356445 -213.183059692383 1.637760519981
94.513298034668 -79.945732116699 -213.678878784180 4.310325145721
3.311856985092 -73.371078491211 -206.664855957031 2.622884035110
1.377542972565 -78.853126525879 -215.702484130859 4.612873077393
-31.760692596436 -75.502227783203 -206.064620971680 0.940060138702
-89.861679077148 -75.397941589355 -213.149627685547 1.002294301987
-24.637714385986 -79.428009033203 -210.327697753906 1.814901351929
85.307655334473 -74.313980102539 -220.610580444336 2.528079271317
90.936676025391 -75.013854980469 -216.838928222656 1.362215638161
-31.513753890991 -74.547912597656 -212.153457641602 0.691999077797
-83.879966735840 -71.099411010742 -220.959594726563 4.168807983398
0.006943000015 -78.637458801270 -221.108551025391 2.158931732178
76.254081726074 -69.863754272461 -212.897216796875 7.092445850372
-153.446899414063 -84.157096862793 -220.891479492188 4.532106876373
-167.162521362305 -73.675491333008 -214.224441528320 3.558335304260
-164.871978759766 -81.777999877930 -221.248016357422 9.036174774170
-22.358331680298 -79.024627685547 -228.038253784180 3.767938137054
-155.789779663086 -82.736564636230 -221.966430664063 5.052905559540
-4.227549076080 -76.631896972656 -224.707382202148 2.251678466797
4.961785793304 -79.018684387207 -219.801406860352 2.723942518234
-171.044723510742 -76.458480834961 -226.512756347656 6.050876617432
-156.613021850586 -76.638305664063 -228.769439697266 3.188951015472
77.863380432129 -81.884597778320 -234.406585693359 6.016723632813
-2.941334962845 -76.021774291992 -226.647399902344 2.189473390579
-161.021209716797 -67.885643005371 -226.738739013672 1.881121873856
-143.521194458008 -80.041900634766 -222.446533203125 2.106000185013
-19.046747207642 -73.765823364258 -224.682373046875 2.067494153976
-3.538316965103 -81.317161560059 -220.699951171875 2.579305171967
79.048622131348 -71.990737915039 -229.559936523438 1.126718521118
-161.490554809570 -73.435867309570 -227.871520996094 0.771632194519
-141.428131103516 -72.274147033691 -234.082275390625 1.592960834503
-126.910652160645 -73.601882934570 -232.510421752930 1.720692992210
76.988990783691 -80.184875488281 -227.590545654297 3.972115516663
-116.621337890625 -76.884582519531 -229.908767700195 3.150640726089
-143.318893432617 -76.256813049316 -229.733993530273 1.955163240433
-152.265243530273 -74.453475952148 -232.480392456055 2.664998054504
-151.099472045898 -77.694969177246 -232.454650878906 1.527583122253
-156.375915527344 -77.877357482910 -229.235336303711 2.619805335999
-165.407302856445 -77.490951538086 -228.115386962891 5.168509960175
-132.839355468750 -78.263175964355 -238.224792480469 6.193214893341
-133.874526977539 -77.847297668457 -234.045639038086 3.828562736511
-152.007308959961 -84.190124511719 -234.039810180664 2.338605403900
-146.363891601563 -71.408668518066 -238.841506958008 3.057326555252
-151.304229736328 -77.865043640137 -236.045333862305 0.913111269474
75.340774536133 -80.786819458008 -235.834823608398 6.907842159271
66.365592956543 -68.037002563477 -236.002914428711 1.555543780327
-155.062683105469 -73.912574768066 -235.507202148438 3.359941005707
72.800491333008 -69.118804931641 -234.972244262695 1.432438731194
-21.679498672485 -73.200889587402 -237.459426879883 1.230126023293
12.482996940613 -79.269073486328 -240.248107910156 1.408257246017
7.621455192566 -77.374572753906 -237.151367187500 1.190504193306
-157.247695922852 -76.863525390625 -240.625213623047 2.935455083847
15.885180473328 -75.764869689941 -242.890594482422 3.375718593597
57.545776367188 -74.112174987793 -240.701858520508 1.444934844971
12.388442993164 -72.459236145020 -239.939483642578 1.260880351067
3.548085927963 -76.480857849121 -242.505950927734 1.571920871735
-7.446440219879 -71.986885070801 -240.505020141602 0.279208570719
-22.954027175903 -74.093696594238 -244.158187866211 2.579735279083
-3.599040031433 -76.840332031250 -241.261535644531 3.564731359482
4.563644886017 -80.961853027344 -248.167434692383 1.711102128029
56.751243591309 -78.692771911621 -242.204910278320 4.399178504944
-55.030529022217 -83.707962036133 -245.635848999023 4.010190010071
20.076650619507 -75.335144042969 -250.012191772461 2.583850383759
-58.164817810059 -77.303627014160 -240.124176025391 4.542617797852
-11.806209564209 -77.267326354980 -249.524353027344 2.098524808884
-68.206748962402 -71.437736511230 -251.722122192383 2.261439085007
-86.417976379395 -72.579727172852 -255.503646850586 1.408150076866
-82.999351501465 -79.202102661133 -255.542678833008 4.121529102325
-8.053521156311 -75.962043762207 -258.743591308594 4.010722160339
-124.130950927734 -77.343734741211 -263.380126953125 2.471066474915
-14.716239929199 -77.511672973633 -251.908309936523 3.544815778732
-117.711090087891 -76.516418457031 -254.694778442383 2.589832782745
-119.351127624512 -74.519454956055 -259.616363525391 2.756118059158
-104.761070251465 -76.792343139648 -254.336914062500 3.705534219742
-143.713363647461 -74.952857971191 -259.825958251953 2.145538091660
-145.268234252930 -76.835693359375 -269.216766357422 2.386028766632
-170.287200927734 -77.203170776367 -263.080017089844 4.484708309174
21.338972091675 -82.614341735840 -282.205139160156 8.761205673218
-62.652225494385 -73.990829467773 -285.868621826172 1.340853214264
-69.802291870117 -75.860900878906 -282.313995361328 4.069448947906
-43.251445770264 -79.635734558105 -282.738311767578 4.132233619690
-27.207012176514 -77.869331359863 -288.969360351563 2.468494176865
-96.513824462891 -81.348251342773 -292.292419433594 5.437062263489
-33.291996002197 -74.450363159180 -285.221191406250 1.047450661659
-4.394769191742 -76.533477783203 -286.553192138672 0.812517404556
-168.358184814453 -77.977195739746 -290.185516357422 5.591232299805
-21.232481002808 -80.715469360352 -286.109863281250 3.839465618134
3.844150066376 -78.901481628418 -289.123657226563 1.972531199455
12.935959815979 -84.468299865723 -279.709747314453 4.366864204407
-58.142711639404 -82.163810729980 -285.228576660156 6.179337978363
-37.450996398926 -79.372390747070 -293.411224365234 3.839798450470
13.279581069946 -74.739868164063 -295.772430419922 1.513641834259
-73.277496337891 -74.706214904785 -295.579772949219 5.242450714111
-44.673759460449 -72.879196166992 -288.509765625000 1.493603348732
-19.354169845581 -74.539245605469 -290.304504394531 1.953259825706
12.731908798218 -80.888847351074 -293.290222167969 3.349829912186
-13.674481391907 -80.887413024902 -297.735931396484 7.232060432434
3.609622001648 -76.322784423828 -296.922821044922 3.890713691711
13.480956077576 -81.598060607910 -289.019134521484 3.764783143997
-136.119461059570 -76.530281066895 -294.642181396484 1.407560467720
-146.424606323242 -80.690635681152 -297.542602539063 1.370537042618
-156.155288696289 -76.878631591797 -313.888488769531 4.153318405151
46.888355255127 -71.800384521484 -15.972890853882 1.946369647980
30.747030258179 -72.499633789063 -12.972784042358 2.449665307999
41.788475036621 -73.010520935059 -16.202642440796 1.741473317146
24.534790039063 -66.855224609375 -19.098957061768 2.639680624008
47.084957122803 -68.889633178711 -25.335512161255 2.966762542725
27.672645568848 -68.621910095215 -27.099344253540 3.148400068283
24.554754257202 -72.829765319824 -27.361566543579 1.417786478996
28.557321548462 -74.053657531738 -43.692634582520 4.038362026215
37.204780578613 -77.404953002930 -32.372669219971 6.550139904022
26.767562866211 -79.370277404785 -39.411140441895 8.471501350403
45.244239807129 -70.603027343750 -42.307273864746 3.216593980789
33.267356872559 -73.722793579102 -43.438053131104 3.271427631378
42.548542022705 -75.406204223633 -36.515151977539 4.414572238922
31.534334182739 -70.794815063477 -41.599315643311 1.477376461029
46.945041656494 -73.123771667480 -44.114601135254 6.490836143494
32.823234558105 -71.806556701660 -38.170028686523 0.985600590706
-42.193279266357 -72.321083068848 -47.883213043213 3.317052841187
-28.194175720215 -66.475448608398 -50.944042205811 2.264020919800
-89.909088134766 -74.363006591797 -53.407337188721 6.726292133331
-89.950454711914 -73.975517272949 -67.001205444336 3.338608980179
77.415603637695 -76.885772705078 -64.900367736816 6.977218627930
85.212272644043 -71.329467773438 -74.810379028320 2.720804214478
-20.815582275391 -70.846656799316 -76.863563537598 3.558033943176
-87.168441772461 -70.841285705566 -72.953239440918 4.109283447266
-24.227087020874 -71.383476257324 -77.730552673340 1.476878881454
-48.722202301025 -75.300674438477 -85.275131225586 2.344121456146
