107.051605224609 -72.135032653809 -174.869155883789 1.633921504021
27.367860794067 -70.104736328125 -171.054153442383 1.945938110352
113.764984130859 -69.447998046875 -188.643753051758 5.491188049316
-39.563228607178 -71.467704772949 -180.784957885742 3.459265947342
22.812479019165 -71.536582946777 -169.545364379883 2.728213071823
107.255592346191 -71.680992126465 -187.828796386719 1.912045478821
21.637228012085 -73.126663208008 -177.218795776367 2.446024179459
-151.790679931641 -69.905471801758 -184.120117187500 1.344428539276
-28.673091888428 -67.831306457520 -190.882293701172 0.934150934219
23.069478988647 -68.024192810059 -186.735671997070 1.652680754662
-117.408660888672 -75.501129150391 -191.292373657227 5.601492881775
-113.451972961426 -68.305641174316 -192.613098144531 0.810610473156
24.821195602417 -72.995376586914 -188.527099609375 1.355072379112
9.421828269958 -67.517890930176 -185.558563232422 6.318182945251
-28.067230224609 -67.067672729492 -191.210601806641 1.536954879761
-29.402416229248 -78.745841979980 -189.482025146484 1.430000424385
-30.357315063477 -72.916336059570 -189.176223754883 0.892247557640
11.049942970276 -68.121360778809 -181.308227539063 4.513362884521
-151.714523315430 -72.550415039063 -194.754470825195 2.478204250336
-147.849670410156 -71.498817443848 -190.230087280273 2.547734975815
-148.797332763672 -78.180702209473 -198.196136474609 1.485911846161
-25.004911422729 -70.804519653320 -191.951370239258 0.768379271030
13.811660766602 -68.161834716797 -201.021652221680 1.611876487732
97.237472534180 -69.761039733887 -194.590408325195 2.151056766510
-114.476409912109 -70.265838623047 -197.431304931641 0.245797336102
20.170877456665 -78.209304809570 -198.399291992188 2.883256196976
-13.731627464294 -70.320037841797 -195.028533935547 1.693564176559
-17.979406356812 -72.364196777344 -198.895324707031 3.209553241730
100.821746826172 -69.864555358887 -203.145156860352 1.625609397888
5.594199180603 -76.034637451172 -198.340316772461 4.679466724396
-23.331150054932 -70.031234741211 -197.404830932617 1.074777483940
-121.250686645508 -77.259735107422 -203.677520751953 4.198460102081
-135.739746093750 -73.569107055664 -201.618743896484 1.556379437447
-115.620048522949 -64.910186767578 -205.822006225586 2.562544584274
-143.320190429688 -77.793815612793 -201.258270263672 2.213192701340
15.318342208862 -71.819374084473 -199.073593139648 3.337226390839
90.935997009277 -74.809768676758 -200.984756469727 3.823664426804
-166.188720703125 -65.356407165527 -197.483398437500 4.112590312958
99.182556152344 -70.798583984375 -203.581054687500 1.716969132423
-25.448112487793 -79.364891052246 -204.996200561523 4.153467655182
93.563568115234 -67.410224914551 -211.020446777344 1.577090144157
87.202331542969 -75.544380187988 -210.478973388672 2.378668546677
8.653531074524 -75.929801940918 -202.461257934570 1.625830292702
20.089513778687 -70.887008666992 -214.721511840820 2.975604534149
12.518301963806 -67.448402404785 -209.779190063477 1.689788699150
-12.302519798279 -73.151466369629 -225.019973754883 0.308158814907
-94.746452331543 -77.487289428711 -219.483093261719 1.515721440315
-14.419315338135 -76.266700744629 -211.026947021484 1.898636460304
85.923522949219 -73.679176330566 -220.370498657227 2.380016565323
-96.130920410156 -77.208847045898 -214.841659545898 2.737406015396
-100.510368347168 -68.375663757324 -221.796295166016 1.689676046371
-98.532997131348 -71.913475036621 -217.920043945313 1.269322633743
88.390548706055 -76.444480895996 -224.982345581055 3.204020023346
-137.531448364258 -74.763656616211 -223.651535034180 3.339852333069
-131.834320068359 -82.237159729004 -226.623626708984 2.469426393509
-117.764160156250 -73.894203186035 -223.426971435547 3.098314046860
-114.868743896484 -69.626083374023 -219.425262451172 6.144794464111
-133.814346313477 -70.210548400879 -226.993118286133 1.850421547890
-115.606491088867 -84.595558166504 -227.159591674805 10.348807334900
-112.164978027344 -72.219291687012 -227.559371948242 2.400271177292
-8.522010803223 -79.071624755859 -223.909820556641 1.877689480782
-16.054216384888 -77.520965576172 -223.536270141602 1.528283357620
-2.187704086304 -69.379386901855 -230.329727172852 1.494418740273
-11.277897834778 -68.314361572266 -227.516738891602 0.817526698112
14.393754959106 -74.854843139648 -235.389175415039 2.541505575180
-22.664972305298 -70.270835876465 -230.170013427734 5.425928115845
-168.133972167969 -71.365409851074 -217.750656127930 1.402120828629
-7.659438133240 -74.779464721680 -234.669235229492 1.158739686012
79.696556091309 -67.965721130371 -235.177124023438 3.884622335434
11.141004562378 -76.438674926758 -233.888504028320 2.106560468674
-6.601354122162 -72.676956176758 -236.470016479492 2.092757225037
-158.799392700195 -70.795265197754 -233.690292358398 2.075900316238
-145.292007446289 -71.153312683105 -225.795166015625 3.082593679428
58.496810913086 -72.112808227539 -238.823348999023 2.913431406021
-7.007606983185 -74.423194885254 -233.251846313477 1.300861120224
10.732588768005 -76.506027221680 -229.099746704102 3.214893579483
68.269081115723 -77.397827148438 -227.422637939453 5.756632328033
75.294105529785 -72.619941711426 -236.892913818359 1.814255118370
70.392303466797 -75.317283630371 -244.980316162109 5.099600315094
-3.615407943726 -78.561424255371 -234.712661743164 2.614234209061
57.355487823486 -70.056938171387 -237.791900634766 3.260686159134
-21.103456497192 -78.218971252441 -240.743225097656 1.154138445854
-15.396197319031 -68.966087341309 -240.081542968750 1.583904862404
5.986084938049 -73.312080383301 -238.833679199219 2.493324756622
62.003631591797 -78.975608825684 -237.554458618164 5.019767761230
67.055595397949 -70.862007141113 -243.929092407227 2.530865192413
46.435680389404 -74.534126281738 -246.969329833984 4.058804512024
59.232856750488 -78.748886108398 -244.093627929688 4.980216026306
-16.845312118530 -82.279129028320 -248.763549804688 8.412306785583
-85.984771728516 -69.587257385254 -257.577484130859 1.595723152161
-78.801445007324 -71.121932983398 -253.627792358398 1.465091466904
42.219741821289 -78.512290954590 -247.779846191406 7.642471313477
-155.239242553711 -77.036865234375 -247.351989746094 3.804554462433
32.987121582031 -73.434684753418 -258.858062744141 3.308291435242
-94.294128417969 -81.285690307617 -250.804748535156 7.368159770966
-159.621520996094 -68.113899230957 -251.847229003906 1.148983597755
-141.351486206055 -62.747787475586 -250.013870239258 5.238888740540
40.336688995361 -72.924560546875 -255.878540039063 3.351956129074
-127.812889099121 -69.501106262207 -257.627655029297 3.568715333939
-120.005233764648 -76.368988037109 -252.799819946289 4.199961662292
-93.069801330566 -68.211791992188 -255.710327148438 1.049981474876
-14.407301902771 -67.564491271973 -247.117340087891 1.148525476456
30.395009994507 -73.315124511719 -257.009368896484 3.408868789673
23.116168975830 -69.904151916504 -259.856201171875 2.213149070740
-162.806060791016 -66.544464111328 -259.574890136719 2.562303781509
-116.400009155273 -78.202766418457 -261.313598632813 4.976634025574
-15.148718833923 -74.370979309082 -262.729492187500 1.634376406670
-133.429138183594 -74.086174011230 -264.474426269531 2.325682401657
-16.902059555054 -72.930084228516 -270.674224853516 3.317690372467
-164.952377319336 -74.354469299316 -268.336273193359 2.210240364075
-7.492229938507 -75.978729248047 -278.248565673828 0.526788294315
-161.845764160156 -76.923858642578 -285.309600830078 1.920979499817
-167.696868896484 -80.021484375000 -275.913726806641 5.903725147247
-144.456832885742 -76.295150756836 -283.113494873047 1.754434585571
-174.974044799805 -78.986747741699 -281.934173583984 7.974802494049
12.304244041443 -79.559928894043 -289.976409912109 2.712243318558
-105.493713378906 -77.143829345703 -285.068939208984 4.365394592285
-90.363998413086 -67.374420166016 -284.459594726563 5.033116817474
-171.567535400391 -70.895965576172 -281.546905517578 5.426018238068
-95.462135314941 -83.896621704102 -279.066314697266 12.248155593872
-159.522247314453 -76.912353515625 -287.242462158203 3.598818302155
-80.715293884277 -78.324211120605 -297.857940673828 7.612831592560
-75.510154724121 -74.315750122070 -288.163665771484 1.287139654160
-86.349555969238 -78.283493041992 -291.303253173828 4.487355709076
-5.783940792084 -73.203086853027 -288.070220947266 1.776453614235
-94.036262512207 -75.228538513184 -285.363983154297 2.549735546112
-101.834907531738 -78.659584045410 -288.848388671875 4.641485214233
-122.181152343750 -75.795516967773 -291.540802001953 2.605451107025
-119.341659545898 -70.510086059570 -291.815216064453 2.602834939957
-136.661895751953 -76.619636535645 -288.870574951172 0.785403013229
-144.720520019531 -75.132888793945 -298.741790771484 2.368748426437
-147.600708007813 -77.821464538574 -310.244232177734 1.440180778503
26.658189773560 -60.956497192383 -15.200000762939 1.618535399437
36.146495819092 -64.717277526855 -16.747011184692 2.429004907608
32.336391448975 -68.837860107422 -18.749040603638 1.970485568047
47.393272399902 -60.996273040771 -20.542118072510 1.346567869186
25.263347625732 -65.057716369629 -32.818874359131 2.172101736069
-72.802299499512 -65.495170593262 -45.667842864990 1.340909838676
90.982826232910 -60.479515075684 -69.459129333496 7.426980018616
-18.514381408691 -62.468898773193 -67.022483825684 2.814264059067
106.557838439941 -67.221138000488 -76.461540222168 3.487707138062
94.481300354004 -72.611572265625 -77.718269348145 1.895474910736
69.477874755859 -68.298629760742 -80.892250061035 2.851486682892
74.366638183594 -73.013893127441 -83.462242126465 2.681982278824
-42.821216583252 -72.196334838867 -81.304237365723 1.566116452217
61.796619415283 -74.489395141602 -81.933578491211 5.399203777313
-91.721595764160 -68.561965942383 -88.335639953613 4.933873653412
-45.435981750488 -64.696037292480 -83.786651611328 1.717577815056
-55.278587341309 -75.150634765625 -83.099159240723 6.475583076477
104.422821044922 -76.808654785156 -101.198188781738 2.461022615433
61.819190979004 -72.258064270020 -91.035736083984 1.602773785591
69.334259033203 -67.124359130859 -92.504623413086 1.944629192352
-92.855690002441 -59.954242706299 -96.651473999023 6.779248237610
109.415634155273 -70.492515563965 -92.410514831543 4.283176422119
42.710487365723 -66.192886352539 -100.750701904297 2.089165925980
103.833732604980 -67.628479003906 -100.764732360840 2.195983648300
108.481567382813 -64.474891662598 -109.204307556152 2.277949094772
100.608833312988 -68.755661010742 -105.396125793457 3.116968870163
75.580513000488 -73.002487182617 -99.878570556641 0.454524099827
87.731620788574 -71.452133178711 -110.553962707520 5.632683277130
51.538265228271 -66.515113830566 -112.592842102051 3.825044393539
111.639984130859 -62.699317932129 -104.205581665039 5.702757358551
49.392524719238 -73.982635498047 -104.879409790039 1.976085424423
38.563018798828 -66.569328308105 -103.505149841309 3.304714679718
114.773033142090 -69.773818969727 -113.031944274902 3.395075798035
-77.050529479980 -63.347320556641 -107.757019042969 1.869862318039
46.265110015869 -66.934577941895 -114.034927368164 1.886768937111
33.292953491211 -72.915054321289 -117.478202819824 1.000506043434
107.245750427246 -65.311302185059 -113.357704162598 1.769225835800
37.407077789307 -65.296577453613 -112.852874755859 5.070852279663
-85.752769470215 -68.516441345215 -109.209632873535 1.450798869133
-94.003799438477 -63.412544250488 -113.048171997070 4.120017528534
101.933326721191 -75.857238769531 -122.343902587891 5.848766803741
-94.085556030273 -69.391769409180 -117.702835083008 1.770979285240
40.580623626709 -73.950920104980 -121.708244323730 2.635830163956
37.149219512939 -69.542236328125 -124.618553161621 1.883846521378
-84.982711791992 -69.100860595703 -122.581779479980 2.634788513184
34.359455108643 -66.969558715820 -134.770874023438 2.125216484070
113.523078918457 -70.843917846680 -133.801574707031 2.109212875366
-53.007400512695 -69.577217102051 -139.112960815430 2.807680606842
-87.133949279785 -67.162757873535 -132.811508178711 1.841142654419
39.181919097900 -75.202735900879 -130.684539794922 0.207305803895
-85.158599853516 -63.215019226074 -136.006835937500 2.176121234894
-87.214332580566 -73.825050354004 -140.144470214844 6.407500267029
-49.854312896729 -69.346458435059 -135.513793945313 1.344511747360
-70.663764953613 -66.073753356934 -137.828750610352 3.003153562546
-50.047233581543 -68.600120544434 -131.498275756836 1.643453478813
118.626998901367 -65.270835876465 -138.896270751953 6.139282703400
-70.615303039551 -72.164024353027 -132.515945434570 2.567447662354
38.733150482178 -70.936660766602 -131.248748779297 1.481100082397
-77.973243713379 -66.688957214355 -140.668228149414 1.878369569778
-71.216346740723 -69.845359802246 -134.174835205078 1.598328351974
-94.720375061035 -66.776962280273 -141.829254150391 1.071663379669
-55.441333770752 -64.690567016602 -144.479354858398 2.880376338959
31.968955993652 -63.211700439453 -147.308578491211 5.643537521362
27.575441360474 -68.111656188965 -149.675933837891 0.870921134949
21.231332778931 -61.930500030518 -145.609680175781 1.642680883408
112.697738647461 -68.906455993652 -148.564666748047 2.296952962875
-89.726203918457 -67.583786010742 -150.051559448242 3.169320583344
10.360680580139 -71.572494506836 -152.906005859375 2.495756864548
-71.280349731445 -69.126213073730 -154.870819091797 2.547123193741
24.242780685425 -67.538352966309 -149.761169433594 1.440830469131
-49.225833892822 -68.202125549316 -154.995346069336 2.412302494049
10.240189552307 -68.039299011230 -154.890441894531 0.335689783096
17.791347503662 -74.043693542480 -160.086380004883 2.460413932800
16.796396255493 -77.223228454590 -164.323120117188 3.929155349731
-51.694053649902 -73.498153686523 -163.349792480469 4.297728538513
-38.016193389893 -67.729774475098 -155.555618286133 2.895236492157
-47.818393707275 -71.711387634277 -162.345886230469 1.599431157112
-103.092796325684 -71.755119323730 -172.098770141602 2.903630256653
21.813800811768 -72.994094848633 -176.083740234375 3.218543767929
-33.384498596191 -71.028770446777 -178.959197998047 2.459042787552
15.392950057983 -77.190025329590 -178.862884521484 3.233722925186
-141.975875854492 -69.423950195313 -174.401809692383 2.055230855942
-31.272111892700 -65.602455139160 -172.414840698242 2.172727108002
-157.134613037109 -79.582290649414 -175.988204956055 9.793759346008
25.138732910156 -62.951007843018 -182.758773803711 6.354225158691
-34.666511535645 -72.941497802734 -169.640686035156 4.095953464508
-106.555656433105 -66.889167785645 -173.821990966797 3.186265707016
-107.098068237305 -78.504638671875 -183.053604125977 8.931727409363
-31.217304229736 -63.319690704346 -186.303161621094 5.846545219421
-24.755842208862 -77.465759277344 -181.362625122070 0.765550315380
11.402706146240 -69.486892700195 -189.683578491211 2.746554136276
15.010391235352 -66.926803588867 -200.590332031250 2.024183511734
12.620553970337 -71.854393005371 -188.393295288086 1.481037497520
-142.717269897461 -67.853729248047 -184.727630615234 2.277648925781
24.864358901978 -65.039924621582 -190.798217773438 5.172208309174
4.408443927765 -69.923149108887 -197.452468872070 3.987166881561
-134.513107299805 -68.561943054199 -191.261520385742 2.927784204483
-112.445907592773 -70.215080261230 -193.916610717773 2.378334522247
14.359465599060 -68.569351196289 -205.860366821289 2.444300174713
-120.120460510254 -68.579925537109 -195.556838989258 1.987492561340
-107.962867736816 -61.938358306885 -191.684097290039 4.123578548431
-167.993362426758 -73.091659545898 -200.107543945313 2.881274700165
-24.983640670776 -68.799995422363 -200.076339721680 0.560378730297
9.275287628174 -68.518989562988 -200.217407226563 1.644459247589
-146.545715332031 -72.359397888184 -202.392562866211 1.321965694427
-139.286193847656 -76.138404846191 -205.778167724609 3.619044065475
-23.237051010132 -68.517776489258 -208.490524291992 3.587551116943
-13.313816070557 -72.270263671875 -206.098541259766 1.924247860909
-13.989079475403 -73.244827270508 -206.102615356445 2.915484428406
-138.294967651367 -77.511238098145 -200.060989379883 1.710312724113
-18.503646850586 -70.970237731934 -213.176101684570 2.152899980545
-9.253472328186 -79.064659118652 -214.918167114258 1.621735215187
17.536264419556 -66.941284179688 -212.404144287109 2.512753963470
-18.825996398926 -78.442726135254 -211.987579345703 2.174684762955
9.502825737000 -73.252037048340 -209.347106933594 1.084941625595
-12.314832687378 -73.759185791016 -215.304260253906 3.247694253922
-25.275882720947 -66.477897644043 -211.783874511719 6.525521278381
10.319358825684 -80.521469116211 -221.050827026367 2.260595321655
-3.771805047989 -79.663696289063 -219.126983642578 2.375479698181
10.170513153076 -65.969039916992 -221.048492431641 2.205592393875
-7.838898181915 -76.326850891113 -229.373336791992 2.310853958130
-162.272476196289 -74.209938049316 -225.297134399414 1.969222784042
79.471794128418 -75.789848327637 -221.131683349609 1.588179826736
-136.973770141602 -68.747863769531 -222.133499145508 3.452931165695
-136.367782592773 -75.559814453125 -219.455520629883 6.040473937988
-8.830761909485 -73.109161376953 -225.472473144531 0.962459683418
4.514319896698 -71.667808532715 -236.795211791992 2.757798194885
-160.075775146484 -72.313163757324 -230.217346191406 2.226446390152
89.262519836426 -69.376068115234 -222.246643066406 3.399535894394
-2.354113101959 -70.089370727539 -227.434768676758 1.454779267311
-0.169204995036 -72.501823425293 -221.130111694336 1.342031240463
72.794540405273 -76.649887084961 -233.371231079102 3.667132616043
-1.193480968475 -68.407104492188 -237.742706298828 1.505593538284
-14.343968391418 -73.646759033203 -224.204650878906 1.460508704185
-129.238037109375 -67.705490112305 -232.322860717773 3.349097728729
-7.058714866638 -71.934463500977 -239.006958007813 1.433719754219
1.462677001953 -68.861976623535 -230.168197631836 2.048352956772
64.905525207520 -68.278610229492 -239.727569580078 1.513585329056
-159.242202758789 -76.144706726074 -234.878540039063 3.444446086884
-15.156710624695 -70.080513000488 -246.397430419922 2.541720867157
-172.159011840820 -76.895164489746 -237.062408447266 7.081862449646
9.519897460938 -65.994056701660 -242.108642578125 1.931577920914
-164.418960571289 -75.284500122070 -236.737319946289 3.009415864944
-161.192413330078 -75.981948852539 -245.668655395508 3.400214195251
57.143970489502 -73.608566284180 -246.183761596680 2.128062963486
59.053211212158 -75.667633056641 -243.318832397461 2.178261995316
53.767498016357 -74.128997802734 -247.779357910156 1.598286271095
49.722877502441 -72.856903076172 -250.967910766602 1.407049059868
-153.408737182617 -75.268730163574 -240.682296752930 2.751962661743
-157.623092651367 -67.975097656250 -244.327606201172 2.838042497635
-13.724610328674 -79.146018981934 -249.648880004883 4.359340667725
-151.958999633789 -72.189422607422 -246.119201660156 2.048013687134
15.812260627747 -72.928146362305 -251.840988159180 3.632679224014
-173.477890014648 -81.521659851074 -249.368957519531 9.987599372864
-171.128814697266 -71.052642822266 -249.389434814453 4.852284908295
-83.709030151367 -75.966918945313 -245.722045898438 5.109088420868
-172.972244262695 -72.101234436035 -255.309417724609 5.260750770569
-86.763137817383 -73.112236022949 -258.170562744141 2.326999187469
41.494010925293 -71.456726074219 -255.134765625000 1.931566834450
19.791307449341 -76.990737915039 -258.420776367188 1.994917273521
-159.491302490234 -75.604492187500 -262.116577148438 1.972962975502
-103.211135864258 -64.180915832520 -259.648498535156 1.580837965012
38.452026367188 -72.331275939941 -255.498352050781 2.136379957199
-109.772842407227 -84.407867431641 -256.595947265625 10.199898719788
-155.207321166992 -70.050544738770 -264.933807373047 2.491868734360
-105.093963623047 -72.385734558105 -255.109313964844 1.661093473434
-171.816802978516 -77.867362976074 -257.307189941406 7.823028564453
-115.101341247559 -74.604187011719 -263.195556640625 1.957050442696
-155.692352294922 -76.944702148438 -264.815399169922 3.129284381866
-161.691543579102 -69.646446228027 -260.833557128906 2.016823053360
-167.416641235352 -72.569458007813 -262.124298095703 1.843629121780
-167.807083129883 -71.550369262695 -260.547943115234 0.905450820923
-167.723342895508 -73.961448669434 -262.122406005859 1.996037960052
-171.818115234375 -74.838157653809 -256.773101806641 6.357642650604
25.192453384399 -74.948394775391 -266.770690917969 3.481862545013
-149.130187988281 -80.254455566406 -260.450469970703 2.087611675262
-154.614822387695 -74.540298461914 -284.120422363281 1.362382054329
27.398656845093 -73.190193176270 -276.334167480469 6.690467357635
-14.754401206970 -77.737266540527 -275.024475097656 3.491353511810
-127.273437500000 -70.816978454590 -283.954101562500 1.977535605431
-138.750839233398 -74.450042724609 -285.326873779297 2.471544027328
-135.547515869141 -74.014389038086 -288.678222656250 1.711561083794
-131.007308959961 -74.538558959961 -284.576599121094 1.128813505173
-114.705596923828 -72.905136108398 -291.977813720703 1.090243220329
-105.761032104492 -68.516418457031 -282.751342773438 4.226846218109
4.626939773560 -79.296188354492 -296.694427490234 5.224551677704
-86.371879577637 -76.155639648438 -290.521270751953 3.425856113434
-150.823059082031 -75.146316528320 -284.160278320313 1.608708381653
-105.122619628906 -75.941970825195 -290.356079101563 3.004216909409
-136.358779907227 -71.600425720215 -291.581176757813 1.016784787178
7.973482131958 -76.489341735840 -287.905151367188 1.125630140305
-112.791397094727 -65.205223083496 -285.678283691406 4.915190219879
2.662981033325 -74.810195922852 -294.996246337891 1.721835851669
-145.531845092773 -74.120330810547 -284.224487304688 1.076611280441
-154.552062988281 -74.730598449707 -293.225982666016 1.172583937645
-162.929443359375 -73.775169372559 -316.208984375000 8.412437438965
-159.001800537109 -72.333740234375 -309.240234375000 2.593657016754
48.338016510010 -68.922180175781 -26.412664413452 2.795747756958
27.801372528076 -64.514480590820 -39.082080841064 1.212886095047
30.358329772949 -66.297500610352 -37.588985443115 2.917563915253
-38.971183776855 -69.625946044922 -47.057395935059 3.103790283203
-8.267469406128 -62.893703460693 -64.132598876953 2.941313982010
96.900749206543 -66.812538146973 -69.955352783203 2.214342117310
69.828140258789 -58.952117919922 -70.572982788086 4.457964420319
-24.264575958252 -64.930290222168 -74.534492492676 3.541350841522
-100.058441162109 -72.514823913574 -88.192466735840 4.798616886139
-41.542549133301 -66.291961669922 -86.704467773438 5.227622985840
58.284938812256 -66.420227050781 -81.312057495117 1.961083173752
67.361785888672 -71.056503295898 -85.894180297852 2.745207309723
52.035705566406 -63.453441619873 -89.486679077148 2.391449213028
-58.421092987061 -66.078941345215 -90.887969970703 2.461005687714
69.073112487793 -60.655559539795 -91.230171203613 3.900861501694
43.621070861816 -72.504142761230 -100.182914733887 1.585177421570
70.811607360840 -70.647323608398 -97.028617858887 1.155415415764
-58.474323272705 -65.113082885742 -96.754806518555 5.109917640686
53.058429718018 -69.297187805176 -92.545433044434 2.151710510254
48.368804931641 -70.859870910645 -99.374382019043 1.925720691681
104.223167419434 -62.453479766846 -106.115707397461 4.742711544037
-63.329254150391 -67.184700012207 -97.739936828613 3.102118253708
113.201087951660 -66.445198059082 -102.085494995117 4.903133869171
-77.958564758301 -72.191787719727 -101.275787353516 1.738797664642
54.327339172363 -71.094665527344 -109.014801025391 2.178920030594
49.327594757080 -65.414573669434 -103.150451660156 1.845518827438
91.504219055176 -61.739604949951 -106.893775939941 1.749933004379
83.685752868652 -68.511550903320 -107.827529907227 2.455453395844
58.374835968018 -69.091178894043 -106.978240966797 4.743763923645
-76.510421752930 -68.840103149414 -112.402091979980 1.652346849442
-78.327125549316 -67.581718444824 -117.473800659180 0.993849635124
-80.745178222656 -69.081863403320 -116.963172912598 2.646829366684
-93.634994506836 -75.667434692383 -116.042938232422 3.465129137039
102.777511596680 -59.434444427490 -120.797180175781 9.476793289185
-90.739112854004 -72.261146545410 -117.211608886719 0.481665700674
-73.892410278320 -62.083652496338 -121.638702392578 2.735210180283
109.446212768555 -66.819313049316 -119.682640075684 1.599860668182
-58.311916351318 -57.008197784424 -116.964691162109 1.416484475136
113.664596557617 -74.733619689941 -134.097381591797 2.425692319870
110.422309875488 -71.147285461426 -132.386764526367 0.725156247616
104.932685852051 -71.153373718262 -131.192352294922 4.828124523163
-93.561782836914 -69.645202636719 -135.591522216797 3.050654888153
-44.531051635742 -68.878326416016 -141.957489013672 2.152530908585
-81.945732116699 -64.584953308105 -142.567642211914 5.977149486542
-69.148017883301 -68.718688964844 -147.673828125000 0.759312450886
-67.783554077148 -67.878662109375 -149.957702636719 2.297645807266
-54.663143157959 -68.155197143555 -143.739486694336 1.757618904114
-45.130062103271 -75.608413696289 -143.147094726563 1.132256388664
12.465291976929 -69.181999206543 -148.898178100586 0.944492697716
-93.279838562012 -62.845508575439 -139.674728393555 1.537873506546
-46.560771942139 -66.632408142090 -145.903091430664 1.515868663788
-50.354907989502 -57.883064270020 -146.412673950195 8.892715454102
-42.596092224121 -65.979782104492 -153.950088500977 2.362781524658
26.502418518066 -73.003189086914 -160.825866699219 2.648960113525
-51.341453552246 -71.268676757813 -151.817276000977 0.520661592484
-103.142677307129 -61.392433166504 -146.962081909180 5.032354831696
-48.534259796143 -64.216392517090 -154.045852661133 4.778816223145
25.250690460205 -73.373786926270 -145.619995117188 0.249948307872
-94.806648254395 -78.984024047852 -162.912322998047 11.226048469543
23.199291229248 -73.126754760742 -159.199905395508 1.501197457314
-108.690582275391 -64.443626403809 -167.165390014648 1.496156454086
-102.019699096680 -70.289138793945 -163.147216796875 1.109970927238
21.750816345215 -70.236518859863 -168.079132080078 2.334341764450
26.534477233887 -67.230537414551 -168.425765991211 1.821862459183
-112.283554077148 -73.906387329102 -171.476806640625 6.164475917816
-142.959442138672 -65.422584533691 -171.067276000977 3.821469545364
-17.991758346558 -71.213775634766 -191.697784423828 1.739321827888
-28.140834808350 -68.851707458496 -179.933395385742 2.197624921799
-118.441017150879 -72.892021179199 -185.210174560547 7.228373050690
-144.170349121094 -65.057098388672 -183.854324340820 3.711623430252
-101.017204284668 -65.450424194336 -180.080734252930 4.791732788086
-161.050796508789 -70.757263183594 -185.756103515625 8.731820106506
-131.634658813477 -77.537940979004 -193.809661865234 2.289139747620
-133.419372558594 -74.378158569336 -194.675521850586 2.100748777390
-19.571622848511 -68.009025573730 -186.656967163086 3.463705062866
-118.833427429199 -71.873733520508 -198.557479858398 3.220137119293
-120.231513977051 -65.258544921875 -199.849441528320 2.902976512909
-30.116436004639 -74.551055908203 -191.970306396484 2.046483755112
-154.966537475586 -66.941535949707 -192.379608154297 1.289872288704
-133.792907714844 -72.216423034668 -203.401809692383 1.479266405106
-125.729911804199 -67.149772644043 -201.934295654297 2.600858211517
18.112569808960 -75.491722106934 -202.518676757813 2.165110826492
-163.565277099609 -71.876899719238 -198.970336914063 0.885094583035
13.138045310974 -68.474754333496 -218.650833129883 1.856291890144
13.691505432129 -73.618469238281 -216.561477661133 1.842610716820
-15.471797943115 -65.171966552734 -211.692291259766 2.252870798111
-5.876634120941 -71.137115478516 -217.551101684570 2.447085618973
-174.543533325195 -66.931785583496 -209.024719238281 7.693679809570
-160.415649414063 -64.911819458008 -210.071960449219 2.888039350510
-96.031303405762 -70.333068847656 -218.345581054688 1.769659042358
-96.773178100586 -74.652297973633 -219.556320190430 2.187896966934
-162.090179443359 -73.881126403809 -225.505142211914 1.917618513107
-111.259635925293 -67.586036682129 -217.594406127930 6.353365421295
-12.381383895874 -68.540184020996 -210.887405395508 0.720519065857
-129.793884277344 -74.149353027344 -218.992919921875 5.523448944092
-144.761795043945 -71.718429565430 -220.566635131836 0.737752676010
-4.254731178284 -74.936065673828 -221.716537475586 1.769772171974
-135.293869018555 -68.725349426270 -222.165344238281 2.141073465347
-124.632644653320 -77.874679565430 -219.643829345703 7.143047809601
-115.373138427734 -76.173652648926 -221.671463012695 5.068866729736
-3.857048988342 -62.644363403320 -230.696304321289 4.624439716339
-109.106582641602 -68.299964904785 -231.415817260742 2.204249382019
-163.475387573242 -62.672256469727 -220.508255004883 4.304054737091
-146.390213012695 -70.889068603516 -224.059478759766 2.936132431030
-165.813934326172 -71.103820800781 -224.094009399414 1.824161767960
-9.632157325745 -68.502250671387 -225.347732543945 2.678062677383
-9.241000175476 -72.664405822754 -234.689071655273 1.479189276695
77.281578063965 -75.802421569824 -226.583786010742 1.261168360710
-3.291398048401 -75.490859985352 -229.043395996094 2.307144641876
-144.891540527344 -71.993080139160 -237.372131347656 2.879301309586
-16.049175262451 -68.240882873535 -230.126708984375 2.016642808914
72.650756835938 -72.212913513184 -229.155029296875 1.789761424065
72.446731567383 -72.429672241211 -235.115509033203 0.845388770103
-135.607101440430 -69.210380554199 -230.046188354492 2.698929786682
-156.861724853516 -77.571319580078 -226.268524169922 2.705023765564
-114.942443847656 -68.758766174316 -231.625442504883 2.418600320816
-127.153396606445 -65.046691894531 -235.851364135742 2.316715717316
-163.520614624023 -70.157348632813 -233.292434692383 2.489078760147
-162.731216430664 -73.166809082031 -233.133819580078 2.110331058502
-150.035903930664 -64.189613342285 -230.414199829102 1.876126170158
-17.523191452026 -68.049057006836 -234.407943725586 4.151598453522
-7.793705940247 -70.110389709473 -243.524810791016 2.520064830780
-161.641479492188 -70.693435668945 -241.590682983398 2.655470371246
4.366890907288 -72.369583129883 -237.131134033203 3.272381782532
-1.724786043167 -73.992027282715 -239.489364624023 1.423571467400
-160.086212158203 -71.547950744629 -234.567886352539 1.050697326660
17.787582397461 -78.124298095703 -240.489761352539 1.452582359314
49.427108764648 -75.724548339844 -247.997909545898 3.190835475922
46.800434112549 -76.866027832031 -244.509490966797 6.547582149506
-19.462045669556 -73.334793090820 -247.619949340820 5.254359245300
45.247509002686 -71.103652954102 -251.603836059570 1.489636421204
-160.824600219727 -66.346794128418 -246.408813476563 2.352807521820
-157.324768066406 -73.162345886230 -244.213470458984 1.937645554543
-163.211715698242 -79.284446716309 -246.763092041016 4.401284217834
54.813125610352 -70.986770629883 -248.466445922852 1.594353199005
-96.443511962891 -70.428283691406 -251.822799682617 1.856931924820
-125.776702880859 -70.187149047852 -253.447769165039 1.869897127151
-108.299888610840 -79.246360778809 -250.695495605469 8.392754554749
22.083610534668 -78.890487670898 -258.563323974609 2.007726430893
37.147663116455 -68.767593383789 -253.171951293945 1.520763993263
-102.257812500000 -68.559661865234 -253.445663452148 2.504169940948
-94.615036010742 -65.572517395020 -247.310119628906 5.431628704071
43.922897338867 -79.496749877930 -257.257537841797 9.033517837524
38.398651123047 -69.701736450195 -258.792663574219 1.020367383957
-155.845687866211 -80.179222106934 -254.850143432617 2.069703102112
25.812633514404 -72.817901611328 -261.625427246094 2.175377130508
-146.071502685547 -76.084648132324 -263.398590087891 2.750262260437
-114.367691040039 -72.746032714844 -261.604797363281 0.910884797573
-140.869094848633 -68.787193298340 -260.092346191406 2.356598854065
31.688758850098 -71.236083984375 -264.239776611328 3.879080057144
-128.374618530273 -71.203285217285 -260.841064453125 3.547283172607
-13.597249984741 -70.287147521973 -256.173461914063 1.800465106964
17.283712387085 -77.321517944336 -272.047119140625 2.675953865051
-5.216962814331 -81.261749267578 -263.862731933594 3.149133920670
16.263406753540 -76.615325927734 -281.525390625000 3.020002365112
-157.669403076172 -77.535102844238 -280.186401367188 5.421477317810
-14.590177536011 -70.259361267090 -281.460601806641 4.959616184235
-154.741806030273 -77.840927124023 -278.885040283203 3.868621110916
-124.189323425293 -78.011734008789 -283.218688964844 2.950732469559
-167.699600219727 -82.403198242188 -283.413482666016 8.113703727722
-117.887191772461 -73.056983947754 -285.313354492188 2.234542608261
-105.781188964844 -74.853500366211 -289.320098876953 2.713978052139
-9.578555107117 -71.213203430176 -284.506317138672 1.766402721405
-109.996360778809 -76.639060974121 -286.368286132813 4.020584106445
-119.808792114258 -70.556930541992 -280.688598632813 7.008751392365
-126.880119323730 -69.092155456543 -290.585693359375 2.210440158844
-143.189987182617 -74.530662536621 -288.338409423828 2.084359884262
-130.434280395508 -68.228332519531 -289.113067626953 2.463378906250
-161.786193847656 -81.005249023438 -286.623229980469 5.614532470703
-150.212829589844 -69.032478332520 -288.709442138672 0.818809092045
-164.220672607422 -69.959953308105 -301.456146240234 7.744522094727
-157.881530761719 -72.198371887207 -308.518280029297 1.387250185013
-164.606613159180 -70.448196411133 -299.119537353516 6.813912391663
-141.422836303711 -75.847259521484 -307.889678955078 2.425206899643
-151.641418457031 -78.974456787109 -313.039794921875 0.786461293697
37.912097930908 -64.029983520508 -7.136112213135 5.278330802917
52.199886322021 -70.474983215332 -18.795654296875 2.972378253937
25.772634506226 -62.932899475098 -21.977239608765 1.864981293678
53.791030883789 -65.070602416992 -26.493980407715 5.494275569916
29.616245269775 -67.464302062988 -34.712757110596 1.206732153893
33.255508422852 -65.393363952637 -33.312133789063 3.281690597534
-55.377784729004 -59.613807678223 -49.064655303955 5.557540416718
77.509597778320 -59.360649108887 -60.555152893066 2.230497598648
85.251335144043 -67.541893005371 -69.951797485352 4.379212379456
-87.563812255859 -68.701576232910 -62.471786499023 2.666064262390
-11.367929458618 -62.098815917969 -59.217327117920 2.140869855881
-90.949722290039 -67.914123535156 -71.604606628418 3.931184530258
98.538757324219 -69.445899963379 -68.352539062500 2.989631175995
-9.459313392639 -62.376148223877 -67.298652648926 2.644342184067
69.038352966309 -70.576713562012 -84.125770568848 1.646974325180
-43.835842132568 -71.344276428223 -81.612388610840 1.797642350197
-24.114196777344 -68.963218688965 -73.227668762207 2.148360490799
56.785011291504 -59.512599945068 -88.482894897461 2.555189847946
-41.133201599121 -77.398025512695 -82.687805175781 2.501320123672
66.390220642090 -54.299949645996 -89.677803039551 0.791384756565
53.228843688965 -73.298706054688 -93.128662109375 1.599081635475
57.489292144775 -65.097892761230 -96.397163391113 1.493547081947
58.603145599365 -75.663726806641 -91.509574890137 1.964064598083
56.931728363037 -60.180049896240 -97.225677490234 2.398248195648
99.536666870117 -61.722171783447 -100.944534301758 3.536440610886
108.749771118164 -59.692234039307 -102.830253601074 5.861088752747
62.295883178711 -70.326362609863 -102.625862121582 4.908922672272
109.233779907227 -61.159271240234 -103.620361328125 6.052952289581
-77.227897644043 -66.022529602051 -97.732810974121 3.015929698944
-72.799018859863 -67.860748291016 -103.046989440918 1.039623737335
101.333267211914 -61.924434661865 -100.549110412598 2.312610864639
54.366485595703 -68.342987060547 -102.409744262695 1.342285752296
71.361152648926 -69.336181640625 -98.070236206055 1.687709331512
-69.798721313477 -67.720901489258 -109.038848876953 1.960947990417
-85.146766662598 -65.617286682129 -107.719512939453 2.461344957352
86.734298706055 -72.226242065430 -104.210578918457 2.037780284882
39.282764434814 -70.106300354004 -102.909599304199 2.008246898651
107.616630554199 -61.897731781006 -110.699592590332 4.252470493317
49.891693115234 -71.527145385742 -114.866691589355 1.649298191071
112.419845581055 -67.981414794922 -103.587997436523 2.818396568298
-76.461975097656 -68.002906799316 -112.043212890625 1.403495907784
103.102073669434 -60.786342620850 -111.251052856445 6.835304737091
-81.973274230957 -64.281036376953 -121.256393432617 1.766626119614
-57.581707000732 -71.061698913574 -127.189666748047 0.910919010639
-56.950038909912 -67.537887573242 -122.960708618164 1.005720973015
-70.113494873047 -71.142799377441 -130.120666503906 3.012656688690
-49.690605163574 -69.744720458984 -130.991073608398 1.925038576126
-83.310722351074 -70.286468505859 -133.892333984375 2.371865749359
-77.101127624512 -62.651702880859 -130.525863647461 0.978338003159
-78.060585021973 -69.477989196777 -132.901397705078 1.365609407425
-61.444896697998 -74.844268798828 -142.044021606445 2.871353387833
-69.848052978516 -69.240173339844 -141.258514404297 2.139088869095
-60.268074035645 -75.543579101563 -131.277847290039 4.397184371948
-56.052993774414 -68.001457214355 -142.970703125000 2.171406984329
11.066836357117 -62.716964721680 -147.164535522461 3.602436780930
-91.096855163574 -69.891349792480 -138.879379272461 2.317229986191
-48.659206390381 -75.840950012207 -149.493164062500 1.625876307487
-93.622055053711 -67.055404663086 -149.089523315430 2.038568496704
-102.091079711914 -64.668472290039 -145.597427368164 4.172778129578
20.820602416992 -72.100166320801 -156.027908325195 1.851441264153
15.220550537109 -70.488235473633 -160.055053710938 0.622545719147
-94.861915588379 -72.903205871582 -159.992263793945 5.228147506714
-104.349739074707 -70.006149291992 -149.043197631836 6.151449203491
-99.477241516113 -67.587875366211 -166.156311035156 1.652727961540
21.010749816895 -68.701461791992 -171.565460205078 2.384201288223
-113.187377929688 -69.494415283203 -172.451263427734 4.161238193512
25.752683639526 -68.619598388672 -164.894378662109 0.862969160080
-148.530776977539 -70.471382141113 -175.029953002930 2.497197866440
17.893037796021 -68.582878112793 -176.642883300781 1.299974441528
24.852783203125 -71.251510620117 -186.934997558594 1.627471566200
-152.044876098633 -68.043640136719 -183.719360351563 2.993045568466
20.523340225220 -71.971099853516 -174.802627563477 1.731929898262
18.643909454346 -59.947635650635 -182.808273315430 7.111608505249
-146.616668701172 -75.235450744629 -179.577072143555 3.090243101120
-152.596466064453 -65.574249267578 -187.724349975586 1.251046061516
19.132438659668 -70.933563232422 -187.996490478516 3.357414007187
18.090353012085 -74.393363952637 -191.021484375000 2.609434604645
-142.028839111328 -73.698493957520 -192.607467651367 3.217734098434
-110.710128784180 -70.976997375488 -196.166885375977 2.709004640579
26.445159912109 -70.660392761230 -200.779937744141 5.384279251099
-126.571357727051 -71.610595703125 -192.970687866211 1.789549350739
8.030667304993 -74.488357543945 -202.064224243164 1.399331450462
-128.809570312500 -61.790199279785 -192.333099365234 5.260163307190
-164.351867675781 -67.187217712402 -185.066146850586 11.068382263184
-160.642761230469 -68.242965698242 -193.999114990234 1.652294397354
-156.381622314453 -73.506576538086 -189.704101562500 4.816919326782
-23.030977249146 -71.774124145508 -208.815093994141 3.621567964554
-170.492385864258 -73.876235961914 -196.234664916992 7.361965179443
-29.447238922119 -64.458992004395 -193.211730957031 4.954094886780
-16.695909500122 -72.000328063965 -192.463119506836 2.364886045456
4.147942066193 -62.325305938721 -196.989242553711 7.860593318939
-157.362838745117 -72.201095581055 -205.707061767578 3.315574407578
-106.809310913086 -68.407951354980 -201.800537109375 3.355224370956
-17.178768157959 -65.523796081543 -198.653808593750 3.194701194763
-163.003814697266 -62.277526855469 -198.672225952148 4.375535964966
16.816596984863 -71.650115966797 -203.486206054688 1.331102371216
-173.486358642578 -67.975418090820 -204.279388427734 6.871577739716
-120.164459228516 -73.489913940430 -200.443878173828 2.625317096710
-117.477607727051 -67.289558410645 -208.501892089844 4.466217517853
-123.641654968262 -70.671394348145 -201.733032226563 1.329145550728
-17.561634063721 -68.692474365234 -202.186630249023 2.194164037704
-21.203247070313 -71.785430908203 -202.989151000977 0.574064731598
-165.188491821289 -70.554977416992 -209.866806030273 1.739125728607
-160.801116943359 -67.634857177734 -208.900543212891 1.443264245987
-166.092544555664 -72.286872863770 -216.977752685547 1.862511277199
-139.586563110352 -74.575416564941 -211.352401733398 5.257143974304
-147.089645385742 -70.091789245605 -223.505828857422 3.205174446106
-1.423184037209 -68.504798889160 -218.870758056641 2.526571273804
-9.729565620422 -78.279380798340 -217.138519287109 1.674820184708
-102.893943786621 -67.679237365723 -219.016891479492 2.555335044861
-9.796098709106 -68.843948364258 -237.207855224609 2.283791303635
-171.590667724609 -67.230049133301 -229.269485473633 5.486743450165
-105.484123229980 -68.819541931152 -233.751312255859 5.323671340942
1.331462025642 -71.837257385254 -226.897155761719 1.461485862732
0.013275000267 -70.642387390137 -229.560241699219 1.810081601143
-113.622001647949 -71.176704406738 -232.833831787109 1.228865146637
-3.090621948242 -73.021736145020 -226.627334594727 2.593824148178
-120.824790954590 -66.817123413086 -232.373931884766 3.157140970230
-9.953834533691 -66.421913146973 -231.113403320313 1.837134838104
-3.072577953339 -69.798774719238 -235.407043457031 0.826551675797
-4.830933094025 -69.940536499023 -240.078216552734 1.309812664986
71.284683227539 -65.965126037598 -238.577697753906 2.395468950272
-10.470722198486 -75.319007873535 -237.792984008789 2.793768882751
10.054911613464 -72.268035888672 -235.723648071289 1.659164786339
9.715486526489 -70.323532104492 -237.564849853516 1.036635756493
3.247514963150 -73.499893188477 -238.998931884766 2.720620155334
3.453598976135 -74.175361633301 -242.374450683594 0.996278285980
60.767902374268 -64.030906677246 -241.875549316406 2.831902980804
67.001907348633 -65.002937316895 -242.663482666016 3.547930955887
3.643074989319 -70.494918823242 -250.164199829102 6.044756889343
48.661392211914 -74.049720764160 -243.922760009766 3.321198701859
53.333332061768 -77.366012573242 -241.200469970703 4.621557712555
44.912830352783 -65.797698974609 -253.438690185547 1.573560357094
41.037067413330 -66.669586181641 -253.084075927734 0.765873253345
38.714431762695 -70.165809631348 -261.206359863281 3.153697013855
-131.184326171875 -64.303344726563 -259.525909423828 2.190122842789
-9.828596115112 -70.085540771484 -246.559555053711 1.697066187859
29.702341079712 -68.552513122559 -258.177398681641 0.774490177631
41.029975891113 -69.159957885742 -245.265106201172 4.189732074738
28.694234848022 -75.622734069824 -252.747283935547 6.374868869781
-106.935867309570 -75.720573425293 -258.652160644531 1.201711058617
27.298622131348 -73.506835937500 -256.600555419922 3.946672201157
-146.120223999023 -74.834312438965 -260.385131835938 1.397349596024
-118.817565917969 -75.925224304199 -253.725692749023 3.033594369888
-114.237815856934 -72.313385009766 -257.384704589844 0.782572448254
-2.731720924377 -76.307388305664 -258.835296630859 6.521977424622
-155.094802856445 -73.651863098145 -254.722900390625 1.362152218819
35.937305450439 -72.701004028320 -264.653228759766 6.830936908722
-108.957191467285 -70.162902832031 -253.704757690430 2.805065155029
23.426673889160 -78.436622619629 -258.909271240234 3.342377185822
-136.741531372070 -77.018394470215 -263.818817138672 2.866158485413
-119.116271972656 -71.847084045410 -266.179016113281 4.081653594971
-114.211395263672 -71.826515197754 -261.772857666016 1.184179663658
-115.399078369141 -81.654586791992 -258.977172851563 7.883618831635
-144.730712890625 -74.740562438965 -251.348052978516 1.493424534798
28.093278884888 -72.626281738281 -258.963165283203 3.756780147552
-118.850982666016 -69.484710693359 -260.570556640625 2.275554656982
-147.212142944336 -74.040107727051 -261.424438476563 1.896288752556
-7.202341079712 -68.778518676758 -270.675323486328 2.920303821564
-151.792724609375 -75.815147399902 -277.194061279297 1.205325007439
-11.920307159424 -74.248550415039 -290.804595947266 1.215394496918
-8.141198158264 -69.535293579102 -280.528503417969 2.232587814331
-137.106155395508 -72.162307739258 -288.515563964844 3.165890455246
-133.195205688477 -73.730895996094 -291.399902343750 2.396737813950
-138.248031616211 -71.925064086914 -293.774810791016 2.121197223663
-129.554290771484 -68.956016540527 -287.139465332031 3.255010843277
-159.298095703125 -72.598991394043 -291.894165039063 1.638267993927
-161.813537597656 -74.324119567871 -297.251861572266 4.185896396637
-151.701568603516 -78.548011779785 -299.660125732422 0.786372005939
-151.923965454102 -76.541458129883 -303.328765869141 3.281761884689
-147.718933105469 -72.461914062500 -295.196685791016 1.843973517418
-154.528274536133 -73.167808532715 -304.900299072266 1.607432007790
-148.417053222656 -70.064529418945 -315.500000000000 2.439361810684
21.466375350952 -66.909378051758 -25.511363983154 2.993655920029
53.430736541748 -67.890563964844 -37.910915374756 5.207466602325
25.973356246948 -72.078247070313 -36.203235626221 1.560146212578
33.688060760498 -64.058471679688 -45.435665130615 4.914887428284
-39.369571685791 -55.741863250732 -49.008487701416 2.789188861847
-71.854583740234 -59.541282653809 -49.336956024170 5.538515567780
81.676940917969 -64.879211425781 -62.904666900635 1.564951539040
74.891151428223 -66.187980651855 -62.737091064453 2.084026098251
74.756652832031 -68.590133666992 -65.306053161621 2.351830005646
-100.234832763672 -65.427299499512 -69.696411132813 4.503729820251
99.492736816406 -71.302391052246 -76.986968994141 1.721081256866
-25.502033233643 -69.141609191895 -86.553054809570 8.286353111267
62.106262207031 -62.537097930908 -75.704116821289 3.487340211868
-40.391834259033 -60.923427581787 -84.288948059082 4.736904144287
-55.752532958984 -63.368679046631 -80.206451416016 2.216885566711
53.071601867676 -65.916625976563 -91.630294799805 1.611832618713
103.556289672852 -62.908241271973 -92.797409057617 1.979637503624
63.546493530273 -63.590370178223 -93.347160339355 1.448106527328
56.876766204834 -63.849372863770 -91.792015075684 1.991488218307
48.457057952881 -61.693763732910 -103.634933471680 3.403850078583
56.870487213135 -61.468269348145 -104.431564331055 1.944277524948
103.213829040527 -63.530178070068 -99.567825317383 1.769649744034
69.295524597168 -65.682540893555 -110.132308959961 4.852822780609
53.815650939941 -66.640884399414 -107.275985717773 3.353489398956
76.066345214844 -73.776329040527 -109.213226318359 6.219301223755
101.428550720215 -61.628574371338 -109.329360961914 5.438890457153
-72.421020507813 -62.372524261475 -96.730285644531 2.705175399780
-85.728683471680 -66.335548400879 -109.018875122070 3.120510816574
-81.107749938965 -66.996871948242 -110.700920104980 2.425389528275
-60.237495422363 -67.052490234375 -118.380516052246 2.186836481094
-56.958824157715 -71.691459655762 -125.899406433105 1.491139054298
-94.289596557617 -65.941497802734 -120.074157714844 1.173675060272
-72.721435546875 -70.321319580078 -117.644477844238 5.000047683716
-76.875602722168 -72.060005187988 -132.208831787109 2.318855524063
-59.891948699951 -62.531951904297 -126.828712463379 3.120125532150
-87.436241149902 -62.592063903809 -129.817947387695 1.679205417633
-89.529838562012 -65.419090270996 -130.204666137695 1.294918417931
-48.420303344727 -70.692626953125 -134.338684082031 1.209363460541
-50.119617462158 -69.906600952148 -137.376754760742 2.011675834656
-77.709693908691 -72.193672180176 -137.099777221680 2.151925802231
-54.962802886963 -70.697761535645 -140.565902709961 2.046162128448
