-24.814208984375 -82.198112487793 -214.017364501953 2.538691282272
1.045449018478 -74.925125122070 -218.731201171875 3.596326828003
-10.453800201416 -81.407051086426 -219.025512695313 1.807523488998
-153.643203735352 -76.559440612793 -221.361190795898 3.021030902863
-141.730926513672 -69.620613098145 -224.862228393555 1.524997711182
-4.608571052551 -80.894165039063 -225.714233398438 1.885233640671
-149.122665405273 -87.358192443848 -224.473342895508 3.553017377853
-0.286377012730 -75.029457092285 -228.485107421875 3.018261909485
16.755226135254 -79.648727416992 -235.617736816406 1.099522113800
-3.592530965805 -83.968078613281 -227.955841064453 5.356528759003
-3.774162054062 -74.015548706055 -231.024261474609 1.595366239548
7.750380992889 -78.603477478027 -231.031295776367 2.316888332367
-153.936340332031 -83.061645507813 -238.481781005859 3.974991798401
-20.937856674194 -77.987236022949 -231.711456298828 2.771968841553
-35.575504302979 -83.847106933594 -237.392364501953 5.499858379364
-0.502719998360 -79.311798095703 -234.547332763672 3.349162101746
2.813214063644 -87.454757690430 -243.032699584961 8.478440284729
-0.085279002786 -78.511871337891 -232.023773193359 2.666868686676
-60.616256713867 -80.908935546875 -240.892028808594 6.015314579010
-150.024124145508 -77.896194458008 -248.086532592773 1.270826339722
-154.935791015625 -82.072822570801 -245.402801513672 4.497433185577
11.201546669006 -83.207168579102 -246.417770385742 2.133624315262
25.025287628174 -83.695899963379 -244.991699218750 5.621353149414
-62.880096435547 -77.872444152832 -245.898040771484 2.174277067184
-142.866058349609 -87.734031677246 -250.026840209961 4.870124816895
-154.695510864258 -86.536987304688 -252.551437377930 3.271201848984
-156.232055664063 -86.632095336914 -254.720077514648 2.998770952225
-144.621994018555 -79.289337158203 -260.734069824219 2.190864086151
-144.028976440430 -83.748672485352 -254.575286865234 1.995967149734
-7.078087806702 -83.743728637695 -255.001708984375 0.698657274246
-147.202682495117 -84.208854675293 -259.895935058594 0.482751041651
-16.317205429077 -83.108177185059 -268.025848388672 6.750256061554
-149.039123535156 -81.363815307617 -268.859924316406 3.198007106781
-149.653472900391 -82.680152893066 -280.406677246094 2.728773832321
-149.175445556641 -81.168098449707 -282.725769042969 2.041231870651
-5.228428840637 -77.283042907715 -284.543457031250 2.596215963364
-151.171707153320 -78.834266662598 -280.550598144531 1.834025025368
-25.828250885010 -84.713195800781 -284.846862792969 8.299418449402
-26.306114196777 -79.095458984375 -283.529144287109 4.139413833618
-14.357871055603 -79.569602966309 -293.903289794922 3.953596353531
-16.763160705566 -79.136177062988 -293.136810302734 2.977638721466
9.864148139954 -85.536773681641 -290.106933593750 6.422152996063
-126.366180419922 -85.908432006836 -288.501403808594 8.674730300903
-64.296806335449 -83.561927795410 -285.342254638672 7.627878189087
-44.076725006104 -79.106887817383 -289.548614501953 3.083490610123
-35.066581726074 -83.476783752441 -286.021942138672 5.402861118317
-9.946958541870 -80.248428344727 -293.821014404297 4.079993724823
4.286230087280 -83.902557373047 -286.733703613281 6.116100788116
-142.818389892578 -84.163101196289 -297.109344482422 2.491544961929
9.810274124146 -83.324813842773 -296.082611083984 7.145410060883
-155.710189819336 -80.822898864746 -301.327087402344 3.569911956787
-156.648834228516 -89.257400512695 -299.204589843750 6.718076705933
-155.289794921875 -79.296745300293 -310.888275146484 3.580816984177
-143.735961914063 -83.040328979492 -307.368072509766 5.720694065094
-51.243511199951 -73.670211791992 -48.072719573975 3.524496316910
-53.368679046631 -78.845886230469 -54.897010803223 3.679154396057
-68.529136657715 -71.703643798828 -53.185115814209 1.990956425667
-39.892627716064 -71.538024902344 -62.227787017822 4.832403659821
-35.391071319580 -74.416946411133 -58.329925537109 2.271764516830
-18.682485580444 -73.447563171387 -70.022811889648 1.369235992432
-81.402824401855 -71.091148376465 -68.286811828613 5.177169799805
85.818084716797 -74.630325317383 -78.069442749023 1.727690577507
-91.343719482422 -72.558540344238 -70.717529296875 1.053079962730
79.537704467773 -71.176467895508 -75.981529235840 3.798164367676
88.522880554199 -68.496475219727 -84.442466735840 8.228952407837
98.623588562012 -70.817771911621 -90.576713562012 2.367331504822
-61.883983612061 -78.092094421387 -95.380218505859 1.971631526947
81.509635925293 -76.623237609863 -96.528526306152 2.235765218735
75.859611511230 -80.054489135742 -89.881492614746 4.715206146240
86.000396728516 -74.066749572754 -90.143432617188 4.058418273926
-58.459762573242 -75.082176208496 -96.278106689453 5.239518642426
47.462715148926 -72.335113525391 -97.835685729980 0.922048091888
45.348163604736 -74.153945922852 -105.989845275879 2.838338136673
38.818443298340 -75.970169067383 -102.624824523926 3.682824134827
35.165832519531 -75.454399108887 -99.604324340820 7.825047492981
-92.573287963867 -70.422210693359 -100.762565612793 4.799275875092
34.775684356689 -73.244140625000 -116.701126098633 1.679466843605
-85.261253356934 -76.005737304688 -105.004272460938 4.369293212891
39.249378204346 -77.130889892578 -127.622230529785 1.626460313797
31.838762283325 -76.687980651855 -119.626846313477 1.387291312218
33.794181823730 -66.479385375977 -120.961280822754 3.133597612381
44.525299072266 -72.666061401367 -116.309539794922 1.268618941307
41.471942901611 -79.153038024902 -127.814399719238 2.676575899124
-51.304252624512 -69.271583557129 -133.951034545898 2.196879386902
37.523242950439 -81.278564453125 -132.902450561523 2.159698963165
34.982181549072 -76.062828063965 -143.927642822266 2.153188228607
-57.234756469727 -74.768203735352 -143.569595336914 2.665660619736
-44.731884002686 -76.976814270020 -138.756378173828 2.495000839233
34.555023193359 -74.107063293457 -141.557449340820 1.455103516579
109.661415100098 -69.849174499512 -140.193466186523 2.318491935730
111.445602416992 -71.440361022949 -147.360336303711 2.813515424728
25.971454620361 -77.973693847656 -139.961730957031 1.791496396065
-40.302730560303 -80.262847900391 -148.519546508789 2.536794662476
117.420928955078 -84.425041198730 -151.506576538086 7.867166996002
-37.053161621094 -74.478851318359 -151.162353515625 3.138636112213
-68.365928649902 -76.181907653809 -161.941299438477 1.930884718895
110.060188293457 -81.509666442871 -153.888961791992 6.053203582764
22.015245437622 -78.490974426270 -166.146179199219 2.780781269073
0.561145007610 -77.815750122070 -161.648712158203 2.156377553940
110.254699707031 -76.111694335938 -151.333694458008 0.989679932594
-64.815383911133 -77.057098388672 -165.321670532227 1.154028892517
-39.730514526367 -79.117912292480 -165.360870361328 2.288365602493
110.432632446289 -77.716194152832 -164.610366821289 1.217464089394
26.562786102295 -70.444564819336 -157.910339355469 1.512991905212
-61.973716735840 -69.786102294922 -162.823562622070 2.179102897644
112.502952575684 -76.809898376465 -165.245147705078 2.436625480652
-66.228302001953 -79.188705444336 -167.545211791992 1.706221938133
-48.937171936035 -81.479255676270 -181.833114624023 2.449012279510
105.487472534180 -76.127418518066 -170.755844116211 1.728447794914
-60.140010833740 -75.990173339844 -171.643295288086 1.180658936501
112.229835510254 -75.619461059570 -178.390762329102 1.978530049324
-62.329277038574 -76.589225769043 -175.558074951172 0.855620145798
-17.035108566284 -74.502731323242 -176.447601318359 2.489574432373
-9.919549942017 -84.053520202637 -181.901763916016 4.885306835175
107.075752258301 -78.772804260254 -164.932144165039 3.382033824921
21.065418243408 -78.815025329590 -170.129394531250 1.817966938019
30.564882278442 -71.015373229980 -168.102294921875 2.716660737991
-59.126846313477 -76.752059936523 -176.318023681641 2.139796257019
16.291736602783 -75.152870178223 -180.793243408203 1.205070734024
-58.072776794434 -78.737136840820 -172.839416503906 1.092235684395
-53.483093261719 -76.589584350586 -194.275146484375 4.005941390991
9.296784400940 -74.890251159668 -184.366165161133 3.738577127457
-56.116043090820 -71.904167175293 -177.886245727539 2.156672954559
105.159927368164 -74.075592041016 -189.004272460938 1.848308086395
25.859495162964 -81.057708740234 -181.198791503906 2.167998075485
-36.566532135010 -75.125511169434 -187.014221191406 3.348608732224
-43.956176757813 -81.274826049805 -187.832443237305 2.965005636215
10.581641197205 -80.778236389160 -189.843032836914 5.176386356354
-20.883041381836 -79.270507812500 -186.033523559570 1.498971581459
-47.633968353271 -80.069747924805 -194.594818115234 2.148948431015
100.814620971680 -82.003173828125 -181.499526977539 5.624601840973
7.587965011597 -82.252227783203 -188.944915771484 8.342617988586
-132.660903930664 -86.653121948242 -198.612152099609 5.245456695557
-50.870544433594 -80.969810485840 -194.650009155273 1.783286929131
93.192138671875 -76.531204223633 -198.206542968750 3.751980304718
-150.852569580078 -85.744865417480 -200.637344360352 2.625858783722
17.543323516846 -78.854507446289 -200.650894165039 2.097744703293
-44.621353149414 -75.018272399902 -205.108306884766 4.162449359894
-30.510599136353 -82.448112487793 -206.475234985352 4.034354686737
-38.053890228271 -80.038002014160 -199.272979736328 1.334099650383
-46.954040527344 -86.338272094727 -196.695449829102 2.165832996368
100.129066467285 -77.585784912109 -204.799606323242 0.622381627560
-22.265064239502 -83.434860229492 -198.238891601563 4.840622425079
-151.062622070313 -79.361579895020 -198.285751342773 1.673273682594
14.946980476379 -81.473037719727 -199.551086425781 3.248049497604
-78.259368896484 -83.934844970703 -203.325302124023 6.459934711456
-143.433395385742 -77.080917358398 -213.005065917969 1.815095186234
92.443290710449 -81.444229125977 -213.891754150391 4.780867576599
-33.954551696777 -77.092193603516 -205.783813476563 1.188633084297
-29.718309402466 -79.771247863770 -208.990325927734 1.654760837555
9.556067466736 -79.199134826660 -208.614105224609 1.656183481216
-72.721694946289 -84.162727355957 -205.005828857422 5.171321392059
-27.407354354858 -88.317451477051 -203.295852661133 10.430666923523
-9.868948936462 -81.045471191406 -216.336212158203 1.463969588280
-70.084480285645 -80.326499938965 -212.462158203125 0.425533175468
-14.773193359375 -79.796905517578 -216.419723510742 3.580439329147
6.665290832520 -68.969856262207 -210.168762207031 3.026006221771
10.821764945984 -82.597419738770 -220.530059814453 2.418505907059
-153.228012084961 -82.456497192383 -216.274215698242 3.606114625931
-10.328067779541 -79.005676269531 -212.930221557617 1.275643467903
-104.117553710938 -75.865684509277 -218.504333496094 3.936685085297
-22.951580047607 -78.964653015137 -218.097045898438 1.075420498848
87.147155761719 -85.179794311523 -211.368209838867 8.698097229004
8.951755523682 -76.885055541992 -223.083847045898 1.162244439125
21.490579605103 -78.764198303223 -215.294647216797 4.453177452087
78.734451293945 -80.410011291504 -211.725341796875 7.759063720703
0.506160974503 -85.004524230957 -229.343444824219 5.999382019043
84.215980529785 -79.113304138184 -215.900375366211 2.809298515320
-22.975330352783 -74.363288879395 -224.068222045898 1.895859837532
15.898206710815 -74.910682678223 -217.130783081055 1.441851019859
-150.104156494141 -81.770309448242 -215.969863891602 1.986348867416
-28.331096649170 -81.293220520020 -225.366302490234 5.468243598938
1.096096038818 -76.131614685059 -230.766921997070 1.958962202072
-157.612014770508 -86.774742126465 -222.738800048828 7.356929779053
-138.671096801758 -84.461853027344 -225.892868041992 1.262604475021
1.236389040947 -78.910301208496 -221.728088378906 2.971284151077
-4.563131809235 -75.002403259277 -222.643264770508 2.614596605301
-138.439636230469 -76.248329162598 -227.105438232422 1.751665353775
-148.606292724609 -81.403366088867 -241.676101684570 1.257562994957
-150.328674316406 -81.758079528809 -233.751037597656 1.849990606308
-32.287120819092 -81.653076171875 -235.060455322266 4.407108783722
-142.217758178711 -85.293464660645 -241.669204711914 3.438332796097
13.349411964417 -81.872482299805 -240.173461914063 1.990762591362
4.981238842010 -79.651931762695 -244.121704101563 1.873239994049
-151.960113525391 -74.410484313965 -237.168395996094 1.344518780708
-150.813842773438 -80.588348388672 -243.550979614258 2.988071680069
-46.072940826416 -83.005973815918 -245.314605712891 1.207471609116
-32.608676910400 -81.239532470703 -246.388992309570 4.257983684540
2.886790990829 -79.561096191406 -240.696624755859 2.028756380081
-36.475780487061 -82.904235839844 -244.029907226563 3.903695583344
20.773906707764 -80.277961730957 -245.203491210938 1.707180380821
-7.148540019989 -83.092582702637 -252.386520385742 2.293381214142
-144.097793579102 -82.896804809570 -251.292724609375 2.688606977463
-11.432815551758 -86.620658874512 -252.048095703125 5.436152935028
-149.729660034180 -78.533515930176 -244.158432006836 1.984781503677
-65.676727294922 -83.396965026855 -248.927780151367 5.157461643219
-147.153472900391 -89.468330383301 -256.785064697266 4.285703659058
-128.841369628906 -81.846710205078 -256.269561767578 5.344616413116
-154.752532958984 -82.075782775879 -254.507308959961 2.127436399460
-10.955207824707 -78.315170288086 -266.690460205078 1.344136118889
-146.491058349609 -89.712409973145 -271.891387939453 5.807207107544
-149.958389282227 -82.733200073242 -268.385406494141 2.216521501541
-13.225240707397 -81.477111816406 -269.868896484375 3.666994810104
-144.656112670898 -82.477554321289 -268.015716552734 2.969167470932
-8.027471542358 -79.661979675293 -274.824310302734 2.380816221237
-46.473026275635 -81.097953796387 -281.922760009766 6.347835540771
-136.182998657227 -79.654098510742 -286.769195556641 2.125572204590
-137.231735229492 -82.270980834961 -284.037658691406 3.696746826172
-123.454299926758 -78.403259277344 -279.087707519531 6.138417720795
-52.450000762939 -81.193222045898 -284.829467773438 4.806193828583
-112.169563293457 -81.162475585938 -281.128540039063 9.136495590210
15.679573059082 -81.032752990723 -292.134521484375 3.457349777222
-57.156929016113 -79.794265747070 -287.145599365234 3.282200574875
-141.544143676758 -82.918380737305 -292.205871582031 3.419760942459
-64.537330627441 -80.865219116211 -289.204589843750 5.356561660767
-146.119812011719 -89.257896423340 -292.172058105469 2.117527246475
-117.169784545898 -79.639221191406 -289.653228759766 2.051350355148
-46.439941406250 -85.498855590820 -288.798614501953 8.758533477783
-33.946388244629 -82.050514221191 -290.450012207031 3.270871877670
-139.825485229492 -77.693435668945 -295.836090087891 4.896261215210
-15.814569473267 -74.847244262695 -279.508789062500 5.006734371185
4.836740970612 -81.003440856934 -285.328033447266 2.871780395508
5.919783115387 -79.597480773926 -289.007293701172 2.963868141174
14.507046699524 -83.001403808594 -294.867034912109 5.087986946106
-150.629318237305 -88.695846557617 -296.664520263672 2.238764286041
-145.066986083984 -80.128036499023 -289.986694335938 2.292741298676
-65.685600280762 -71.118606567383 -61.567325592041 6.310711383820
89.331695556641 -74.981361389160 -71.201919555664 1.533934116364
78.815109252930 -74.531333923340 -76.980781555176 1.209277510643
-28.290578842163 -76.725296020508 -75.101844787598 1.634872436523
83.370979309082 -71.090103149414 -73.491355895996 3.406903982162
-38.658119201660 -77.075477600098 -78.422866821289 2.633851766586
81.405006408691 -68.347633361816 -82.296363830566 8.394864082336
96.892089843750 -68.179519653320 -78.920516967773 4.884981632233
-64.571914672852 -68.204208374023 -95.549438476563 2.430385112762
71.947647094727 -74.461090087891 -93.692886352539 2.193709850311
79.623916625977 -71.137313842773 -97.233833312988 3.364311218262
97.722267150879 -77.060485839844 -94.691421508789 3.766124248505
55.233444213867 -76.208496093750 -95.785804748535 1.616723418236
-65.102935791016 -71.123802185059 -100.144081115723 2.946376323700
-73.919662475586 -71.030532836914 -99.736877441406 1.110723018646
50.904945373535 -76.586105346680 -102.106933593750 1.770331382751
-87.063316345215 -76.318855285645 -100.079483032227 3.931864023209
47.582286834717 -70.847618103027 -117.571243286133 1.428139567375
110.483055114746 -73.557769775391 -119.690322875977 1.010586261749
112.963386535645 -77.221656799316 -129.231353759766 1.860244870186
18.937238693237 -72.988471984863 -135.721557617188 6.698715686798
110.072944641113 -76.834678649902 -126.115257263184 0.876790642738
28.911397933960 -71.956024169922 -132.208740234375 1.650238156319
112.339370727539 -67.784545898438 -132.634658813477 1.981167912483
36.453857421875 -72.273452758789 -133.806900024414 2.286845207214
-57.828441619873 -75.066505432129 -138.475219726563 1.156857132912
36.303123474121 -80.640792846680 -145.017120361328 3.188460588455
108.327239990234 -72.542091369629 -133.347869873047 2.086941480637
-45.286628723145 -73.828361511230 -142.446838378906 1.323321223259
31.677923202515 -74.015541076660 -149.841201782227 1.691236853600
-57.225479125977 -69.376487731934 -140.649902343750 1.797630667686
-60.876304626465 -75.541519165039 -142.574645996094 2.805186748505
-53.418094635010 -80.024574279785 -148.734130859375 2.221755743027
-64.570358276367 -79.877555847168 -154.164505004883 2.849948406219
110.942848205566 -80.316780090332 -145.931976318359 3.199707984924
-49.950538635254 -84.217666625977 -153.715225219727 5.605585575104
23.128376007080 -82.011550903320 -155.604537963867 2.947340250015
106.911331176758 -76.766632080078 -162.680816650391 3.138699769974
-65.355255126953 -76.627754211426 -152.903335571289 0.991881310940
-42.900230407715 -77.834487915039 -156.291946411133 1.782466530800
8.881337165833 -73.478332519531 -153.273559570313 1.061189651489
-68.931373596191 -77.263610839844 -152.475570678711 2.359018087387
-65.002281188965 -79.940925598145 -156.399032592773 1.230991601944
0.372267007828 -76.562530517578 -161.294113159180 0.965695500374
-44.945152282715 -72.269248962402 -166.907073974609 1.647949814796
28.115091323853 -73.939598083496 -167.223297119141 2.308737516403
-63.934314727783 -72.151046752930 -167.687545776367 1.640276074409
-56.016181945801 -79.403770446777 -164.739181518555 3.992041349411
13.461046218872 -80.160949707031 -158.406539916992 6.193916320801
-30.382638931274 -75.369232177734 -167.039443969727 0.887044072151
-28.569875717163 -79.751350402832 -165.014526367188 3.154892206192
14.219440460205 -78.509384155273 -173.526504516602 4.459963321686
-44.653324127197 -80.552947998047 -171.545257568359 3.439140558243
-10.545215606689 -78.702484130859 -170.913131713867 1.392023324966
-67.288635253906 -73.330879211426 -170.032058715820 2.385981559753
-8.377106666565 -74.183395385742 -173.606613159180 1.913141131401
-21.766584396362 -77.294036865234 -178.614913940430 1.844121694565
21.562662124634 -73.658531188965 -183.735839843750 3.631529808044
-39.187515258789 -79.308273315430 -171.028091430664 2.068715572357
21.140356063843 -72.054115295410 -174.261413574219 2.198890924454
-23.250566482544 -73.338096618652 -185.086090087891 1.511486768723
-32.407573699951 -80.218025207520 -175.614776611328 2.586862564087
-148.978775024414 -75.111396789551 -191.961517333984 0.941113173962
-17.439327239990 -82.628807067871 -181.959823608398 2.999610185623
-140.358474731445 -76.552101135254 -188.294677734375 3.229428291321
-155.113235473633 -79.053405761719 -185.531570434570 5.932464122772
-50.630031585693 -75.729843139648 -187.798736572266 1.277316927910
97.922080993652 -76.308479309082 -194.156250000000 2.878988742828
-145.454833984375 -80.003799438477 -188.296157836914 1.776260733604
-145.287033081055 -76.101959228516 -194.041168212891 1.409353137016
22.449787139893 -75.353057861328 -194.978607177734 3.032270193100
-139.567581176758 -79.385078430176 -194.039535522461 1.947712182999
12.003968238831 -73.161048889160 -198.369049072266 0.994084775448
-138.122848510742 -82.506843566895 -198.165130615234 0.404547363520
12.709818840027 -73.028427124023 -196.991378784180 1.660416007042
-133.043411254883 -74.650596618652 -193.351928710938 3.068644523621
4.152595043182 -73.594535827637 -200.460861206055 4.530856132507
-152.893753051758 -79.057281494141 -200.057907104492 0.794737040997
95.202919006348 -77.479629516602 -206.167327880859 2.042617082596
-17.739980697632 -81.206024169922 -208.107482910156 4.158717632294
-31.057903289795 -77.083198547363 -207.947540283203 1.045498847961
-13.075764656067 -72.016708374023 -204.160568237305 1.732821345329
-145.167434692383 -84.662216186523 -208.536346435547 2.439117670059
-36.004020690918 -78.127326965332 -201.400268554688 1.292867302895
-85.044845581055 -80.762763977051 -200.638473510742 11.207074165344
-27.354282379150 -79.951499938965 -206.700531005859 2.631023645401
13.331681251526 -78.929801940918 -213.306823730469 1.843603610992
-146.687210083008 -76.594520568848 -213.978012084961 1.654461383820
-89.252426147461 -82.048301696777 -218.206848144531 4.995438098907
-29.674516677856 -77.407463073730 -219.467468261719 1.977752923965
-28.199810028076 -78.850975036621 -219.798461914063 2.446190118790
-7.758659839630 -80.176712036133 -207.152053833008 3.646251678467
-27.808858871460 -77.327636718750 -205.818267822266 1.524481296539
-85.221588134766 -79.678604125977 -221.129089355469 4.687574386597
-91.024398803711 -85.534103393555 -218.266708374023 8.653600692749
-23.206090927124 -77.863372802734 -220.917572021484 1.925801396370
-2.366004943848 -88.698692321777 -224.063781738281 8.976572990417
-157.940216064453 -82.275802612305 -215.425354003906 8.272271156311
-2.959588050842 -80.377326965332 -220.838562011719 1.853555917740
87.855117797852 -83.484313964844 -227.205871582031 8.403645515442
-139.270034790039 -82.515106201172 -220.925720214844 5.771400451660
-3.397692918777 -79.165298461914 -219.496398925781 2.232702970505
-139.410629272461 -81.614288330078 -223.748687744141 3.355334758759
-147.614868164063 -88.542221069336 -222.643081665039 4.778426170349
-6.085539817810 -77.787544250488 -226.737380981445 1.673087596893
22.249761581421 -79.502395629883 -211.773147583008 6.176652431488
-139.068099975586 -77.658660888672 -227.664154052734 1.905258297920
-18.863086700439 -81.065528869629 -226.094528198242 2.786564826965
70.381462097168 -79.496994018555 -223.929962158203 8.447181701660
73.908287048340 -79.128044128418 -233.477279663086 4.909744262695
10.506085395813 -81.381454467773 -228.418136596680 1.732339859009
-35.921257019043 -80.686576843262 -234.019012451172 5.711774826050
-25.336082458496 -88.701515197754 -241.042617797852 9.320821762085
1.534772992134 -77.595275878906 -242.050704956055 1.199042797089
-47.090465545654 -74.475296020508 -242.690170288086 1.485006451607
-20.989982604980 -77.044647216797 -241.697677612305 1.686289906502
10.177916526794 -75.379867553711 -236.838470458984 1.084148049355
-63.622596740723 -80.597846984863 -244.077072143555 4.027781009674
-37.733219146729 -85.673179626465 -242.341766357422 5.090805053711
-38.143562316895 -78.506645202637 -244.185516357422 2.218888998032
-148.002883911133 -77.774864196777 -244.120162963867 0.993351280689
-44.956783294678 -83.506278991699 -247.185729980469 3.021350860596
-52.945369720459 -70.892494201660 -245.955795288086 2.491225242615
-66.003890991211 -79.756645202637 -246.998687744141 1.708485722542
-10.898988723755 -84.896827697754 -243.368759155273 10.252429962158
-79.003692626953 -82.303138732910 -254.071502685547 5.645760536194
-157.398147583008 -87.842353820801 -250.660385131836 6.238281250000
-140.704071044922 -78.989967346191 -251.181457519531 3.875586986542
-121.108283996582 -82.938224792480 -256.151519775391 7.321765422821
-160.096023559570 -77.352966308594 -255.392135620117 3.578424453735
18.110551834106 -88.068878173828 -265.676330566406 6.803570747375
-15.541975975037 -83.251853942871 -267.561187744141 6.637598514557
-156.339660644531 -84.875831604004 -272.789825439453 5.347007751465
-153.679641723633 -89.513069152832 -276.630950927734 4.680896759033
-146.788711547852 -84.352188110352 -283.913787841797 1.717965722084
-59.459339141846 -75.722770690918 -277.332824707031 7.392173767090
-39.435966491699 -74.942398071289 -284.069610595703 2.036798954010
-17.725486755371 -78.623001098633 -288.741546630859 1.160546422005
-9.116772651672 -75.907562255859 -276.150024414063 1.607973575592
-66.852920532227 -85.223175048828 -282.955963134766 9.149941444397
-81.912658691406 -86.946472167969 -283.970764160156 11.522945404053
-2.183233976364 -81.972747802734 -280.115142822266 2.329070329666
1.456141948700 -83.079071044922 -291.582641601563 5.042049407959
-141.185363769531 -80.263626098633 -283.403778076172 3.886927843094
-81.731353759766 -77.515502929688 -283.923461914063 2.554128170013
-147.482849121094 -80.648551940918 -285.389617919922 2.289227008820
-95.157386779785 -92.262596130371 -282.637512207031 17.858581542969
-79.352340698242 -80.819404602051 -283.285705566406 6.496459484100
-87.058975219727 -78.760307312012 -295.138793945313 6.757591724396
-64.263000488281 -81.154418945313 -290.484497070313 6.001179218292
-32.087722778320 -73.889945983887 -294.758026123047 2.170620918274
-9.971931457520 -80.655166625977 -288.810058593750 3.879775524139
-151.117004394531 -74.465515136719 -298.589782714844 1.269190073013
-148.709182739258 -79.737274169922 -299.196014404297 1.902907252312
-144.018768310547 -80.824668884277 -304.157623291016 4.134745597839
-159.001892089844 -82.145805358887 -302.392150878906 7.120515823364
-56.282493591309 -67.725166320801 -55.250102996826 5.865702152252
-48.950218200684 -71.347969055176 -51.559268951416 3.510962963104
-39.759681701660 -73.883598327637 -51.944728851318 2.501044034958
-77.688644409180 -75.761955261230 -61.666172027588 1.873899221420
-29.519266128540 -70.466590881348 -64.172317504883 5.926810264587
-35.604049682617 -71.801567077637 -78.680610656738 0.767105877399
74.062141418457 -77.015052795410 -82.532463073730 1.989241003990
74.983947753906 -72.103660583496 -78.063781738281 2.769457578659
71.847473144531 -69.020378112793 -82.474632263184 3.815633773804
100.910720825195 -68.107971191406 -89.790634155273 2.005014896393
67.270751953125 -75.226776123047 -87.934967041016 3.697197675705
46.833595275879 -76.222183227539 -86.871246337891 6.609052658081
52.698516845703 -79.601974487305 -100.568275451660 2.553580522537
-66.373603820801 -71.721557617188 -101.375823974609 3.030114412308
-74.772132873535 -69.039360046387 -101.472747802734 1.700300574303
44.735980987549 -74.652923583984 -101.952766418457 0.757232487202
-82.094161987305 -80.378074645996 -108.812049865723 2.711271286011
-92.858726501465 -72.123977661133 -108.681526184082 2.559342861176
51.187061309814 -73.345405578613 -108.113265991211 2.427395820618
107.187271118164 -72.061752319336 -116.155113220215 0.627464950085
33.146915435791 -76.292884826660 -125.627220153809 0.613939702511
41.869449615479 -75.638069152832 -117.451942443848 2.766318798065
39.356269836426 -71.888710021973 -121.420043945313 2.348067045212
30.020072937012 -75.844673156738 -120.333618164063 1.997959733009
109.208213806152 -73.540687561035 -120.758323669434 1.727192878723
39.007709503174 -77.814178466797 -131.001235961914 1.228752851486
35.416099548340 -69.473930358887 -131.953323364258 0.588506877422
-44.108222961426 -73.476051330566 -140.266571044922 2.454866886139
-69.873443603516 -79.290351867676 -141.136230468750 4.989319801331
-52.825901031494 -74.431198120117 -148.714675903320 1.505351066589
-75.698127746582 -81.125686645508 -144.258285522461 6.437152862549
-38.038333892822 -75.232254028320 -146.739807128906 4.080574512482
105.272933959961 -75.958526611328 -156.901184082031 3.993487119675
-71.928543090820 -78.648056030273 -155.201004028320 1.815779805183
23.111896514893 -81.186927795410 -144.346023559570 4.498936653137
27.323122024536 -78.119491577148 -147.691192626953 0.377535223961
110.183120727539 -79.032173156738 -162.441055297852 2.435909986496
9.668603897095 -79.681259155273 -157.979980468750 3.151805162430
33.336193084717 -72.195999145508 -154.499588012695 1.144627094269
-62.740638732910 -79.194236755371 -158.027770996094 2.363532304764
-39.931968688965 -79.063560485840 -173.382858276367 2.066250562668
21.821557998657 -75.896705627441 -162.082321166992 1.064282536507
-65.853736877441 -74.823768615723 -153.833343505859 1.547993659973
-70.892333984375 -76.275024414063 -164.390167236328 3.774641036987
115.163146972656 -77.788772583008 -165.228576660156 2.550202608109
-8.793594360352 -77.878158569336 -163.072631835938 4.138584613800
-66.767990112305 -74.494964599609 -169.585769653320 2.040143489838
-36.520969390869 -78.622077941895 -164.756988525391 1.867714166641
-54.406181335449 -75.138465881348 -169.943298339844 3.957454442978
30.751264572144 -75.088737487793 -175.342483520508 3.823123931885
111.340530395508 -72.203628540039 -172.002990722656 1.938998222351
101.689849853516 -73.921867370605 -182.519683837891 2.107958555222
103.847549438477 -75.426338195801 -188.394149780273 1.589175581932
106.027389526367 -72.430206298828 -174.894927978516 0.962258636951
-51.207134246826 -75.550468444824 -191.756591796875 1.199656724930
-47.366935729980 -72.866554260254 -182.197296142578 3.628661155701
27.370378494263 -75.951797485352 -182.739334106445 1.450173616409
-47.914436340332 -75.554252624512 -183.683868408203 1.379832863808
-21.361680984497 -76.884742736816 -182.295532226563 1.840649127960
-51.556518554688 -80.926795959473 -189.856475830078 3.177831411362
-152.880981445313 -76.637390136719 -190.755813598633 4.210294723511
100.479591369629 -79.067321777344 -191.157455444336 3.007815837860
-44.679409027100 -73.904014587402 -194.003723144531 1.861034750938
-11.975423812866 -79.059082031250 -198.229721069336 3.128700733185
-139.732192993164 -76.855476379395 -190.345077514648 4.293377876282
-41.205173492432 -74.498649597168 -198.083389282227 1.822535991669
100.158882141113 -74.522483825684 -195.303024291992 1.468691945076
107.619827270508 -73.308456420898 -183.724044799805 1.412791609764
-42.899410247803 -76.878311157227 -193.757385253906 1.891826510429
-22.486406326294 -86.165351867676 -198.236358642578 7.238825321198
-147.268508911133 -81.120674133301 -198.579086303711 1.473841071129
-25.611398696899 -76.471946716309 -193.498580932617 1.875674486160
-161.341156005859 -78.479721069336 -194.572433471680 7.708141326904
-153.157485961914 -87.077613830566 -203.705474853516 5.032645702362
-145.920578002930 -80.724990844727 -200.021438598633 1.507261872292
-39.118007659912 -78.475479125977 -199.967605590820 1.411618947983
101.535377502441 -78.172386169434 -202.886474609375 2.723800182343
-43.202308654785 -75.114425659180 -198.641555786133 1.131858468056
-142.493194580078 -82.561737060547 -202.938446044922 1.445206165314
-37.742176055908 -72.788101196289 -203.984863281250 1.860218644142
-23.304603576660 -84.309356689453 -208.284667968750 6.320556640625
97.630210876465 -80.360565185547 -204.848464965820 3.876153230667
89.235122680664 -79.316261291504 -214.307342529297 2.709412813187
-38.882259368896 -75.733871459961 -215.890289306641 6.429109573364
-89.183265686035 -80.073295593262 -208.006591796875 5.590952873230
-76.328079223633 -79.737068176270 -210.078506469727 1.706390857697
-20.160266876221 -77.714805603027 -206.902999877930 2.099983692169
-150.585037231445 -81.378349304199 -198.302963256836 0.407300293446
91.635780334473 -76.110305786133 -213.199462890625 1.015208601952
87.670845031738 -72.804122924805 -216.918731689453 0.638462722301
89.075508117676 -78.178039550781 -219.996597290039 2.428322792053
-103.587333679199 -80.294532775879 -216.122207641602 8.630435943604
-155.950286865234 -81.837020874023 -218.599929809570 5.923027515411
-21.107591629028 -75.762077331543 -223.162567138672 1.178558111191
80.390022277832 -73.157112121582 -227.108444213867 1.596933007240
-151.171463012695 -83.940078735352 -218.826202392578 2.408880472183
-30.310924530029 -79.905906677246 -214.950469970703 1.511818289757
-135.313339233398 -77.336303710938 -232.007476806641 1.515028595924
-11.602987289429 -81.747482299805 -230.890365600586 4.648671150208
16.343534469604 -76.636024475098 -229.134155273438 2.581769466400
19.701993942261 -79.312644958496 -232.439590454102 2.166376590729
-156.510177612305 -82.958854675293 -234.022506713867 4.214178562164
-127.599334716797 -74.726150512695 -231.109909057617 0.998387873173
-9.057664871216 -78.305778503418 -234.490600585938 3.396268129349
-0.540711998940 -77.439544677734 -236.727081298828 1.206999778748
68.354431152344 -77.481430053711 -229.298065185547 4.945744514465
67.837806701660 -73.856391906738 -238.833755493164 1.530977606773
-0.994917988777 -75.575515747070 -239.074874877930 1.929032683372
15.022415161133 -73.347579956055 -239.213943481445 1.080393552780
-32.794677734375 -69.034034729004 -240.844650268555 5.839209079742
-32.546199798584 -90.194091796875 -240.869491577148 10.013127326965
-50.449699401855 -79.044792175293 -233.277618408203 8.770606994629
-41.921943664551 -76.320167541504 -238.063140869141 2.840414285660
-16.694843292236 -80.330421447754 -241.752304077148 4.386217117310
-52.471122741699 -76.859909057617 -243.174911499023 1.975273013115
0.856823980808 -79.670455932617 -244.117324829102 3.403335571289
-69.305519104004 -82.569572448730 -240.504562377930 8.602285385132
21.109010696411 -80.484107971191 -246.048522949219 1.322120070457
-142.284805297852 -82.989883422852 -241.506927490234 2.363340139389
-74.061752319336 -83.028350830078 -252.913665771484 6.098713397980
16.175086975098 -79.702728271484 -249.211196899414 2.377084732056
-161.864196777344 -79.051277160645 -247.396774291992 4.542407512665
11.328270912170 -84.220924377441 -252.868148803711 2.241505146027
-81.546813964844 -72.048347473145 -249.654830932617 1.229974746704
-76.955497741699 -80.089714050293 -248.660598754883 5.269276142120
17.101819992065 -81.487586975098 -252.509460449219 2.464168310165
-90.539909362793 -79.088340759277 -248.689971923828 5.943846702576
-126.800071716309 -75.632057189941 -252.592834472656 2.387613534927
-132.648498535156 -85.751167297363 -258.982940673828 3.115713357925
-137.613235473633 -84.196678161621 -249.422683715820 6.983403205872
-147.620727539063 -83.693778991699 -259.976348876953 0.422214359045
-147.917114257813 -76.102172851563 -249.234954833984 2.920166969299
-134.784484863281 -78.737159729004 -259.965606689453 0.894131124020
-162.743423461914 -76.301025390625 -258.355987548828 2.827679157257
-129.549407958984 -81.247306823730 -266.023986816406 7.450967311859
-137.963317871094 -73.707633972168 -261.569244384766 2.517449140549
-162.722717285156 -77.304847717285 -269.716369628906 2.624688386917
-155.964523315430 -77.671295166016 -262.992614746094 3.136159896851
-148.359237670898 -78.684066772461 -264.039123535156 1.470541000366
-150.142227172852 -82.009498596191 -263.769165039063 2.260898590088
16.599060058594 -82.589591979980 -278.003204345703 4.690387248993
-167.556625366211 -81.297149658203 -263.076202392578 6.410276412964
-152.168914794922 -83.584861755371 -271.417205810547 1.840267658234
-5.555610179901 -89.171043395996 -270.793334960938 6.637272357941
-154.843887329102 -78.226684570313 -274.678436279297 3.687966108322
10.897708892822 -83.950164794922 -282.840972900391 5.163736820221
-153.970458984375 -80.894111633301 -279.317871093750 3.365043163300
-167.807174682617 -83.728019714355 -287.024993896484 9.345636367798
-156.659622192383 -85.231513977051 -274.611328125000 5.000643253326
-165.263565063477 -78.849937438965 -287.978393554688 4.411900997162
-0.878046989441 -85.034843444824 -285.491943359375 6.559825420380
6.346314907074 -86.445030212402 -279.292388916016 5.188187599182
-108.012367248535 -78.955375671387 -292.074737548828 4.320962905884
-158.292984008789 -90.075752258301 -285.503936767578 7.734199523926
-148.908386230469 -78.505172729492 -282.798919677734 1.253122687340
-106.248626708984 -80.127891540527 -290.943969726563 5.750164031982
-154.791564941406 -86.270507812500 -291.563171386719 1.827753782272
-149.181274414063 -87.418243408203 -286.136352539063 2.139498949051
-77.585998535156 -85.951736450195 -292.155639648438 9.230274200439
-170.077056884766 -84.991874694824 -286.408782958984 10.698848724365
-123.276519775391 -76.968116760254 -289.927124023438 1.949691534042
-43.613998413086 -86.501869201660 -282.977020263672 9.558539390564
-151.235702514648 -81.309974670410 -285.280792236328 2.008706092834
-131.540649414063 -75.725776672363 -292.226318359375 3.299712657928
-21.880113601685 -77.970039367676 -294.164367675781 2.937468528748
-130.743179321289 -76.525535583496 -291.212677001953 2.813979387283
5.504361152649 -82.219429016113 -294.247039794922 5.554607868195
14.047456741333 -77.211883544922 -291.369720458984 0.929601013660
-134.203628540039 -76.055458068848 -288.718048095703 1.850089788437
-146.364425659180 -84.666557312012 -297.393218994141 2.270733833313
-157.399215698242 -87.582077026367 -313.994506835938 10.446011543274
-71.478027343750 -65.869506835938 -51.946506500244 4.725240230560
-21.496023178101 -64.135932922363 -66.377861022949 2.161272287369
-18.964441299438 -75.329818725586 -63.901550292969 2.290057420731
70.382560729980 -68.422103881836 -79.032897949219 3.167755126953
89.962104797363 -69.965057373047 -75.502777099609 4.706730842590
-35.842372894287 -72.322677612305 -79.406829833984 1.675255656242
76.537406921387 -69.985794067383 -81.094367980957 5.519752979279
90.555587768555 -75.661705017090 -82.678451538086 2.395783185959
65.334716796875 -72.060447692871 -84.111557006836 2.797286510468
73.538330078125 -69.863693237305 -91.287986755371 3.958051443100
-50.281742095947 -72.686859130859 -83.239013671875 2.068077802658
-91.799362182617 -76.270385742188 -88.739318847656 2.752532482147
59.670223236084 -75.819633483887 -93.315505981445 1.673737287521
50.486114501953 -75.377914428711 -100.034660339355 1.982906222343
92.201133728027 -66.962684631348 -102.430084228516 3.306972503662
-90.182670593262 -66.665092468262 -100.574142456055 6.785290241241
79.004280090332 -65.373558044434 -100.805366516113 5.478765010834
70.927536010742 -73.154838562012 -101.568733215332 3.382112979889
91.004325866699 -75.295600891113 -97.441314697266 1.421547055244
83.942543029785 -72.398086547852 -95.218589782715 3.085489749908
79.287544250488 -75.391975402832 -98.762039184570 1.783356785774
-90.178573608398 -75.424781799316 -101.411209106445 3.783846139908
44.844039916992 -68.564193725586 -103.390518188477 2.192269802094
104.426445007324 -74.046493530273 -110.459465026855 1.823432564735
106.036567687988 -73.355957031250 -110.331451416016 1.243792414665
50.580471038818 -77.411933898926 -120.539436340332 4.942185878754
114.096740722656 -77.069709777832 -118.326599121094 3.911186456680
117.566337585449 -77.819862365723 -134.817932128906 2.429167509079
-50.504177093506 -70.441177368164 -127.312202453613 3.875640153885
27.669683456421 -73.263076782227 -134.437835693359 2.335732936859
41.091869354248 -78.409027099609 -133.066558837891 2.011113882065
23.884830474854 -70.926208496094 -141.002334594727 1.969047784805
112.398338317871 -78.520393371582 -135.769683837891 1.664189577103
111.000495910645 -75.263168334961 -128.963577270508 0.894358158112
-73.964378356934 -74.441612243652 -147.174987792969 1.338554263115
-43.734218597412 -72.823745727539 -138.192565917969 2.583376884460
-71.873634338379 -72.579963684082 -152.281372070313 2.061493158340
17.540248870850 -71.495964050293 -146.537063598633 1.771089076996
111.354156494141 -69.861557006836 -147.184646606445 2.431015253067
-54.818050384521 -77.205009460449 -151.687042236328 3.656491279602
-73.414360046387 -73.827812194824 -151.902969360352 1.210485577583
-39.863292694092 -78.274551391602 -149.646835327148 1.673908114433
30.803859710693 -67.670608520508 -153.905395507813 2.489019632339
107.558822631836 -68.775993347168 -149.847640991211 5.123141288757
117.176406860352 -72.860565185547 -162.457733154297 1.190627098083
-68.799308776855 -71.228157043457 -155.672821044922 1.733241915703
-76.699653625488 -78.483894348145 -158.381698608398 6.574805736542
21.578224182129 -80.622825622559 -162.661117553711 2.946009874344
-61.003242492676 -72.311676025391 -166.280670166016 2.141317129135
-32.807247161865 -71.929519653320 -163.227996826172 0.051128640771
8.494855880737 -77.193099975586 -163.581100463867 2.946403503418
105.994827270508 -70.398864746094 -161.242904663086 3.608001470566
10.749758720398 -80.053276062012 -168.221771240234 7.829785823822
-32.704875946045 -75.427635192871 -165.066390991211 1.750051379204
-4.887687206268 -67.764976501465 -163.598434448242 6.466897964478
105.545372009277 -69.205970764160 -165.985061645508 3.945167541504
-42.518226623535 -72.297477722168 -161.614288330078 1.168571949005
30.431549072266 -72.134605407715 -173.644424438477 2.037913799286
114.852836608887 -80.493247985840 -171.846939086914 4.305656909943
-57.679912567139 -71.501762390137 -174.442611694336 2.753375053406
-28.190935134888 -79.779174804688 -175.133300781250 2.510306119919
100.336952209473 -75.768722534180 -174.248687744141 5.697506427765
28.950067520142 -71.588676452637 -166.198501586914 1.901202440262
102.230026245117 -76.613784790039 -175.871215820313 4.112690448761
-37.466842651367 -70.103492736816 -179.157455444336 2.880882263184
109.990089416504 -79.935127258301 -180.385131835938 3.913447618484
-64.736305236816 -71.281272888184 -176.630630493164 5.257644653320
-26.456468582153 -80.826683044434 -176.006561279297 1.527463436127
-148.753509521484 -68.400932312012 -183.864349365234 2.963759899139
-54.514587402344 -74.381927490234 -176.981658935547 1.978729724884
-148.184814453125 -77.070411682129 -184.137313842773 2.020620107651
-36.162361145020 -72.784301757813 -181.667144775391 0.846332848072
29.917465209961 -82.004760742188 -176.035415649414 4.932729721069
104.791954040527 -76.529571533203 -183.310836791992 0.569561779499
-38.420745849609 -74.311759948730 -179.880172729492 2.170333385468
9.558936119080 -76.259262084961 -190.210968017578 2.703949928284
14.772221565247 -75.724327087402 -205.886764526367 2.394256830215
-150.553375244141 -77.114105224609 -185.444152832031 3.155990362167
106.842292785645 -79.725746154785 -195.648391723633 2.991623401642
-25.238945007324 -73.638107299805 -191.797897338867 1.551925182343
99.567001342773 -77.134063720703 -185.978454589844 4.454367637634
10.714465141296 -72.025138854980 -190.391937255859 1.570882797241
-142.564620971680 -77.089881896973 -205.395233154297 1.237859129906
-137.692016601563 -75.491477966309 -197.644393920898 1.952277421951
102.873764038086 -80.773735046387 -201.143066406250 2.905970096588
-12.337204933167 -81.485382080078 -198.486877441406 4.014715671539
-18.527555465698 -76.774047851563 -204.159851074219 1.865950703621
11.249683380127 -79.360137939453 -206.613464355469 1.221155643463
-150.564346313477 -76.624664306641 -204.808227539063 1.215640425682
-147.322982788086 -78.597541809082 -208.731063842773 2.552628040314
100.980018615723 -68.264625549316 -206.145416259766 3.787492752075
-86.773750305176 -76.530868530273 -205.773025512695 5.839290618896
-35.391067504883 -78.094779968262 -198.716140747070 2.238137483597
20.246269226074 -81.186882019043 -215.212768554688 4.992302417755
-24.861112594604 -77.421737670898 -209.611083984375 2.597913026810
-74.707733154297 -74.206123352051 -203.300476074219 6.325497150421
90.366729736328 -76.211380004883 -208.098663330078 3.435221672058
-79.146469116211 -73.418830871582 -210.871749877930 0.919854044914
-149.090942382813 -77.049835205078 -217.950988769531 1.566444158554
-81.217361450195 -74.504768371582 -210.863906860352 1.595659375191
-11.447243690491 -68.926948547363 -205.515609741211 1.512414455414
-21.078580856323 -73.389297485352 -219.916152954102 1.184335112572
17.637336730957 -77.617507934570 -214.537979125977 1.466279864311
-5.653741836548 -78.926681518555 -222.443817138672 1.685853600502
-89.152435302734 -84.824897766113 -217.781127929688 7.213488578796
92.617698669434 -74.946029663086 -213.466354370117 0.586935043335
-101.761108398438 -74.913307189941 -213.905548095703 5.235099792480
-155.523254394531 -74.992126464844 -224.452224731445 3.194819927216
-31.872253417969 -76.316436767578 -224.017700195313 4.728922843933
18.990844726563 -78.280136108398 -214.603073120117 2.357867240906
-102.976966857910 -78.477760314941 -218.548782348633 5.781383514404
6.588891983032 -70.453300476074 -216.026733398438 1.366934895515
-28.703435897827 -76.455024719238 -212.995407104492 2.168611764908
81.431747436523 -73.665946960449 -224.751586914063 2.480993509293
-144.730819702148 -74.985755920410 -214.780120849609 2.896430969238
15.658628463745 -76.281066894531 -225.026473999023 2.049353122711
-10.124841690063 -81.570587158203 -227.961746215820 3.548770427704
17.125322341919 -67.335762023926 -223.594635009766 2.943914651871
83.454055786133 -78.268905639648 -222.367584228516 2.227773904800
-15.609643936157 -81.969650268555 -228.409317016602 5.235862255096
-131.065063476563 -80.459266662598 -225.603485107422 3.666184663773
-16.307415008545 -76.419990539551 -223.011047363281 1.668814301491
15.985254287720 -76.256080627441 -227.356216430664 2.045024871826
-129.010375976563 -81.439331054688 -225.276901245117 5.493824005127
-155.184249877930 -73.880065917969 -230.442947387695 2.173669099808
-144.227081298828 -76.413230895996 -227.731307983398 2.411366462708
-127.821838378906 -74.751403808594 -224.107086181641 1.507715702057
-11.206975936890 -72.921012878418 -222.716552734375 1.644296407700
71.275222778320 -76.293327331543 -225.929672241211 4.741849422455
-145.893936157227 -72.553970336914 -239.759262084961 2.725295066833
66.728172302246 -77.595916748047 -227.200759887695 6.895751953125
-22.273000717163 -82.130485534668 -230.869842529297 6.091709613800
-143.394424438477 -80.663383483887 -225.777374267578 0.982049345970
75.485961914063 -86.582847595215 -228.469375610352 10.439608573914
9.818161010742 -83.301483154297 -230.039428710938 2.992858886719
-139.947555541992 -81.825111389160 -234.925033569336 3.523215055466
-150.033752441406 -76.945976257324 -231.136016845703 1.838311910629
17.448173522949 -71.698608398438 -229.498718261719 1.086112618446
-3.012526035309 -82.262496948242 -238.784408569336 4.952178001404
-31.400857925415 -76.094375610352 -235.509613037109 2.445638656616
-2.180623054504 -71.581787109375 -234.750442504883 1.497945547104
-161.114791870117 -82.466270446777 -236.174514770508 8.562710762024
3.895299911499 -74.267288208008 -241.380203247070 1.311620950699
-165.608963012695 -80.221977233887 -240.297012329102 6.094871520996
-12.130770683289 -78.622116088867 -236.246032714844 5.256396293640
56.596683502197 -78.256484985352 -238.351303100586 5.296257495880
-14.522633552551 -75.272178649902 -234.716461181641 3.436680078506
-25.840177536011 -77.697807312012 -247.777175903320 3.988456010818
-24.758543014526 -77.066452026367 -240.629714965820 1.780374526978
-10.412226676941 -82.685195922852 -238.244781494141 8.492121696472
-147.107742309570 -78.905204772949 -225.106079101563 1.664331197739
6.984848022461 -75.711402893066 -240.049880981445 1.066245317459
63.303184509277 -76.945281982422 -244.643371582031 3.918582677841
15.415719032288 -73.685089111328 -244.449478149414 2.105383872986
-171.269165039063 -76.057136535645 -241.882080078125 5.332951545715
-52.912883758545 -76.280708312988 -236.543106079102 6.415431976318
4.993959903717 -85.416557312012 -248.088439941406 4.586190700531
16.751291275024 -78.021095275879 -241.731826782227 1.919609069824
-54.328739166260 -77.723014831543 -246.358718872070 1.915225386620
-2.294703006744 -71.150955200195 -250.363525390625 5.368614673615
19.785078048706 -86.515777587891 -247.997253417969 3.729821920395
-174.170822143555 -75.381126403809 -247.749069213867 8.211019515991
-64.863441467285 -83.257041931152 -248.180206298828 5.117795944214
-53.608596801758 -75.302597045898 -246.783035278320 1.836447000504
-84.353683471680 -75.784210205078 -252.511138916016 2.729940891266
