82.552566528320 -78.863670349121 -99.309494018555 3.772732973099
76.955863952637 -82.422554016113 -92.684486389160 4.705935001373
87.110809326172 -76.457527160645 -92.913795471191 1.155528187752
-57.403194427490 -76.956481933594 -97.693809509277 5.545566082001
48.507225036621 -74.457885742188 -100.199821472168 2.249729394913
46.310451507568 -76.094680786133 -108.370803833008 2.063320636749
39.807682037354 -77.965751647949 -104.983718872070 1.714753270149
36.185291290283 -77.505584716797 -101.918174743652 5.693316936493
-91.544120788574 -72.110191345215 -101.751907348633 3.602673053741
35.639789581299 -74.925827026367 -118.958877563477 1.037311077118
-84.288543701172 -77.620277404785 -106.182388305664 3.019062042236
39.998855590820 -78.587844848633 -130.003311157227 1.644469738007
32.665489196777 -78.297912597656 -121.930068969727 1.340362191200
34.637405395508 -68.068122863770 -123.062690734863 1.875366210938
45.394287109375 -74.382240295410 -118.647727966309 2.192188024521
42.213706970215 -80.611267089844 -130.260177612305 3.702002525330
-50.587699890137 -70.353210449219 -135.299133300781 0.655381798744
38.210998535156 -82.615989685059 -135.355041503906 2.520942449570
35.580715179443 -77.156791687012 -146.240570068359 2.795497417450
-56.624614715576 -75.625175476074 -144.977066040039 2.475211858749
-44.083152770996 -77.970359802246 -140.331787109375 3.287866830826
35.181591033936 -75.251510620117 -143.824798583984 2.814401388168
110.309387207031 -71.223617553711 -143.084213256836 1.140429496765
112.021148681641 -72.664497375488 -150.300369262695 1.977163553238
26.602468490601 -79.128860473633 -142.231185913086 1.516133427620
-39.755958557129 -81.056678771973 -150.205215454102 2.701980590820
117.919815063477 -85.572494506836 -154.782226562500 9.384148597717
-36.514987945557 -75.225646972656 -152.753555297852 2.331416606903
-67.933044433594 -76.612472534180 -163.268203735352 0.927611768246
110.545242309570 -82.586830139160 -157.031066894531 5.523800849915
22.397331237793 -79.070381164551 -168.381866455078 1.866648435593
0.988749027252 -78.435379028320 -163.666915893555 1.051916122437
110.779357910156 -77.245803833008 -154.361984252930 2.661230325699
-64.417144775391 -77.423927307129 -166.700286865234 1.567449688911
-39.339771270752 -79.550056457520 -167.022644042969 1.737951636314
110.827125549316 -78.563850402832 -167.671249389648 1.018867015839
27.045566558838 -71.215705871582 -160.018142700195 2.224032640457
-61.531185150146 -70.216125488281 -164.073196411133 1.058145284653
112.893936157227 -77.649574279785 -168.306030273438 0.917620658875
-65.857124328613 -79.503295898438 -168.955718994141 2.082744598389
-48.708522796631 -81.530876159668 -183.453598022461 2.244420051575
105.828628540039 -76.829681396484 -173.733718872070 1.963569641113
-59.798732757568 -76.233245849609 -173.041656494141 2.075086355209
112.499908447266 -76.174980163574 -181.419738769531 1.927548050880
-62.026630401611 -76.741851806641 -176.947433471680 2.083003282547
-16.737123489380 -74.757003784180 -178.222808837891 2.163330554962
-9.700827598572 -84.206718444824 -183.949050903320 6.818723201752
107.464347839355 -79.604354858398 -167.983779907227 3.770425081253
21.408952713013 -79.305862426758 -172.361923217773 1.334173083305
30.949440002441 -71.577049255371 -170.257659912109 2.678048849106
-58.832012176514 -76.896759033203 -177.741165161133 1.598837852478
16.545127868652 -75.401748657227 -182.898437500000 1.747489094734
-57.750774383545 -78.959236145020 -174.316345214844 1.283155202866
-53.357902526855 -76.361755371094 -195.743515014648 5.006693363190
9.517478942871 -75.043487548828 -186.398132324219 3.360768318176
-55.822311401367 -72.024162292480 -179.233108520508 3.107848882675
105.334388732910 -74.383636474609 -191.929733276367 0.836592435837
26.091686248779 -81.321853637695 -183.522201538086 4.180993556976
-36.369308471680 -75.099678039551 -188.614028930664 4.311943054199
-43.783927917480 -81.210250854492 -189.494262695313 3.719962358475
10.733625411987 -80.815284729004 -192.012634277344 5.196895599365
-20.689172744751 -79.306533813477 -187.872222900391 2.037695169449
-47.522045135498 -79.849739074707 -196.193786621094 1.074682116508
101.037590026855 -82.459754943848 -184.556610107422 6.234887599945
7.744370937347 -82.300361633301 -191.118041992188 8.213547706604
-132.601654052734 -86.118934631348 -199.542694091797 4.877110958099
-50.761562347412 -80.739791870117 -196.237548828125 2.541292905807
93.273124694824 -76.608261108398 -201.068496704102 3.374627828598
-150.808990478516 -85.118850708008 -201.374618530273 2.005428075790
17.598255157471 -78.677261352539 -202.842269897461 2.036897420883
-44.594554901123 -74.580558776855 -206.624130249023 5.151940345764
-30.518680572510 -82.016632080078 -208.285125732422 3.567718505859
-37.986587524414 -79.742485046387 -200.961120605469 1.150354862213
-46.879955291748 -86.073249816895 -198.435424804688 2.093018770218
100.144340515137 -77.538726806641 -207.748474121094 2.711216688156
-22.198478698730 -83.202812194824 -200.150817871094 3.829504489899
-150.978515625000 -78.787269592285 -198.884078979492 1.318177700043
15.004947662354 -81.312011718750 -201.774505615234 2.814773559570
-78.239578247070 -83.444122314453 -204.713684082031 5.370520591736
-143.482345581055 -76.209747314453 -213.622741699219 2.317317247391
92.361915588379 -81.179611206055 -216.848114013672 4.661499500275
-33.940601348877 -76.667755126953 -207.445678710938 1.942333579063
-29.742557525635 -79.288223266602 -210.749359130859 0.883207619190
9.535088539124 -78.828720092773 -210.734695434570 2.088483572006
-72.718719482422 -83.650398254395 -206.451370239258 3.779282093048
-27.402315139771 -87.961441040039 -205.262680053711 9.673866271973
-9.967289924622 -80.456344604492 -218.309585571289 0.861014485359
-70.141174316406 -79.661163330078 -213.848037719727 1.281908154488
-14.868510246277 -79.193244934082 -218.319488525391 2.318237543106
6.659026145935 -68.560623168945 -212.040893554688 2.583359718323
10.678304672241 -81.972389221191 -222.732635498047 1.190857768059
-153.322784423828 -81.487464904785 -216.913665771484 3.452843427658
-10.388336181641 -78.489326477051 -214.856201171875 1.114126324654
-104.216957092285 -74.980567932129 -219.468460083008 2.770525932312
-23.059978485107 -78.303253173828 -219.900573730469 1.224463582039
87.079216003418 -84.954681396484 -214.355392456055 8.452390670776
8.800580978394 -76.201293945313 -225.144790649414 1.564124822617
21.407081604004 -78.281410217285 -217.517593383789 4.221208572388
78.677200317383 -80.155967712402 -214.529556274414 6.498800277710
0.272964000702 -84.161300659180 -231.497283935547 5.225804328918
84.122680664063 -78.784027099609 -218.727645874023 3.026051521301
-23.127033233643 -73.574043273926 -225.770675659180 2.115712404251
15.808644294739 -74.374328613281 -219.216934204102 2.568145751953
-150.194229125977 -80.816314697266 -216.624328613281 1.770753502846
-28.514646530151 -80.460090637207 -227.166809082031 6.123086929321
0.874799013138 -75.261344909668 -232.734725952148 2.841849803925
-157.780075073242 -85.653518676758 -223.427795410156 6.820969104767
-138.863281250000 -83.323432922363 -226.711395263672 1.262117624283
1.092618942261 -78.234817504883 -223.759628295898 1.734445691109
-4.704090118408 -74.292678833008 -224.535110473633 3.651405334473
-138.619796752930 -75.086303710938 -227.748779296875 2.309181213379
-148.938507080078 -79.898643493652 -242.329772949219 0.841220915318
-150.586883544922 -80.419731140137 -234.398162841797 2.985758781433
-32.563190460205 -80.600128173828 -236.828369140625 2.345269918442
-142.561355590820 -83.804939270020 -242.467529296875 2.786486864090
13.022123336792 -80.830383300781 -242.379013061523 2.047609567642
4.623373985291 -78.502914428711 -246.198654174805 0.736593663692
-152.229537963867 -72.995788574219 -237.640670776367 2.107037782669
-151.161361694336 -79.037483215332 -244.165557861328 2.488255262375
-46.449184417725 -81.694770812988 -246.977645874023 2.032616376877
-32.990688323975 -79.941337585449 -248.141799926758 5.558492183685
2.561681032181 -78.480461120605 -242.752639770508 1.650062918663
-36.840053558350 -81.646286010742 -245.782440185547 3.807343959808
20.403244018555 -79.147415161133 -247.443939208984 0.838917791843
-7.593822956085 -81.732154846191 -254.419906616211 1.898095488548
-144.525451660156 -81.196151733398 -252.018829345703 2.053884744644
-11.884783744812 -85.255310058594 -254.116851806641 4.576453685760
-150.077087402344 -76.972908020020 -244.738861083984 1.965090274811
-66.087303161621 -81.955596923828 -250.411651611328 3.810932874680
-147.651748657227 -87.639465332031 -257.622192382813 3.020830154419
-129.313842773438 -80.079437255859 -257.116821289063 4.228299617767
-155.207733154297 -80.277641296387 -255.113418579102 1.652363181114
-11.521913528442 -76.637046813965 -268.580657958984 1.970531344414
-147.132934570313 -87.559219360352 -272.735900878906 4.138244152069
-150.546966552734 -80.648117065430 -269.047454833984 2.426778078079
-13.830944061279 -79.723609924316 -271.804748535156 3.123059272766
-145.240707397461 -80.414604187012 -268.722839355469 2.638556480408
-8.675103187561 -77.815773010254 -276.769134521484 1.506008267403
-47.190017700195 -78.996047973633 -283.530700683594 3.866109848022
-136.937301635742 -77.209587097168 -287.490875244141 1.313470363617
-137.967636108398 -79.882011413574 -284.806518554688 2.769396305084
-124.132995605469 -76.158645629883 -279.905700683594 4.441953182220
-53.194461822510 -79.012680053711 -286.381774902344 2.470175266266
-112.876007080078 -78.903144836426 -282.112823486328 7.073150157928
14.863144874573 -78.875617980957 -294.329742431641 1.152789235115
-57.919059753418 -77.551567077637 -288.622314453125 0.835292935371
-142.358932495117 -80.341514587402 -292.945404052734 2.365389108658
-65.321640014648 -78.558219909668 -290.633575439453 4.370735645294
-146.952209472656 -86.668098449707 -293.004699707031 1.210538625717
-117.952247619629 -77.182983398438 -290.554718017578 1.710914492607
-47.234554290771 -83.247611999512 -290.499816894531 7.324841022491
-34.747367858887 -79.797630310059 -292.195312500000 1.771962285042
-140.659744262695 -75.044021606445 -296.478332519531 4.935913085938
-16.492343902588 -72.880386352539 -281.274414062500 5.429116725922
4.085300922394 -78.964401245117 -287.421295166016 2.995947837830
5.137516021729 -77.482238769531 -291.079559326172 0.386750906706
13.659198760986 -80.781715393066 -297.092742919922 4.539889812469
-151.502365112305 -85.997245788574 -297.440887451172 1.620857119560
-145.852645874023 -77.590362548828 -290.633148193359 3.197769641876
-64.289054870605 -73.723777770996 -62.838455200195 5.253255844116
90.618469238281 -77.789566040039 -74.028961181641 3.032650232315
80.049034118652 -77.186981201172 -79.696434020996 1.516631603241
-27.039913177490 -79.136398315430 -76.845970153809 2.223178625107
84.647529602051 -73.833976745605 -76.177154541016 0.499924898148
-37.439353942871 -79.387275695801 -80.074951171875 1.542976260185
82.606231689453 -70.896911621094 -84.901893615723 7.251717567444
98.124961853027 -70.842834472656 -81.670753479004 3.471321821213
-63.488475799561 -70.079627990723 -96.758911132813 3.381836175919
73.024047851563 -76.737831115723 -96.337028503418 2.244069814682
80.675971984863 -73.358810424805 -99.878402709961 1.421152949333
98.780525207520 -79.383537292480 -97.636611938477 5.317847251892
56.285873413086 -78.395233154297 -98.307960510254 2.174092292786
-64.071281433105 -72.897949218750 -101.410163879395 5.116415977478
-72.883445739746 -72.790061950684 -100.917152404785 1.080095291138
51.896724700928 -78.624832153320 -104.594284057617 0.591515660286
-86.044830322266 -78.034820556641 -101.248565673828 3.354500532150
48.444393157959 -72.545120239258 -119.898971557617 1.611377358437
111.314285278320 -75.376022338867 -122.674522399902 1.956904649734
113.693778991699 -78.839721679688 -132.315490722656 2.628831148148
19.622966766357 -74.217636108398 -137.817779541016 5.860128879547
110.834053039551 -78.512397766113 -129.164413452148 2.838302135468
29.632814407349 -73.287742614746 -134.378616333008 2.169874429703
113.064605712891 -69.329727172852 -135.508483886719 0.895124256611
37.158878326416 -73.590652465820 -136.054946899414 1.589191794395
-57.170944213867 -76.031784057617 -139.884887695313 2.160075902939
36.878189086914 -81.713668823242 -147.440979003906 4.547506809235
109.032318115234 -74.060104370117 -136.285873413086 2.456059455872
-44.663761138916 -74.741531372070 -143.948074340820 1.063572645187
32.226547241211 -74.973579406738 -152.076904296875 0.509256958961
-56.572292327881 -70.297775268555 -141.942047119141 0.800135493279
-60.258789062500 -76.410110473633 -143.964401245117 3.801439523697
-52.872024536133 -80.778984069824 -150.289794921875 3.734272956848
-64.074684143066 -80.485168457031 -155.609359741211 2.156265258789
111.506530761719 -81.568298339844 -149.058975219727 4.614322185516
-49.463748931885 -84.872795104980 -155.392898559570 5.753011703491
23.600030899048 -82.820594787598 -157.929641723633 4.701783180237
107.326965332031 -77.646812438965 -165.688262939453 2.642210483551
-64.838310241699 -77.261268615723 -154.271011352539 2.091165781021
-42.419887542725 -78.454246520996 -157.898406982422 2.074073076248
9.400154113770 -74.301849365234 -155.279769897461 1.202211260796
-68.412025451660 -77.896705627441 -153.823043823242 2.098631143570
-64.527893066406 -80.499145507813 -157.840515136719 1.990865468979
0.806820988655 -77.189605712891 -163.283584594727 1.731941938400
-44.549175262451 -72.655792236328 -168.371154785156 1.190128326416
28.499715805054 -74.513046264648 -169.418624877930 0.644712805748
-63.544452667236 -72.470321655273 -168.968139648438 1.271071195602
-55.619575500488 -79.805999755859 -166.252304077148 2.915982246399
13.911970138550 -80.884269714355 -160.598968505859 7.411942481995
-29.997501373291 -75.790878295898 -168.708908081055 1.099434256554
-28.178216934204 -80.220481872559 -166.796279907227 3.403287887573
14.532053947449 -78.908790588379 -175.686355590820 3.687615871429
-44.324935913086 -80.838211059570 -173.189407348633 4.131590366364
-10.207224845886 -79.092445373535 -172.842163085938 2.483623504639
-66.924163818359 -73.590362548828 -171.305526733398 1.967760682106
-8.051763534546 -74.522056579590 -175.458114624023 1.373373985291
-21.496852874756 -77.488296508789 -180.404663085938 2.416130781174
21.792240142822 -73.858253479004 -185.858169555664 1.568467020988
-38.850940704346 -79.619506835938 -172.697570800781 2.555442810059
21.464155197144 -72.457572937012 -176.347763061523 2.787745952606
-23.030645370483 -73.389686584473 -186.774642944336 1.126966953278
-32.117313385010 -80.448066711426 -177.367111206055 2.914014577866
-148.822784423828 -74.680122375488 -192.489807128906 0.869533538818
-17.216709136963 -82.761108398438 -183.904815673828 3.223409175873
-140.172363281250 -76.222526550293 -188.937088012695 3.774289369583
-154.907409667969 -78.743667602539 -186.088241577148 5.613968849182
-50.441265106201 -75.649574279785 -189.277526855469 1.991086363792
98.041786193848 -76.485565185547 -197.059524536133 1.471944093704
-145.278350830078 -79.659828186035 -188.964462280273 2.040003538132
-145.153732299805 -75.635368347168 -194.625366210938 1.344366669655
22.568143844604 -75.312088012695 -197.142776489258 2.176996469498
-139.443939208984 -78.932945251465 -194.748947143555 2.110046386719
12.097043991089 -73.019676208496 -200.385620117188 2.077248096466
-138.047241210938 -81.968772888184 -198.954437255859 1.322423458099
12.816269874573 -72.918701171875 -199.012191772461 1.360879898071
-132.900039672852 -74.231758117676 -194.021560668945 2.296864271164
4.225031852722 -73.387054443359 -202.411483764648 3.207480430603
-152.825439453125 -78.439926147461 -200.631759643555 1.379453659058
95.205810546875 -77.389984130859 -209.066635131836 1.613559722900
-17.760572433472 -80.773536682129 -210.011688232422 2.912863731384
-31.064529418945 -76.619758605957 -209.636184692383 1.520946145058
-13.032958984375 -71.683975219727 -205.912185668945 1.598469853401
-145.195724487305 -83.881080627441 -209.302200317383 1.609253048897
-35.951469421387 -77.791801452637 -203.066146850586 0.479449540377
-84.990226745605 -80.312751770020 -201.894653320313 10.254773139954
-27.357505798340 -79.524131774902 -208.486587524414 1.384023189545
13.266908645630 -78.468200683594 -215.456237792969 1.563536763191
-146.743820190430 -75.693817138672 -214.553970336914 1.936430811882
-89.367439270020 -81.207649230957 -219.445816040039 4.768949508667
-29.791090011597 -76.698989868164 -221.173049926758 2.617197990417
-28.323717117310 -78.138938903809 -221.549118041992 1.788733959198
-7.767757892609 -79.791610717773 -209.129333496094 2.734748840332
-27.796205520630 -76.918731689453 -207.543670654297 1.266670465469
-85.357658386230 -78.786148071289 -222.354522705078 5.272135734558
-91.149864196777 -84.686614990234 -219.563934326172 8.261125564575
-23.338001251221 -77.140686035156 -222.694137573242 2.567875862122
-2.559699058533 -87.960914611816 -226.271377563477 8.503529548645
-158.026214599609 -81.312614440918 -216.016281127930 8.218470573425
-3.098937034607 -79.709548950195 -222.862030029297 0.983574211597
87.642204284668 -82.919670104980 -230.158859252930 9.388021469116
-139.409637451172 -81.482757568359 -221.697967529297 5.212037086487
-3.520859003067 -78.525604248047 -221.489959716797 0.987083494663
-139.574356079102 -80.520858764648 -224.499389648438 2.920540094376
-147.787551879883 -87.449218750000 -223.465362548828 3.624927282333
-6.273114204407 -76.984764099121 -228.673645019531 1.155513644218
22.197418212891 -79.097450256348 -214.020202636719 5.219811916351
-139.257553100586 -76.482574462891 -228.331771850586 2.399569272995
-19.053335189819 -80.241897583008 -227.980026245117 2.339527130127
70.211799621582 -78.957572937012 -226.631607055664 6.537722110748
73.649215698242 -78.392028808594 -236.201873779297 5.066147804260
10.291518211365 -80.585632324219 -230.589309692383 0.839994847775
-36.184532165527 -79.646675109863 -235.731796264648 4.095679759979
-25.689237594604 -87.536262512207 -243.026962280273 8.136955261230
1.202548027039 -76.482292175293 -244.051101684570 1.018632531166
-47.417423248291 -73.220054626465 -244.160354614258 2.070676565170
-21.316188812256 -75.879562377930 -243.471923828125 2.131997346878
9.900904655457 -74.402862548828 -238.874801635742 1.803547263145
-63.979385375977 -79.267288208008 -245.521514892578 2.172879457474
-38.089389801025 -84.447662353516 -244.142486572266 3.670207738876
-38.496639251709 -77.241943359375 -245.827331542969 2.037579774857
-148.347869873047 -76.219848632813 -244.700683593750 1.670022726059
-45.352210998535 -82.157539367676 -248.869659423828 3.997499227524
-53.292675018311 -69.552062988281 -247.292129516602 3.265131473541
-66.385787963867 -78.356910705566 -248.401519775391 1.882168412209
-11.263964653015 -83.720626831055 -245.407836914063 8.960147857666
-79.459129333496 -80.715614318848 -255.403549194336 4.458383560181
-157.833328247070 -86.118843078613 -251.366683959961 5.154409408569
-141.119674682617 -77.301658630371 -251.855667114258 3.880375623703
-121.583145141602 -81.193786621094 -257.095977783203 5.600666522980
-160.545822143555 -75.522651672363 -255.845336914063 1.844493508339
17.524101257324 -86.487556457520 -268.053680419922 5.319291591644
-16.130819320679 -81.541587829590 -269.513916015625 5.165192604065
-156.975708007813 -82.678230285645 -273.436126708984 4.809534072876
-154.365417480469 -87.238533020020 -277.401428222656 3.746059179306
-147.528930664063 -81.940010070801 -284.636627197266 2.017876863480
-60.116901397705 -73.686698913574 -278.702575683594 6.759585857391
-40.155990600586 -72.814323425293 -285.611236572266 0.904373466969
-18.501293182373 -76.450904846191 -290.567840576172 1.593314051628
-9.766144752502 -74.030731201172 -278.003204345703 2.272921085358
-67.590484619141 -83.043853759766 -284.458587646484 6.498403072357
-82.664024353027 -84.704826354980 -285.366912841797 9.189006805420
-2.887803077698 -80.027336120605 -282.163970947266 2.768059492111
0.639774024487 -80.895568847656 -293.686767578125 3.917953968048
-141.909332275391 -77.878311157227 -284.091918945313 2.424994945526
-82.455291748047 -75.277587890625 -285.118041992188 0.311443746090
-148.226394653320 -78.203552246094 -286.025604248047 2.862187385559
-95.910697937012 -90.013267517090 -284.022583007813 15.562834739685
-80.079818725586 -78.600799560547 -284.574340820313 3.997015476227
-87.892280578613 -76.265892028809 -296.306396484375 6.086510181427
-65.060256958008 -78.820457458496 -291.921966552734 4.621088504791
-32.906181335449 -71.550964355469 -296.343933105469 3.892328262329
-10.754579544067 -78.501716613770 -290.753936767578 1.612676024437
-151.967514038086 -71.727432250977 -299.054199218750 1.686054468155
-149.580642700195 -76.991256713867 -299.796813964844 1.721471428871
-144.940490722656 -77.983779907227 -304.825134277344 1.603039979935
-159.909973144531 -79.302894592285 -302.946044921875 6.415679931641
-54.816951751709 -70.492469787598 -56.539329528809 4.879427909851
-47.460494995117 -74.213554382324 -52.997394561768 2.290621042252
-38.281311035156 -76.764678955078 -53.524875640869 2.959205150604
-76.305732727051 -78.332008361816 -62.923130035400 2.513767242432
-28.147262573242 -73.111793518066 -65.772872924805 3.450607776642
-34.372783660889 -74.117164611816 -80.248001098633 2.831383943558
75.236686706543 -79.537666320801 -85.254875183105 3.637628555298
76.214767456055 -74.726333618164 -80.690338134766 1.114545822144
73.045547485352 -71.540252685547 -85.003654479980 3.545855283737
102.040794372559 -70.547386169434 -92.574554443359 2.529322147369
68.399658203125 -77.615173339844 -90.552696228027 4.271815776825
47.970706939697 -78.579002380371 -89.316230773926 6.559439659119
53.696132659912 -81.677963256836 -103.138122558594 3.878475666046
-65.355239868164 -73.465606689453 -102.642349243164 4.002495765686
-73.746597290039 -70.759635925293 -102.601501464844 2.326824426651
45.735054016113 -76.679046630859 -104.339767456055 0.965292632580
-81.170127868652 -81.917816162109 -110.113494873047 3.256382226944
-91.909309387207 -73.639884948730 -109.702644348145 2.462144613266
52.131294250488 -75.256019592285 -110.531776428223 3.079925060272
108.056381225586 -73.947898864746 -119.076683044434 1.251092195511
33.917957305908 -77.776878356934 -127.932708740234 1.898793220520
42.719257354736 -77.321830749512 -119.828598022461 1.028400301933
40.179401397705 -73.481040954590 -123.690856933594 1.589542746544
30.842617034912 -77.434715270996 -122.601158142090 1.223393917084
110.029457092285 -75.332511901855 -123.729721069336 2.753635883331
39.723285675049 -79.197402954102 -133.393814086914 2.497226476669
36.146713256836 -70.829032897949 -134.131652832031 1.967055320740
-43.463787078857 -74.439491271973 -141.772033691406 1.510045528412
-69.252609252930 -80.165191650391 -142.521560668945 5.824267864227
-52.263671875000 -75.188919067383 -150.155410766602 1.662035584450
-75.111785888672 -81.917236328125 -145.626892089844 6.488682746887
-37.460441589355 -76.071701049805 -148.339096069336 3.529743194580
105.745620727539 -76.959281921387 -159.877212524414 3.100002050400
-71.438789367676 -79.214042663574 -156.549041748047 2.940849304199
23.692390441895 -82.239105224609 -146.656311035156 4.764384746552
27.880550384521 -79.111389160156 -149.974502563477 1.383071660995
110.594383239746 -79.925682067871 -165.528533935547 3.255301475525
10.125120162964 -80.403823852539 -160.126083374023 4.510319709778
33.845886230469 -73.058334350586 -156.710556030273 1.442427396774
-62.279632568359 -79.723487854004 -159.474227905273 2.303544044495
-39.616928100586 -79.322052001953 -175.039306640625 2.579640388489
22.249511718750 -76.563919067383 -164.261367797852 2.167380094528
-65.340400695801 -75.436317443848 -155.157135009766 1.303443074226
-70.482749938965 -76.646003723145 -165.694351196289 4.264477252960
115.551353454590 -78.635643005371 -168.335876464844 1.953676700592
-8.379177093506 -78.442184448242 -165.002746582031 2.822909593582
-66.402656555176 -74.765182495117 -170.889404296875 2.006884813309
-36.123252868652 -79.075904846191 -166.438781738281 1.402413845062
-54.046669006348 -75.433662414551 -171.378356933594 2.533578395844
31.055683135986 -75.493682861328 -177.585418701172 4.118176460266
111.680839538574 -72.895462036133 -174.951629638672 1.961856722832
101.926246643066 -74.360671997070 -185.410598754883 2.716502428055
104.023979187012 -75.743736267090 -191.336410522461 1.172643542290
106.339965820313 -73.045448303223 -177.797088623047 1.060347199440
-51.055259704590 -75.383293151855 -193.224914550781 2.428432226181
-47.117160797119 -72.916526794434 -183.646957397461 3.411909103394
27.602535247803 -76.187911987305 -184.966644287109 2.594929218292
-47.686386108398 -75.570053100586 -185.185852050781 1.244579553604
-21.125608444214 -77.000740051270 -184.079284667969 1.612792968750
-51.402042388916 -80.798423767090 -191.437896728516 3.374523401260
-152.717773437500 -76.221405029297 -191.280197143555 3.676466226578
100.619628906250 -79.315277099609 -194.145385742188 3.223548412323
-44.544395446777 -73.706069946289 -195.498046875000 2.837273120880
-11.896732330322 -78.855606079102 -200.145263671875 3.041565656662
-139.566360473633 -76.483245849609 -190.999404907227 3.925026655197
-41.110618591309 -74.221748352051 -199.622467041016 2.058259010315
100.272743225098 -74.681182861328 -198.188781738281 1.799107432365
107.846305847168 -73.737174987793 -186.657852172852 1.784658432007
-42.770664215088 -76.689712524414 -195.332839965820 2.093352317810
-22.427598953247 -85.932121276855 -200.205032348633 6.499017238617
-147.192382812500 -80.549697875977 -199.251358032227 1.586223483086
-25.479890823364 -76.334960937500 -195.229873657227 1.669118165970
-161.218902587891 -77.958450317383 -195.054962158203 7.116473197937
-153.146606445313 -86.378944396973 -204.448684692383 4.979983806610
-145.857040405273 -80.126556396484 -200.697616577148 2.236087560654
-39.052753448486 -78.162513732910 -201.611755371094 1.329453468323
101.567001342773 -78.170219421387 -205.861892700195 2.189458370209
-43.114692687988 -74.820030212402 -200.174743652344 1.477263569832
-142.462677001953 -81.909019470215 -203.686019897461 1.167594194412
-37.698707580566 -72.393440246582 -205.518402099609 1.828476905823
-23.335477828979 -83.857528686523 -210.202758789063 5.533315181732
97.637214660645 -80.305152893066 -207.833343505859 3.817085027695
89.156059265137 -79.034645080566 -217.187194824219 2.670253753662
-38.959758758545 -75.078536987305 -217.473175048828 7.249374389648
-89.196159362793 -79.453430175781 -209.206481933594 4.419286251068
-76.360237121582 -79.106719970703 -211.392913818359 1.666407823563
-20.159357070923 -77.302711486816 -208.709243774414 3.003592729568
-150.506881713867 -80.804458618164 -198.949295043945 0.763789117336
91.576255798340 -75.859741210938 -216.033355712891 0.677930414677
87.585800170898 -72.463539123535 -219.642593383789 1.817493677139
88.945907592773 -77.773490905762 -222.848815917969 2.701925039291
-103.676902770996 -79.461196899414 -217.187515258789 7.476495265961
-156.065139770508 -80.810714721680 -219.199462890625 6.241938591003
-21.254823684692 -74.997016906738 -224.913192749023 1.284054636955
80.207946777344 -72.577186584473 -229.767791748047 1.664002299309
-151.294708251953 -82.921089172363 -219.516494750977 2.202378273010
-30.391897201538 -79.292648315430 -216.705123901367 1.709477305412
-135.543136596680 -76.076530456543 -232.702682495117 2.209180831909
-11.840899467468 -80.839469909668 -232.858322143555 5.399156093597
16.135490417480 -75.841384887695 -231.258392333984 1.536243200302
19.454862594604 -78.454956054688 -234.652572631836 2.158363342285
-156.774078369141 -81.597938537598 -234.636611938477 5.099869251251
-127.813545227051 -73.506858825684 -231.822494506836 1.030108332634
-9.319902420044 -77.327644348145 -236.407592773438 3.871852159500
-0.822040021420 -76.435974121094 -238.705841064453 1.386327147484
68.139862060547 -76.821235656738 -231.935485839844 3.285652875900
67.543457031250 -72.989891052246 -241.385467529297 1.635452270508
-1.293094038963 -74.520515441895 -241.008468627930 1.511378526688
14.728513717651 -72.332656860352 -241.251922607422 1.982367753983
-33.089313507080 -67.857894897461 -242.334106445313 6.744284152985
-32.901638031006 -89.013061523438 -242.817443847656 8.862382888794
-50.700550079346 -77.982681274414 -234.816940307617 7.232596397400
-42.210678100586 -75.178077697754 -239.623565673828 2.928978443146
-17.031179428101 -79.174789428711 -243.638259887695 3.491997241974
-52.809230804443 -75.579338073730 -244.645156860352 1.946587443352
0.499148011208 -78.510574340820 -246.155426025391 1.626140356064
-69.633880615234 -81.300552368164 -241.938415527344 7.157182693481
20.729749679565 -79.336158752441 -248.296371459961 1.436551332474
-142.620269775391 -81.505226135254 -242.255004882813 1.874721884727
-74.508560180664 -81.478767395020 -254.308700561523 5.093020439148
15.768392562866 -78.473602294922 -251.394363403320 1.407142162323
-162.243133544922 -77.388420104980 -247.871978759766 3.056356906891
10.874299049377 -82.898925781250 -255.101562500000 2.205262899399
-81.931007385254 -70.551811218262 -250.742843627930 1.562523841858
-77.353523254395 -78.624931335449 -249.965927124023 3.353291511536
16.658779144287 -80.189315795898 -254.738998413086 2.615458488464
-90.934692382813 -77.587074279785 -249.844421386719 4.206593036652
-127.220092773438 -73.951026916504 -253.326599121094 2.302800655365
-133.157623291016 -83.914291381836 -259.877380371094 2.339519262314
-138.027252197266 -82.553314208984 -250.239044189453 6.442977428436
-148.132629394531 -81.796165466309 -260.683685302734 0.636297881603
-148.305679321289 -74.437393188477 -249.778808593750 3.148924112320
-135.282730102539 -76.875061035156 -260.688262939453 1.399051189423
-163.218109130859 -74.399955749512 -258.760498046875 1.799286603928
-130.112396240234 -79.267768859863 -266.848907470703 6.267007350922
-138.462188720703 -71.803672790527 -262.152801513672 3.383222103119
-163.307708740234 -75.158409118652 -270.139556884766 2.757822036743
-156.487304687500 -75.687843322754 -263.489898681641 1.857223629951
-148.895187377930 -76.697998046875 -264.630310058594 1.873669028282
-150.685058593750 -80.023727416992 -264.415130615234 0.216252043843
15.911779403687 -80.739517211914 -280.244628906250 3.927027463913
-168.090011596680 -79.280235290527 -263.541290283203 4.572497844696
-152.788497924805 -81.428268432617 -272.075744628906 2.004690408707
-6.192450046539 -87.416145324707 -272.967803955078 6.206475257874
-155.478851318359 -75.993873596191 -275.195098876953 4.328916072845
10.161061286926 -81.980201721191 -285.056152343750 4.829706668854
-154.656967163086 -78.562858581543 -279.899078369141 4.051909923553
-168.573989868164 -81.193000793457 -287.533447265625 7.291527271271
-157.313903808594 -82.993667602539 -275.261749267578 6.089276790619
-166.025573730469 -76.302246093750 -288.405639648438 3.484697341919
-1.642294049263 -82.976127624512 -287.617675781250 6.045045852661
5.636312007904 -84.538978576660 -281.519012451172 4.054197788239
-108.816223144531 -76.471366882324 -293.047973632813 2.923202037811
-159.064056396484 -87.597328186035 -286.240203857422 6.289855957031
-149.621231079102 -76.112808227539 -283.375823974609 2.203781604767
-107.045227050781 -77.672698974609 -291.959594726563 3.517983913422
-155.609222412109 -83.671516418457 -292.249023437500 2.283035516739
-149.951171875000 -84.951011657715 -286.901855468750 0.818943619728
-78.412132263184 -83.545173645020 -293.569244384766 7.988724708557
-170.841567993164 -82.463821411133 -286.923034667969 8.481318473816
-124.053627014160 -74.490371704102 -290.712860107422 1.155994176865
-44.356563568115 -84.383529663086 -284.728363037109 7.146965980530
-151.979919433594 -78.857192993164 -285.895324707031 2.350636243820
-132.335540771484 -73.176750183105 -292.906005859375 2.533944129944
-22.705135345459 -75.670021057129 -295.935546875000 4.749951839447
-131.530807495117 -74.000312805176 -291.917480468750 4.049291133881
4.665056228638 -79.989379882813 -296.370391845703 5.485960483551
13.249275207520 -75.067825317383 -293.467254638672 1.004975676537
-134.966156005859 -73.574996948242 -289.380462646484 1.155171632767
-147.233047485352 -81.964508056641 -298.123107910156 1.102770090103
-158.432647705078 -84.491729736328 -314.677612304688 8.792674064636
-69.975181579590 -68.668174743652 -53.052028656006 3.308233737946
-20.127155303955 -66.756347656250 -67.917701721191 4.477549552917
-17.604309082031 -78.007751464844 -65.707466125488 4.297600746155
71.614974975586 -71.012512207031 -81.536033630371 2.232797622681
91.222526550293 -72.683303833008 -78.226493835449 3.595106363297
-34.619453430176 -74.621841430664 -80.982986450195 2.387720108032
77.745552062988 -72.547683715820 -83.689216613770 3.638013839722
91.731811523438 -78.225311279297 -85.528625488281 1.525729417801
66.508934020996 -74.526962280273 -86.643669128418 4.022902965546
74.650558471680 -72.197639465332 -93.848831176758 3.052364826202
-49.095401763916 -74.864868164063 -84.684539794922 2.709315299988
-90.673263549805 -78.218528747559 -89.865432739258 2.101278305054
60.746913909912 -78.071571350098 -95.872184753418 5.092544078827
51.500968933105 -77.460540771484 -102.492553710938 1.363694190979
93.215370178223 -69.106437683105 -105.102920532227 1.808036446571
-89.141090393066 -68.364379882813 -101.505302429199 5.492859840393
80.039077758789 -67.517684936523 -103.318801879883 2.623836755753
71.933242797852 -75.259193420410 -104.172821044922 5.625329494476
92.041954040527 -77.541870117188 -100.283767700195 3.020327091217
85.009841918945 -74.674247741699 -97.931991577148 0.736865699291
80.312988281250 -77.578590393066 -101.494697570801 4.495073795319
-89.169975280762 -77.103942871094 -102.531005859375 4.433278560638
45.846935272217 -70.561012268066 -105.646903991699 2.319347858429
105.343879699707 -76.047760009766 -113.399124145508 1.608378410339
106.957107543945 -75.364425659180 -113.271583557129 1.140301942825
51.395576477051 -79.051788330078 -123.036384582520 7.133450031281
114.930641174316 -78.926170349121 -121.421272277832 4.993395805359
118.241950988770 -79.329444885254 -137.957214355469 5.285415172577
-49.728225708008 -71.667930603027 -128.694961547852 3.979144334793
28.366338729858 -74.543083190918 -136.623443603516 1.879787683487
41.786109924316 -79.753074645996 -135.491210937500 4.828548908234
24.526273727417 -72.055038452148 -143.099731445313 2.058625698090
113.063201904297 -79.995536804199 -138.874618530273 2.877703905106
111.739112854004 -76.882255554199 -131.986892700195 1.517434120178
-73.386573791504 -75.176406860352 -148.415191650391 1.534849643707
-43.068321228027 -73.833099365234 -139.688095092773 3.294981241226
-71.338905334473 -73.210540771484 -153.499938964844 1.933092832565
18.128026962280 -72.488342285156 -148.584823608398 2.165277719498
111.935890197754 -71.089614868164 -150.089828491211 1.917505979538
-54.291770935059 -77.892639160156 -153.167785644531 4.037935733795
-72.879547119141 -74.462165832520 -153.133880615234 1.200820446014
-39.321514129639 -79.045692443848 -151.293533325195 2.713274478912
31.332246780396 -68.540107727051 -155.994873046875 1.740719914436
108.118659973145 -69.936744689941 -152.692565917969 2.823498010635
117.604827880859 -73.773750305176 -165.478744506836 3.296903610229
-68.292938232422 -71.794029235840 -156.890563964844 1.403075695038
-76.239280700684 -78.968589782715 -159.679901123047 6.632735729218
21.987190246582 -81.275779724121 -164.939575195313 3.536076545715
-60.600677490234 -72.669059753418 -167.593017578125 0.861648321152
-32.376098632813 -72.427803039551 -164.801300048828 1.657885909081
8.905576705933 -77.792251586914 -165.660842895508 4.058077812195
106.442329406738 -71.309143066406 -164.104766845703 2.773738384247
11.108295440674 -80.557586669922 -170.383346557617 7.412572860718
-32.301128387451 -75.885681152344 -166.715560913086 2.009729385376
-4.449492931366 -68.330429077148 -165.347579956055 5.614768981934
105.951461791992 -70.012992858887 -168.815612792969 2.119604349136
-42.072395324707 -72.804695129395 -163.103546142578 2.097185373306
30.760496139526 -72.576049804688 -175.821121215820 3.732651472092
115.170722961426 -81.195816040039 -175.007751464844 4.794049739838
-57.352386474609 -71.692024230957 -175.766860961914 2.371057987213
-27.895072937012 -80.030914306641 -176.916442871094 1.052731752396
100.646362304688 -76.382003784180 -177.168838500977 5.528415203094
29.351070404053 -72.187011718750 -168.351379394531 2.002052783966
102.521575927734 -77.196876525879 -178.827163696289 3.094785928726
-37.180896759033 -70.246032714844 -180.642623901367 1.805733799934
110.229064941406 -80.440628051758 -183.485260009766 5.592387199402
-64.428497314453 -71.405609130859 -177.882369995117 5.721198081970
-26.171949386597 -81.063934326172 -177.828552246094 1.343398094177
-148.501754760742 -68.146598815918 -184.252380371094 3.095756530762
-54.219470977783 -74.525115966797 -178.397415161133 1.813977241516
-147.960479736328 -76.809646606445 -184.717559814453 1.702015280724
-35.907886505127 -72.875503540039 -183.221832275391 2.335128068924
30.195579528809 -82.390899658203 -178.419311523438 6.110758304596
105.013259887695 -76.958930969238 -186.287277221680 2.821536064148
-38.153629302979 -74.435165405273 -181.446777343750 2.843672275543
9.720422744751 -76.286727905273 -192.273315429688 2.114336252213
14.786726951599 -75.427452087402 -207.982849121094 3.060456514359
-150.341400146484 -76.818832397461 -186.002441406250 2.612813711166
106.937667846680 -79.893516540527 -198.709808349609 3.740703344345
-25.083261489868 -73.539489746094 -193.472137451172 2.099654436111
99.761604309082 -77.491821289063 -188.917465209961 2.908866405487
10.886300086975 -72.052772521973 -192.373962402344 2.842323064804
-142.541656494141 -76.385246276855 -206.023483276367 1.656800985336
-137.591415405273 -74.967453002930 -198.286727905273 2.415570259094
102.914367675781 -80.812133789063 -204.187789916992 4.862782001495
-12.267871856689 -81.274818420410 -200.451187133789 3.987832069397
-18.498088836670 -76.425720214844 -205.962127685547 2.110048532486
11.247084617615 -79.037361145020 -208.754196166992 1.512042284012
-150.534118652344 -75.911560058594 -205.350494384766 1.964839935303
-147.335647583008 -77.807922363281 -209.345611572266 1.776081323624
101.009201049805 -68.192985534668 -208.901077270508 5.327155113220
-86.755500793457 -75.966453552246 -206.920089721680 4.629755496979
-35.313072204590 -77.818817138672 -200.387893676758 1.360872030258
20.156673431396 -80.701988220215 -217.476104736328 4.522288799286
-24.884746551514 -76.938781738281 -211.365524291992 1.306282639503
-74.660034179688 -73.727676391602 -204.512954711914 5.476891517639
90.355224609375 -76.067504882813 -210.924087524414 1.980869650841
-79.167907714844 -72.765380859375 -212.022918701172 1.560306668282
-149.186294555664 -76.056892395020 -218.512786865234 0.875349760056
-81.241737365723 -73.845718383789 -212.018768310547 1.216790199280
-11.408490180969 -68.570030212402 -207.215744018555 2.851740121841
-21.188320159912 -72.694931030273 -221.616806030273 1.779690742493
17.564464569092 -77.141090393066 -216.699737548828 0.299676567316
-5.803988933563 -78.217437744141 -224.409927368164 2.174005031586
-89.271377563477 -83.993041992188 -219.081008911133 7.106636524200
92.558929443359 -74.692596435547 -216.284423828125 1.394250631332
-101.814407348633 -74.133934020996 -214.872848510742 4.477672576904
-155.673904418945 -73.842269897461 -224.906646728516 2.288479089737
-32.028633117676 -75.504180908203 -225.677597045898 5.782420635223
18.915393829346 -77.805747985840 -216.791976928711 1.602054119110
-103.084327697754 -77.594100952148 -219.580078125000 4.768330097198
6.522983074188 -69.917091369629 -217.928497314453 3.257706165314
-28.756120681763 -75.889045715332 -214.691513061523 1.016839146614
81.270462036133 -73.139526367188 -227.432464599609 2.101173400879
-144.790496826172 -74.073326110840 -215.339797973633 2.816049337387
15.490481376648 -75.573341369629 -227.137680053711 2.191959142685
-10.334623336792 -80.729751586914 -229.940780639648 3.016645908356
16.996244430542 -66.664947509766 -225.527374267578 4.575628280640
83.302040100098 -77.798225402832 -225.167602539063 2.830175161362
-15.824530601501 -81.104492187500 -230.344619750977 5.443939685822
-131.243438720703 -79.348251342773 -226.408218383789 2.439455509186
-16.455331802368 -75.670799255371 -224.821578979492 1.814056515694
15.795128822327 -75.498947143555 -229.469345092773 2.040816307068
-129.188568115234 -80.340591430664 -226.122390747070 4.502546787262
-155.388381958008 -72.602081298828 -230.874954223633 1.245808601379
-144.413345336914 -75.222282409668 -228.322967529297 1.784400701523
-127.969879150391 -73.682655334473 -224.820053100586 0.839239001274
-11.342345237732 -72.192558288574 -224.500289916992 1.269423842430
71.095779418945 -75.713874816895 -228.570205688477 2.754326343536
-146.182830810547 -71.099914550781 -240.248519897461 1.858724951744
66.533195495605 -76.976646423340 -229.825744628906 5.215761661530
-22.511293411255 -81.194473266602 -232.744522094727 6.121757984161
-143.574417114258 -79.515808105469 -226.469100952148 1.380938649178
75.252845764160 -85.957344055176 -231.371078491211 10.217588424683
9.582799911499 -82.468383789063 -232.244995117188 2.752926349640
-140.217559814453 -80.488998413086 -235.672073364258 4.227891445160
-150.253463745117 -75.665992736816 -231.682952880859 2.080162525177
17.250755310059 -70.900199890137 -231.526931762695 1.216307520866
-3.326992034912 -81.206817626953 -240.843048095703 5.070815086365
-31.665309906006 -75.035400390625 -237.166015625000 1.032952904701
-2.426414012909 -70.617912292480 -236.587875366211 1.014104485512
-161.397415161133 -81.046798706055 -236.733581542969 7.263497352600
3.578824996948 -73.175827026367 -243.331512451172 1.558588385582
-165.923934936523 -78.702117919922 -240.763778686523 4.508023738861
-12.410366058350 -77.597854614258 -238.140106201172 3.541303873062
56.294857025146 -77.369483947754 -240.891021728516 3.545344591141
-14.778059005737 -74.275367736816 -236.515991210938 1.751372337341
-26.225513458252 -76.388465881348 -249.517654418945 6.078763961792
-25.074525833130 -75.914398193359 -242.368865966797 1.937296628952
-10.722436904907 -81.621398925781 -240.242248535156 7.660890102386
-147.276184082031 -77.762672424316 -225.724761962891 1.125082612038
6.676671028137 -74.656524658203 -242.062088012695 1.279258847237
62.945274353027 -75.940612792969 -247.216888427734 5.612774848938
15.071316719055 -72.558135986328 -246.497024536133 1.473224878311
-171.586929321289 -74.489013671875 -242.204772949219 5.384535789490
-53.186592102051 -75.142234802246 -237.998504638672 4.736711502075
4.582081794739 -84.180603027344 -250.288681030273 3.512346744537
16.420118331909 -76.955322265625 -243.886306762695 3.978799343109
-54.699337005615 -76.368598937988 -247.829010009766 0.642022848129
-2.686918020248 -69.849914550781 -252.186264038086 5.483188629150
19.370191574097 -85.320831298828 -250.361968994141 3.465779304504
-174.542007446289 -73.678833007813 -248.027938842773 8.515211105347
-65.266586303711 -81.834007263184 -249.669021606445 3.425288915634
-53.976314544678 -73.941497802734 -248.207901000977 2.070234537125
-84.775451660156 -74.217689514160 -253.652175903320 1.420335054398
-163.558578491211 -79.035430908203 -244.862564086914 5.070364475250
-151.787918090820 -65.394439697266 -246.184677124023 1.948728442192
-62.013278961182 -79.210327148438 -250.082946777344 2.410214662552
-69.732398986816 -75.931068420410 -248.379501342773 1.776258111000
-154.876922607422 -73.599845886230 -250.843917846680 2.052991151810
-153.339645385742 -78.733909606934 -250.999786376953 2.251943111420
-75.351333618164 -70.450347900391 -255.429702758789 3.393283367157
-94.861572265625 -72.400154113770 -257.238159179688 1.768549084663
-163.904281616211 -68.357826232910 -253.320510864258 2.312770605087
-159.021057128906 -77.665390014648 -261.024688720703 4.203847885132
-137.066604614258 -79.645515441895 -260.467193603516 1.628894448280
-84.572929382324 -75.648368835449 -248.944992065430 3.090252637863
-162.747268676758 -71.632034301758 -253.007461547852 1.421342849731
-142.831863403320 -73.241546630859 -256.681640625000 1.137444376945
-85.709869384766 -75.179176330566 -247.188720703125 3.347580432892
-99.237670898438 -74.675689697266 -262.370819091797 3.957416772842
-143.333236694336 -78.387268066406 -253.937805175781 1.411574363708
-93.161140441895 -76.409866333008 -255.388931274414 2.026521921158
-156.911987304688 -73.953346252441 -254.042922973633 2.876994609833
-105.859062194824 -76.067581176758 -253.801895141602 3.834835767746
-173.667617797852 -75.303443908691 -257.320434570313 8.063482284546
-163.954620361328 -79.822135925293 -266.654846191406 3.652236223221
-129.994766235352 -82.353584289551 -255.111587524414 5.621377944946
-154.263351440430 -77.660957336426 -258.700622558594 3.316493988037
-110.132362365723 -71.755256652832 -263.043182373047 1.633849263191
-15.081208229065 -73.576622009277 -263.073150634766 1.264709472656
-141.683898925781 -76.316642761230 -259.588684082031 0.910686373711
-128.820983886719 -75.433486938477 -259.509948730469 1.040230274200
-154.291213989258 -73.971359252930 -262.844207763672 1.957924962044
23.880851745605 -77.910560607910 -274.441009521484 4.896531581879
-151.720367431641 -80.392700195313 -278.866638183594 1.655586719513
-171.111968994141 -77.678344726563 -282.189361572266 4.585125923157
-10.897306442261 -74.808815002441 -280.921691894531 3.936875581741
-146.113067626953 -75.841484069824 -278.074493408203 1.294906377792
-12.997670173645 -74.356224060059 -284.860809326172 1.314981937408
11.204239845276 -78.515014648438 -288.373901367188 0.912584543228
-139.014694213867 -73.554725646973 -285.165954589844 1.815665960312
-66.626914978027 -80.372070312500 -287.944824218750 3.528939247131
-34.951042175293 -81.131996154785 -290.619964599609 2.739836931229
-113.664970397949 -77.402481079102 -281.342498779297 6.807558536530
-99.647361755371 -83.559654235840 -289.570892333984 8.306986808777
-89.673812866211 -78.013381958008 -291.634582519531 4.725480556488
-53.235431671143 -79.108848571777 -293.466979980469 4.751620292664
-117.607940673828 -84.687927246094 -285.867858886719 7.437829017639
-118.288528442383 -79.279243469238 -289.839355468750 1.753236651421
-35.727653503418 -72.821380615234 -287.935699462891 1.647243976593
-119.026275634766 -79.355895996094 -293.909515380859 5.383152484894
-130.820922851563 -70.501411437988 -287.800628662109 2.780616760254
-146.864334106445 -81.024948120117 -294.156799316406 1.054811835289
5.242084026337 -77.641418457031 -291.654937744141 0.360353827477
17.358057022095 -79.473518371582 -293.972778320313 3.160159587860
-164.250518798828 -76.718101501465 -290.860198974609 1.654912114143
-163.576202392578 -82.637298583984 -299.746368408203 11.004892349243
-151.255538940430 -79.561210632324 -308.755157470703 1.738641262054
-155.560073852539 -76.907691955566 -309.037780761719 2.753202438354
-154.806838989258 -77.669075012207 -314.106170654297 3.117305517197
30.001882553101 -77.781814575195 -14.710286140442 4.508752346039
38.717380523682 -68.579757690430 -21.932025909424 2.929676055908
23.151618957520 -72.563926696777 -27.615869522095 2.192158937454
31.362770080566 -68.556037902832 -40.873279571533 0.981543958187
-57.645687103271 -72.058052062988 -51.047042846680 2.712613821030
-62.892269134521 -72.885253906250 -51.343070983887 2.049851655960
-37.639728546143 -78.457069396973 -48.775047302246 6.689832210541
-86.413909912109 -64.773979187012 -67.630287170410 7.602575302124
81.170059204102 -77.213813781738 -78.457168579102 1.214834690094
-10.256407737732 -67.836280822754 -72.807830810547 5.650434494019
91.015785217285 -73.599678039551 -63.918598175049 5.358267784119
