104.805656433105 -76.491508483887 -108.758491516113 1.927326202393
110.660537719727 -73.084899902344 -108.811073303223 1.768177390099
-81.314109802246 -73.339828491211 -117.320426940918 2.008744478226
-84.181144714355 -73.248397827148 -124.252243041992 3.426791906357
43.149433135986 -74.283798217773 -120.326599121094 2.248324632645
112.949302673340 -68.552024841309 -123.614112854004 2.135928869247
112.414428710938 -66.679718017578 -122.810417175293 1.519838571548
-90.638160705566 -75.104812622070 -129.708160400391 4.885295867920
104.035362243652 -69.965843200684 -127.809692382813 4.497232437134
-59.895469665527 -81.664131164551 -135.161071777344 6.548218250275
-86.620933532715 -77.137191772461 -131.641464233398 6.595387935638
-70.022399902344 -76.948364257813 -129.370986938477 6.221830844879
-61.542793273926 -70.441207885742 -129.326629638672 1.225372195244
31.737623214722 -70.042503356934 -132.270996093750 1.560809254646
44.605945587158 -64.170394897461 -137.040313720703 8.695189476013
-70.783782958984 -74.622406005859 -138.853576660156 1.625820159912
28.068387985229 -66.288993835449 -129.924713134766 4.569972038269
113.061614990234 -64.672317504883 -145.407928466797 3.901866197586
-37.146999359131 -72.983131408691 -152.622161865234 1.291770339012
35.082984924316 -72.174194335938 -150.995712280273 2.058097600937
112.080177307129 -62.110969543457 -149.093429565430 6.991421222687
36.070087432861 -70.305320739746 -143.015899658203 1.680120587349
108.787788391113 -63.909996032715 -138.232177734375 6.347683906555
-51.535900115967 -72.327171325684 -152.354629516602 0.939116060734
-75.158233642578 -69.690345764160 -154.653427124023 3.823035240173
-59.122177124023 -74.078079223633 -152.722106933594 5.832371234894
-42.575309753418 -78.160102844238 -167.762832641602 2.973701000214
2.854496002197 -73.570137023926 -157.278762817383 2.335034608841
107.913253784180 -65.807403564453 -152.175018310547 4.856867313385
107.830383300781 -63.842014312744 -160.967666625977 7.129341125488
11.402526855469 -69.602966308594 -157.684204101563 1.830297231674
1.026160955429 -68.383567810059 -161.360214233398 3.536631107330
22.143978118896 -66.154975891113 -154.352066040039 2.740234851837
25.985536575317 -66.718994140625 -156.491394042969 3.419844388962
106.244453430176 -63.862155914307 -164.599136352539 6.758216381073
111.880493164063 -68.385322570801 -167.029891967773 1.273449540138
24.067996978760 -63.741523742676 -177.933258056641 3.096756458282
23.948545455933 -72.683631896973 -167.173553466797 2.853118896484
110.701736450195 -60.690071105957 -161.373367309570 9.008703231812
-30.215282440186 -68.219505310059 -181.906311035156 0.899312496185
110.741714477539 -64.458030700684 -166.528244018555 4.044904232025
18.034065246582 -68.921195983887 -164.511764526367 3.202484607697
21.248809814453 -68.252128601074 -171.099334716797 1.970357775688
107.639648437500 -64.319419860840 -171.727172851563 5.879843711853
27.875900268555 -66.462425231934 -170.577774047852 2.613786697388
114.631233215332 -60.041133880615 -184.949996948242 11.850390434265
-38.565605163574 -70.106826782227 -182.766174316406 3.237074613571
23.354671478271 -68.244766235352 -169.369522094727 1.030090570450
108.221694946289 -62.648792266846 -184.575149536133 7.165762424469
22.500099182129 -69.166168212891 -177.193328857422 2.054239988327
-150.569976806641 -73.602561950684 -189.932342529297 2.320910215378
-27.566886901855 -65.028060913086 -192.094024658203 3.740712881088
23.965185165405 -63.135318756104 -186.145416259766 5.176000118256
-115.742225646973 -76.855834960938 -196.360305786133 4.587236881256
-112.117546081543 -69.387756347656 -196.874328613281 1.509512424469
26.022087097168 -67.828277587891 -188.321594238281 2.249458789825
10.279543876648 -63.393535614014 -185.412857055664 7.051836013794
-26.990762710571 -64.209053039551 -192.329193115234 4.672710895538
-27.783275604248 -76.047950744629 -191.727020263672 1.584173798561
-29.042392730713 -70.324714660645 -190.922256469727 1.021131157875
11.803773880005 -64.312538146973 -181.180557250977 6.611731529236
-150.029998779297 -75.236938476563 -200.754913330078 3.032499313354
-146.365646362305 -74.428726196289 -196.018630981445 2.063824176788
-146.725036621094 -80.375701904297 -204.592315673828 2.360898971558
-23.720903396606 -67.709907531738 -193.300048828125 2.000707149506
15.173398971558 -62.381301879883 -200.703964233398 3.838227748871
98.333206176758 -60.586975097656 -191.484176635742 11.245192527771
-112.891212463379 -70.936470031738 -201.885314941406 0.415187001228
21.951017379761 -72.314369201660 -198.789245605469 1.444801926613
-12.396927833557 -66.402481079102 -195.917068481445 4.551908493042
-16.413419723511 -68.277442932129 -200.103546142578 1.891885757446
102.181427001953 -59.720424652100 -199.879531860352 11.335623741150
7.287796974182 -70.853446960449 -199.049499511719 1.510601401329
-21.920478820801 -66.352043151855 -198.596694946289 3.148214101791
-119.104293823242 -77.632530212402 -208.983261108398 9.178621292114
-133.819107055664 -74.846435546875 -207.111312866211 4.529675483704
-114.045211791992 -64.881965637207 -209.785064697266 6.079161167145
-141.182434082031 -79.443580627441 -207.409393310547 3.493589401245
16.803045272827 -66.128509521484 -199.047058105469 0.722129702568
92.497764587402 -65.312179565430 -198.534423828125 6.808360099792
-164.759780883789 -68.519279479980 -203.325775146484 1.418958663940
100.606140136719 -60.686916351318 -200.457229614258 10.259057044983
-23.323858261108 -75.027000427246 -207.082153320313 3.779908180237
95.055313110352 -56.891414642334 -207.749740600586 12.612318992615
89.102226257324 -65.335121154785 -208.182739257813 6.120708465576
10.464040756226 -70.218513488770 -203.032073974609 2.416477441788
22.003129959106 -63.513179779053 -214.364044189453 7.544766426086
14.117378234863 -60.916362762451 -209.399658203125 4.505497455597
-9.897194862366 -66.351364135742 -225.971923828125 1.828125834465
-92.145851135254 -75.117942810059 -223.790725708008 3.610343694687
-12.285343170166 -70.856323242188 -212.407531738281 3.211576700211
88.037292480469 -62.618240356445 -217.900817871094 6.368644237518
-93.685821533203 -75.340278625488 -219.195465087891 0.934788644314
-98.291213989258 -66.115974426270 -225.462387084961 3.254946947098
-96.257545471191 -69.901557922363 -221.858917236328 1.835746049881
90.783439636230 -64.820114135742 -222.656097412109 6.641201019287
-134.864257812500 -74.063972473145 -229.210540771484 1.761132955551
-128.705123901367 -80.946823120117 -232.650756835938 6.306638240814
-115.183235168457 -72.276069641113 -228.204513549805 1.469692707062
-112.633972167969 -68.266593933105 -223.727996826172 2.654846906662
-131.281768798828 -69.046577453613 -231.986389160156 3.248950958252
-112.369567871094 -82.467086791992 -232.823333740234 9.421860694885
-109.551132202148 -69.957328796387 -231.964263916016 1.556203365326
-5.856739997864 -72.161926269531 -225.275436401367 2.111048460007
-13.466002464294 -71.014450073242 -225.029357910156 2.152168989182
0.172353997827 -61.621448516846 -230.550506591797 5.278562068939
-9.043014526367 -61.258987426758 -227.976730346680 5.539091110229
17.159568786621 -65.802597045898 -235.497802734375 4.262755870819
-20.228185653687 -63.500991821289 -231.201370239258 7.660816669464
-165.768096923828 -72.696830749512 -224.114837646484 1.302488923073
-4.880620002747 -66.848190307617 -235.558578491211 1.417796254158
81.989570617676 -55.852012634277 -232.333343505859 13.449172973633
13.946639060974 -67.673103332520 -234.265243530273 2.431699991226
-3.875539064407 -64.538681030273 -237.120269775391 1.926543593407
-155.985244750977 -70.196540832520 -239.593078613281 0.976267695427
-142.728225708008 -70.644165039063 -231.288772583008 1.707907676697
61.151302337646 -60.648605346680 -237.095840454102 6.364324092865
-4.291975021362 -66.595008850098 -234.092208862305 1.178724169731
13.394010543823 -68.206459045410 -229.520385742188 2.306771278381
70.821769714355 -66.501594543457 -225.887390136719 3.437240839005
77.884765625000 -60.530757904053 -234.624008178711 8.120681762695
73.379386901855 -62.692687988281 -243.093765258789 7.929881572723
-0.650102972984 -70.412094116211 -235.804687500000 1.130601763725
59.875507354736 -58.754829406738 -235.921524047852 8.781317710876
-17.937690734863 -70.344100952148 -242.396438598633 1.421265363693
-12.731586456299 -60.931335449219 -240.686828613281 5.516875743866
8.795084953308 -64.348503112793 -239.083129882813 1.046929955482
64.961570739746 -67.424499511719 -236.337539672852 2.136014938354
69.789474487305 -58.519435882568 -241.757873535156 9.705672264099
49.487083435059 -62.872539520264 -245.853149414063 3.801515102386
62.386779785156 -66.721160888672 -242.922744750977 1.512378811836
-13.232155799866 -73.430068969727 -250.598693847656 2.230033874512
-82.621231079102 -63.288124084473 -260.664794921875 8.944941520691
-75.494987487793 -64.839790344238 -256.619506835938 6.279675960541
45.506034851074 -66.954521179199 -247.174331665039 2.286240577698
-151.690750122070 -74.958839416504 -253.634170532227 2.095678806305
36.374816894531 -61.312118530273 -258.061676025391 2.591154575348
-90.530784606934 -75.950996398926 -255.292709350586 2.153046369553
-156.379730224609 -65.874885559082 -257.445465087891 1.522060394287
-138.471817016602 -59.836750030518 -254.479461669922 5.785713195801
43.593090057373 -60.731788635254 -254.788497924805 2.254986286163
-124.377929687500 -65.195693969727 -262.194061279297 1.385718226433
-116.384468078613 -72.103309631348 -257.741577148438 1.550622224808
-89.821487426758 -62.432884216309 -258.932495117188 5.773551464081
-11.597741127014 -58.833679199219 -247.524887084961 5.123632431030
33.723949432373 -61.489540100098 -256.303131103516 2.316500902176
26.372774124146 -58.179382324219 -259.082305908203 1.316313147545
-159.399017333984 -63.745098114014 -265.105041503906 4.691947937012
-112.428627014160 -72.960311889648 -266.254028320313 4.259863853455
-11.508031845093 -64.181213378906 -263.711700439453 3.002123117447
-129.538940429688 -69.384849548340 -269.627655029297 4.238500118256
-13.085393905640 -62.090641021729 -271.548187255859 3.298039436340
-160.872940063477 -70.797012329102 -274.616210937500 1.353657126427
-3.302572011948 -63.966217041016 -279.030731201172 3.017719030380
-157.115310668945 -71.619972229004 -291.632385253906 0.809105634689
-163.089630126953 -75.856796264648 -282.774017333984 2.892108201981
-139.857269287109 -70.369079589844 -288.770996093750 3.091677427292
-170.219970703125 -74.613555908203 -288.929199218750 4.383828163147
17.004220962524 -65.487709045410 -290.326141357422 2.627028703690
-100.859558105469 -69.169517517090 -289.409393310547 1.175829410553
-86.272361755371 -58.788120269775 -287.369506835938 9.759731292725
-167.242935180664 -66.440773010254 -287.681030273438 3.879983901978
-90.688362121582 -75.966079711914 -283.698211669922 3.712851047516
-154.736618041992 -71.317176818848 -293.472198486328 1.357462286949
-75.668876647949 -67.966423034668 -301.363616943359 11.263594627380
-70.977149963379 -64.636054992676 -291.163787841797 6.047502517700
-81.498275756836 -68.806716918945 -295.037261962891 4.271068572998
-1.434172034264 -60.207756042480 -288.489593505859 3.420738220215
-89.510696411133 -66.689979553223 -289.120056152344 2.901393413544
-97.013076782227 -70.149475097656 -293.179382324219 2.805621862411
-117.385437011719 -68.021789550781 -296.319641113281 4.378797531128
-114.811248779297 -62.604240417480 -296.007232666016 6.437435150146
-131.881301879883 -69.782218933105 -294.252777099609 2.429439306259
-139.695404052734 -67.767440795898 -304.226409912109 5.643124580383
-142.077392578125 -69.505416870117 -316.021972656250 5.254754066467
21.873693466187 -71.942153930664 -14.665451049805 3.597561836243
31.584329605103 -75.084640502930 -16.212350845337 1.244477272034
28.052551269531 -79.177688598633 -18.717885971069 6.235491752625
42.739501953125 -70.492790222168 -19.248069763184 0.761453688145
21.235740661621 -74.443283081055 -32.624504089355 2.391099214554
-76.235519409180 -78.363449096680 -48.938140869141 7.101149082184
87.740928649902 -63.332077026367 -66.330795288086 4.019945144653
-21.536254882813 -70.768043518066 -67.981628417969 4.014257431030
103.848068237305 -68.639175415039 -73.363502502441 2.122781038284
92.106018066406 -74.459472656250 -75.537681579590 1.309603333473
67.025978088379 -71.068412780762 -79.189933776855 2.092206239700
72.225463867188 -75.284355163574 -82.005897521973 1.768706917763
-44.862819671631 -80.270187377930 -83.950141906738 2.468374252319
59.705432891846 -77.494789123535 -81.066841125488 8.060748100281
-93.643371582031 -78.335449218750 -92.353012084961 2.329677581787
-47.777439117432 -72.704467773438 -85.825942993164 2.002729415894
-57.092239379883 -83.635749816895 -86.450126647949 4.332369804382
102.970764160156 -75.967521667480 -98.935089111328 3.300272941589
59.896495819092 -74.425300598145 -89.919540405273 1.860495448112
67.182678222656 -68.823844909668 -90.643493652344 1.941636919975
-94.955535888672 -69.053321838379 -99.879798889160 3.623595952988
107.361267089844 -70.267723083496 -89.433471679688 4.681509494781
40.814266204834 -68.399711608887 -99.710868835449 3.229006290436
101.902465820313 -66.906517028809 -97.683128356934 0.298298686743
106.643150329590 -62.760753631592 -105.627464294434 4.278256416321
98.884086608887 -67.749336242676 -102.510070800781 0.819333136082
73.945213317871 -73.683128356934 -98.298469543457 2.020286083221
86.326652526855 -70.564727783203 -108.347969055176 3.339491128922
50.009647369385 -67.193443298340 -111.211280822754 2.548938512802
109.550796508789 -61.310558319092 -100.377883911133 5.410273075104
48.008480072021 -75.442092895508 -104.296073913574 2.280387401581
36.778636932373 -68.715148925781 -102.633941650391 4.693029880524
113.311492919922 -67.372787475586 -109.698608398438 2.442335367203
-78.661819458008 -70.636444091797 -110.680610656738 1.860779404640
44.811859130859 -67.727905273438 -112.872322082520 1.018082380295
32.273525238037 -73.973731994629 -117.308387756348 1.584749102592
105.580734252930 -63.264007568359 -109.881340026855 3.324345350266
35.849632263184 -66.632331848145 -111.860801696777 4.330578804016
-87.040756225586 -76.057197570801 -112.909454345703 1.994002342224
-95.417755126953 -71.017341613770 -116.554901123047 2.001480340958
101.092430114746 -73.167030334473 -119.979637145996 5.001384258270
-95.051101684570 -76.533172607422 -121.738029479980 5.918155193329
39.731986999512 -74.261062622070 -121.353767395020 3.193906068802
36.172649383545 -69.768989562988 -123.967834472656 1.084655165672
-85.828056335449 -75.353775024414 -126.242996215820 5.180551052094
33.571548461914 -66.396369934082 -133.934310913086 2.793298482895
112.761642456055 -66.558555603027 -130.510131835938 2.537134170532
-53.373111724854 -72.757583618164 -141.600830078125 1.926374316216
-87.757095336914 -72.574516296387 -136.321975708008 3.035745859146
38.677524566650 -74.735160827637 -130.451049804688 0.843331456184
-85.887008666992 -68.256004333496 -139.069702148438 2.498650550842
-87.271362304688 -78.519660949707 -144.233001708984 10.559285163879
-50.348865509033 -72.713340759277 -137.885833740234 1.812521576881
-71.216079711914 -70.236618041992 -140.629470825195 1.593343973160
-50.703800201416 -72.355041503906 -133.828216552734 1.585759282112
117.730949401855 -60.296977996826 -134.887771606445 8.247852325439
-71.022598266602 -76.786788940430 -135.898971557617 4.158776283264
38.030090332031 -70.461372375488 -130.637405395508 2.422498226166
-78.393333435059 -70.932601928711 -143.771469116211 1.892885684967
-71.689094543457 -74.354812622070 -137.358642578125 1.462785243988
-95.070297241211 -71.711715698242 -145.530410766602 3.634492397308
-55.884963989258 -67.513351440430 -146.579803466797 1.901548624039
31.382631301880 -61.603435516357 -146.151779174805 7.174782276154
27.319431304932 -66.465339660645 -149.113067626953 2.023631811142
20.546281814575 -61.000713348389 -144.725448608398 2.390839099884
112.296630859375 -63.293563842773 -145.053421020508 5.393396377563
-89.789215087891 -71.508270263672 -153.609268188477 5.926072120667
10.411289215088 -70.427955627441 -153.256820678711 2.593773365021
-71.148353576660 -71.711418151855 -157.890701293945 2.351914167404
23.966173171997 -66.046424865723 -149.263824462891 2.707409858704
-49.176124572754 -69.727355957031 -157.145736694336 0.858179211617
10.172822952271 -66.734809875488 -154.912048339844 1.039565443993
18.176891326904 -71.860572814941 -160.364746093750 2.088442564011
17.476650238037 -74.674751281738 -164.907791137695 1.923628091812
-51.111816406250 -74.332504272461 -166.032958984375 4.851212024689
-37.993038177490 -68.669891357422 -157.261428833008 3.221035957336
-47.364997863770 -72.464134216309 -164.732315063477 1.672845602036
-102.236915588379 -74.237724304199 -176.407302856445 6.170838832855
22.634450912476 -69.131813049316 -176.045333862305 2.308463096619
-32.476730346680 -69.545555114746 -180.689346313477 1.417855381966
16.524469375610 -73.351982116699 -179.423950195313 1.626006960869
-141.098175048828 -73.561759948730 -179.868011474609 2.180406808853
-30.846784591675 -64.658927917480 -173.604156494141 3.418945312500
-155.664291381836 -84.240150451660 -182.916900634766 8.504536628723
25.649576187134 -58.362361907959 -181.649154663086 9.683202743530
-33.947902679443 -72.378547668457 -171.636901855469 2.095788002014
-105.887680053711 -69.403190612793 -177.799224853516 0.521188020706
-105.552452087402 -80.119110107422 -188.070175170898 11.097024917603
-30.477874755859 -61.090126037598 -187.213973999023 7.803467273712
-23.461593627930 -75.310646057129 -183.364395141602 2.338825702667
12.484830856323 -64.872146606445 -189.627944946289 4.111036777496
16.293834686279 -61.136066436768 -200.118896484375 4.709602832794
13.780934333801 -67.288825988770 -188.517654418945 2.818017005920
-141.598190307617 -71.072036743164 -190.026199340820 2.574787139893
25.730987548828 -59.702663421631 -189.850891113281 9.656091690063
5.765861034393 -64.915115356445 -197.647888183594 4.773044586182
-133.170135498047 -70.774757385254 -196.301635742188 1.299694776535
-110.975784301758 -71.116981506348 -198.310791015625 1.046308994293
15.890865325928 -62.308876037598 -205.537109375000 4.644226074219
-118.669044494629 -69.704345703125 -200.066055297852 3.589886188507
-106.990753173828 -62.880058288574 -195.170974731445 3.130177259445
-166.086563110352 -76.053237915039 -206.710479736328 4.888424396515
-23.549879074097 -64.957229614258 -201.201126098633 4.578501701355
10.638321876526 -63.028217315674 -200.097640991211 5.483337402344
-144.643432617188 -74.087326049805 -208.154693603516 2.956048250198
-137.099731445313 -77.182823181152 -211.612213134766 6.643692493439
-21.560056686401 -63.807964324951 -209.486572265625 4.813661098480
-11.537721633911 -67.288993835449 -207.097351074219 2.974686861038
-12.162100791931 -68.290061950684 -207.214752197266 2.779780387878
-136.217590332031 -79.034248352051 -206.013336181641 4.709046363831
-16.565176010132 -65.583580017090 -214.205978393555 2.493740797043
-6.865831851959 -73.028999328613 -216.352706909180 2.399233818054
19.181970596313 -59.927398681641 -211.786972045898 7.811872005463
-16.543787002563 -73.141197204590 -213.719665527344 0.851459681988
11.388992309570 -66.872375488281 -209.608901977539 1.495515704155
-10.179590225220 -67.862953186035 -216.359436035156 0.797693669796
-23.596969604492 -61.569381713867 -212.649459838867 9.167343139648
12.936338424683 -72.970603942871 -221.893264770508 1.680287003517
-1.233036994934 -72.970153808594 -220.401138305664 1.172959566116
12.047668457031 -58.505687713623 -220.562210083008 9.015583992004
-5.145147800446 -68.889816284180 -230.436569213867 1.326423048973
-159.538558959961 -74.541503906250 -231.677093505859 2.932527065277
81.727928161621 -64.954421997070 -219.081192016602 5.372275829315
-134.660522460938 -68.196342468262 -227.128555297852 1.714455366135
-133.792175292969 -75.191711425781 -225.066482543945 1.545186161995
-6.419732093811 -66.101242065430 -226.294906616211 2.486506462097
7.179162979126 -62.973808288574 -236.956146240234 3.015231132507
-157.289779663086 -72.091125488281 -236.321487426758 1.438002824783
91.209663391113 -58.004280090332 -219.254684448242 11.014614105225
-0.047345001251 -62.605621337891 -227.740570068359 5.554360866547
2.061034917831 -65.488739013672 -221.609924316406 4.528768539429
75.485466003418 -64.986518859863 -231.577682495117 3.922839879990
1.345034956932 -59.915287017822 -237.803085327148 1.930788874626
-11.935093879700 -67.017524719238 -225.278533935547 2.735096931458
-126.675842285156 -65.839385986328 -236.897949218750 3.013662815094
-4.291247844696 -63.585391998291 -239.593109130859 1.704476952553
3.784940004349 -60.947605133057 -230.212539672852 4.394257068634
67.381675720215 -56.445045471191 -237.416320800781 10.751168251038
-156.118438720703 -75.426773071289 -241.281692504883 2.727329969406
-12.240178108215 -61.438812255859 -247.065750122070 4.679756164551
-168.906494140625 -76.586280822754 -243.983047485352 4.515387535095
12.051953315735 -56.596397399902 -241.545730590820 2.570656299591
-161.272155761719 -74.645126342773 -243.236679077148 2.549213171005
-157.739166259766 -74.351173400879 -252.073959350586 3.873511791229
60.104965209961 -61.513900756836 -244.605819702148 4.151207447052
62.026760101318 -63.737766265869 -241.875640869141 3.253747224808
56.810382843018 -62.043842315674 -246.361434936523 4.449738502502
52.807037353516 -60.674411773682 -249.561721801758 3.546842813492
-150.160049438477 -73.735404968262 -246.769622802734 0.864960014820
-154.624877929688 -66.343093872070 -249.878509521484 3.572326421738
-10.248888015747 -70.082550048828 -251.081573486328 2.592288494110
-148.701034545898 -70.096466064453 -251.846343994141 2.763225317001
18.987281799316 -62.283535003662 -251.642837524414 2.781948804855
-169.606491088867 -80.101882934570 -256.700988769531 7.946155071259
-167.793304443359 -69.576431274414 -255.678131103516 1.868748307228
-80.392417907715 -70.630233764648 -249.370712280273 1.546867728233
-169.396743774414 -70.154869079590 -261.731109619141 1.750580310822
-83.200592041016 -66.775512695313 -261.605773925781 7.110648632050
44.650672912598 -59.286167144775 -253.872619628906 4.161472320557
23.369709014893 -65.519683837891 -258.421691894531 1.631793022156
-155.550674438477 -72.359695434570 -268.347106933594 2.748628139496
-100.027778625488 -58.541130065918 -262.842651367188 7.291922092438
41.669822692871 -60.267272949219 -254.422775268555 2.920445919037
-105.643836975098 -79.254905700684 -261.892425537109 5.977078914642
-151.469451904297 -66.368827819824 -270.489196777344 3.080094099045
-101.630668640137 -67.214256286621 -259.144561767578 0.844207763672
-167.888229370117 -75.647613525391 -264.206665039063 1.639617323875
-111.256942749023 -69.143913269043 -267.750793457031 6.678159713745
-151.606704711914 -73.259216308594 -271.020599365234 2.565842390060
-158.089752197266 -66.659301757813 -266.602325439453 2.960841894150
-163.616058349609 -69.719223022461 -268.358337402344 2.080927610397
-164.106460571289 -68.871498107910 -266.710083007813 1.512523770332
-163.851486206055 -71.118362426758 -268.494964599609 3.296040058136
-168.060134887695 -72.685005187988 -263.397552490234 2.879482746124
28.916101455688 -62.451427459717 -266.351867675781 3.248389482498
-145.023101806641 -76.644607543945 -266.746917724609 2.323784589767
-150.055267333984 -69.015129089355 -289.973358154297 1.387745618820
31.325273513794 -59.705108642578 -275.629394531250 5.706112384796
-10.562314987183 -66.362800598145 -276.241668701172 2.743674755096
-122.956893920898 -64.021873474121 -288.494384765625 2.575001239777
-134.186645507813 -68.055038452148 -290.601654052734 1.730952024460
-130.907333374023 -67.156044006348 -293.782897949219 1.970498204231
-126.475601196289 -67.843208312988 -289.587799072266 2.173777103424
-110.056587219238 -64.749473571777 -296.223785400391 5.665679931641
-101.636924743652 -60.818679809570 -286.321655273438 7.670131206512
9.535266876221 -64.965225219727 -297.260406494141 3.938167572021
-81.652992248535 -66.764625549316 -294.064819335938 4.229122161865
-146.238174438477 -69.432968139648 -289.933746337891 2.376995325089
-100.386436462402 -67.463180541992 -294.547546386719 3.986268281937
-131.749969482422 -64.523239135742 -296.479370117188 5.616144657135
12.460830688477 -62.834178924561 -288.137451171875 2.280370473862
-108.732505798340 -57.588401794434 -289.180847167969 9.820237159729
7.294060230255 -60.756233215332 -295.229034423828 2.336002826691
-141.006530761719 -68.153915405273 -289.715484619141 1.600204348564
-149.700820922852 -68.351692199707 -299.050018310547 1.886432170868
-157.399887084961 -65.656990051270 -322.131927490234 10.179272651672
-153.768417358398 -64.686195373535 -314.925170898438 2.597210407257
44.267494201660 -77.782081604004 -25.783149719238 6.116371154785
23.935678482056 -73.197349548340 -38.717319488525 2.264197111130
26.532510757446 -74.987747192383 -37.303993225098 4.073651790619
-42.211345672607 -80.725845336914 -49.496730804443 6.744949340820
-11.375460624695 -70.970733642578 -64.780342102051 2.854654312134
93.985763549805 -69.301231384277 -67.194755554199 2.321582317352
66.580627441406 -62.719615936279 -68.051414489746 2.704471588135
-26.918344497681 -72.789543151855 -75.887321472168 2.083842754364
-101.768852233887 -82.678100585938 -92.869323730469 11.195675849915
-43.719364166260 -73.833351135254 -88.737487792969 4.958917140961
55.770397186279 -69.695816040039 -79.833496093750 5.406223297119
65.208854675293 -73.445404052734 -84.495681762695 3.316756963730
49.634651184082 -66.281051635742 -87.918731689453 2.516427516937
-60.449169158936 -74.037322998047 -93.481323242188 3.213413953781
66.553558349609 -62.522094726563 -88.791511535645 1.384421825409
42.026580810547 -74.685676574707 -99.692008972168 3.804753780365
68.976715087891 -71.834678649902 -95.415992736816 2.641065835953
-60.369659423828 -72.531867980957 -99.233085632324 5.587455749512
51.047489166260 -71.758316040039 -91.461997985840 1.758122920990
46.657226562500 -72.899139404297 -98.567855834961 1.055956482887
102.193824768066 -61.242095947266 -102.519935607910 2.235855102539
-65.080108642578 -74.732032775879 -100.575973510742 3.242476701736
111.233932495117 -65.159072875977 -98.555953979492 4.108528614044
-79.319282531738 -80.080352783203 -105.073844909668 0.748164355755
52.915794372559 -71.948425292969 -107.971221923828 0.736298501492
47.454395294189 -67.085685729980 -101.792358398438 1.619456410408
89.485252380371 -61.067073822021 -103.681022644043 4.997845649719
82.053962707520 -68.088027954102 -105.509040832520 0.507337093353
56.791133880615 -69.952690124512 -105.616958618164 2.610497236252
-77.699440002441 -75.639701843262 -115.787498474121 4.844138622284
-79.419776916504 -74.001762390137 -120.783866882324 3.391528129578
-81.773078918457 -75.656784057617 -120.499206542969 4.630942344666
-94.333641052246 -82.907623291016 -120.645446777344 9.013437271118
101.052062988281 -56.938732147217 -116.904914855957 9.171021461487
-91.579910278320 -79.272735595703 -121.393234252930 5.575670242310
-75.143493652344 -67.933509826660 -124.266899108887 1.727081298828
108.049934387207 -64.068382263184 -116.235626220703 3.248723506927
-59.993556976318 -62.577976226807 -118.596290588379 0.642578899860
113.109878540039 -70.392463684082 -131.156036376953 2.230556726456
109.637977600098 -67.140388488770 -129.240234375000 1.053570985794
104.121398925781 -67.520111083984 -128.247360229492 3.654199361801
-93.961151123047 -75.090888977051 -139.544647216797 7.540474414825
-44.859218597412 -71.392227172852 -144.066131591797 1.057458639145
-82.406921386719 -68.852699279785 -145.610061645508 6.314434051514
-69.263504028320 -71.875877380371 -150.615402221680 2.247764825821
-67.873428344727 -70.762191772461 -152.762695312500 0.760395944118
-54.954891204834 -70.990753173828 -146.133453369141 2.323597431183
-45.078075408936 -78.002830505371 -145.888198852539 1.970713496208
12.266435623169 -68.324104309082 -148.974456787109 0.927171468735
-93.898986816406 -67.934165954590 -142.974700927734 1.860261559486
-46.877304077148 -68.887443542480 -147.858886718750 1.339415788651
-51.093841552734 -60.319988250732 -147.698852539063 7.026957988739
-42.703540802002 -67.298126220703 -155.666091918945 1.561311006546
26.842498779297 -70.340705871582 -160.695526123047 2.032473087311
-51.230506896973 -73.174629211426 -154.339401245117 2.454080104828
-103.592437744141 -66.280174255371 -150.444229125977 3.419038534164
-48.717872619629 -65.819152832031 -155.810882568359 4.725290298462
25.140737533569 -72.188003540039 -145.641815185547 0.486922532320
-93.882476806641 -81.888252258301 -167.633422851563 15.579928398132
23.501142501831 -70.773094177246 -159.206207275391 1.208897233009
-108.349411010742 -67.694267272949 -171.026611328125 1.988716244698
-101.517601013184 -73.563888549805 -167.326568603516 5.333901882172
22.183355331421 -67.139396667480 -167.828979492188 1.034975647926
26.816406250000 -63.889141082764 -167.728271484375 5.028617382050
-111.321228027344 -76.874176025391 -176.312332153320 8.297389984131
-142.386779785156 -69.940582275391 -176.217788696289 1.551391839981
-16.707242965698 -67.805595397949 -192.835845947266 2.427428007126
-27.322896957397 -67.039115905762 -181.272811889648 2.374952077866
-117.093864440918 -74.877975463867 -190.105102539063 5.880924701691
-143.217956542969 -68.441711425781 -188.952423095703 1.846153855324
-100.238311767578 -67.123779296875 -183.698822021484 5.727528572083
-159.719665527344 -74.739303588867 -191.967727661133 5.068156719208
-129.761413574219 -79.326026916504 -199.557922363281 3.023671388626
-131.676803588867 -76.188102722168 -200.193389892578 3.007098913193
-18.603441238403 -65.164352416992 -187.581848144531 4.989144325256
-117.123840332031 -72.638526916504 -203.308334350586 4.422594070435
-118.815811157227 -66.006004333496 -204.037338256836 2.076941490173
-28.632249832153 -71.678184509277 -193.844100952148 2.103107213974
-153.635025024414 -70.035903930664 -197.993011474609 1.878907799721
-131.889266967773 -73.241821289063 -208.692504882813 4.847280502319
-124.143684387207 -67.954895019531 -206.480957031250 1.091439247131
19.885793685913 -69.325668334961 -202.712738037109 2.554408550262
-161.763351440430 -74.739776611328 -205.309982299805 3.433494091034
15.063069343567 -61.079589843750 -218.300354003906 7.562065124512
15.812382698059 -66.363494873047 -216.672973632813 2.317671537399
-13.879531860352 -59.810901641846 -212.090026855469 7.255432128906
-3.816545009613 -64.738151550293 -218.126098632813 4.441064834595
-172.662094116211 -69.408058166504 -215.252655029297 5.858298778534
-158.629547119141 -66.626678466797 -215.607315063477 1.129584431648
-93.827468872070 -68.170661926270 -222.048568725586 2.437518596649
-94.310874938965 -72.388542175293 -223.675765991211 1.283225536346
-159.366851806641 -74.186386108398 -231.847488403320 3.082464218140
-109.191741943359 -66.236244201660 -221.590667724609 1.784850955009
-10.648260116577 -63.088050842285 -211.487915039063 4.642020225525
-127.316009521484 -73.518188476563 -224.243072509766 1.220431327820
-142.332214355469 -71.668746948242 -226.118515014648 0.976414680481
-1.875285983086 -68.049987792969 -222.561935424805 1.444507598877
-132.983764648438 -68.090736389160 -227.098464965820 1.805850744247
-121.954315185547 -76.915718078613 -225.048828125000 3.748037815094
-112.734931945801 -74.592575073242 -226.581451416016 2.842618942261
-1.825158953667 -54.969066619873 -230.357254028320 6.822592735291
-106.577987670898 -65.553642272949 -235.333999633789 5.909692764282
-161.474411010742 -63.571731567383 -225.896530151367 2.159151077271
-143.891693115234 -70.595802307129 -229.576309204102 3.531851768494
-163.268951416016 -71.733924865723 -230.320983886719 1.612035632133
-7.457839012146 -61.569637298584 -225.776947021484 6.020607471466
-6.566314220428 -64.818473815918 -235.440658569336 0.832368969917
79.711151123047 -64.562774658203 -224.585891723633 3.510195255280
-0.658454000950 -67.872001647949 -229.869888305664 1.408665776253
-141.927093505859 -70.379859924316 -242.872375488281 3.217360973358
-13.728698730469 -61.170261383057 -230.736968994141 6.945854663849
74.985671997070 -60.974300384521 -226.980285644531 7.630933761597
74.977699279785 -60.643405914307 -232.939010620117 7.040500164032
-133.027618408203 -67.852653503418 -234.996719360352 2.145728826523
-153.936370849609 -77.535270690918 -232.759536743164 1.714955329895
-112.373672485352 -66.269104003906 -235.792160034180 4.106920242310
-124.620796203613 -62.766391754150 -240.091491699219 5.625535488129
-160.742858886719 -69.824775695801 -239.306533813477 2.621388912201
-159.806732177734 -72.794746398926 -239.396514892578 2.430097818375
-147.674728393555 -63.514404296875 -235.415725708008 0.975116610527
-15.077215194702 -60.650394439697 -235.032272338867 6.781010150909
-4.977722167969 -61.384883880615 -243.947982788086 3.056603193283
-158.582702636719 -69.493789672852 -247.546905517578 0.916234374046
7.078089237213 -63.647411346436 -237.360000610352 2.444042921066
1.152791023254 -65.331825256348 -240.072143554688 1.081486225128
-157.204315185547 -70.924644470215 -240.581176757813 2.455646276474
20.871652603149 -68.415954589844 -240.752716064453 4.303888797760
52.565605163574 -63.817531585693 -246.879516601563 2.069954872131
49.893562316895 -65.403709411621 -243.606048583984 3.376668453217
-16.334510803223 -64.766731262207 -248.733749389648 4.406607627869
48.270156860352 -59.085250854492 -250.192977905273 5.318553447723
-157.839035034180 -64.682472229004 -251.914184570313 4.291803836823
-154.066848754883 -71.498161315918 -250.229812622070 2.227541923523
-159.553024291992 -77.629806518555 -253.537628173828 4.193430423737
57.715652465820 -58.804874420166 -246.719970703125 7.051193714142
-93.196929931641 -65.161079406738 -255.386947631836 1.926308989525
-122.439979553223 -66.170745849609 -258.024902343750 2.803069114685
-104.618774414063 -74.602088928223 -255.495040893555 2.332268714905
25.758964538574 -67.286178588867 -258.656188964844 1.823894143105
40.114479064941 -57.002616882324 -251.827346801758 6.861201286316
-99.045661926270 -63.429035186768 -257.037384033203 3.501006364822
-91.758438110352 -60.665840148926 -250.385986328125 7.889141082764
47.549861907959 -66.967788696289 -256.635803222656 3.163030862808
41.584888458252 -57.347358703613 -257.462005615234 6.128423213959
-151.904037475586 -77.413154602051 -261.405609130859 3.272131443024
29.267435073853 -60.783187866211 -261.014160156250 3.062919616699
-142.090560913086 -72.076576232910 -269.189727783203 4.807180404663
-110.668373107910 -67.409393310547 -265.971313476563 5.015153884888
-137.370925903320 -64.879356384277 -265.045593261719 3.855240821838
35.133689880371 -58.685451507568 -263.261932373047 6.873357772827
-124.752555847168 -66.615463256836 -265.567901611328 1.653106689453
-10.370102882385 -60.657562255859 -256.757904052734 5.500350475311
21.305547714233 -64.696861267090 -272.101501464844 3.342777729034
-1.208387017250 -70.453872680664 -265.117980957031 5.093518257141
20.544794082642 -63.158828735352 -281.505371093750 1.722049713135
-153.074005126953 -72.506439208984 -286.441558837891 2.886444807053
-10.579248428345 -58.317665100098 -281.955261230469 1.505206823349
-150.176376342773 -72.792175292969 -285.070434570313 2.330873250961
-119.535179138184 -71.098297119141 -288.312408447266 3.103288412094
-162.738876342773 -77.525672912598 -290.455871582031 2.211733341217
-113.431289672852 -65.674362182617 -289.718627929688 1.994763255119
-101.131286621094 -66.508842468262 -293.440216064453 3.841033220291
-5.433654785156 -58.742652893066 -284.895477294922 1.613054871559
-105.339622497559 -68.761344909668 -290.816284179688 2.105321884155
-115.619888305664 -63.711429595947 -284.955444335938 5.814189434052
-122.446533203125 -61.668937683105 -294.921752929688 6.668186187744
-138.520507812500 -68.066230773926 -293.763824462891 3.076427221298
-126.083923339844 -61.117053985596 -293.503448486328 5.250703334808
-156.807617187500 -75.553443908691 -293.311676025391 1.792875766754
-145.798995971680 -62.899166107178 -293.878723144531 1.039518237114
-159.339889526367 -63.301147460938 -307.146759033203 7.802753448486
-152.679382324219 -64.565437316895 -314.154449462891 1.551553130150
-159.772720336914 -64.023178100586 -304.879943847656 7.939253807068
-136.083831787109 -67.466720581055 -313.278198242188 8.757699012756
-145.965682983398 -70.584190368652 -319.053375244141 6.363123893738
33.014087677002 -75.213653564453 -6.522240161896 7.493601322174
47.965484619141 -79.852653503418 -18.208082199097 7.522520542145
21.300180435181 -73.317543029785 -21.622514724731 1.972041130066
49.517486572266 -73.683677673340 -25.317108154297 2.274307727814
25.761966705322 -76.451965332031 -34.575050354004 4.492637157440
29.246065139771 -74.349296569824 -32.861972808838 2.181640863419
-59.035774230957 -71.365226745605 -51.159801483154 3.455185413361
73.958862304688 -63.693813323975 -57.846458435059 3.024874925613
82.394012451172 -70.583328247070 -67.672279357910 2.908845424652
-90.287170410156 -80.689201354980 -66.479454040527 8.961368560791
-14.663121223450 -70.786994934082 -59.926261901855 3.558372259140
-93.424163818359 -79.215583801270 -75.616218566895 6.582537651062
95.705123901367 -71.991409301758 -65.782867431641 4.277455806732
-12.493419647217 -70.217514038086 -67.925987243652 2.775956869125
66.803260803223 -73.053192138672 -82.632247924805 2.180233240128
-45.909427642822 -79.442535400391 -84.214767456055 2.547530889511
-26.603637695313 -76.915016174316 -74.951179504395 1.581881046295
54.144027709961 -62.228740692139 -86.389686584473 2.663769245148
-42.870422363281 -85.233489990234 -85.743827819824 3.523214340210
63.504138946533 -56.474514007568 -86.759437561035 1.045669078827
51.439155578613 -75.675224304199 -92.403160095215 1.983381867409
55.376277923584 -67.011093139648 -94.752571105957 2.571552038193
56.874019622803 -77.921592712402 -90.817626953125 4.695815563202
54.595291137695 -62.069664001465 -95.146072387695 0.943883895874
97.318244934082 -61.221221923828 -97.473411560059 4.358280658722
106.470191955566 -58.586433410645 -98.836326599121 2.723957538605
60.633190155029 -71.399925231934 -101.259483337402 3.102123498917
107.052421569824 -59.948543548584 -99.739875793457 3.607931375504
-79.013397216797 -74.240806579590 -100.956527709961 1.481460332870
-74.334266662598 -75.361450195313 -106.255989074707 5.177496433258
99.109687805176 -61.373455047607 -97.034568786621 3.333222866058
52.610313415527 -69.826400756836 -101.144531250000 1.755390048027
69.490875244141 -70.407302856445 -96.312828063965 1.512401103973
-71.160766601563 -74.519927978516 -112.099311828613 7.225793361664
-86.629417419434 -73.284118652344 -111.139251708984 1.724990010262
85.173934936523 -71.974151611328 -102.141746520996 2.581031084061
37.658515930176 -72.253829956055 -102.339920043945 3.513814926147
105.695022583008 -60.099571228027 -106.910003662109 6.597671508789
48.691318511963 -72.044319152832 -113.992111206055 0.292767822742
110.578750610352 -66.583930969238 -100.219772338867 2.404002904892
-77.704772949219 -74.838294982910 -115.351890563965 4.331402778625
101.149040222168 -59.158485412598 -107.517433166504 4.215608596802
-83.110122680664 -70.540451049805 -124.375205993652 1.569199085236
-58.233211517334 -75.565010070801 -130.034042358398 3.273390531540
-57.912876129150 -72.425071716309 -125.480087280273 2.568935394287
-70.647827148438 -75.970733642578 -133.403854370117 5.213031291962
-50.305313110352 -73.523628234863 -133.415725708008 0.934332370758
-83.748321533203 -75.397544860840 -137.547988891602 5.667938232422
-78.042289733887 -67.822380065918 -133.277160644531 1.528385043144
-78.579315185547 -74.435211181641 -136.301055908203 1.867215037346
-61.436985015869 -78.125114440918 -145.300521850586 6.201833724976
-70.134544372559 -73.026573181152 -144.303878784180 1.316840171814
-60.560241699219 -79.769012451172 -134.608779907227 5.588110923767
-56.373908996582 -70.975990295410 -145.403717041016 1.175606250763
10.487991333008 -62.123264312744 -146.706268310547 4.538948059082
-91.386222839355 -74.911132812500 -142.751495361328 6.949287414551
-48.392520904541 -77.810470581055 -152.350326538086 1.892633199692
-93.734825134277 -71.258666992188 -152.741973876953 2.884687900543
-102.418395996094 -69.615272521973 -149.349105834961 4.612350463867
20.976200103760 -70.161781311035 -156.040054321289 2.767633438110
15.428885459900 -68.450416564941 -160.099044799805 1.771039605141
-94.337333679199 -76.116065979004 -164.172027587891 9.523165702820
-104.294853210449 -74.709884643555 -153.347793579102 6.720016956329
-99.023788452148 -70.475273132324 -169.983047485352 4.598718643188
21.474554061890 -65.322814941406 -171.184005737305 1.210352182388
-112.417617797852 -72.438758850098 -176.909759521484 5.556157112122
25.997228622437 -65.637420654297 -164.369125366211 2.173955678940
-147.568710327148 -74.857894897461 -180.822174072266 1.916232824326
18.513652801514 -64.880004882813 -176.336807250977 3.401021003723
25.915615081787 -66.241081237793 -186.576217651367 3.065891027451
-150.930816650391 -71.800521850586 -189.371887207031 0.489966362715
21.254570007324 -68.295646667480 -174.722534179688 1.947880625725
19.015087127686 -55.681144714355 -181.654022216797 10.951425552368
-145.274856567383 -79.079963684082 -185.715942382813 2.170483589172
-151.482925415039 -68.997360229492 -193.150711059570 2.240318059921
20.222143173218 -66.099067687988 -187.806808471680 2.879238843918
19.451562881470 -69.307289123535 -191.171371459961 0.371049672365
-140.369628906250 -76.116401672363 -198.379180908203 0.301949173212
-109.134628295898 -71.581802368164 -200.558288574219 2.452037334442
27.904041290283 -64.285209655762 -200.243255615234 8.404708862305
-125.034507751465 -73.267776489258 -197.999618530273 1.777608990669
9.756682395935 -68.851806640625 -202.526977539063 2.847408533096
-127.787887573242 -63.667900085449 -196.544464111328 2.417999982834
-163.217788696289 -71.410987854004 -191.071228027344 5.659513473511
-159.184829711914 -71.450164794922 -199.925811767578 2.974562883377
-154.796646118164 -76.882034301758 -195.982620239258 1.602569937706
-21.178701400757 -67.006233215332 -210.100753784180 2.913457632065
-168.661239624023 -77.314254760742 -203.017135620117 6.327671051025
-28.438978195190 -61.493927001953 -194.130569458008 7.117811203003
-15.349985122681 -68.454490661621 -193.623504638672 2.725255727768
5.105103969574 -57.414810180664 -196.499664306641 11.759881019592
-155.346710205078 -74.137283325195 -211.823242187500 3.258578062057
-105.196830749512 -68.314880371094 -205.790435791016 6.149192810059
-15.969532012939 -61.459026336670 -199.207656860352 7.137416839600
-161.700256347656 -65.194297790527 -204.113372802734 2.442799806595
18.426742553711 -65.476844787598 -203.369506835938 2.922369480133
-171.700729370117 -70.838256835938 -210.588394165039 5.537780761719
-118.311882019043 -74.133354187012 -205.381072998047 5.098381519318
-115.695449829102 -67.086883544922 -212.736129760742 8.320471763611
-121.886291503906 -71.376144409180 -206.529251098633 3.427553176880
-16.081132888794 -64.298866271973 -203.027450561523 3.000318288803
-19.534137725830 -67.473823547363 -204.239089965820 2.293236732483
-163.113311767578 -72.485862731934 -216.090179443359 2.089839458466
-158.912155151367 -69.462432861328 -214.704910278320 2.432481288910
-163.707382202148 -73.587829589844 -223.357574462891 1.517534136772
-137.306350708008 -75.122634887695 -217.026824951172 7.688153266907
-144.647583007813 -69.887992858887 -228.977127075195 3.445582628250
0.536026000977 -61.784465789795 -219.039703369141 6.475389003754
-7.312222957611 -72.063591003418 -218.507247924805 3.482149124146
-100.792083740234 -65.796600341797 -222.717361450195 2.080187320709
-7.236670017242 -60.810539245605 -237.616744995117 3.233777046204
-169.072082519531 -67.674476623535 -235.321670532227 2.072104215622
-102.863182067871 -65.679389953613 -237.577011108398 9.611825942993
3.703915119171 -64.218002319336 -227.234756469727 4.163768291473
2.409812927246 -62.844169616699 -229.822280883789 3.366513013840
-110.895179748535 -68.497886657715 -237.169403076172 4.982465744019
-0.658447027206 -65.632354736328 -227.232055664063 2.542094707489
-118.321121215820 -64.549285888672 -236.568191528320 3.430306911469
-7.706107139587 -58.978092193604 -231.335403442383 7.465344905853
-0.532320022583 -61.607002258301 -235.673141479492 1.957674145699
-2.135624885559 -61.396072387695 -240.397186279297 1.778521180153
73.596244812012 -53.946903228760 -235.833129882813 13.043811798096
-7.562698841095 -67.227539062500 -238.816604614258 1.795623421669
12.707244873047 -63.406070709229 -235.747802734375 4.441215038300
12.326584815979 -61.316680908203 -237.413894653320 4.470193862915
6.076045989990 -64.650665283203 -239.362182617188 0.997094511986
6.420691013336 -64.997573852539 -242.775939941406 2.971047639847
63.101947784424 -52.217937469482 -239.311630249023 14.200067520142
69.398727416992 -52.813316345215 -239.963195800781 14.590425491333
6.664011001587 -60.601455688477 -250.183822631836 4.017021179199
51.589824676514 -62.568778991699 -242.697814941406 2.990831851959
56.337772369385 -65.897674560547 -240.126602172852 2.489044666290
47.723102569580 -53.653297424316 -251.544448852539 10.067399978638
43.887569427490 -54.738594055176 -251.409286499023 8.959775924683
41.998485565186 -57.568561553955 -259.895294189453 7.196013927460
-127.948898315430 -60.010475158691 -263.726501464844 5.152868747711
-6.916243076324 -61.174182891846 -247.038101196289 1.302732229233
32.826511383057 -56.677261352539 -257.053558349609 5.393701553345
43.764888763428 -57.945213317871 -243.856750488281 8.448632240295
32.011493682861 -64.263397216797 -252.333724975586 3.062036037445
-103.189956665039 -70.288093566895 -263.041442871094 2.735595464706
30.630142211914 -61.866245269775 -256.023986816406 1.868858456612
-142.296142578125 -71.116653442383 -266.078002929688 2.630224466324
-115.192787170410 -71.518867492676 -258.580047607422 1.263221025467
-110.691474914551 -67.366729736328 -261.727386474609 1.612307906151
0.864749014378 -65.877243041992 -259.572387695313 2.512686491013
-151.490356445313 -70.897766113281 -260.653900146484 3.066014289856
39.461997985840 -59.900783538818 -263.656616210938 6.580477714539
-105.643592834473 -65.319267272949 -257.680389404297 1.586750984192
27.087282180786 -66.738380432129 -258.911102294922 1.935592293739
-132.716644287109 -72.520309448242 -269.361816406250 5.205990791321
-115.312522888184 -66.315376281738 -270.609802246094 5.903491497040
-110.553909301758 -66.471801757813 -266.048706054688 4.992752075195
-111.326316833496 -76.563331604004 -264.209777832031 5.041369915009
-141.193847656250 -71.800354003906 -257.026702880859 2.012323856354
31.451807022095 -60.732120513916 -258.266174316406 2.428176164627
-115.341598510742 -64.476707458496 -264.802551269531 2.975953817368
-143.394302368164 -70.281997680664 -267.078277587891 2.363906383514
-3.613970994949 -57.498531341553 -270.823822021484 5.037960529327
-147.387939453125 -70.794494628906 -283.097076416016 0.787109255791
-7.421768188477 -61.285400390625 -291.524749755859 4.412224769592
-4.207411766052 -57.376525878906 -280.732025146484 1.846695542336
-132.562423706055 -65.403800964355 -293.506683349609 3.285467624664
-128.489303588867 -66.507774353027 -296.381774902344 3.429527521133
-133.551391601563 -64.731628417969 -298.759307861328 7.561743259430
-125.229637145996 -61.982864379883 -291.574798583984 3.770695924759
-154.588088989258 -66.582801818848 -297.697998046875 3.250162124634
-156.845352172852 -67.918617248535 -303.277313232422 3.816859960556
-146.461929321289 -71.411506652832 -305.701568603516 3.256152868271
-146.672317504883 -69.084289550781 -309.176391601563 1.011853933334
-142.934143066406 -65.585220336914 -300.560241699219 3.946299314499
