-22.908946990967 -68.582534790039 -183.454132080078 2.326431751251
8.168384552002 -71.519638061523 -181.400924682617 6.515262126923
-151.214492797852 -65.977355957031 -194.120040893555 1.030993342400
-32.168704986572 -70.510337829590 -188.583847045898 0.793670237064
98.948745727539 -76.840835571289 -187.336303710938 3.636132240295
104.128631591797 -73.760078430176 -189.084335327148 1.669528484344
25.047718048096 -66.313240051270 -192.556930541992 4.289276599884
-9.223612785339 -71.452636718750 -187.023895263672 8.739188194275
-29.850193023682 -73.662925720215 -190.743316650391 0.922352075577
-157.556243896484 -69.317550659180 -200.127014160156 1.834859609604
-133.633102416992 -68.404747009277 -194.597412109375 1.687772154808
-126.355613708496 -62.824943542480 -192.670791625977 3.993883132935
-127.472824096680 -65.630516052246 -195.399841308594 3.328365802765
-21.947275161743 -65.822998046875 -193.253540039063 1.432247400284
14.292521476746 -76.614387512207 -190.342010498047 0.601073205471
89.807159423828 -84.183883666992 -199.935714721680 9.239916801453
-152.360961914063 -60.015102386475 -191.822601318359 3.083112955093
-144.204284667969 -62.588581085205 -197.133575439453 2.094750881195
-152.873580932617 -66.751274108887 -199.473434448242 0.894631445408
-155.154617309570 -62.631034851074 -193.806716918945 2.890809774399
-24.082464218140 -70.030700683594 -198.319763183594 1.099789857864
-7.453526020050 -66.852600097656 -193.445648193359 8.014600753784
-144.415924072266 -59.926040649414 -201.666259765625 1.438307404518
-21.750402450562 -70.923408508301 -201.667098999023 1.566835403442
-160.775588989258 -65.496940612793 -200.489746093750 1.604364156723
-135.312377929688 -66.483238220215 -196.992416381836 2.092356681824
13.651696205139 -78.348228454590 -205.226531982422 2.041023731232
-158.975677490234 -60.650356292725 -202.659332275391 4.408758640289
-147.259643554688 -69.931335449219 -204.572433471680 1.959042668343
5.399193763733 -70.058670043945 -204.143890380859 4.084388732910
-154.961303710938 -62.237110137939 -200.192367553711 1.316959261894
-26.544015884399 -70.154777526855 -201.975753784180 2.683825731277
91.370056152344 -78.286476135254 -197.745468139648 6.177301883698
-161.559982299805 -68.692283630371 -207.210861206055 2.760120153427
-165.068923950195 -72.134323120117 -202.991195678711 1.650739789009
-75.618530273438 -66.658531188965 -204.048721313477 8.557593345642
89.828453063965 -76.130638122559 -206.668197631836 3.395873308182
-4.703292846680 -72.856933593750 -219.344680786133 2.709296464920
-158.338439941406 -65.120391845703 -210.666183471680 3.283121347427
-87.686599731445 -70.996742248535 -210.321899414063 4.768686771393
-11.201114654541 -77.625534057617 -209.018768310547 1.378543853760
15.563410758972 -73.600753784180 -215.856414794922 0.944250822067
-144.386825561523 -68.667434692383 -219.370880126953 1.997454166412
-5.360004901886 -81.034652709961 -219.004943847656 1.780753374100
-17.337919235229 -76.312088012695 -213.742050170898 1.842651128769
-15.199022293091 -69.390998840332 -220.810729980469 1.325211763382
91.348007202148 -78.171463012695 -221.465911865234 2.511525869370
-20.204582214355 -70.962593078613 -214.238479614258 2.570895433426
-35.389556884766 -71.460357666016 -217.030288696289 5.072785377502
-108.384391784668 -61.695392608643 -224.747848510742 4.313378334045
-17.519868850708 -70.965934753418 -222.971527099609 1.024048209190
94.129936218262 -75.361419677734 -218.141464233398 2.859854459763
72.751609802246 -79.018608093262 -221.236892700195 7.510590553284
8.364645957947 -75.853492736816 -216.794082641602 2.278107404709
-12.383964538574 -68.822189331055 -224.548233032227 2.961214780807
78.497192382813 -77.328788757324 -220.499206542969 3.283529281616
-121.883689880371 -75.490753173828 -223.194564819336 3.924235105515
-17.323936462402 -70.519088745117 -222.694992065430 0.510422408581
-95.315513610840 -69.675926208496 -221.426727294922 1.906654000282
-100.470649719238 -69.989334106445 -220.257125854492 1.115244388580
-129.176498413086 -71.948776245117 -227.648071289063 2.502630949020
80.034812927246 -78.598754882813 -221.957580566406 3.370170593262
-123.236679077148 -70.588653564453 -225.545288085938 2.260092258453
3.046686887741 -73.155197143555 -228.444122314453 1.259324312210
81.526725769043 -75.731033325195 -224.095199584961 2.080152511597
-17.955312728882 -76.018936157227 -233.979293823242 4.034925937653
-15.805785179138 -74.733078002930 -222.694396972656 1.292724370956
-0.028449000791 -83.478553771973 -228.304000854492 4.576629161835
11.340326309204 -78.646606445313 -226.576385498047 1.038083195686
90.857078552246 -80.514862060547 -227.426010131836 7.556135177612
8.061663627625 -72.707458496094 -229.754211425781 1.190723180771
6.951745033264 -73.147026062012 -228.864410400391 1.128686308861
-9.987492561340 -75.101646423340 -231.073898315430 1.366916298866
-7.611869812012 -76.253791809082 -225.462585449219 1.205350160599
20.035154342651 -74.102951049805 -232.864196777344 2.744788169861
-13.315076828003 -69.592628479004 -231.606597900391 1.170411825180
69.702735900879 -78.991806030273 -240.625534057617 4.628018379211
-11.051405906677 -73.232788085938 -238.820388793945 1.494820117950
18.578176498413 -76.652900695801 -234.504302978516 0.875453591347
-159.987197875977 -65.081878662109 -237.293518066406 2.562692165375
-7.013225078583 -70.849678039551 -234.069076538086 1.571149826050
-7.816771030426 -77.782341003418 -237.097244262695 4.308517932892
-168.299133300781 -70.458358764648 -247.719345092773 1.952924728394
-12.059509277344 -71.591575622559 -242.579223632813 1.294594168663
13.493562698364 -71.747474670410 -243.674499511719 1.707864403725
-149.686782836914 -71.584503173828 -249.479217529297 3.852118730545
-78.652885437012 -73.026863098145 -251.261962890625 2.684267520905
-63.638870239258 -75.186981201172 -245.745590209961 0.546950638294
49.787490844727 -73.257484436035 -246.244674682617 2.459135532379
-72.973495483398 -71.560379028320 -244.034286499023 3.819009780884
14.355617523193 -76.698791503906 -248.855880737305 2.342055082321
-73.699600219727 -74.786155700684 -248.613571166992 1.203660964966
-17.051786422729 -70.851806640625 -239.889846801758 1.373009681702
-146.331710815430 -74.254234313965 -250.175857543945 2.035536289215
43.570644378662 -71.485435485840 -250.922134399414 1.742931485176
-82.854820251465 -78.079101562500 -255.621017456055 3.201074123383
-104.369972229004 -66.710388183594 -253.924957275391 3.263144254684
-102.147224426270 -73.536354064941 -252.220474243164 3.534547090530
-123.133827209473 -65.739517211914 -248.928359985352 5.827942371368
-107.202133178711 -65.984634399414 -255.878158569336 1.138497352600
-105.683128356934 -70.185272216797 -255.198760986328 2.116985797882
19.737947463989 -70.594985961914 -256.035064697266 3.996922731400
-132.237182617188 -67.128608703613 -263.473327636719 2.909376144409
-17.818920135498 -77.417549133301 -273.296478271484 5.811093807220
-150.815658569336 -66.642990112305 -282.937866210938 1.141127347946
-170.354629516602 -73.623794555664 -285.067657470703 1.631795406342
-126.634391784668 -73.739151000977 -280.088775634766 4.797045230865
-115.525207519531 -68.260780334473 -285.070373535156 2.806630373001
-77.107917785645 -68.471946716309 -280.499328613281 6.211537837982
-59.899726867676 -77.867942810059 -284.989440917969 3.081027984619
-42.367717742920 -74.137718200684 -284.128875732422 2.844142198563
-17.702749252319 -83.649360656738 -290.287872314453 4.364750385284
-15.324870109558 -74.103965759277 -293.358703613281 1.092056632042
-41.046737670898 -80.981636047363 -289.743621826172 4.607327461243
-36.409549713135 -76.796104431152 -287.292388916016 1.087705254555
-21.144746780396 -72.014488220215 -287.423553466797 2.633444309235
-76.085113525391 -73.857353210449 -293.502746582031 3.350083589554
-58.773544311523 -74.712982177734 -290.063995361328 2.337141036987
-21.442478179932 -71.626380920410 -291.122741699219 3.148676633835
-15.956524848938 -80.396484375000 -287.003784179688 3.474523067474
-5.404496192932 -77.571533203125 -293.021972656250 2.631344795227
1.003824949265 -72.459251403809 -292.536468505859 1.898538947105
-96.597305297852 -74.134468078613 -292.261108398438 2.010419130325
-139.274185180664 -76.826515197754 -294.898376464844 4.321952819824
-116.833267211914 -74.531669616699 -290.851165771484 2.009691953659
-154.986984252930 -67.693283081055 -290.872955322266 3.096923351288
-151.491027832031 -73.675338745117 -297.202392578125 0.641714096069
-149.528152465820 -68.119888305664 -298.554077148438 1.756237626076
43.720657348633 -58.804195404053 -23.290826797485 1.893825888634
20.901344299316 -67.726119995117 -22.336391448975 3.419899940491
51.393268585205 -58.060878753662 -23.067113876343 2.708160161972
47.852512359619 -65.595336914063 -35.441780090332 2.870897293091
89.101165771484 -67.530944824219 -72.359580993652 5.073326587677
96.531791687012 -71.110603332520 -74.434280395508 1.561158776283
101.963165283203 -69.434692382813 -75.282943725586 1.919607877731
98.590415954590 -68.496887207031 -84.448799133301 1.471397876740
55.225067138672 -68.889373779297 -89.946014404297 1.565754175186
42.509395599365 -75.300216674805 -87.416877746582 8.252338409424
63.798316955566 -66.830772399902 -90.415946960449 1.452638506889
-65.412605285645 -61.228210449219 -93.400756835938 2.259673357010
72.960922241211 -65.639343261719 -86.588394165039 6.649346351624
99.966728210449 -59.041240692139 -100.377159118652 2.237619638443
74.550300598145 -68.813819885254 -102.030204772949 1.157233715057
92.855575561523 -68.080665588379 -103.726211547852 2.472809314728
-88.088699340820 -63.579784393311 -104.758857727051 4.403506278992
46.672737121582 -65.071525573730 -94.039741516113 2.443503379822
-88.737525939941 -64.254585266113 -97.242828369141 8.785128593445
52.084609985352 -69.591583251953 -109.282012939453 2.133379459381
35.587882995605 -77.363388061523 -101.411697387695 6.453762054443
98.154205322266 -68.583152770996 -103.043617248535 1.441272139549
36.357498168945 -68.018157958984 -102.806457519531 5.161688804626
45.970169067383 -72.274024963379 -121.510574340820 2.494274616241
42.165401458740 -69.406707763672 -112.319206237793 0.390438199043
112.571067810059 -69.292755126953 -110.583099365234 1.532095789909
-80.373466491699 -72.137443542480 -120.450126647949 1.770744204521
113.022499084473 -78.737129211426 -121.004089355469 3.770287275314
42.903263092041 -62.976722717285 -125.366821289063 4.076087951660
39.536827087402 -68.919570922852 -118.970222473145 1.886225104332
33.829315185547 -69.757156372070 -118.389076232910 3.152330160141
-54.867610931396 -72.815422058105 -127.605972290039 2.135262966156
29.367959976196 -66.916465759277 -122.373397827148 4.197576045990
-78.305229187012 -60.046634674072 -137.887481689453 5.498995304108
-55.134307861328 -71.835960388184 -130.695999145508 2.050637245178
-79.520057678223 -61.406440734863 -133.787124633789 3.174076557159
37.547721862793 -66.587577819824 -132.251663208008 3.015523672104
-60.485095977783 -68.509819030762 -131.821365356445 2.104195356369
35.242084503174 -68.633583068848 -131.959106445313 0.736816585064
-70.836563110352 -62.620021820068 -138.521789550781 4.658345699310
-59.321704864502 -59.868270874023 -142.548675537109 4.946741580963
22.003236770630 -71.507293701172 -144.833847045898 3.043914318085
112.115890502930 -76.721916198730 -142.233551025391 2.245690822601
114.609939575195 -66.499839782715 -138.046737670898 2.467235565186
29.799211502075 -70.744476318359 -142.853652954102 1.500591635704
-51.341518402100 -70.003120422363 -137.899230957031 2.347999811172
103.594718933105 -69.877464294434 -152.885269165039 5.583828926086
-77.357398986816 -65.202529907227 -140.609039306641 2.244443893433
-58.720638275146 -65.861030578613 -140.709747314453 3.167652845383
31.777309417725 -61.944580078125 -144.817642211914 6.158166885376
-79.219169616699 -67.951828002930 -144.227035522461 3.567396879196
-70.419242858887 -65.111114501953 -148.159393310547 3.113508701324
112.492042541504 -80.323417663574 -148.465637207031 3.249932527542
-64.697204589844 -64.066635131836 -154.873641967773 6.806974887848
-39.890281677246 -62.146106719971 -150.334060668945 7.829418659210
23.385440826416 -67.812866210938 -142.889999389648 0.719496190548
-71.662696838379 -66.625358581543 -141.255752563477 2.186162710190
12.119015693665 -67.461891174316 -147.406845092773 1.827337026596
31.399860382080 -70.416030883789 -158.656829833984 1.077577233315
31.270858764648 -66.625289916992 -152.384094238281 3.652739763260
17.941799163818 -75.955108642578 -152.075637817383 4.189448356628
-51.871952056885 -70.524917602539 -151.311508178711 1.414507508278
21.262142181396 -74.103759765625 -152.083618164063 0.744678437710
-47.955207824707 -65.932945251465 -150.596740722656 2.269585609436
1.987009048462 -69.421943664551 -153.439407348633 4.718124866486
18.203338623047 -68.441070556641 -149.246566772461 1.256728768349
-66.489135742188 -65.060073852539 -157.972000122070 5.042822360992
-48.131790161133 -63.213790893555 -153.175155639648 5.172292709351
-69.311325073242 -66.412361145020 -149.363479614258 2.842598676682
21.106008529663 -68.549583435059 -158.077209472656 2.559835195541
22.754007339478 -68.762496948242 -149.393035888672 2.555693626404
1.782066941261 -70.274330139160 -166.921752929688 3.382587671280
21.844337463379 -68.041122436523 -150.378463745117 2.831891059875
29.927177429199 -69.727638244629 -169.213058471680 2.120808362961
-47.804229736328 -68.731979370117 -163.443786621094 2.041936159134
-40.782600402832 -79.554138183594 -163.447830200195 1.552485585213
-42.916397094727 -69.899055480957 -160.045715332031 0.846669793129
27.014606475830 -71.552925109863 -155.955566406250 1.994126200676
-45.368526458740 -64.177230834961 -164.929092407227 5.871672153473
-39.605636596680 -66.357261657715 -169.397674560547 2.320966482162
21.495740890503 -68.111465454102 -164.396316528320 2.861456394196
-40.367492675781 -69.684028625488 -176.033096313477 4.229068756104
26.432758331299 -64.516242980957 -169.695999145508 4.225434303284
108.940895080566 -68.464836120605 -162.503417968750 2.435507297516
-35.597156524658 -69.101272583008 -171.170303344727 2.976291894913
97.690483093262 -70.435295104980 -173.554382324219 8.047924995422
-35.440280914307 -68.740066528320 -177.129272460938 1.654037237167
-39.445896148682 -74.088455200195 -181.151199340820 3.202675342560
22.898275375366 -75.475784301758 -178.163375854492 3.042053937912
105.982513427734 -76.405403137207 -181.600784301758 0.882241606712
-34.975769042969 -66.715843200684 -180.132080078125 4.143555641174
-37.528636932373 -69.020309448242 -179.886322021484 3.222029924393
-23.700544357300 -77.380317687988 -186.421432495117 2.161322116852
-150.172988891602 -65.317939758301 -188.119125366211 1.239693880081
9.073365211487 -70.437797546387 -182.592041015625 5.587852478027
102.410079956055 -73.583274841309 -192.908187866211 0.678453028202
-163.102310180664 -64.335548400879 -189.881042480469 7.755855083466
-20.236558914185 -64.276626586914 -186.471542358398 5.017357826233
-116.824981689453 -70.075241088867 -196.510070800781 2.241855859756
-128.690078735352 -68.779426574707 -192.005004882813 2.648714542389
-106.829826354980 -69.305870056152 -198.722366333008 3.992654323578
-116.633926391602 -65.346549987793 -198.604858398438 1.820584177971
-11.481610298157 -72.850486755371 -195.197357177734 3.214351177216
18.679761886597 -68.899147033691 -195.150695800781 1.200420498848
-16.850778579712 -65.616218566895 -201.495895385742 3.516897439957
-130.533248901367 -66.788681030273 -204.912704467773 1.927418351173
-20.935216903687 -64.817085266113 -199.174926757813 3.255034446716
-127.949241638184 -63.394733428955 -201.363357543945 2.070777893066
-18.546997070313 -70.287231445313 -196.575637817383 0.791602611542
-148.834152221680 -63.927131652832 -198.781417846680 2.334167957306
90.809883117676 -68.888702392578 -205.666656494141 3.790329217911
-164.553359985352 -55.830772399902 -199.501251220703 9.931792259216
-2.656640052795 -73.523406982422 -221.061782836914 1.295549750328
11.505969047546 -75.296646118164 -209.595367431641 1.671362757683
8.721184730530 -77.946533203125 -216.250473022461 0.479324936867
80.831085205078 -76.052177429199 -215.059005737305 3.074183940887
8.933468818665 -74.453224182129 -212.615020751953 0.706147551537
9.373052597046 -71.414535522461 -214.462738037109 2.174141407013
-17.100042343140 -75.667915344238 -213.699569702148 2.067079782486
-91.466316223145 -70.382034301758 -209.990097045898 5.225353717804
-100.022468566895 -68.588340759277 -215.252578735352 3.659102201462
2.814162015915 -71.810493469238 -216.489212036133 4.306962013245
-167.900497436523 -69.590515136719 -218.512786865234 2.646756410599
16.010313034058 -69.436241149902 -216.322143554688 1.727425932884
-145.912475585938 -66.001525878906 -217.495498657227 1.456695675850
12.880539894104 -74.422798156738 -223.931137084961 2.563957929611
-137.007003784180 -70.257705688477 -223.119186401367 3.305830478668
-116.239608764648 -69.982795715332 -227.477386474609 0.699069797993
16.547405242920 -72.658836364746 -218.886856079102 2.002485513687
79.105087280273 -76.054008483887 -217.645324707031 4.879151821136
4.576028823853 -74.429733276367 -222.807388305664 1.279543042183
-109.203590393066 -67.247489929199 -230.310180664063 1.127186536789
66.448989868164 -77.751029968262 -226.503372192383 7.477194786072
85.331604003906 -78.819808959961 -228.731887817383 5.320617198944
-128.341751098633 -68.058876037598 -236.385070800781 3.160357952118
-121.206405639648 -67.921241760254 -227.964599609375 2.967495441437
-9.718608856201 -66.635734558105 -224.109451293945 3.372994661331
70.740219116211 -77.030998229980 -233.414459228516 2.262112855911
63.228851318359 -76.562118530273 -230.906799316406 6.803867816925
70.128494262695 -75.349945068359 -227.146301269531 4.051872730255
-138.265060424805 -62.258583068848 -232.133117675781 3.914070129395
67.093406677246 -77.895454406738 -228.664810180664 6.234229087830
64.272033691406 -72.149795532227 -234.334075927734 2.589929103851
-166.826171875000 -63.552536010742 -230.410537719727 3.768881797791
0.819289028645 -84.223739624023 -241.530426025391 6.761473178864
20.248435974121 -76.863822937012 -237.715179443359 0.755834639072
-7.313165187836 -69.272102355957 -241.399795532227 1.968424558640
16.966287612915 -65.804748535156 -238.857452392578 3.164393424988
66.508201599121 -77.683250427246 -236.719482421875 3.442726850510
5.272655010223 -70.892150878906 -244.893951416016 3.310469388962
-13.003135681152 -65.141021728516 -239.205749511719 1.710152268410
-3.703237056732 -68.600662231445 -233.401855468750 1.841131567955
63.425025939941 -76.970252990723 -241.171936035156 1.537181377411
-0.949280977249 -73.508453369141 -241.340011596680 1.582145810127
-6.728818893433 -74.757446289063 -242.036743164063 1.560107231140
13.462684631348 -79.052680969238 -240.003829956055 0.985392332077
-168.955307006836 -70.920112609863 -238.924102783203 1.426693320274
51.597476959229 -78.370101928711 -246.189361572266 5.543404102325
46.787902832031 -66.804557800293 -254.077911376953 1.234666943550
59.364288330078 -77.176383972168 -242.603530883789 2.944434404373
-13.512405395508 -70.101608276367 -247.066711425781 1.385691642761
55.627437591553 -75.020034790039 -243.768707275391 1.521678805351
-76.332199096680 -71.125175476074 -250.249679565430 1.623674511909
48.453571319580 -76.729835510254 -246.918731689453 4.609898567200
-87.969184875488 -69.666885375977 -251.798828125000 1.788206458092
-122.270027160645 -70.816238403320 -257.355377197266 1.190807223320
-132.930343627930 -69.561790466309 -249.998550415039 4.563714504242
46.730648040771 -79.010375976563 -250.202774047852 6.871505260468
-130.803436279297 -73.200645446777 -248.717681884766 5.562775611877
-109.064247131348 -66.011131286621 -251.882965087891 4.386901378632
-119.752174377441 -67.028182983398 -256.660614013672 3.357143878937
-86.217475891113 -71.246841430664 -252.754959106445 1.902462601662
-111.399078369141 -65.531112670898 -256.082733154297 2.541661739349
-125.883277893066 -75.012420654297 -260.871490478516 2.117115736008
-149.154129028320 -65.895378112793 -267.580627441406 2.124933719635
-16.636287689209 -72.082290649414 -268.266082763672 3.385948181152
-176.438613891602 -72.221496582031 -262.917663574219 8.931892395020
-16.635995864868 -73.192047119141 -274.700714111328 4.271383285522
-159.557937622070 -63.613510131836 -265.493896484375 4.782736301422
-154.279006958008 -70.818641662598 -269.666595458984 4.148448467255
-173.113006591797 -68.628044128418 -275.818115234375 5.626492977142
-17.572879791260 -76.617797851563 -282.523803710938 4.282510757446
-128.404159545898 -74.495201110840 -280.559692382813 3.748893260956
-157.887344360352 -69.617912292480 -284.524078369141 3.192323923111
-144.037368774414 -68.507347106934 -278.424804687500 3.000869512558
-136.526489257813 -73.151634216309 -274.338592529297 8.263661384583
-9.537443161011 -66.159011840820 -283.361938476563 2.789808273315
-128.120361328125 -74.863502502441 -280.496459960938 3.942339181900
-141.963363647461 -65.759025573730 -284.483917236328 1.858830213547
-116.880653381348 -77.187675476074 -283.378784179688 3.643707990646
-83.902572631836 -68.992492675781 -288.473327636719 2.069824218750
-60.788288116455 -76.056022644043 -285.263885498047 2.045546531677
-10.421693801880 -77.717689514160 -286.394439697266 1.850236535072
-56.653133392334 -71.802078247070 -280.917266845703 5.594527244568
-58.062366485596 -70.384933471680 -287.482482910156 1.241957187653
-73.564865112305 -71.048439025879 -288.933746337891 1.911354899406
-91.283607482910 -70.626579284668 -294.824981689453 3.368792057037
-93.580451965332 -70.296325683594 -285.659576416016 3.062024593353
-160.253814697266 -69.791343688965 -289.741882324219 0.976474642754
-161.410018920898 -70.991958618164 -293.310180664063 0.908083677292
-125.599380493164 -75.806617736816 -291.053649902344 1.280444264412
-145.849349975586 -70.030258178711 -292.138854980469 1.897888541222
-152.469726562500 -74.231925964355 -304.443023681641 3.421879768372
-155.695251464844 -75.876945495605 -308.937255859375 2.236823797226
49.412075042725 -60.620555877686 -11.500013351440 5.255267620087
14.126771926880 -64.668617248535 -31.955362319946 6.522902965546
43.500713348389 -57.075794219971 -35.498401641846 2.251067638397
-13.916566848755 -66.885444641113 -64.861465454102 1.953382372856
81.735862731934 -63.750385284424 -64.833503723145 3.158225059509
92.073097229004 -60.949321746826 -66.168510437012 4.032743930817
79.145622253418 -73.276184082031 -64.163497924805 4.303240299225
71.649085998535 -69.279510498047 -69.803146362305 0.886107683182
90.801994323730 -69.440078735352 -76.500625610352 5.453222751617
-98.146728515625 -55.120502471924 -69.267875671387 1.679272174835
65.084861755371 -66.562828063965 -74.582267761230 1.542314291000
-36.243335723877 -66.687232971191 -76.842720031738 0.996012926102
97.741157531738 -67.452644348145 -84.952453613281 2.687332153320
63.343002319336 -62.098503112793 -90.518981933594 0.964796423912
107.728744506836 -76.156021118164 -90.807548522949 7.998624801636
97.798225402832 -75.829704284668 -98.614540100098 2.828798294067
73.975158691406 -68.587829589844 -101.713378906250 1.761035799980
-82.920791625977 -57.747035980225 -102.804351806641 5.891000270844
54.379703521729 -66.089149475098 -106.606323242188 4.336375236511
108.899574279785 -64.779891967773 -107.445465087891 2.605174541473
44.986999511719 -66.902618408203 -114.684585571289 2.441828966141
79.233459472656 -66.851463317871 -106.677192687988 2.904737949371
41.005615234375 -66.613342285156 -108.043045043945 1.690096616745
101.332290649414 -69.222824096680 -102.912490844727 1.419808030128
47.046054840088 -67.328414916992 -107.511276245117 1.740714550018
104.517799377441 -78.624450683594 -108.088600158691 4.034363746643
110.649429321289 -75.798896789551 -108.642478942871 3.310861110687
-80.747306823730 -59.345684051514 -113.472732543945 1.093279242516
-83.795234680176 -59.774150848389 -120.314140319824 2.001135110855
42.994483947754 -72.072723388672 -118.678359985352 1.871543169022
112.902000427246 -73.196601867676 -123.909088134766 1.950578451157
112.560043334961 -71.204292297363 -123.316375732422 1.411928057671
-90.548248291016 -61.632663726807 -125.398353576660 2.491851568222
103.779121398926 -74.248825073242 -127.746528625488 5.870995521545
-60.685733795166 -71.566856384277 -130.634246826172 1.145073771477
-86.786491394043 -64.231361389160 -127.159690856934 1.016700506210
-70.178367614746 -65.315628051758 -125.236984252930 4.015874385834
-61.153957366943 -59.653202056885 -126.100578308105 2.489439487457
31.664175033569 -68.175300598145 -130.815948486328 3.324002027512
44.861122131348 -64.088600158691 -136.469375610352 8.550235748291
-71.004676818848 -64.015220642090 -134.908355712891 2.641595840454
28.414562225342 -63.859222412109 -128.849060058594 3.622568368912
112.725967407227 -71.829643249512 -146.002883911133 1.652670621872
-37.770862579346 -67.043632507324 -149.401016235352 5.518456935883
34.259506225586 -72.706565856934 -149.230133056641 1.549559593201
111.870300292969 -69.621482849121 -149.939682006836 2.616218090057
35.641334533691 -70.047355651855 -141.538345336914 0.372294276953
108.747917175293 -69.871849060059 -138.883880615234 2.451133489609
-52.029827117920 -65.040321350098 -148.941604614258 3.635687589645
-75.379249572754 -60.517383575439 -151.086273193359 8.447639465332
-59.749603271484 -66.115936279297 -148.963104248047 4.785042762756
-44.078025817871 -73.375572204590 -163.740951538086 1.250835418701
1.865946054459 -71.831314086914 -154.706680297852 4.087118625641
107.302078247070 -73.243011474609 -152.496826171875 3.163929224014
107.139167785645 -72.283859252930 -161.454162597656 1.690819382668
10.718609809875 -68.738876342773 -155.725906372070 1.259709239006
0.389988988638 -66.992713928223 -159.323059082031 5.485167026520
21.817417144775 -65.939865112305 -153.014328002930 2.273427248001
25.529384613037 -67.092964172363 -155.146011352539 2.639618158340
105.452766418457 -72.567916870117 -165.028869628906 3.044473171234
110.589317321777 -77.835983276367 -167.027847290039 1.439174652100
23.262157440186 -66.392074584961 -176.748443603516 0.465925693512
22.657978057861 -74.012786865234 -165.030654907227 1.830912828445
110.267440795898 -69.475578308105 -162.273605346680 2.272627830505
-31.296684265137 -66.275558471680 -179.163375854492 3.703976869583
109.820816040039 -73.789131164551 -166.960357666016 0.794734060764
17.183021545410 -69.445625305176 -162.709426879883 3.807581663132
20.251586914063 -69.823425292969 -169.389205932617 2.029110193253
106.593528747559 -73.953613281250 -172.081741333008 1.214838385582
27.024360656738 -68.603767395020 -169.201202392578 1.682011604309
113.551391601563 -71.857521057129 -185.837585449219 3.878329515457
-39.803638458252 -67.471412658691 -179.643905639648 5.743178367615
22.399139404297 -69.814590454102 -167.711456298828 1.745277047157
106.948265075684 -73.805206298828 -185.045242309570 2.056359052658
21.238389968872 -71.531013488770 -175.359832763672 2.391040325165
-151.833740234375 -61.431968688965 -184.263290405273 1.809577584267
-28.671527862549 -64.512298583984 -189.698471069336 3.666016817093
22.974937438965 -66.710220336914 -184.972427368164 2.079907417297
-117.637413024902 -68.581405639648 -190.924530029297 3.906062841415
-113.376937866211 -61.584587097168 -192.362457275391 2.331168413162
24.540414810181 -71.788146972656 -186.632064819336 1.792178511620
9.348033905029 -65.623542785645 -183.959091186523 6.858025074005
-28.031669616699 -63.781604766846 -190.037078857422 4.352759838104
-29.860176086426 -75.353302001953 -188.061492919922 0.877093732357
-30.579319000244 -69.484359741211 -187.897415161133 1.910234451294
10.906644821167 -66.195083618164 -179.678405761719 6.156861782074
-151.757019042969 -64.320724487305 -194.834014892578 2.018578529358
-147.898880004883 -63.323501586914 -190.291625976563 2.462317943573
-149.037155151367 -70.142143249512 -198.115570068359 0.538260757923
-25.117082595825 -67.655662536621 -190.659530639648 1.536644458771
13.865640640259 -66.799179077148 -199.353942871094 1.529583096504
97.086494445801 -71.635589599609 -191.959457397461 2.574664354324
-114.431282043457 -63.611442565918 -197.146530151367 1.417272210121
19.782169342041 -77.033790588379 -196.435775756836 1.832396626472
-13.802575111389 -67.699775695801 -193.621032714844 3.796241521835
-18.090555191040 -69.657875061035 -197.487991333008 0.857542574406
100.750755310059 -72.080444335938 -200.469253540039 1.385754585266
5.306608200073 -74.268470764160 -196.588073730469 4.374588966370
-23.357521057129 -67.076072692871 -196.110015869141 1.434633374214
-121.421333312988 -70.465850830078 -203.309082031250 1.810492038727
-135.767883300781 -66.143966674805 -201.495285034180 2.669848918915
-115.269515991211 -58.407386779785 -205.667678833008 6.609740734100
-143.517791748047 -70.048126220703 -201.124420166016 1.907966017723
15.201740264893 -70.469284057617 -197.307510375977 2.484103441238
90.649780273438 -76.569526672363 -198.308532714844 5.298802375793
-165.896759033203 -56.609531402588 -197.884963989258 10.091600418091
99.079330444336 -72.956901550293 -200.902297973633 1.420970797539
-25.776174545288 -76.487556457520 -203.512817382813 3.408646583557
93.679679870605 -69.514564514160 -208.478088378906 2.063582897186
86.986412048340 -77.369270324707 -207.824859619141 5.259841918945
8.409605026245 -74.382324218750 -200.675994873047 1.576294779778
20.166601181030 -70.090034484863 -212.918319702148 2.293359518051
12.692021369934 -66.234634399414 -208.139175415039 2.068447828293
-12.183976173401 -71.273139953613 -223.523498535156 2.414613008499
-94.788421630859 -72.131019592285 -218.809310913086 2.333387851715
-14.569042205811 -73.978538513184 -209.488449096680 3.096318721771
85.885940551758 -75.680770874023 -217.769424438477 0.799002230167
-96.207702636719 -71.690368652344 -214.191024780273 2.244269132614
-100.151550292969 -62.848320007324 -221.390747070313 4.798625946045
-98.359985351563 -66.373764038086 -217.414184570313 2.684748411179
88.284973144531 -78.648849487305 -222.290206909180 3.281668186188
-137.381683349609 -67.769187927246 -223.514251708984 3.015920400620
-131.964416503906 -75.533897399902 -226.253997802734 1.150624632835
-117.598724365234 -67.697891235352 -223.089096069336 2.626451969147
-114.572471618652 -63.460266113281 -219.152313232422 7.470589160919
-133.447845458984 -63.448444366455 -226.915695190430 0.827258586884
-115.841796875000 -78.560699462891 -226.556045532227 4.793722152710
-111.893898010254 -66.346725463867 -227.195465087891 1.862014889717
-8.659894943237 -77.314888000488 -222.238540649414 1.876215577126
-16.125921249390 -75.451629638672 -221.983856201172 2.185634613037
-1.869863986969 -68.037345886230 -228.803665161133 1.655884146690
-10.937247276306 -66.540077209473 -226.116760253906 1.550362348557
14.525001525879 -74.295791625977 -233.553771972656 2.423959016800
-22.367010116577 -68.092994689941 -228.852066040039 5.795937061310
-167.878601074219 -62.997303009033 -218.032485961914 5.827373504639
-7.512916088104 -73.308868408203 -233.081420898438 1.365385770798
80.049049377441 -70.059944152832 -232.769149780273 2.763752937317
11.195134162903 -75.711502075195 -232.054199218750 1.558621883392
-6.351522922516 -71.292839050293 -234.917098999023 0.918296873569
-158.366195678711 -63.171791076660 -233.875946044922 2.100721359253
-144.966049194336 -63.896865844727 -225.824798583984 1.842779278755
58.736003875732 -73.425544738770 -236.557189941406 3.087937593460
-6.861594200134 -72.946968078613 -231.665206909180 2.340786218643
10.735412597656 -75.652503967285 -227.269989013672 2.962984323502
68.167350769043 -78.840324401855 -224.932434082031 8.251271247864
75.477981567383 -74.569709777832 -234.428848266602 3.133205890656
70.553001403809 -77.250411987305 -242.507705688477 4.231858253479
-3.626454114914 -77.251853942871 -232.994781494141 0.644591093063
57.669101715088 -71.301956176758 -235.584991455078 3.576892375946
-21.023412704468 -76.338081359863 -239.225952148438 1.903823971748
-14.950152397156 -67.311744689941 -238.708847045898 1.909920334816
6.222968101501 -72.492340087891 -237.125518798828 2.555144786835
61.946529388428 -80.394172668457 -235.095413208008 7.764320850372
67.390434265137 -72.640457153320 -241.594100952148 1.658084630966
46.669914245605 -75.541267395020 -244.780548095703 5.649538040161
59.254268646240 -80.205009460449 -241.668487548828 5.700564384460
-16.852897644043 -80.750381469727 -247.105087280273 6.335335731506
-85.322784423828 -65.467819213867 -256.971649169922 4.393852710724
-78.248840332031 -67.201919555664 -252.908691406250 3.215770721436
42.303554534912 -79.362548828125 -245.548385620117 9.191423416138
-154.924499511719 -69.864059448242 -247.353439331055 2.215440988541
33.399616241455 -74.169471740723 -256.840057373047 4.059550285339
-94.171638488770 -76.661132812500 -250.030715942383 4.048917293549
-158.892623901367 -60.875881195068 -252.096588134766 4.867965698242
-140.438415527344 -56.215187072754 -250.180877685547 8.729266166687
40.733062744141 -73.889968872070 -253.791061401367 3.612956047058
-127.109786987305 -63.685104370117 -257.489685058594 1.687120795250
-119.638809204102 -70.751853942871 -252.422058105469 4.438255310059
-92.364448547363 -63.763496398926 -255.214904785156 3.278091907501
-13.833031654358 -66.112976074219 -245.762908935547 2.781538724899
30.795799255371 -73.902481079102 -255.023513793945 3.386429786682
23.691770553589 -70.264976501465 -258.027191162109 1.712681531906
-161.931320190430 -59.355907440186 -259.892547607422 8.073218345642
-116.024688720703 -72.924995422363 -260.851776123047 1.431499242783
-14.692233085632 -73.239593505859 -261.225463867188 1.751532912254
-132.838348388672 -68.194068908691 -264.293823242188 2.199862480164
-16.304027557373 -71.911087036133 -269.219573974609 2.872904062271
-164.305130004883 -67.271003723145 -268.499572753906 1.046879649162
-6.949648857117 -75.511871337891 -276.618225097656 1.556520938873
-161.132797241211 -70.352500915527 -285.375244140625 2.209509611130
-167.201187133789 -72.994041442871 -275.977874755859 1.792259573936
-143.756057739258 -70.379989624023 -283.000244140625 1.465198874474
-174.368148803711 -71.802955627441 -282.100738525391 6.535785675049
12.802849769592 -80.161361694336 -288.041381835938 2.515268564224
-104.842155456543 -72.854049682617 -284.501953125000 1.405008077621
-89.333160400391 -63.695411682129 -283.943817138672 7.075975418091
-170.638259887695 -63.850357055664 -281.857482910156 7.868669033051
-95.156517028809 -79.869194030762 -278.237731933594 10.408905029297
-158.791122436523 -70.479591369629 -287.281860351563 2.216194152832
-80.003257751465 -75.331855773926 -296.984405517578 6.509558677673
-74.738082885742 -71.316963195801 -287.325286865234 1.095222949982
-85.697814941406 -74.912345886230 -290.495452880859 2.299576997757
-5.029205799103 -73.033561706543 -286.480133056641 0.879864394665
-93.313636779785 -71.412651062012 -284.712310791016 4.370389938354
-101.209877014160 -74.603240966797 -288.205413818359 1.611498355865
-121.393630981445 -70.978111267090 -291.187957763672 2.797878265381
-118.338027954102 -65.819953918457 -291.549438476563 2.326454639435
-135.922470092773 -71.152397155762 -288.661376953125 3.170424938202
-143.812408447266 -69.566276550293 -298.652679443359 3.231210947037
-146.682312011719 -72.398506164551 -310.123168945313 2.581192731857
25.096765518188 -55.866565704346 -13.609559059143 1.902582406998
34.438899993896 -60.043827056885 -14.965875625610 3.091956138611
30.484371185303 -64.051139831543 -16.917119979858 3.360723972321
45.866413116455 -56.870304107666 -18.718120574951 1.863988876343
23.715679168701 -60.310302734375 -31.146266937256 2.164242982864
-74.149635314941 -57.061122894287 -45.073772430420 1.737080335617
89.938125610352 -59.243934631348 -67.145782470703 6.188256263733
-19.568130493164 -56.730850219727 -65.884963989258 3.149900674820
105.295585632324 -66.770828247070 -73.820999145508 3.124729633331
93.022491455078 -71.694007873535 -75.090728759766 2.615693092346
68.249755859375 -66.443565368652 -78.639152526855 2.962634801865
72.967903137207 -71.411010742188 -81.047927856445 2.468327045441
-44.104721069336 -65.788246154785 -80.214393615723 2.320350170135
60.333168029785 -72.339675903320 -79.626609802246 5.143720626831
-92.741516113281 -60.334022521973 -87.869979858398 6.633956909180
-46.385555267334 -58.246829986572 -82.893699645996 2.471690416336
-56.653343200684 -68.274810791016 -82.081138610840 4.526100158691
103.023674011230 -76.827896118164 -98.358207702637 3.790622472763
60.539810180664 -70.320182800293 -88.775794982910 1.862340450287
68.272842407227 -65.530738830566 -90.275863647461 2.671619892120
-93.438186645508 -51.880104064941 -96.389266967773 6.815032482147
108.180191040039 -70.519981384277 -89.659614562988 5.464603424072
41.794944763184 -63.708511352539 -98.836868286133 4.363920688629
102.805526733398 -67.623855590820 -98.137733459473 1.011566400528
107.664222717285 -64.855674743652 -106.593750000000 2.532884359360
99.584770202637 -68.725006103516 -102.778266906738 1.867984533310
74.348869323730 -71.824928283691 -97.445823669434 2.021620988846
86.661560058594 -71.014007568359 -108.017333984375 3.585093736649
50.722709655762 -64.659973144531 -110.569694519043 3.460350751877
110.841278076172 -63.095726013184 -101.601310729980 5.035634994507
48.195159912109 -71.855598449707 -102.714790344238 3.117463111877
37.663917541504 -63.979290008545 -101.628181457520 6.395958423615
113.772842407227 -70.491897583008 -110.231025695801 1.459441542625
-77.672134399414 -56.165420532227 -107.239006042480 3.322000265121
45.451831817627 -64.897979736328 -112.060646057129 3.369028091431
32.282154083252 -70.424285888672 -115.512947082520 3.078066110611
106.437774658203 -65.736160278320 -110.740806579590 1.044643521309
36.656459808350 -62.875125885010 -111.014442443848 7.273955345154
-86.562896728516 -61.008975982666 -108.671943664551 4.711828708649
-94.558990478516 -55.663642883301 -112.715888977051 4.236538410187
100.791244506836 -76.260848999023 -119.546371459961 6.592604160309
-94.837272644043 -61.739677429199 -117.235633850098 2.795601367950
39.564277648926 -71.851730346680 -119.637199401855 1.286753416061
36.345661163330 -67.375221252441 -122.683883666992 2.782248258591
-85.680778503418 -61.930324554443 -122.018173217773 2.608173608780
33.767131805420 -64.924652099609 -132.921905517578 1.708891272545
112.692466735840 -71.985855102539 -130.984008789063 1.407747983932
-53.584392547607 -64.082725524902 -138.177261352539 1.727083683014
-87.646469116211 -60.141338348389 -132.312194824219 3.752075433731
38.207393646240 -73.251029968262 -128.598114013672 1.495011687279
-85.479034423828 -56.351264953613 -135.573226928711 8.393877983093
-87.923912048340 -66.961112976074 -139.494033813477 1.004656076431
-50.461448669434 -63.897747039795 -134.549285888672 0.934025585651
-71.095169067383 -59.836971282959 -137.168869018555 6.406871318817
-50.664737701416 -63.052410125732 -130.553955078125 2.472130537033
118.071472167969 -66.742698669434 -136.145477294922 3.437697887421
-71.349700927734 -65.800895690918 -131.720321655273 3.230654239655
37.938980102539 -68.984291076660 -129.263015747070 1.476045727730
-78.394279479980 -60.219856262207 -140.075042724609 5.765556335449
-71.838592529297 -63.498355865479 -133.437500000000 2.750919342041
-95.118301391602 -59.654598236084 -141.420288085938 4.008941173553
-55.761817932129 -59.225513458252 -143.678878784180 5.308063507080
31.660268783569 -61.361045837402 -145.566741943359 7.045906066895
27.094755172729 -66.131576538086 -147.872192382813 2.377055406570
20.967123031616 -59.606479644775 -144.016784667969 2.122460365295
112.097785949707 -70.355171203613 -145.795181274414 2.247647762299
-90.077499389648 -60.851600646973 -149.566253662109 4.549106121063
9.786937713623 -68.963897705078 -151.215240478516 1.924529552460
-71.661750793457 -63.251468658447 -154.143859863281 4.975837707520
23.789327621460 -65.425575256348 -148.007400512695 3.573686838150
-49.587787628174 -63.226428985596 -154.043426513672 5.457742214203
9.831093788147 -65.475105285645 -153.279785156250 2.114747285843
17.183462142944 -71.898498535156 -158.255050659180 1.952790737152
16.102844238281 -75.131240844727 -162.430084228516 3.523321866989
-52.184722900391 -68.607894897461 -162.303726196289 5.362317562103
-38.363071441650 -63.222419738770 -154.489257812500 5.664634227753
-48.249797821045 -66.957382202148 -161.297119140625 3.326493024826
-103.377357482910 -64.980880737305 -171.661682128906 0.898195624352
21.408624649048 -71.379760742188 -174.226150512695 2.236217498779
-33.631118774414 -67.241935729980 -177.759750366211 3.314251661301
14.850526809692 -75.374168395996 -176.981643676758 2.767136812210
-142.107254028320 -61.126739501953 -174.449523925781 3.080203533173
-31.365884780884 -61.757343292236 -171.315856933594 6.022158622742
-157.651138305664 -70.695083618164 -175.975997924805 5.163006782532
25.208881378174 -61.635440826416 -181.087738037109 6.620700836182
-35.085285186768 -68.887092590332 -168.415466308594 3.632534980774
-106.620849609375 -60.019134521484 -173.532287597656 3.699245214462
-107.542770385742 -71.811431884766 -182.506011962891 2.444543600082
-31.076040267944 -59.797420501709 -185.250503540039 8.656213760376
-25.248395919800 -74.077224731445 -179.921661376953 1.220696568489
11.288894653320 -67.765304565430 -188.016494750977 4.780931472778
15.109332084656 -65.604270935059 -198.937164306641 1.573878049850
12.395811080933 -70.150108337402 -186.659851074219 2.859965324402
-142.678390502930 -59.764656066895 -184.815643310547 2.604194402695
24.931581497192 -63.895107269287 -189.080764770508 5.374057769775
4.362381935120 -68.095146179199 -195.851058959961 5.047901153564
-134.443664550781 -60.954776763916 -191.240158081055 6.557993888855
-112.436416625977 -63.562648773193 -193.611450195313 1.718899726868
14.445749282837 -67.339332580566 -204.175888061523 1.643079519272
-120.020637512207 -61.655326843262 -195.373397827148 2.970654726028
-107.642196655273 -55.425743103027 -191.515701293945 8.934971809387
-167.988830566406 -64.323242187500 -200.354568481445 2.733625173569
-24.930980682373 -65.840293884277 -198.826751708984 2.288856029510
9.310489654541 -66.953392028809 -198.592453002930 1.423649191856
-146.506958007813 -64.514671325684 -202.416412353516 2.497222900391
-139.373611450195 -68.661796569824 -205.635162353516 2.517050743103
-23.088462829590 -65.822021484375 -207.225173950195 3.924593210220
-13.351683616638 -69.918418884277 -204.639083862305 0.860002696514
-14.066099166870 -70.864608764648 -204.628768920898 1.718675494194
-138.497711181641 -69.942405700684 -199.877883911133 2.699140071869
-18.411529541016 -68.571273803711 -211.801437377930 3.245533943176
-9.482275962830 -77.072273254395 -213.258010864258 1.105085849762
17.753057479858 -65.991874694824 -210.718795776367 2.420557498932
-19.050855636597 -75.995338439941 -210.448959350586 2.186980247498
9.437827110291 -71.899673461914 -207.610397338867 0.684302389622
-12.320342063904 -71.657142639160 -213.797317504883 3.286085605621
-25.008550643921 -63.777034759521 -210.586029052734 7.631256103516
10.076365470886 -79.462432861328 -219.137969970703 0.756851971149
-3.986932992935 -77.989562988281 -217.390975952148 1.875944018364
10.521839141846 -64.919723510742 -219.464324951172 3.951867103577
-7.809500217438 -74.725975036621 -227.754409790039 0.915873110294
-162.061370849609 -66.249519348145 -225.447372436523 1.626668691635
79.361526489258 -77.544708251953 -218.554809570313 4.706082820892
-136.594375610352 -61.747791290283 -222.125671386719 5.856879234314
-136.294433593750 -68.515602111816 -219.288711547852 5.119793891907
-8.708947181702 -71.382164001465 -223.938125610352 0.569589853287
4.798823833466 -70.743423461914 -235.141021728516 1.853659987450
-159.738906860352 -64.556678771973 -230.384201049805 2.942838191986
89.416847229004 -71.560836791992 -219.704483032227 1.249511361122
-2.094687938690 -68.673492431641 -225.895507812500 0.954393267632
-0.074628002942 -71.027595520020 -219.514282226563 0.809123337269
72.780105590820 -78.413146972656 -230.845550537109 4.147361755371
-0.761096000671 -67.276283264160 -236.225082397461 1.009496808052
-14.252168655396 -71.666351318359 -222.720031738281 1.038171648979
-128.718856811523 -61.253948211670 -232.249084472656 4.068022251129
-6.752245903015 -70.590698242188 -237.475006103516 1.736622929573
1.796758055687 -67.664970397949 -228.613143920898 1.940473675728
65.304832458496 -69.876358032227 -237.475891113281 1.544682860374
-159.014907836914 -68.524665832520 -234.948532104492 2.684306621552
-14.691864013672 -68.579353332520 -244.995040893555 2.449831962585
-171.928604125977 -68.800041198730 -237.258743286133 3.714582443237
10.085914611816 -65.400718688965 -240.524536132813 0.688819825649
-164.132965087891 -67.497848510742 -236.883728027344 1.521432161331
-160.846527099609 -68.530090332031 -245.760650634766 0.907629013062
57.398479461670 -75.033370971680 -243.896743774414 1.659734845161
59.192680358887 -77.102066040039 -240.965179443359 2.670380353928
54.020046234131 -75.452728271484 -245.517745971680 3.299805641174
50.063526153564 -74.090888977051 -248.778945922852 1.571957588196
-153.091552734375 -68.019371032715 -240.705169677734 3.173074960709
-156.967117309570 -60.646099090576 -244.560195922852 6.699448108673
-13.597986221313 -77.767623901367 -248.025787353516 3.831961870193
-151.461837768555 -65.126785278320 -246.193420410156 1.945196151733
16.188982009888 -72.805618286133 -250.027908325195 3.273021459579
-173.309494018555 -73.649879455566 -249.472152709961 7.092831611633
-170.534820556641 -63.288051605225 -249.701721191406 6.637504100800
-83.430671691895 -71.661354064941 -244.951232910156 4.601680755615
-172.358963012695 -64.396286010742 -255.616806030273 7.511845111847
-86.238334655762 -68.970954895020 -257.493988037109 1.609195113182
41.941696166992 -72.453666687012 -253.067611694336 2.158198118210
20.065832138062 -77.176025390625 -256.470001220703 1.007004976273
-158.963470458984 -68.598861694336 -262.192932128906 2.195178508759
-102.291969299316 -59.415569305420 -259.355377197266 5.040829658508
38.870410919189 -73.212120056152 -253.445327758789 2.562343835831
-109.704956054688 -79.284286499023 -255.922363281250 5.877422809601
-154.427734375000 -63.289367675781 -265.086334228516 1.632828593254
-104.554519653320 -67.431076049805 -254.654235839844 2.630140542984
-171.419586181641 -70.248809814453 -257.471496582031 4.395719051361
-114.561004638672 -69.426147460938 -262.799560546875 2.617986917496
-155.195053100586 -70.153633117676 -264.818450927734 2.440785169601
-160.931594848633 -62.528591156006 -261.068695068359 5.609369754791
-166.757797241211 -65.245613098145 -262.357116699219 3.045819520950
-167.122375488281 -64.175674438477 -260.808502197266 4.590922355652
-167.121078491211 -66.623596191406 -262.327362060547 2.242546558380
-171.302658081055 -67.210609436035 -257.005676269531 5.194804668427
25.630880355835 -75.546401977539 -264.803009033203 3.604300737381
-148.818435668945 -73.626167297363 -260.307434082031 0.796428918839
-153.823089599609 -68.237792968750 -284.159423828125 1.672671556473
28.004611968994 -74.098724365234 -274.378448486328 7.298480510712
-14.310121536255 -76.899864196777 -273.436523437500 3.524726867676
-126.355613708496 -65.624496459961 -283.772247314453 2.894097805023
-137.957168579102 -68.819190979004 -285.190826416016 2.258304834366
-134.704666137695 -68.590797424316 -288.515228271484 1.614924311638
-130.231765747070 -69.204734802246 -284.352539062500 3.017567634583
-113.802215576172 -68.404304504395 -291.606536865234 0.813002109528
-104.780632019043 -64.172073364258 -282.381958007813 6.400627613068
5.211749076843 -79.740173339844 -294.848724365234 4.155380249023
-85.641220092773 -72.767990112305 -289.761779785156 1.840357542038
