-71.997558593750 -72.431877136230 -144.531707763672 1.517829298973
-70.091651916504 -73.155448913574 -147.746536254883 1.349839329720
117.322753906250 -69.081146240234 -147.846313476563 2.203797340393
-63.535221099854 -70.995239257813 -150.569061279297 3.061718463898
-39.509071350098 -70.583450317383 -151.408737182617 2.324845314026
30.174787521362 -67.969474792480 -150.599975585938 1.364090800285
-74.965545654297 -71.013351440430 -148.691390991211 0.890433311462
10.403445243835 -73.256477355957 -155.844360351563 1.633821725845
33.592857360840 -69.074913024902 -155.092468261719 2.396486759186
28.125061035156 -71.764076232910 -149.197662353516 1.628239870071
9.063252449036 -74.866798400879 -154.770767211914 1.782622456551
-47.675388336182 -69.720352172852 -153.323593139648 1.530980467796
26.380239486694 -70.703247070313 -151.865798950195 2.251739740372
-45.994922637939 -72.504798889160 -148.936050415039 2.268778085709
7.039933204651 -72.866607666016 -151.269546508789 2.881524085999
21.832233428955 -72.028587341309 -148.510620117188 1.036650657654
-71.785720825195 -74.059860229492 -153.902526855469 2.366328239441
-44.705860137939 -71.060554504395 -154.405838012695 1.319133996964
-69.135391235352 -69.190750122070 -159.432159423828 2.448758125305
12.926060676575 -67.111358642578 -161.780136108398 4.181016445160
22.056035995483 -71.712753295898 -147.136810302734 1.530257105827
2.250484228134 -70.050872802734 -161.768646240234 1.312566518784
21.803621292114 -69.732612609863 -154.993194580078 2.264738559723
30.038280487061 -72.226608276367 -162.628814697266 1.286015510559
-46.356338500977 -73.580146789551 -161.952331542969 1.200993418694
-32.717384338379 -71.427246093750 -160.417770385742 1.502622485161
-37.523391723633 -70.351669311523 -160.449691772461 1.804661989212
29.940790176392 -72.045242309570 -161.880752563477 1.571502566338
-44.590827941895 -71.682838439941 -166.150695800781 1.874843478203
-41.752403259277 -71.543342590332 -162.110443115234 1.258272886276
20.956010818481 -73.038520812988 -163.629547119141 1.911463737488
-41.050579071045 -71.268096923828 -172.528564453125 1.267314910889
31.582958221436 -69.577362060547 -171.760421752930 3.637912511826
116.454528808594 -69.629661560059 -164.405838012695 3.271072626114
-31.834955215454 -70.715888977051 -172.370162963867 0.634214460850
106.627044677734 -69.179992675781 -170.511413574219 2.585682392120
-33.448638916016 -69.032867431641 -176.946136474609 2.134928941727
-37.330375671387 -72.238861083984 -179.465072631836 1.110742211342
18.393379211426 -73.171157836914 -174.345169067383 1.129639387131
103.962799072266 -69.180465698242 -179.295684814453 2.112652778625
-28.397645950317 -70.776268005371 -183.151779174805 1.637834191322
-31.591688156128 -67.175910949707 -173.641159057617 1.926708102226
-22.485839843750 -72.824478149414 -185.839218139648 2.058997392654
-146.672790527344 -74.932144165039 -187.548660278320 1.136386990547
14.585277557373 -73.174133300781 -182.203735351563 0.565939962864
107.055580139160 -70.011260986328 -191.263244628906 1.326903939247
-157.146224975586 -71.198524475098 -194.041778564453 1.483556151390
-25.598884582520 -71.695648193359 -190.549682617188 1.611024618149
-114.811294555664 -69.917457580566 -195.086853027344 1.845918774605
-131.581512451172 -71.881584167480 -197.175628662109 1.119541883469
-107.985328674316 -69.702964782715 -200.739303588867 2.645518541336
-110.318046569824 -68.823081970215 -199.594924926758 1.874134659767
-14.927620887756 -69.048248291016 -197.842559814453 1.416950225830
20.015863418579 -72.997329711914 -196.787017822266 0.809574306011
-18.877204895020 -65.916374206543 -200.574920654297 1.802414655685
-124.508193969727 -69.928802490234 -203.117080688477 2.079967975616
-23.982311248779 -69.753173828125 -206.399948120117 2.942319631577
-129.892944335938 -74.365982055664 -202.810623168945 2.108310937881
-11.588243484497 -69.132675170898 -201.380722045898 2.701402664185
-143.799560546875 -71.220809936523 -203.814971923828 1.398271441460
91.489074707031 -70.638458251953 -208.103057861328 1.678228497505
-164.660369873047 -71.460403442383 -202.982894897461 1.071043252945
-1.213507771492 -73.341163635254 -213.066146850586 2.830570220947
12.651187896729 -67.151039123535 -210.494415283203 2.003585815430
10.004064559937 -68.112945556641 -215.971115112305 1.175417304039
83.742996215820 -70.780738830566 -217.613769531250 0.541747987270
5.223931789398 -68.775398254395 -214.548385620117 3.306192874908
15.657003402710 -71.463745117188 -213.310195922852 1.376703023911
-14.398623466492 -75.509498596191 -213.384246826172 1.419804215431
-88.869285583496 -71.107154846191 -215.185058593750 1.375623106956
-99.404800415039 -72.584373474121 -216.885162353516 1.848084211349
-2.861429214478 -70.253921508789 -220.516540527344 1.282322049141
-167.457168579102 -71.730819702148 -227.919906616211 1.077022194862
12.850623130798 -69.580833435059 -219.891052246094 1.480021476746
-142.838821411133 -72.214797973633 -222.875701904297 1.661564230919
12.526025772095 -69.226783752441 -225.076004028320 1.964319705963
-133.547348022461 -71.914421081543 -222.414825439453 2.544437170029
-115.570930480957 -71.086769104004 -226.999465942383 0.895935893059
18.806524276733 -67.290504455566 -223.287811279297 4.591797351837
75.672637939453 -70.591064453125 -227.116638183594 2.004881381989
5.640288352966 -69.015998840332 -224.266967773438 2.659939765930
-113.377922058105 -72.972061157227 -224.079284667969 3.309486865997
75.599533081055 -70.511917114258 -226.753890991211 1.750657200813
80.440521240234 -72.332702636719 -230.124664306641 1.565784215927
-122.061302185059 -71.862701416016 -230.754348754883 0.927226364613
-117.250694274902 -73.136680603027 -231.795257568359 2.093422651291
-10.676070213318 -70.809127807617 -230.742401123047 0.709712326527
70.839363098145 -73.270355224609 -227.823226928711 2.056088209152
66.847999572754 -70.183204650879 -234.937927246094 1.501660466194
74.019638061523 -70.257164001465 -232.154174804688 2.052326679230
-132.954711914063 -72.793418884277 -236.559738159180 3.103059291840
70.583404541016 -74.580108642578 -233.847991943359 1.122083663940
66.021697998047 -73.310218811035 -234.985504150391 1.924672842026
-166.661132812500 -73.488197326660 -227.750213623047 2.037567853928
0.188300162554 -73.674697875977 -240.236511230469 1.343040466309
16.441551208496 -70.737907409668 -242.928527832031 2.736037731171
-3.753452777863 -72.610206604004 -241.002639770508 0.913779258728
14.741868972778 -73.236999511719 -241.632553100586 1.411352515221
67.916007995605 -72.526924133301 -239.313781738281 0.980386495590
11.118475914001 -74.023231506348 -239.828887939453 2.360578775406
-7.830175876617 -68.089378356934 -243.004745483398 2.212071418762
-1.725917339325 -71.729682922363 -243.759658813477 2.063759803772
66.401100158691 -71.176391601563 -243.927536010742 2.277217626572
6.619269847870 -73.763252258301 -244.440490722656 1.437770843506
-9.017476081848 -71.625755310059 -240.637832641602 1.259760141373
14.988623619080 -72.926345825195 -245.631393432617 1.834455013275
-165.660583496094 -68.014411926270 -240.954620361328 1.565136551857
60.935596466064 -69.575981140137 -248.478942871094 2.480522632599
52.968303680420 -70.417236328125 -249.621978759766 1.676624059677
56.868000030518 -74.030952453613 -241.302352905273 2.361640930176
-12.938408851624 -70.973594665527 -250.488830566406 1.858032226563
55.816982269287 -73.916908264160 -245.480911254883 2.131544828415
-73.023254394531 -72.648712158203 -248.198211669922 1.588811516762
52.214622497559 -72.616638183594 -250.213195800781 1.191988825798
-89.026565551758 -73.466957092285 -253.605499267578 2.002613544464
-126.690261840820 -73.785118103027 -253.732910156250 1.619779229164
-133.826919555664 -68.144912719727 -252.565399169922 2.108119249344
49.168872833252 -70.477722167969 -255.060607910156 2.454276800156
-136.638351440430 -70.083602905273 -256.318695068359 1.656727194786
-107.105239868164 -76.533668518066 -253.757843017578 4.795735359192
-111.865684509277 -70.408317565918 -257.309082031250 1.765268445015
-83.396629333496 -72.307228088379 -252.301910400391 2.869202375412
-111.777084350586 -73.321510314941 -262.197479248047 1.725451707840
-124.057792663574 -70.038955688477 -264.310638427734 1.456913113594
-144.211135864258 -70.886520385742 -265.696380615234 1.285458683968
-12.948456764221 -72.618644714355 -260.560394287109 2.996445894241
-170.360290527344 -70.739418029785 -265.831665039063 3.828922748566
-10.515078544617 -74.107810974121 -271.056243896484 3.328544378281
-158.205657958984 -67.622940063477 -266.092529296875 2.150283575058
-153.419982910156 -68.693519592285 -273.115997314453 2.484391212463
-168.324096679688 -67.709297180176 -274.785186767578 2.383415460587
-11.973087310791 -69.266258239746 -275.478332519531 1.513519406319
-133.090759277344 -72.076377868652 -283.252563476563 1.166503429413
-157.662384033203 -69.149330139160 -287.327575683594 2.215807914734
-143.445999145508 -70.955841064453 -281.662872314453 2.050894737244
-135.373474121094 -74.063949584961 -284.363922119141 0.564835071564
-8.290976524353 -71.141212463379 -282.213226318359 1.413248896599
-124.029258728027 -75.561065673828 -283.080200195313 2.330416440964
-141.236373901367 -72.254936218262 -285.341766357422 0.459282606840
-114.442672729492 -70.271186828613 -285.348358154297 1.688038825989
-76.683074951172 -70.010589599609 -288.491546630859 1.078995585442
-61.527927398682 -71.425025939941 -284.316925048828 2.411481142044
-4.828138828278 -72.057762145996 -287.837677001953 0.875785589218
-50.364452362061 -72.322036743164 -289.500366210938 1.514585852623
-60.107498168945 -72.439506530762 -287.437866210938 1.529407262802
-68.794456481934 -69.787902832031 -290.602447509766 0.788363397121
-86.329292297363 -72.439796447754 -294.112365722656 2.758941173553
-101.949920654297 -66.834877014160 -289.128875732422 2.399865627289
-159.927490234375 -70.658836364746 -290.655944824219 1.205963850021
-157.745407104492 -71.020141601563 -289.716613769531 1.441923022270
-125.861679077148 -73.418075561523 -295.939331054688 1.790584921837
-144.613906860352 -71.748870849609 -293.971221923828 1.196571230888
-156.326721191406 -70.794197082520 -299.464843750000 2.069747209549
-146.638565063477 -71.767814636230 -315.502380371094 3.134529352188
46.902008056641 -69.616844177246 -18.988763809204 1.532295107841
19.968645095825 -76.329978942871 -25.681669235229 4.630031585693
44.159713745117 -71.624023437500 -35.546707153320 1.823657035828
-18.081306457520 -73.022979736328 -65.784332275391 1.080749511719
81.494132995605 -69.990570068359 -65.617118835449 1.505263805389
85.846664428711 -66.389167785645 -69.101577758789 4.087382793427
76.671775817871 -69.582893371582 -70.013359069824 2.669094800949
76.566307067871 -70.496475219727 -67.534431457520 1.212596416473
95.308029174805 -72.739166259766 -73.113899230957 0.824253976345
-95.018394470215 -72.066101074219 -71.948417663574 3.062109470367
69.878578186035 -72.768318176270 -76.964843750000 1.404851675034
-35.708446502686 -68.384063720703 -76.352500915527 1.234860181808
99.765655517578 -71.736907958984 -86.416664123535 1.783066749573
63.371578216553 -74.780158996582 -88.944946289063 4.259706020355
109.156463623047 -70.942749023438 -92.257202148438 4.534792423248
106.086654663086 -72.907020568848 -97.471778869629 1.167770028114
71.666702270508 -72.122344970703 -97.298110961914 1.021656632423
-77.674743652344 -72.646873474121 -98.834220886230 0.656484603882
55.708156585693 -72.580345153809 -105.700057983398 2.732991218567
107.389709472656 -71.705078125000 -104.925407409668 1.010685801506
49.365737915039 -75.478622436523 -112.232467651367 0.931614398956
83.866119384766 -71.216606140137 -102.170326232910 0.462789624929
43.403812408447 -74.228446960449 -108.550170898438 3.189274549484
106.987594604492 -69.160263061523 -100.683830261230 1.126899003983
48.669300079346 -69.744110107422 -107.162460327148 0.292476177216
111.411277770996 -72.987617492676 -111.648796081543 1.376548290253
108.660522460938 -70.480583190918 -114.699470520020 1.316327929497
-78.159812927246 -65.760498046875 -113.554626464844 1.655025005341
-78.140930175781 -70.521514892578 -115.459983825684 0.537935316563
43.736732482910 -71.539054870605 -118.654846191406 1.640261650085
115.937988281250 -68.250717163086 -117.309753417969 3.482649326324
115.891288757324 -68.512939453125 -122.089706420898 2.793941020966
-81.436470031738 -70.649459838867 -126.284317016602 2.099322319031
108.610557556152 -70.073204040527 -121.906219482422 2.017889022827
-62.679912567139 -71.564399719238 -133.451141357422 2.550715446472
-87.252792358398 -68.893424987793 -126.463455200195 2.004260540009
-74.340545654297 -69.280250549316 -128.191635131836 1.307495951653
-56.888965606689 -66.028068542480 -125.087509155273 0.763029754162
34.545837402344 -69.853713989258 -129.387283325195 1.732525467873
42.052749633789 -70.702331542969 -133.226715087891 2.903297662735
-74.748451232910 -71.376823425293 -135.478713989258 1.689706683159
29.034259796143 -69.198913574219 -130.648880004883 2.061671495438
107.556388854980 -72.148490905762 -136.504333496094 1.937664270401
-39.933383941650 -70.873123168945 -147.488281250000 2.051422119141
26.112297058105 -69.291290283203 -145.942672729492 2.404415845871
112.896041870117 -66.311798095703 -145.572143554688 3.372603416443
35.732654571533 -71.867454528809 -143.411376953125 1.796233654022
111.805610656738 -71.249473571777 -142.870193481445 1.962596654892
-53.988601684570 -71.496498107910 -147.621887207031 1.934930562973
-66.603782653809 -72.291778564453 -149.397842407227 0.677458405495
-52.110218048096 -72.779518127441 -154.352249145508 2.128994703293
-43.140377044678 -70.074134826660 -166.910202026367 1.763740897179
3.958248376846 -68.834304809570 -154.018493652344 3.583947658539
111.174232482910 -66.965446472168 -153.947296142578 2.491963863373
109.155639648438 -69.336143493652 -159.405105590820 1.882855772972
9.583337783813 -66.594604492188 -159.037734985352 2.509351491928
3.223564863205 -70.496055603027 -160.659347534180 0.996427416801
15.910210609436 -69.044151306152 -158.232147216797 1.636048555374
22.817909240723 -69.493827819824 -151.039169311523 0.509589910507
114.409042358398 -72.659744262695 -165.197998046875 2.424079179764
107.515907287598 -72.199073791504 -170.579116821289 2.207166671753
26.109766006470 -69.271705627441 -172.296844482422 1.319532036781
27.386344909668 -69.497444152832 -162.921905517578 1.832530736923
115.208290100098 -70.111289978027 -161.547393798828 1.496705412865
-29.460512161255 -69.227729797363 -173.538909912109 0.934358417988
112.018257141113 -69.057731628418 -169.479156494141 1.750734567642
19.740510940552 -67.702545166016 -175.549209594727 2.211194992065
18.898235321045 -71.993225097656 -164.816024780273 1.342056632042
109.465919494629 -69.349571228027 -175.760726928711 0.744187355042
24.797067642212 -70.430709838867 -169.975204467773 1.508733272552
110.578010559082 -68.596221923828 -180.772338867188 3.261572360992
-38.831062316895 -68.704589843750 -175.687423706055 3.080094337463
27.686056137085 -67.886398315430 -172.198089599609 1.528120517731
108.243499755859 -69.716957092285 -184.000320434570 1.281156063080
24.666221618652 -69.077705383301 -178.065063476563 2.193782329559
-152.620925903320 -67.837501525879 -182.847976684570 2.327595710754
-30.504501342773 -69.997192382813 -187.799972534180 1.645124912262
25.719968795776 -71.440261840820 -184.791244506836 2.306226968765
-111.563827514648 -70.237205505371 -193.066787719727 0.566016256809
-111.029205322266 -71.172309875488 -189.027816772461 2.202161073685
22.138978958130 -68.064941406250 -191.169860839844 2.530604600906
13.098041534424 -71.289367675781 -185.854232788086 0.517487943172
-25.977901458740 -72.172851562500 -190.687698364258 1.524429917336
-28.728172302246 -71.052459716797 -187.218215942383 1.728852033615
-25.221635818481 -71.475143432617 -185.152770996094 1.517638564110
20.351383209229 -72.277664184570 -178.617691040039 3.107967853546
-151.864761352539 -70.039421081543 -192.995208740234 1.327887892723
-144.878707885742 -71.890190124512 -197.407211303711 1.779172062874
-140.835876464844 -70.266677856445 -193.964202880859 1.726373434067
-19.100330352783 -67.777961730957 -191.128326416016 1.445563197136
14.925811767578 -70.047363281250 -198.599121093750 2.361505508423
99.666587829590 -71.319564819336 -195.189453125000 2.546702146530
-114.670860290527 -70.069877624512 -200.989318847656 1.925355195999
19.160564422607 -69.013259887695 -200.651641845703 1.435717463493
-16.417524337769 -69.302917480469 -195.450729370117 1.442362189293
-18.121498107910 -68.978065490723 -196.491958618164 1.220454692841
98.388000488281 -69.851348876953 -199.875015258789 2.236640691757
9.041818618774 -71.693862915039 -199.198318481445 1.504162788391
-24.350191116333 -69.317939758301 -194.703063964844 1.442505836487
-121.502708435059 -71.930183410645 -201.665512084961 0.823756039143
-133.684143066406 -69.025062561035 -200.679321289063 2.781798362732
-110.680053710938 -68.405975341797 -205.563446044922 3.789638519287
-144.050140380859 -70.673751831055 -203.674484252930 1.540057420731
20.638252258301 -71.077171325684 -197.001434326172 0.681556105614
96.234611511230 -71.789665222168 -206.292877197266 2.437538146973
-166.264648437500 -69.031776428223 -204.792282104492 1.415898799896
101.263763427734 -70.731971740723 -202.872390747070 2.120037555695
-16.607723236084 -70.201873779297 -208.981613159180 2.213116645813
92.953987121582 -74.621505737305 -213.242172241211 2.178059101105
90.276023864746 -68.347831726074 -216.578567504883 1.124172806740
12.846700668335 -69.246856689453 -210.683197021484 1.727554440498
16.684499740601 -70.834838867188 -210.095901489258 2.002077817917
11.133110046387 -70.244979858398 -209.979293823242 1.967932701111
-9.352583885193 -69.739585876465 -218.992996215820 1.930761337280
-96.960380554199 -69.515441894531 -217.688278198242 0.785380959511
-6.790351867676 -71.746475219727 -217.304779052734 2.754973173141
91.833526611328 -69.205978393555 -213.820312500000 1.880979537964
-91.686973571777 -72.007911682129 -220.473190307617 2.010021448135
-101.982063293457 -72.145912170410 -220.285507202148 1.474000692368
-93.378807067871 -70.288970947266 -219.534271240234 1.755622148514
88.640228271484 -72.450134277344 -221.189422607422 1.671922683716
-134.029403686523 -72.040161132813 -225.966323852539 1.000580787659
-133.031784057617 -65.010047912598 -228.821304321289 1.353485584259
-118.356056213379 -69.545524597168 -226.347564697266 2.106868267059
-112.380760192871 -68.190902709961 -225.383544921875 0.597809970379
-132.650817871094 -68.743545532227 -222.601119995117 1.770547628403
-107.285232543945 -75.631484985352 -226.610229492188 3.207937479019
-113.629447937012 -68.483276367188 -227.801040649414 1.770020008087
-9.435746192932 -68.713073730469 -224.479583740234 1.572760581970
-18.786005020142 -71.926322937012 -224.847564697266 2.204270124435
-0.658546328545 -70.615562438965 -232.110626220703 0.988711416721
-8.936562538147 -68.758934020996 -228.228607177734 1.413467407227
15.835160255432 -71.565856933594 -231.851226806641 1.305494308472
-17.336143493652 -71.029556274414 -227.456344604492 1.018221855164
-162.883697509766 -70.317680358887 -223.868072509766 2.612082481384
-1.761238813400 -69.027709960938 -231.041122436523 1.983609795570
82.046829223633 -70.729843139648 -228.777206420898 1.239812254906
8.803101539612 -69.547744750977 -235.552169799805 1.778130769730
-8.418107986450 -69.431640625000 -230.040512084961 1.824261903763
-155.151733398438 -66.925521850586 -234.391784667969 2.182407140732
-138.760574340820 -71.371696472168 -233.338104248047 2.241946220398
68.354652404785 -67.155143737793 -235.445678710938 1.220882296562
-6.485604763031 -70.095108032227 -234.059295654297 0.466443091631
3.953977108002 -69.796257019043 -234.153945922852 2.049836635590
72.141906738281 -70.024467468262 -237.161163330078 1.120357036591
77.735679626465 -71.566642761230 -235.082885742188 1.805366277695
68.328346252441 -72.711944580078 -237.195144653320 1.964409947395
-1.770761013031 -68.609802246094 -236.041488647461 1.073524713516
56.009674072266 -70.391311645508 -238.678543090820 2.207516670227
-16.398710250854 -70.062881469727 -238.427093505859 1.231558084488
-15.596058845520 -69.116081237793 -240.261611938477 1.983776926994
9.483839035034 -70.611961364746 -239.408813476563 1.830779194832
66.638702392578 -70.361289978027 -243.208679199219 1.554702877998
60.980678558350 -70.526603698730 -238.969879150391 1.825884461403
52.940559387207 -67.689048767090 -246.667114257813 1.417328715324
62.172821044922 -72.493492126465 -243.588821411133 1.381899118423
-16.193269729614 -68.466247558594 -247.874328613281 2.274420976639
-83.292037963867 -68.401832580566 -248.246307373047 3.286864757538
-76.766380310059 -67.102111816406 -252.490570068359 3.305742263794
43.304553985596 -70.321662902832 -249.803802490234 1.242442607880
-143.360198974609 -67.629486083984 -249.886657714844 3.385625839233
39.628559112549 -70.891685485840 -256.925018310547 1.683907866478
-87.256225585938 -70.507209777832 -251.711700439453 1.002585053444
-153.736145019531 -70.335769653320 -255.849945068359 1.320889592171
-142.362686157227 -69.311141967773 -255.377319335938 0.762362599373
48.657676696777 -71.528472900391 -251.826019287109 1.281559228897
-125.642875671387 -68.089462280273 -253.652862548828 1.515625000000
-116.458923339844 -69.390724182129 -256.194488525391 0.972998559475
-94.523941040039 -69.148033142090 -255.113647460938 1.819471240044
-15.953982353210 -73.816993713379 -254.136199951172 2.307066202164
32.280635833740 -70.652793884277 -259.137664794922 0.858319282532
23.135086059570 -72.224868774414 -260.777069091797 1.606945157051
-155.852020263672 -69.529998779297 -256.780487060547 0.829772770405
-113.583526611328 -70.829551696777 -263.162567138672 1.131983876228
-12.794381141663 -70.742782592773 -259.654388427734 3.029160261154
-134.094345092773 -69.566223144531 -265.047210693359 1.582865834236
-12.330924034119 -68.718307495117 -271.483459472656 1.597593784332
-163.821090698242 -69.581069946289 -277.120056152344 2.545309066772
-9.192159652710 -67.945121765137 -277.878173828125 0.649272024632
-162.562927246094 -68.371963500977 -289.401947021484 1.631439566612
-159.225265502930 -69.331665039063 -277.100799560547 1.668867111206
-147.281967163086 -68.755996704102 -285.245727539063 2.540228128433
-168.445434570313 -69.678009033203 -283.855102539063 1.601522088051
17.431560516357 -67.212516784668 -287.236663818359 2.322714805603
-103.988960266113 -72.835151672363 -286.364288330078 2.032752513885
-87.344573974609 -68.904136657715 -285.886383056641 1.876357316971
-168.391906738281 -69.162376403809 -284.456970214844 1.785180687904
-89.515823364258 -70.615783691406 -288.702026367188 1.796123623848
-153.876281738281 -72.747848510742 -288.321380615234 3.205943107605
-74.192352294922 -70.901138305664 -290.438964843750 2.400798559189
-67.272331237793 -70.087905883789 -289.320404052734 1.252149939537
-81.240242004395 -68.788032531738 -290.189910888672 1.976727485657
-3.051300048828 -65.807945251465 -288.664611816406 1.741284489632
-84.232421875000 -70.798553466797 -291.511077880859 2.138258457184
-97.521339416504 -70.238845825195 -291.304534912109 1.458531379700
-115.869430541992 -69.654228210449 -292.691711425781 0.951845347881
-116.053901672363 -68.767814636230 -294.008148193359 1.714692115784
-136.853408813477 -66.077667236328 -292.935821533203 2.643443346024
-142.320953369141 -74.810165405273 -300.190063476563 2.039247035980
-144.338150024414 -73.796363830566 -310.819458007813 1.284053683281
25.131767272949 -70.457954406738 -16.899188995361 1.239480137825
30.510852813721 -67.829185485840 -20.959537506104 2.483014583588
29.815338134766 -72.323692321777 -17.589307785034 0.587254226208
45.529514312744 -71.309211730957 -24.666551589966 0.805701255798
23.862091064453 -71.680984497070 -31.422899246216 1.798804759979
-77.769584655762 -67.999458312988 -49.418937683105 2.228724479675
87.307373046875 -68.728897094727 -64.262031555176 1.007759690285
-13.309575080872 -69.833396911621 -67.739013671875 2.192908763885
101.266197204590 -70.161705017090 -71.526107788086 2.650613546371
96.406265258789 -68.485664367676 -77.339744567871 3.728206157684
71.871208190918 -73.958084106445 -80.146919250488 1.536753892899
68.152885437012 -69.023567199707 -85.231086730957 1.749539017677
-47.412200927734 -70.035942077637 -82.427986145020 2.657221794128
60.615825653076 -69.641723632813 -82.282577514648 2.337168455124
-97.833877563477 -70.055778503418 -88.016387939453 2.790820360184
-49.704849243164 -69.446067810059 -87.596755981445 1.962612390518
-55.772350311279 -74.574867248535 -87.295013427734 4.015570640564
97.071502685547 -71.049522399902 -96.228897094727 1.442841410637
57.260524749756 -71.113487243652 -98.641433715820 1.324309229851
62.602554321289 -67.638702392578 -91.151519775391 0.947404086590
-95.735107421875 -68.051353454590 -95.417549133301 2.232397317886
108.692573547363 -67.719871520996 -94.592193603516 2.944537639618
47.403335571289 -69.265609741211 -95.616722106934 1.115785717964
101.129516601563 -68.382369995117 -97.158821105957 0.156424611807
106.375068664551 -69.238159179688 -105.993064880371 2.333307027817
101.714263916016 -68.880332946777 -104.459793090820 2.204237699509
74.523742675781 -68.882118225098 -103.800979614258 0.534112691879
86.777061462402 -69.721549987793 -105.960113525391 2.370207786560
47.906867980957 -72.083839416504 -110.454010009766 1.817497611046
109.210693359375 -68.783546447754 -106.621650695801 2.007076978683
45.841663360596 -69.758049011230 -108.261627197266 1.464044094086
45.568817138672 -67.213638305664 -100.964706420898 1.243784904480
109.025718688965 -70.929229736328 -113.584152221680 0.938015580177
-79.024856567383 -67.497917175293 -108.859863281250 0.920550107956
47.545593261719 -68.371688842773 -113.687164306641 1.613775253296
36.338226318359 -69.916702270508 -112.178855895996 2.443541765213
106.172981262207 -69.720359802246 -108.265472412109 0.932751536369
43.035114288330 -68.087097167969 -112.312583923340 0.802290201187
-89.394378662109 -68.420989990234 -117.436851501465 1.186727643013
-96.904930114746 -68.643898010254 -115.949020385742 1.466416358948
108.391731262207 -67.586700439453 -120.292556762695 1.517436265945
-92.943908691406 -72.773292541504 -116.893119812012 1.160855054855
39.216941833496 -68.530052185059 -122.563934326172 0.976588606834
37.394104003906 -68.766242980957 -117.278335571289 1.230203151703
-79.298950195313 -69.889022827148 -123.625625610352 1.520440220833
29.745151519775 -67.038383483887 -131.487731933594 2.905907392502
109.330757141113 -69.870170593262 -132.475143432617 1.187559008598
-49.169464111328 -69.526428222656 -135.725067138672 1.170548558235
-88.824874877930 -70.157981872559 -130.368591308594 1.794797778130
36.223392486572 -69.992813110352 -136.006820678711 1.594910383224
-88.995254516602 -68.615074157715 -135.074737548828 1.343946218491
-90.265357971191 -70.913238525391 -135.848632812500 1.475262403488
-47.905971527100 -72.041015625000 -136.276702880859 0.667693614960
-71.613449096680 -69.968574523926 -139.250625610352 1.077444791794
-49.977882385254 -68.773719787598 -136.933532714844 1.759334802628
113.797927856445 -67.580238342285 -138.256378173828 1.356543302536
-74.955200195313 -66.516593933105 -140.397430419922 1.162264585495
35.778022766113 -69.802528381348 -130.322708129883 1.408944606781
-76.661338806152 -67.096664428711 -138.519668579102 1.938091635704
-76.948432922363 -68.145309448242 -133.847869873047 1.317455291748
-86.997276306152 -69.458473205566 -136.194107055664 1.337164402008
-54.960254669189 -69.158683776855 -150.585952758789 1.820355176926
31.602739334106 -67.688888549805 -148.502120971680 1.524500727654
31.318147659302 -68.593772888184 -151.311523437500 2.046828508377
19.305477142334 -67.853050231934 -144.456481933594 1.689356565475
113.592971801758 -71.294670104980 -148.473846435547 2.224600553513
-97.271369934082 -72.964561462402 -155.115417480469 4.519345283508
17.088064193726 -70.150581359863 -148.489044189453 0.699683070183
-70.303291320801 -70.907302856445 -148.035339355469 0.635150194168
23.338640213013 -68.643562316895 -149.473052978516 1.907172560692
-45.883819580078 -68.018379211426 -154.093704223633 1.155052304268
8.054356575012 -66.839019775391 -149.753021240234 3.551216363907
9.526349067688 -68.893745422363 -156.330062866211 1.243115901947
17.924028396606 -69.271476745605 -162.537033081055 2.998694896698
-46.079593658447 -70.270996093750 -163.095764160156 1.154026269913
-40.469223022461 -65.836692810059 -153.045455932617 3.550931930542
-45.960681915283 -67.959800720215 -157.218627929688 1.991857647896
-101.831169128418 -68.348808288574 -169.684066772461 1.429759979248
19.126256942749 -66.625251770020 -171.752838134766 1.243956208229
-36.872882843018 -70.131141662598 -173.344421386719 1.908691525459
13.988373756409 -64.782981872559 -177.988052368164 4.641122817993
-145.945343017578 -72.518066406250 -172.561508178711 3.283099174500
-34.124977111816 -65.879089355469 -174.354766845703 2.808739185333
-151.978897094727 -66.992179870605 -176.374343872070 1.693444371223
19.988922119141 -69.862998962402 -181.186752319336 2.280932426453
-32.306331634521 -71.887107849121 -171.747039794922 1.112198948860
-108.481979370117 -71.185653686523 -181.604492187500 2.107703685760
-105.329887390137 -69.332656860352 -182.135910034180 1.361601114273
-31.962745666504 -67.456199645996 -181.807052612305 1.587628245354
-19.420465469360 -69.597999572754 -185.701583862305 1.564405560493
14.965049743652 -69.515327453613 -189.171203613281 1.664798736572
19.700904846191 -68.894699096680 -195.336273193359 1.371320962906
16.769557952881 -64.964469909668 -186.920455932617 2.952760219574
-140.868240356445 -69.618766784668 -186.054016113281 1.330358624458
17.267309188843 -68.726593017578 -192.401367187500 1.634377002716
10.472192764282 -70.048484802246 -197.193695068359 1.526281118393
-140.147872924805 -67.317680358887 -196.006698608398 0.761974275112
-117.476593017578 -70.051086425781 -197.702484130859 2.451303005219
15.468356132507 -67.417961120605 -197.762115478516 1.460155487061
-112.266593933105 -71.102272033691 -193.597717285156 1.273960828781
-108.376533508301 -70.381477355957 -191.537643432617 2.693049669266
-162.789657592773 -71.533866882324 -199.461563110352 1.167837858200
-19.482091903687 -72.629486083984 -202.228790283203 2.747864961624
16.200477600098 -66.495109558105 -201.613723754883 1.801486015320
-138.633804321289 -66.806190490723 -200.536499023438 3.031237125397
-133.510559082031 -69.485435485840 -206.646896362305 2.220333099365
-18.343538284302 -67.977729797363 -206.306503295898 1.133422255516
-11.503728866577 -68.112304687500 -203.668930053711 1.882228374481
-15.051106452942 -69.918327331543 -208.245223999023 2.278926610947
-145.021148681641 -71.130943298340 -207.330123901367 1.670769929886
-18.228050231934 -71.131973266602 -206.730072021484 0.913378298283
-12.179630279541 -67.252212524414 -211.081878662109 1.790862560272
16.295164108276 -68.318817138672 -209.348037719727 1.089598655701
-10.946986198425 -69.089248657227 -208.905654907227 2.341813802719
11.142844200134 -65.990402221680 -211.781433105469 2.421947956085
-7.818834781647 -70.658050537109 -216.508819580078 1.356117248535
-15.745169639587 -71.031318664551 -211.387329101563 1.128127336502
12.153671264648 -69.016464233398 -223.466201782227 0.451564431190
-2.550990819931 -70.122718811035 -219.451095581055 1.634096860886
12.401025772095 -67.852348327637 -221.818115234375 1.727091550827
-4.533023834229 -70.472213745117 -223.676437377930 2.145133972168
-157.656417846680 -69.304931640625 -221.464614868164 0.929693579674
83.630867004395 -69.856163024902 -221.200759887695 2.029090166092
-134.200912475586 -68.729850769043 -222.565368652344 2.391628265381
-134.133102416992 -68.790046691895 -224.405899047852 0.652693212032
-8.255773544312 -69.173744201660 -226.885208129883 1.502234816551
12.936174392700 -70.798614501953 -233.048416137695 1.709667921066
-152.021362304688 -67.876823425293 -223.416046142578 0.872604846954
85.726669311523 -67.095329284668 -220.884048461914 2.062631130219
-5.615511417389 -69.225601196289 -224.027923583984 0.536423027515
2.479226589203 -70.475631713867 -226.275039672852 1.646309971809
72.858207702637 -68.868782043457 -227.543563842773 1.979542493820
3.584864616394 -70.313774108887 -232.294784545898 2.584972858429
-16.778585433960 -68.351867675781 -230.469680786133 2.461252689362
-122.142623901367 -72.326499938965 -235.874176025391 2.940755844116
-3.774121761322 -69.179969787598 -236.610427856445 1.098296403885
0.799381136894 -69.571586608887 -233.395431518555 0.896691262722
67.808128356934 -70.315216064453 -236.680496215820 1.825167179108
-160.430679321289 -68.481742858887 -238.668640136719 1.673112154007
-9.774311065674 -69.096237182617 -245.265243530273 2.793748617172
-166.229888916016 -70.279220581055 -238.664413452148 1.256049871445
8.947396278381 -70.519485473633 -243.846878051758 0.805744528770
-166.248672485352 -68.470214843750 -238.212448120117 0.901519119740
-157.992492675781 -66.984298706055 -243.012298583984 1.852447152138
55.226268768311 -71.325889587402 -249.565490722656 2.781813144684
64.158813476563 -67.612556457520 -243.585510253906 1.505568981171
55.875194549561 -68.559829711914 -242.856384277344 2.241153955460
51.242137908936 -71.322929382324 -248.145965576172 1.650770902634
-159.472518920898 -68.283187866211 -245.455413818359 0.841645121574
-153.644088745117 -69.820129394531 -250.196990966797 2.947259187698
-14.775129318237 -68.501571655273 -247.753997802734 1.003515243530
-153.098144531250 -68.279891967773 -246.289062500000 2.220616102219
21.548820495605 -71.854972839355 -254.072265625000 2.104284048080
-165.972152709961 -68.780044555664 -250.531494140625 0.656479954720
-167.511245727539 -65.305984497070 -243.874984741211 3.508850097656
-80.631858825684 -67.759269714355 -251.391784667969 2.387056350708
-169.484130859375 -69.996734619141 -263.840362548828 2.101559400558
-85.603668212891 -69.810287475586 -257.559020996094 2.064758062363
39.231086730957 -65.871994018555 -250.591766357422 0.386418163776
24.297441482544 -72.382659912109 -255.386810302734 1.819560050964
-158.170562744141 -67.049995422363 -258.837799072266 2.358065605164
-101.033546447754 -66.302627563477 -259.841247558594 1.630804300308
39.288673400879 -69.061576843262 -257.865478515625 1.460366725922
-100.981498718262 -69.687988281250 -259.076873779297 1.141112923622
-152.608566284180 -65.547615051270 -260.139160156250 2.126014471054
-106.443763732910 -66.753829956055 -258.890106201172 0.566691398621
-163.537124633789 -68.840827941895 -258.651458740234 1.088022112846
-112.814300537109 -70.208625793457 -261.822692871094 0.926517069340
-153.503814697266 -70.179306030273 -266.679992675781 1.868617892265
-156.997680664063 -70.909790039063 -263.453948974609 1.711156964302
-166.526535034180 -71.109359741211 -263.992797851563 1.602362394333
-160.342590332031 -68.713920593262 -263.586395263672 1.507308244705
-165.313095092773 -66.936378479004 -267.624176025391 2.334324121475
-162.434494018555 -65.785278320313 -266.587249755859 3.654129266739
24.589801788330 -70.119186401367 -264.024688720703 1.457869172096
-150.017227172852 -67.947532653809 -266.333068847656 1.601286768913
-147.579940795898 -67.553352355957 -285.180694580078 2.893213510513
19.237134933472 -74.164360046387 -278.717590332031 2.482677459717
-8.635323524475 -68.186264038086 -274.922943115234 2.718437910080
-126.101051330566 -71.842216491699 -284.026306152344 1.341550350189
-136.509323120117 -73.831604003906 -287.039581298828 1.708933711052
-136.639205932617 -69.031646728516 -286.338989257813 1.455945253372
-127.125648498535 -67.455032348633 -284.977844238281 0.300322264433
-115.845039367676 -68.545036315918 -287.661499023438 0.991260528564
-107.353080749512 -70.200897216797 -287.104919433594 0.677095890045
12.377436637878 -68.701065063477 -290.523651123047 2.061367273331
-88.129219055176 -68.169265747070 -286.260162353516 2.673945903778
-147.159088134766 -70.376533508301 -292.974243164063 2.202485561371
-99.564834594727 -67.284683227539 -288.904968261719 1.310744047165
-126.897422790527 -67.979530334473 -291.220764160156 2.084047794342
11.014491081238 -73.942169189453 -288.626342773438 2.582607984543
-114.285575866699 -70.623565673828 -292.952819824219 0.737255930901
1.515969157219 -69.567398071289 -289.912689208984 2.275978326797
-142.492706298828 -70.330238342285 -289.949279785156 2.434284210205
-155.015838623047 -71.268531799316 -299.602600097656 1.287965297699
-160.496566772461 -70.221557617188 -308.534698486328 4.755497932434
-153.034423828125 -70.464241027832 -311.452575683594 2.011799097061
49.808917999268 -72.466316223145 -24.516305923462 1.574280142784
20.571840286255 -70.379936218262 -31.856119155884 0.972150325775
34.757129669189 -70.980979919434 -37.174285888672 0.737838864326
-49.404933929443 -68.644790649414 -49.782287597656 2.842465400696
-13.802669525146 -67.790573120117 -61.141899108887 1.565503120422
94.088653564453 -73.167900085449 -72.259742736816 1.445801973343
67.905738830566 -67.562225341797 -68.484474182129 2.276885032654
-20.768392562866 -70.678329467773 -74.164093017578 1.187342166901
-93.509506225586 -69.532630920410 -81.823791503906 2.180885314941
-39.645851135254 -69.910331726074 -79.026863098145 2.180709123611
65.128219604492 -69.256401062012 -81.303878784180 1.899261593819
57.319675445557 -73.052909851074 -84.918670654297 3.242022037506
57.090442657471 -69.972923278809 -86.823692321777 1.273297071457
-56.680217742920 -70.215476989746 -86.366050720215 3.405187129974
67.538482666016 -67.805038452148 -88.077362060547 2.206500291824
45.193408966064 -72.431007385254 -96.036659240723 1.725358128548
67.256568908691 -71.080932617188 -91.452400207520 2.322517871857
-63.496894836426 -67.658828735352 -95.926895141602 1.617844939232
52.106632232666 -67.263191223145 -95.952690124512 2.008225440979
45.940456390381 -70.116577148438 -97.845046997070 1.421384572983
103.909454345703 -71.164962768555 -95.434753417969 1.597550511360
-69.176521301270 -73.071983337402 -99.072189331055 3.015761137009
110.227027893066 -70.012786865234 -101.162979125977 2.194039583206
-79.515373229980 -67.576683044434 -96.381439208984 3.880944490433
56.355075836182 -70.793144226074 -104.715255737305 2.112662315369
49.344326019287 -67.465553283691 -100.656074523926 2.013603448868
95.008079528809 -69.947830200195 -100.353599548340 2.157790422440
87.570411682129 -62.400585174561 -110.938209533691 1.909481048584
54.842723846436 -70.335968017578 -103.558578491211 1.402891278267
-71.817596435547 -69.985260009766 -106.470306396484 2.782659530640
-77.412597656250 -69.164131164551 -110.042015075684 1.722631454468
-81.907882690430 -71.449119567871 -119.258483886719 1.590259552002
-93.158668518066 -74.876937866211 -117.110122680664 1.400659441948
104.697151184082 -69.487785339355 -114.236015319824 1.315963625908
-85.551383972168 -67.317123413086 -119.429321289063 0.926903307438
-79.050903320313 -66.863151550293 -119.584747314453 1.588687419891
111.138572692871 -67.088134765625 -115.405883789063 0.776693582535
-63.343914031982 -64.261909484863 -117.813507080078 1.744163036346
113.464126586914 -70.935058593750 -130.835113525391 2.065824031830
109.181488037109 -68.601768493652 -129.305633544922 1.616274237633
111.852584838867 -68.235755920410 -119.126464843750 1.971742153168
-93.218727111816 -67.546043395996 -135.544250488281 1.543554782867
-51.179164886475 -66.075759887695 -139.574218750000 1.349171996117
-75.703605651855 -70.604881286621 -145.722854614258 0.737764060497
-68.617103576660 -67.251411437988 -149.899932861328 2.223426342010
-72.926933288574 -67.180641174316 -144.020721435547 1.312522649765
-53.931694030762 -66.005500793457 -145.261062622070 1.200498938560
-47.725708007813 -67.520927429199 -150.221282958984 1.142758011818
20.509979248047 -70.024513244629 -144.362945556641 1.847816824913
-94.410980224609 -65.680130004883 -150.667083740234 1.600286126137
-43.512565612793 -70.640998840332 -147.785629272461 1.281848430634
-54.144950866699 -67.909599304199 -150.528152465820 1.540388226509
-42.931789398193 -65.713211059570 -155.488662719727 2.402976036072
28.640150070190 -71.471374511719 -160.948776245117 0.751947224140
-48.027221679688 -67.720504760742 -152.792755126953 2.067409753799
-96.328613281250 -69.240814208984 -149.070419311523 0.999652445316
-41.754135131836 -67.793556213379 -159.496551513672 0.339057296515
26.034139633179 -66.724952697754 -154.768310546875 3.013461112976
-100.971725463867 -69.221168518066 -162.670135498047 1.807387828827
22.428213119507 -67.827072143555 -157.559616088867 1.972461938858
-105.095352172852 -65.164672851563 -170.980682373047 2.795573949814
-100.005744934082 -65.960159301758 -163.230590820313 1.962041974068
22.850999832153 -64.532821655273 -165.854202270508 3.352490186691
25.891357421875 -66.539077758789 -167.585861206055 1.756679654121
-105.757019042969 -69.964187622070 -173.790710449219 1.891596555710
-142.663894653320 -68.689750671387 -175.455856323242 1.561594605446
-23.461040496826 -67.302558898926 -186.559509277344 2.085586786270
-23.702985763550 -66.369422912598 -183.203613281250 2.962627649307
-112.646476745605 -67.202339172363 -188.106231689453 1.263031125069
-141.925811767578 -66.507400512695 -188.467971801758 1.100611329079
-105.217582702637 -70.333023071289 -180.769317626953 2.297025203705
-151.972824096680 -71.002799987793 -195.721221923828 1.476889371872
-129.503524780273 -70.737571716309 -193.196517944336 2.227886676788
-135.305816650391 -67.853073120117 -195.211761474609 2.098444700241
-20.738967895508 -64.757698059082 -192.591323852539 3.187209606171
-120.630126953125 -68.819091796875 -193.035354614258 3.056510210037
-113.634323120117 -66.260063171387 -195.045120239258 2.197529792786
-20.101726531982 -70.151184082031 -194.892593383789 1.958756685257
-153.989517211914 -65.554267883301 -196.876296997070 1.190649628639
-133.636627197266 -70.809555053711 -208.035369873047 4.092471599579
-123.760505676270 -66.168197631836 -204.359146118164 0.875116586685
16.270736694336 -66.353477478027 -203.292953491211 1.668836951256
-160.659042358398 -67.642219543457 -205.089202880859 1.613074183464
10.478831291199 -70.867889404297 -211.153274536133 1.707157135010
14.101836204529 -71.799476623535 -213.504623413086 1.375666975975
-18.571247100830 -67.708686828613 -207.542694091797 0.862125039101
-5.143847942352 -69.022949218750 -213.796844482422 1.907685875893
-166.261032104492 -68.534873962402 -211.306030273438 0.821545958519
-158.463577270508 -66.838439941406 -215.818847656250 1.660121679306
-98.720916748047 -69.176437377930 -217.410064697266 1.280957221985
-100.483009338379 -67.115722656250 -225.862625122070 2.038914203644
-158.957366943359 -66.059761047363 -220.502395629883 1.948375105858
-104.546623229980 -68.327804565430 -220.808227539063 1.577538371086
-14.823873519897 -69.261848449707 -217.789993286133 1.079000830650
-124.724967956543 -68.030677795410 -226.649581909180 1.526105403900
-142.712020874023 -70.375976562500 -224.096282958984 0.852304399014
-5.492413043976 -70.046798706055 -224.726547241211 1.064305782318
-132.743698120117 -66.669639587402 -225.837966918945 1.689849019051
-124.643104553223 -65.648086547852 -225.812988281250 0.806459069252
-111.952056884766 -69.152168273926 -228.788467407227 2.846577405930
1.484924077988 -68.195419311523 -228.314926147461 1.451283931732
-107.358078002930 -67.075614929199 -227.402755737305 2.248903512955
-157.755859375000 -70.983398437500 -221.980636596680 2.334232807159
-146.812301635742 -70.749916076660 -226.146972656250 2.639512300491
-165.020568847656 -68.418914794922 -225.841125488281 1.388347864151
-6.710093498230 -68.584732055664 -228.412261962891 1.552031993866
-8.913615226746 -62.127410888672 -230.188491821289 5.808809280396
77.871833801270 -62.733638763428 -226.421920776367 5.729062080383
3.017736196518 -66.484153747559 -232.180511474609 1.402867913246
-142.746810913086 -67.154052734375 -232.944152832031 0.841828465462
-12.598036766052 -69.687957763672 -229.266021728516 1.905189990997
76.493156433105 -71.134765625000 -225.013198852539 0.375850081444
72.202659606934 -68.501266479492 -231.908859252930 1.556040048599
-131.436920166016 -68.070358276367 -231.551315307617 3.494062900543
-159.804779052734 -67.348396301270 -227.315170288086 0.862023055553
-112.175354003906 -66.176750183105 -231.811141967773 1.676061272621
-120.702720642090 -67.125297546387 -233.501159667969 2.932188272476
-167.305862426758 -65.124649047852 -233.583709716797 3.955458641052
-158.131347656250 -66.706840515137 -237.253768920898 1.782062888145
-138.547866821289 -67.746398925781 -238.718002319336 5.929257869720
-9.302895545959 -72.510627746582 -234.212905883789 2.421458959579
-2.906881093979 -67.722106933594 -240.965835571289 2.160418748856
-160.375427246094 -65.984069824219 -239.909271240234 2.210133075714
7.696997165680 -70.671745300293 -240.144378662109 1.823479175568
8.207900047302 -67.059364318848 -237.036270141602 1.561921000481
-162.680984497070 -67.552597045898 -241.498489379883 1.077680945396
13.996689796448 -68.614662170410 -243.077804565430 1.835844397545
51.525699615479 -68.071556091309 -246.031402587891 2.031647443771
53.139884948730 -65.960449218750 -249.352416992188 1.917096614838
-9.477546691895 -69.203804016113 -245.274017333984 2.898915767670
50.601970672607 -66.336059570313 -246.557067871094 2.156318664551
-162.755569458008 -68.393020629883 -253.896606445313 2.099842071533
-163.613067626953 -66.366523742676 -248.683471679688 1.984289407730
-161.324462890625 -69.297966003418 -247.744628906250 1.749579906464
54.665344238281 -67.310119628906 -252.718658447266 2.728477239609
-89.796264648438 -70.251602172852 -252.621032714844 1.118435740471
-124.440536499023 -67.727897644043 -252.606079101563 2.458234310150
-106.304832458496 -69.656349182129 -254.260711669922 1.232742547989
30.960086822510 -68.715621948242 -256.339294433594 0.616110146046
40.912433624268 -68.695991516113 -252.189422607422 1.452986001968
-98.317665100098 -67.648437500000 -253.524688720703 1.109703660011
-92.773918151855 -66.751159667969 -256.016906738281 1.724128484726
45.518417358398 -67.195899963379 -254.623016357422 1.388633131981
42.418167114258 -66.633468627930 -254.625152587891 0.877030074596
-156.311782836914 -69.404006958008 -259.350646972656 0.991656899452
33.744434356689 -66.058883666992 -255.211120605469 1.747737526894
-139.587707519531 -70.272003173828 -264.424255371094 2.575687885284
-116.193565368652 -65.524459838867 -260.021697998047 0.904089748859
-132.902160644531 -67.127426147461 -264.680572509766 0.885151743889
33.553211212158 -71.203666687012 -263.274780273438 3.324563741684
-126.758598327637 -69.515747070313 -263.976684570313 2.060242652893
-9.933609962463 -66.136520385742 -258.072326660156 3.781916618347
22.628656387329 -70.383644104004 -273.045074462891 2.652359962463
-11.029948234558 -67.129280090332 -267.295715332031 2.759473085403
23.372133255005 -66.389389038086 -281.850494384766 3.691668033600
-150.123916625977 -69.070770263672 -282.463104248047 1.664991378784
-10.561444282532 -70.710021972656 -277.286956787109 1.619347453117
-153.701828002930 -70.689270019531 -286.745452880859 2.296331882477
-126.273330688477 -67.012329101563 -284.564514160156 0.871863901615
-158.218734741211 -70.157577514648 -288.047851562500 1.305017709732
-118.978897094727 -68.011245727539 -286.140350341797 2.889471054077
-105.827659606934 -70.310577392578 -289.466278076172 2.331348180771
-7.636447429657 -68.111557006836 -287.914123535156 1.336431741714
-110.184127807617 -68.436737060547 -292.253051757813 2.769933700562
-117.084648132324 -71.000640869141 -289.072418212891 3.001842021942
-119.394531250000 -69.598457336426 -291.029571533203 1.475249528885
-136.438415527344 -65.954467773438 -289.524993896484 1.718674540520
