# This PCD file was generated using the MATLAB® pcwrite function
# from Computer Vision Toolbox®.
# .PCD v.7 - Point Cloud Data file format
VERSION .7
FIELDS x y z
SIZE 4 4 4
TYPE F F F
COUNT 1 1 1
WIDTH 1414
HEIGHT 1
VIEWPOINT 0 0 0 1 0 0 0
POINTS 1414
DATA ascii
87.320793 -77.086632 -93.143944
-63.123177 -80.303772 -97.311226
54.090557 -76.345009 -96.284882
-69.822067 -75.371788 -100.913109
49.433132 -76.584534 -103.764267
47.691105 -76.642693 -103.338257
42.141800 -77.409897 -105.109077
38.975266 -76.164757 -107.938339
48.371044 -76.959015 -107.708771
-91.008369 -76.892868 -112.378143
38.255699 -76.424088 -113.701889
-84.368126 -78.124146 -110.760712
46.099701 -76.835365 -114.055573
35.487926 -76.969948 -119.729164
44.696705 -78.536583 -120.079224
34.996262 -77.739777 -122.626808
32.362366 -76.071121 -125.952240
41.082340 -76.775452 -125.004051
37.712177 -77.609093 -132.325333
26.327440 -76.766823 -137.038269
-51.617111 -75.561005 -136.966263
-47.969826 -77.847336 -143.512741
36.323887 -77.369034 -135.869705
36.757576 -76.619179 -141.865524
114.190422 -76.522598 -140.869949
-51.245369 -74.651230 -139.291107
-46.092163 -76.634125 -142.179291
35.360832 -77.965225 -143.756287
-46.653580 -76.211533 -145.095276
112.409035 -76.631714 -146.802231
-45.085106 -76.985527 -148.321304
111.593399 -76.141426 -138.278992
114.036507 -76.745537 -147.489807
26.360001 -77.043266 -146.316269
34.262821 -76.879509 -150.317001
-41.781914 -77.413940 -148.656067
-49.398220 -77.027962 -149.427414
111.955132 -77.015427 -154.970795
23.323328 -77.196861 -149.434540
-40.667896 -76.761787 -153.796112
-69.832268 -76.966064 -153.461716
113.855202 -76.936745 -154.810349
111.048851 -77.286362 -162.506805
-48.315662 -76.492081 -158.998749
24.693668 -77.010429 -154.812149
-64.574493 -77.289772 -156.361832
4.112318 -77.091476 -160.355774
-37.286968 -76.656456 -159.403778
-35.829151 -75.334702 -160.898590
-1.050174 -76.693443 -162.330902
112.779213 -77.212845 -158.922119
114.303513 -75.653412 -162.826538
23.275312 -76.815063 -162.800079
-63.454529 -76.780312 -163.557541
-35.573097 -76.770340 -162.384094
2.811640 -77.867867 -164.582672
113.635384 -76.174675 -166.895706
30.080872 -76.876282 -158.718750
-63.467205 -75.710266 -166.756882
111.776253 -77.310844 -167.878967
-63.788338 -76.767471 -164.973267
109.483620 -76.974503 -165.593948
-31.084290 -77.369102 -165.651978
-65.773842 -77.335030 -167.495468
-61.049858 -76.877266 -166.352936
21.523342 -76.761543 -169.523880
-54.122898 -76.950951 -173.692154
-38.240662 -76.731544 -171.583099
106.764763 -75.795715 -172.225540
-57.858444 -76.631386 -171.952225
-39.769779 -77.600609 -172.266632
-14.229332 -77.291557 -174.228073
111.273407 -77.059227 -174.354980
-29.189621 -76.907013 -173.005798
-60.461060 -76.846123 -172.142395
-10.759154 -76.055565 -175.174988
-7.950271 -76.839195 -174.822708
26.351063 -76.885155 -171.806610
-25.888388 -77.282700 -174.860596
-14.640955 -76.730217 -176.031616
-13.506952 -76.912849 -177.796188
108.466156 -77.298599 -172.997421
20.725277 -76.904411 -175.096176
-57.959366 -76.514183 -176.368286
28.492378 -76.591682 -172.592026
-24.956320 -76.756493 -181.132309
24.271797 -76.858162 -178.043304
-55.442413 -76.579811 -176.585358
19.936773 -77.009911 -182.491364
104.939995 -76.858658 -181.056458
-56.592533 -76.295372 -178.072998
105.159027 -77.282784 -183.232620
25.790432 -76.836792 -181.975250
-52.226925 -76.615898 -183.995575
109.199287 -77.115875 -181.755310
15.319860 -76.298561 -182.205566
-58.310238 -77.214203 -181.351746
-50.661171 -76.757370 -185.111542
-46.845844 -77.185097 -185.042374
106.617142 -77.210266 -188.488190
22.319130 -76.809654 -183.207916
-144.097595 -76.802917 -187.661575
102.623924 -77.334290 -189.433029
-31.219498 -76.515381 -188.697098
-41.752476 -76.557755 -192.639679
20.132751 -76.829605 -189.162979
13.548770 -76.934418 -190.598679
-17.403734 -77.008430 -190.958389
17.202129 -76.867050 -189.845016
-20.130613 -76.867111 -190.172287
-27.615543 -77.271637 -193.172623
-48.387554 -77.610298 -195.722412
101.073013 -77.109314 -192.176575
14.674228 -76.810669 -196.467194
-136.223831 -76.852821 -196.988724
-146.728668 -79.584419 -197.188095
11.415850 -77.563553 -198.386154
-42.968452 -76.708176 -196.271439
-37.488056 -77.986069 -197.242844
98.261909 -77.400948 -199.250381
-148.727951 -77.923370 -199.699585
-147.612274 -81.250504 -200.786346
18.300409 -76.930359 -196.271591
-42.287483 -77.205620 -203.581161
-32.045776 -77.668327 -203.670319
-22.733446 -76.015930 -202.847061
20.825396 -76.151230 -200.446671
-150.977982 -76.716057 -204.332169
-39.804768 -76.632965 -201.379059
-38.865231 -76.586975 -200.623856
101.103035 -77.170135 -200.450180
-19.082029 -76.855324 -203.142349
-149.752029 -77.089745 -204.736847
-35.691998 -76.262070 -205.527359
16.650927 -76.756821 -206.366653
-144.388214 -77.656784 -205.709106
-35.440258 -76.608505 -207.231323
92.038017 -77.091576 -209.089066
-29.085369 -77.595467 -207.249802
-76.529243 -78.351280 -209.173004
-150.148895 -77.324699 -209.345764
-75.428535 -75.221100 -210.128937
96.353096 -76.604454 -209.346252
-32.174644 -76.626404 -207.341766
94.570053 -76.039108 -212.765091
-69.474449 -76.737343 -209.794067
-31.790445 -76.754837 -211.491028
-14.121548 -76.919601 -212.740906
7.878107 -77.668076 -210.238144
88.194061 -76.081703 -212.593262
-75.475792 -75.614571 -213.551285
89.460678 -76.413544 -211.409653
-74.235405 -77.775673 -214.099640
-27.262703 -76.775826 -212.510498
-4.000061 -77.243515 -215.273285
92.448280 -77.379547 -212.149933
-16.317591 -77.225136 -213.268875
-77.095665 -77.967255 -215.108826
-13.392964 -76.906311 -218.810928
9.382995 -76.663216 -212.553391
17.683760 -77.640762 -217.886169
-147.248825 -76.736771 -215.829559
-31.118734 -75.527481 -216.272751
-8.543242 -76.802620 -212.186554
-27.974110 -76.747734 -215.297073
8.585136 -76.621353 -218.549377
86.527199 -76.655632 -217.152985
-5.407014 -76.717331 -217.055374
-93.275627 -76.092049 -218.426453
-24.100340 -76.739639 -217.981171
-91.345436 -75.316162 -219.272049
-23.147638 -76.691238 -217.413132
-19.681475 -76.497154 -217.069931
89.627022 -77.243622 -215.029312
6.160075 -76.771812 -220.953552
16.334488 -75.878868 -216.988998
82.361603 -76.401749 -221.910507
-0.355218 -76.512901 -224.084076
84.954323 -76.655182 -221.465363
-20.461815 -76.435669 -225.377167
-16.162165 -77.214241 -221.829773
15.866895 -76.665955 -221.684097
-145.008514 -78.384415 -223.247925
-154.138626 -78.089920 -226.756546
-17.157835 -77.380783 -226.005539
3.209225 -77.976257 -228.878799
16.294537 -77.318588 -227.797455
-154.381592 -78.692978 -228.733292
-135.809036 -76.034431 -228.107498
-149.528076 -75.763992 -228.984695
8.395790 -77.064598 -226.409698
-5.700701 -77.252342 -229.782196
2.231824 -76.883102 -231.469864
-10.903687 -75.855881 -230.752304
-141.328156 -76.931084 -230.995087
-134.804733 -77.885803 -230.560699
-3.650690 -76.859474 -229.276535
8.266399 -76.196098 -231.431290
-136.652496 -76.363144 -230.944305
-141.472534 -78.329468 -231.287521
5.967610 -76.665703 -233.332809
-143.628952 -79.060104 -233.792938
-149.633957 -76.710030 -235.181259
-145.116150 -78.272514 -234.656998
0.718557 -76.915993 -235.693817
17.654146 -76.187355 -236.219391
-146.217758 -76.770988 -235.962173
1.581965 -76.132233 -238.091293
-31.165499 -77.074409 -238.422653
-146.327347 -76.580750 -241.525436
20.234972 -75.965057 -238.067200
2.416025 -77.464241 -240.649307
-149.587357 -76.795502 -240.184143
-148.897354 -77.325432 -241.802841
-42.976681 -77.228607 -240.519211
7.642656 -76.710571 -239.857376
-48.450703 -77.582748 -241.766388
-31.013262 -78.014359 -243.766113
5.739980 -77.075958 -243.279694
8.417239 -76.306267 -244.107346
6.455510 -78.015900 -245.360626
-41.717777 -77.158997 -245.835617
-37.011650 -77.140732 -244.894089
3.553329 -78.027657 -245.830582
21.806662 -76.407364 -244.176392
23.273190 -77.721199 -247.649780
-46.548923 -77.315758 -246.716873
-5.034035 -78.182350 -248.274689
-150.103867 -77.091133 -252.136948
-54.003769 -76.982216 -248.179459
-6.919675 -78.114212 -250.280777
-146.615982 -77.391327 -251.825562
-69.254013 -76.854965 -249.499268
-69.145676 -76.576187 -250.798950
-11.218986 -75.800781 -251.818390
-149.763000 -83.142754 -259.701904
-129.586655 -76.187439 -258.893768
-148.785477 -73.971863 -260.687500
-13.057540 -75.705360 -265.433105
21.822546 -76.359421 -262.370575
-146.901627 -77.692032 -265.161316
-150.240692 -77.581055 -265.148163
21.986467 -74.621223 -268.841095
-9.541466 -77.017235 -272.805237
-147.037689 -77.828209 -270.963257
-3.429535 -77.899353 -279.531616
-0.867987 -76.263054 -285.103577
-42.568386 -76.947144 -286.774841
-133.774353 -76.991371 -287.751282
-132.731934 -76.045723 -285.822723
-126.146736 -76.266708 -286.039642
-53.384056 -76.584808 -286.658875
-14.874813 -76.621170 -286.979980
-61.804653 -76.507317 -287.039307
-10.387313 -77.497864 -287.798706
-126.730301 -77.176491 -287.796234
-67.818291 -76.194046 -287.407562
-147.419846 -80.475784 -287.990631
-117.296707 -76.118042 -288.467377
-76.575531 -76.151466 -288.940338
-67.218033 -76.497284 -288.984985
11.296516 -77.213028 -288.936340
-59.650715 -76.739746 -288.855103
15.697441 -76.980003 -289.459808
-142.114258 -76.277382 -288.729218
-117.421036 -76.651093 -289.281769
-61.965797 -76.385391 -289.935089
-142.172729 -78.388901 -289.671783
-117.690575 -76.448616 -289.991425
-47.422985 -76.567627 -290.449707
-34.391197 -76.905663 -290.960724
-24.408062 -77.290421 -290.947754
-133.584610 -77.100388 -290.593140
-126.710640 -76.579742 -291.905548
-16.547373 -76.509033 -291.407135
0.790915 -77.321373 -291.289948
6.361599 -77.257568 -291.973633
15.959393 -76.803230 -292.409424
14.136324 -77.405983 -293.463501
-150.744324 -76.491714 -295.105774
-148.516037 -76.681351 -295.413544
-151.225815 -76.367310 -299.484222
-149.060028 -76.722870 -299.512787
-147.355057 -76.136917 -299.503571
-146.199783 -77.402092 -300.737427
-153.526489 -77.164635 -305.799835
-146.591339 -77.810875 -306.370392
-49.222710 -75.657173 -55.525867
-59.197823 -75.819450 -55.409374
-70.454781 -76.346535 -58.250954
-64.674644 -75.979691 -56.037952
-36.326324 -75.755486 -58.864925
-80.742599 -74.701981 -61.377945
-27.239359 -75.286293 -62.557610
-22.407038 -75.628006 -66.937904
-86.843422 -75.113861 -69.970627
-88.321045 -75.437256 -74.665947
83.454956 -74.818390 -73.006195
87.628479 -75.265442 -75.128151
78.997688 -75.717438 -75.252441
82.836784 -75.502792 -76.352921
87.789719 -76.548569 -78.014709
-26.734325 -76.756371 -77.494118
85.471001 -76.183983 -78.893852
-34.791813 -76.395584 -80.238884
89.830002 -76.402992 -78.810455
77.335114 -77.261307 -82.542938
93.183693 -76.250137 -82.295517
-89.862038 -76.097198 -82.352646
-47.033794 -77.517250 -85.749832
94.497078 -76.126907 -91.073952
-62.883629 -73.113129 -93.198387
92.380470 -76.139717 -93.700439
75.533737 -75.368881 -93.876106
-64.909607 -74.133041 -95.445198
91.410393 -76.152649 -95.493813
79.932350 -76.165909 -96.021446
87.338631 -76.595222 -96.114052
77.121552 -74.883514 -97.373528
89.783646 -75.698601 -96.926277
55.636791 -75.921326 -98.429039
-76.543045 -78.268967 -101.201302
-79.618919 -75.655693 -101.335487
45.570553 -75.338387 -98.825554
-75.142471 -76.297791 -101.760979
54.284462 -75.518181 -103.027855
-90.611969 -77.955978 -99.476181
50.861557 -75.880905 -104.182243
41.442581 -76.700180 -109.215546
-82.586517 -77.829041 -108.905022
-90.800079 -77.925339 -105.343292
35.600895 -77.405243 -114.973625
-90.015961 -76.595612 -114.871429
44.731945 -76.490883 -117.818886
111.018333 -75.734634 -126.936600
34.721066 -75.362869 -119.675087
33.212788 -76.665794 -124.778198
110.967033 -75.366257 -118.164673
114.241844 -75.335693 -128.495056
112.468430 -76.260307 -132.215912
41.854172 -76.044090 -128.777664
29.031361 -76.357101 -134.983292
110.514610 -75.486992 -130.071899
28.949865 -76.837135 -129.387817
113.885796 -76.236610 -134.828476
-56.125183 -74.757927 -136.825684
38.358597 -76.911682 -136.551559
-52.055779 -76.849365 -140.713852
35.126652 -74.717628 -141.616165
-48.604591 -76.009323 -138.970932
110.722511 -75.550957 -143.674454
-48.934349 -76.963753 -146.230865
33.160236 -76.587196 -146.243896
-55.560684 -75.524040 -140.488571
-54.179649 -76.246445 -146.547394
115.446815 -76.000725 -144.217209
-51.863594 -75.730682 -143.169296
33.093174 -75.269958 -148.169266
-71.072159 -75.753601 -147.442902
-51.957363 -75.705826 -147.564468
31.676502 -76.785202 -152.176804
-43.610500 -75.653603 -148.368896
-66.100227 -75.670654 -151.813370
115.517204 -76.095177 -152.234406
-38.098263 -77.121437 -154.290771
-51.963192 -76.465858 -152.272339
-48.241184 -76.868050 -153.954742
110.530334 -75.805771 -150.933655
-51.129627 -74.236595 -155.555573
21.412121 -76.445229 -156.697281
110.409920 -76.444489 -157.798996
-66.575333 -75.480515 -156.687164
-69.619560 -76.453888 -159.118851
-45.997677 -76.679794 -158.823715
4.697324 -75.706139 -158.206345
-65.945885 -75.984734 -160.479813
31.508223 -75.016418 -164.056534
114.476860 -76.272385 -160.159073
-60.942070 -77.007889 -161.543015
-44.471714 -75.178505 -162.698761
-2.979750 -76.596359 -163.721085
-45.570885 -75.182777 -164.840424
-42.749229 -76.754219 -163.946945
20.362114 -76.079239 -160.756393
-33.123306 -75.717934 -161.045319
30.953588 -76.041893 -165.008392
-62.507027 -75.831413 -163.367523
-57.081318 -76.459244 -168.491592
18.970459 -76.224869 -167.455338
-60.292442 -75.663063 -168.098907
-31.537926 -76.352524 -168.277756
-8.124113 -75.174408 -170.381348
-28.018057 -77.658859 -171.421692
-39.795174 -75.521179 -170.064835
-60.464558 -75.610580 -171.560226
18.230932 -76.584808 -171.589310
-39.275494 -76.361984 -174.398651
-11.171750 -75.811447 -173.437897
-58.121704 -75.705132 -174.306473
-5.518875 -75.543327 -172.265488
113.199417 -75.777908 -171.726181
16.959366 -76.258636 -176.146164
19.570158 -75.389580 -173.366669
108.544640 -74.966339 -175.474289
-59.198147 -76.220238 -179.655243
-22.855764 -76.986221 -179.693451
24.289635 -75.947929 -180.955902
-34.170082 -75.530205 -179.959656
112.054672 -75.503822 -177.112900
17.941658 -75.771248 -181.539551
-22.596701 -74.114029 -183.007889
-48.330734 -75.532524 -184.446060
-32.065792 -76.806778 -182.034073
-56.898895 -75.515289 -182.298645
-146.023407 -76.698433 -186.089386
-22.350412 -76.594650 -184.952347
-145.440475 -75.156212 -187.863571
-18.843191 -77.122314 -187.557281
-147.406982 -74.955841 -186.681610
-148.977737 -75.211838 -187.495590
-43.647312 -75.505966 -191.271194
107.281258 -76.007469 -189.983994
100.668434 -75.506104 -189.577530
15.058624 -75.911674 -191.451538
-144.283722 -76.393654 -193.117706
-142.292358 -77.715775 -194.751953
-141.060394 -73.226357 -195.975845
-153.114914 -77.378777 -196.324936
11.160731 -75.976852 -195.291489
22.549040 -76.567184 -193.067108
-135.232986 -75.015556 -197.836136
-134.446503 -77.353806 -197.450485
-25.273533 -77.555023 -197.153397
103.567436 -75.902779 -198.247772
21.006556 -75.803436 -192.113541
-140.478668 -75.010826 -197.518402
97.611763 -76.005653 -196.897751
-43.725449 -75.400589 -200.438873
12.542080 -75.648277 -198.380386
-136.476791 -75.133018 -200.949554
-134.404312 -76.323586 -200.894653
-10.195708 -77.068260 -204.978119
-39.902470 -76.015915 -205.986603
-21.060314 -75.618134 -201.563553
7.999948 -76.581543 -207.067734
-148.946182 -75.774757 -206.008316
93.551270 -75.859886 -203.925735
-12.483506 -76.788940 -205.239548
99.651436 -75.845215 -205.363800
-29.949579 -75.791054 -206.720413
-15.296677 -75.654366 -212.294128
-8.330799 -76.085312 -207.332138
-76.070496 -76.104408 -209.353668
-148.853912 -75.882622 -211.364502
-77.096085 -75.689964 -210.003159
-32.420666 -75.758774 -208.633881
-17.614315 -77.354416 -210.141525
9.534894 -75.401482 -208.005768
-82.318550 -77.039795 -210.807983
-79.369110 -74.418167 -211.208878
7.155033 -74.628319 -207.881256
-146.717819 -76.406830 -211.987854
-31.009693 -75.628021 -211.755493
-87.156296 -75.788666 -212.475143
-28.262457 -75.655327 -211.953445
-24.385303 -76.310356 -212.238480
-74.068596 -75.580627 -211.625397
16.824738 -74.915436 -212.681580
18.449459 -76.460381 -213.788467
-147.961777 -76.430977 -211.989471
-90.124344 -76.197517 -214.110733
-26.868814 -74.842293 -214.883347
-26.981443 -75.728004 -216.673386
-13.033938 -76.452271 -215.516220
-80.226601 -75.354485 -215.911621
-24.618067 -75.723915 -215.155228
-82.134735 -75.647102 -216.751251
8.484610 -75.183327 -213.689697
-87.291496 -76.378494 -218.007233
-95.689880 -75.170052 -219.799759
-29.525400 -76.436050 -217.744019
-23.072054 -75.854614 -220.186676
-1.928062 -75.996078 -221.326889
-149.114700 -75.677101 -216.778427
-2.093891 -77.271149 -218.338928
18.082047 -76.115097 -220.707031
-20.743406 -75.815422 -219.203903
2.408144 -77.113190 -224.894348
84.554420 -76.342537 -223.588348
-20.249121 -75.862343 -221.806610
-143.508087 -75.649788 -223.904022
-9.524426 -77.190872 -223.939713
79.075264 -76.263977 -227.197067
-142.097092 -77.567947 -225.868179
-11.960727 -76.182709 -226.215149
18.306631 -76.198013 -225.446594
-146.561676 -78.301582 -227.466583
2.051705 -76.186600 -228.412170
-8.410230 -74.587845 -227.607803
78.582199 -75.334518 -230.457886
-146.457336 -76.592209 -229.867569
5.829013 -75.797142 -230.431061
16.087746 -75.671043 -222.114334
-140.908829 -75.979874 -229.228958
-15.118799 -75.879219 -229.415283
77.274277 -75.891380 -228.940857
-3.590601 -77.429092 -233.149246
75.113098 -75.484436 -232.531540
-152.969086 -78.523430 -232.915375
4.012970 -76.026741 -235.915131
8.591729 -76.036346 -232.758057
70.461639 -75.143761 -234.810562
19.549713 -76.666473 -233.549347
-24.177582 -76.308571 -237.610168
-150.142761 -75.751236 -240.562744
-17.259905 -76.921967 -240.754944
-45.181145 -75.465492 -241.370117
-17.051908 -75.708092 -241.843033
4.614122 -75.663155 -240.217407
9.720866 -75.947960 -238.127029
-48.293804 -75.729698 -241.812836
-23.206999 -76.290611 -242.872406
7.749568 -76.246513 -243.082764
-54.221859 -76.261528 -242.843765
-26.610403 -75.582809 -243.251343
-59.911255 -76.764847 -244.446777
-32.616032 -75.705498 -243.687485
5.656736 -76.088890 -244.044495
11.389763 -75.599052 -245.115524
-65.056747 -75.857300 -245.652161
-39.754219 -75.103523 -244.591141
-43.207943 -75.374336 -245.664795
-150.067276 -76.393456 -246.239426
-47.533558 -75.782478 -246.855698
-71.671387 -76.502655 -248.194580
-54.621723 -75.718956 -248.479370
-64.386200 -75.941330 -250.463440
-9.853832 -75.786812 -250.324463
-74.498512 -76.246338 -250.955673
-77.950340 -75.741013 -250.376953
-82.355080 -75.450340 -252.139603
-78.912460 -75.585159 -252.224365
-80.407310 -75.429031 -253.246643
-154.872360 -78.742477 -256.603302
-141.730255 -77.394562 -256.949799
-150.055222 -73.931351 -258.525787
-13.155152 -76.779762 -260.081757
-141.542145 -76.180862 -259.098236
-132.187836 -75.481377 -261.657684
-125.567131 -76.232315 -260.525787
-153.495682 -73.877075 -263.836975
21.094986 -76.705978 -265.974182
-12.305112 -76.904114 -268.079468
-150.662491 -77.293526 -272.950745
-150.523834 -78.436462 -277.174988
-144.682785 -77.174065 -283.629791
12.976881 -73.506844 -285.283722
-30.818327 -76.199203 -285.743164
-155.869965 -76.848083 -286.755798
-49.434292 -75.016296 -285.776093
-38.245529 -76.133286 -286.420776
-27.431631 -75.976379 -286.632050
-11.205208 -75.816391 -286.778778
-68.837936 -75.730431 -287.117004
2.759387 -75.305000 -287.664001
-77.200668 -75.421036 -287.026886
-5.252522 -76.075729 -287.439301
-82.409042 -75.010391 -287.093719
-4.428408 -76.945984 -287.889893
8.484320 -76.124474 -288.153351
-147.709335 -75.809418 -287.966461
-135.683884 -75.802788 -288.988037
-124.582329 -75.666573 -288.094940
-87.375748 -75.509026 -288.146301
-77.486809 -75.703651 -288.152832
-147.786682 -76.116257 -289.382050
-156.369705 -74.795471 -288.500610
-79.040276 -75.796135 -289.410278
16.967024 -74.793152 -289.831299
-95.580917 -75.343430 -289.151154
-70.392235 -75.752899 -289.987640
-92.319565 -74.871048 -290.522247
-135.577560 -75.493645 -290.880737
-82.309036 -75.264763 -290.568878
-59.642384 -75.732040 -290.500946
-42.848034 -75.984390 -290.845123
-141.976074 -75.807167 -290.505371
-27.377903 -75.919044 -291.513123
-19.006207 -75.711754 -291.767975
-11.504315 -76.227562 -291.832214
-2.109642 -75.445244 -292.400360
-154.827179 -74.928818 -292.852203
-153.241257 -74.923248 -294.317535
-152.930847 -75.075325 -299.626068
-153.452301 -76.664360 -300.269592
-145.893631 -77.403427 -303.210205
-154.822479 -76.089035 -307.608795
-55.961365 -75.439568 -54.450531
-49.768738 -75.088737 -54.208073
-64.656982 -75.170502 -54.553585
-68.203354 -74.569542 -54.229160
-40.769039 -75.121971 -55.666683
-44.423599 -74.391266 -53.563702
-38.115459 -74.440208 -55.420135
-75.026024 -75.512978 -58.534508
-32.999168 -75.231071 -59.444302
-28.981274 -74.575722 -60.120304
-23.578217 -74.648666 -63.694149
-20.351490 -75.238266 -68.268784
-19.484428 -75.036003 -71.032333
77.863747 -73.756348 -72.935760
85.293015 -74.351242 -73.726875
85.192390 -74.557434 -76.240639
-32.050472 -74.695503 -78.435722
76.314201 -75.843788 -79.995163
97.117470 -73.776314 -80.679977
74.292389 -75.986702 -81.611786
75.793068 -76.399467 -84.319809
96.780830 -74.538025 -87.131065
73.978958 -76.200935 -89.754967
54.155956 -75.131149 -93.058403
52.333267 -74.250023 -92.315086
50.258301 -75.883591 -95.627457
52.865074 -74.908287 -97.726486
-66.460457 -75.482506 -98.782883
-67.927513 -76.840080 -99.956665
-71.692726 -69.609291 -101.157326
46.910576 -75.466972 -101.325691
54.053493 -73.891281 -101.084145
-81.078278 -78.130592 -106.532936
49.628128 -75.371025 -108.383804
-93.246742 -74.559700 -112.313820
107.649513 -74.382256 -105.496185
-84.813644 -74.648865 -111.020500
49.577076 -76.379845 -112.127396
47.924503 -75.549057 -111.612045
109.663834 -74.818825 -112.916046
107.753113 -74.619614 -108.722664
47.588257 -76.509689 -116.171188
33.845886 -76.073769 -116.952271
109.472557 -75.274689 -118.765930
46.504879 -75.560455 -118.593475
43.127800 -76.833466 -125.882507
30.037401 -76.122314 -125.470726
113.301445 -74.999084 -123.144279
109.530922 -75.137115 -125.272141
41.214436 -75.259445 -125.419083
38.833420 -75.703529 -131.134521
-54.197468 -74.806168 -135.344254
30.300159 -74.519905 -130.428467
109.868523 -74.787582 -134.480591
115.724335 -74.941620 -135.055161
-47.447128 -75.137421 -142.190994
27.294287 -75.667778 -139.685867
-73.818581 -74.271980 -139.881790
-72.675758 -75.051933 -144.578827
116.882301 -74.074898 -142.936478
-71.332275 -75.261719 -144.770020
-54.488411 -74.229523 -143.650055
26.033733 -75.655724 -144.310501
-45.057110 -74.362038 -144.864243
-40.903561 -74.177750 -148.030014
-72.174927 -75.667343 -149.444138
-68.269852 -75.533264 -148.496536
-39.725052 -75.170952 -150.102249
-68.803825 -73.962227 -150.736557
34.700386 -74.351006 -150.494919
109.835091 -74.772049 -150.408615
23.297665 -73.751755 -154.381866
21.408304 -74.012764 -152.533554
-70.742683 -76.095985 -156.267899
112.489540 -74.441261 -157.017090
24.009157 -75.525787 -152.970154
-37.428440 -75.369324 -158.314911
113.357201 -74.361214 -153.353561
7.154568 -75.710098 -157.573135
33.559303 -75.842140 -154.501450
-65.464714 -74.866173 -157.356430
-62.084133 -75.306656 -158.828751
115.798805 -75.184174 -157.348572
-67.255905 -75.029869 -159.107346
9.167125 -74.884354 -159.175903
31.624422 -75.134415 -155.292938
-64.975296 -74.546265 -163.252136
-64.181717 -74.758232 -160.243576
-46.968254 -75.722679 -162.034515
-59.726387 -75.557571 -163.775543
29.371212 -75.630707 -163.648621
-67.800224 -76.116722 -164.348770
-2.549153 -74.852592 -163.616623
18.980038 -73.741699 -163.236282
20.868385 -74.906494 -166.150818
108.050514 -75.480904 -164.698654
-62.024502 -74.879913 -166.543915
-65.976379 -75.782211 -168.140457
-29.408697 -75.612709 -167.431168
111.918419 -74.493225 -162.020767
106.256310 -74.483238 -171.457275
-7.826249 -75.435501 -169.186844
-3.861248 -73.761726 -167.134003
110.905190 -74.918053 -168.558380
-5.466357 -74.733406 -170.820557
-29.329561 -74.862015 -171.451553
-62.524906 -75.946899 -174.344162
-25.516937 -75.532249 -174.378510
-55.237080 -74.490242 -174.106949
-53.069942 -75.595451 -176.470566
26.741745 -75.841301 -173.045212
108.846619 -74.087082 -172.157257
109.948395 -75.048141 -173.249451
109.131378 -75.089783 -177.290924
14.786342 -74.762367 -180.595215
18.863226 -75.284836 -176.599503
-37.936665 -75.133575 -177.363205
-52.058113 -74.343864 -180.652405
103.193039 -75.732155 -183.591705
-19.326191 -75.889473 -185.410217
26.375862 -75.641479 -182.637329
107.495247 -75.029266 -182.771515
109.630905 -75.776550 -184.087128
-147.702469 -74.389145 -187.006638
106.086678 -74.875488 -183.284882
-52.135677 -75.440788 -188.979034
-49.682610 -74.155220 -185.808304
25.227558 -75.346283 -186.491196
-53.940285 -74.120438 -183.973587
-31.659029 -73.291016 -188.473053
-49.856274 -74.056381 -188.746689
-17.599056 -75.534111 -188.949554
-50.409634 -75.456810 -191.416672
103.651131 -74.993599 -189.601349
-148.940430 -75.476143 -192.783676
-39.608543 -75.653374 -196.007599
-143.220306 -74.662430 -193.754257
-47.138191 -74.273720 -193.384171
-19.324844 -75.102692 -190.165466
101.361450 -75.078384 -194.936188
-44.943142 -74.318596 -192.360321
-17.031679 -76.517227 -197.020004
24.838009 -74.081406 -189.200302
-140.599106 -77.213745 -196.705612
-43.487476 -74.158577 -198.283386
-14.494172 -75.692810 -195.512451
106.087173 -75.569489 -193.494690
104.248055 -74.924210 -191.604614
-47.110325 -75.550919 -196.197113
-24.600193 -76.717499 -194.838379
96.006584 -74.627663 -198.305466
-148.734360 -77.452652 -198.499924
-24.608578 -75.407784 -200.265549
101.787292 -74.911224 -196.965134
-153.767044 -77.187729 -199.148743
18.842972 -75.648048 -200.372543
-11.934113 -76.030884 -200.783569
9.438107 -75.844322 -200.597076
-152.771606 -77.740715 -202.217072
-37.976582 -73.779892 -202.829086
-140.980270 -76.906166 -201.813507
-34.735493 -75.558685 -201.758041
99.808815 -74.927574 -200.728683
-39.283974 -74.162949 -204.489990
98.094551 -74.925552 -200.966599
-35.023251 -74.273727 -203.174728
-143.991745 -77.147171 -204.668884
19.735460 -75.708549 -205.889648
-36.744736 -74.511154 -208.578369
-18.960463 -75.015121 -210.162292
93.418228 -74.833008 -208.887131
91.108498 -74.962318 -207.049225
94.927704 -74.987732 -208.422806
-6.002663 -73.862511 -210.421356
96.519341 -75.069077 -210.994415
-33.806412 -75.186844 -212.915680
-83.751350 -75.494064 -211.516022
19.014278 -75.973076 -209.217361
-76.288460 -74.669769 -211.413574
6.120389 -75.608818 -214.907150
-2.981245 -75.613556 -215.734207
-94.115677 -74.457710 -215.350784
-21.239443 -75.070999 -215.476700
-149.387619 -74.512543 -211.230698
-24.485695 -74.589020 -218.737473
84.992249 -75.481155 -216.526535
89.801239 -76.197258 -218.557343
-23.082979 -74.739708 -217.194366
89.775383 -74.775261 -220.160736
-7.221153 -76.418129 -224.370880
79.331245 -74.057289 -222.026398
90.257294 -74.653961 -214.557037
-98.815849 -74.615952 -220.836349
-19.977133 -74.256073 -223.553116
-16.843840 -75.387939 -219.690994
-10.563698 -73.426781 -224.492157
-150.533371 -77.800438 -223.195694
-145.924789 -76.557541 -222.458817
-16.448856 -75.008621 -223.409561
78.984642 -75.267654 -223.967026
-26.173113 -76.246033 -220.989380
-12.773725 -74.157402 -227.293686
-6.808351 -75.517418 -225.930634
-147.738724 -79.352821 -226.840225
-126.337296 -74.481133 -227.196060
-23.648706 -74.519875 -223.720383
-124.701698 -74.638695 -227.953812
-132.205627 -74.570015 -227.424667
-10.663321 -76.131073 -228.717850
3.081436 -74.594368 -228.234436
18.146427 -74.456558 -225.125351
-128.581406 -74.963898 -229.734818
-6.701296 -74.982269 -230.141617
18.805956 -74.789299 -231.187836
-132.792160 -74.826607 -229.796097
17.001890 -75.785370 -232.349106
-153.993942 -78.347733 -231.378204
-124.693619 -74.563896 -231.675430
74.468521 -75.454407 -229.963898
-5.663494 -74.674530 -231.351593
-3.023980 -75.625130 -231.392136
-7.861253 -74.717834 -233.171936
-3.303150 -74.255142 -234.653152
-0.272844 -75.287918 -235.772751
66.045288 -74.426598 -237.399780
72.889824 -74.407043 -236.055908
-1.625055 -76.097412 -237.637741
17.947725 -75.060989 -239.701752
-33.002686 -75.756355 -239.159256
-28.233263 -74.189117 -239.109680
-35.357765 -75.201698 -240.055298
5.953285 -74.968269 -238.364304
-43.856312 -74.107948 -242.444946
-35.313679 -74.252609 -241.472153
-33.274284 -74.576729 -242.598801
-20.841644 -77.058754 -242.546432
-48.699696 -74.293419 -242.605057
3.238880 -74.673973 -242.388382
5.994361 -75.174088 -243.271469
-54.099987 -74.616814 -243.100281
-38.779129 -74.373848 -242.912354
2.260057 -75.032120 -244.559433
-60.586811 -74.895073 -244.263306
-43.666168 -74.232193 -244.746765
-66.371109 -74.157211 -245.531357
19.363108 -74.954849 -245.963425
-70.034164 -75.406075 -246.723282
20.684525 -75.015755 -246.947922
-146.571442 -76.797295 -246.503342
-160.704941 -73.550751 -247.315018
-73.721184 -76.479095 -249.303040
15.178050 -77.538795 -248.309067
-161.505646 -74.712654 -249.430710
-81.894135 -72.906845 -249.342484
17.163654 -76.731697 -249.763428
-81.250290 -75.445351 -250.661423
-74.317383 -75.583267 -252.262024
-87.485214 -74.682266 -253.208359
-77.577393 -74.206261 -253.754608
20.089560 -77.027191 -255.406586
-90.549309 -74.467117 -254.530777
-125.842804 -75.089722 -255.997009
-142.248138 -73.673637 -256.242706
-148.721420 -76.629974 -257.008759
-118.177719 -74.383255 -256.501312
21.475082 -75.760231 -257.433868
-147.559464 -75.798866 -257.350067
-141.398102 -74.533005 -257.121216
-135.181091 -74.593994 -257.887268
-125.556145 -76.233887 -258.453247
-12.789562 -75.671440 -256.335419
-155.684113 -73.754974 -258.931641
-133.213058 -75.899834 -257.954529
-147.754089 -75.047836 -260.312653
-140.826996 -74.963715 -259.182556
-135.260574 -74.556534 -260.713348
-133.591431 -75.850365 -260.601257
-125.495323 -75.583969 -261.976715
-161.437454 -74.864014 -261.269043
-125.906898 -74.199463 -263.732208
22.683630 -74.574341 -260.566589
-130.566498 -74.561707 -263.008667
-165.650299 -74.255814 -262.202271
-163.682510 -74.351357 -263.802185
-151.252945 -74.419022 -264.980743
-160.646500 -74.173325 -264.228333
-151.224518 -74.478584 -268.485504
-156.762131 -74.248077 -268.504578
-146.765442 -74.836685 -265.419281
-164.724625 -74.562035 -268.729645
16.512411 -78.052605 -275.520599
-165.768524 -74.701660 -275.413483
-152.508377 -74.281631 -273.343689
-7.796331 -77.125168 -275.157745
-159.330307 -74.533699 -274.380219
-146.875824 -74.999931 -277.523682
-151.432617 -74.709496 -275.948853
-6.347811 -76.612152 -279.229980
13.457519 -78.753128 -278.986908
-151.481140 -74.970001 -282.332153
-167.120117 -74.222984 -278.134155
-147.054108 -75.584358 -282.145142
-8.116636 -72.947777 -282.896088
-145.052231 -73.816933 -283.590332
-153.352463 -74.627167 -283.212036
-162.184753 -74.858757 -286.264099
-165.379623 -75.014641 -283.768097
-155.562881 -74.673737 -285.530884
-166.402298 -74.850250 -285.612762
-135.445007 -75.522774 -287.442078
-65.675385 -74.333839 -286.000427
-33.553379 -75.122948 -286.366089
-25.852558 -74.789978 -286.563629
-10.367729 -74.893227 -286.701935
-3.600845 -74.919991 -285.373718
0.117318 -74.832909 -287.450073
7.461069 -76.988464 -285.491486
-98.442345 -74.808540 -288.061615
5.575064 -74.529526 -287.719208
-120.081627 -74.861412 -288.055695
-110.519341 -74.411026 -288.500122
-150.541748 -74.695488 -287.464996
-148.681091 -74.612862 -287.099304
14.787385 -75.326828 -288.757751
-101.048119 -74.755135 -289.471252
-150.647659 -74.660042 -289.906677
-148.717331 -74.655785 -290.294861
-124.869263 -75.954407 -290.372101
-109.191879 -74.391327 -290.411804
-83.356583 -74.661346 -290.946655
-67.679367 -74.822266 -290.872681
-163.072235 -75.180344 -289.025543
-162.892258 -74.626595 -290.787872
-123.187363 -74.082306 -291.208954
-36.794071 -75.541573 -291.248779
15.275787 -75.638672 -291.571686
-155.995621 -74.837593 -291.232147
-28.494923 -74.817947 -291.678406
-136.029770 -73.981400 -292.271637
-12.090870 -74.735840 -292.083221
3.670921 -75.020576 -292.805115
-125.424629 -76.014671 -292.051025
7.774681 -75.658203 -293.187531
16.095495 -74.077217 -292.755005
-134.020370 -75.487862 -293.012787
-146.028641 -74.860916 -294.774597
-144.275558 -74.732460 -300.766266
-155.052246 -75.658218 -311.584412
-148.043106 -76.451836 -312.518860
-69.730286 -73.289902 -52.602089
-66.696793 -73.784058 -52.833763
-43.697243 -73.496422 -52.556644
-33.846733 -73.834473 -56.232567
-25.491133 -72.160339 -57.910656
-25.656960 -73.514244 -60.112213
-21.919792 -72.838326 -61.201649
-90.515129 -71.323280 -66.907455
-19.987791 -74.100655 -65.303345
87.480164 -74.018440 -71.521133
78.948090 -73.507210 -70.939331
89.897545 -74.302284 -72.221268
-23.782349 -75.823647 -75.471489
75.963860 -73.860092 -74.809288
92.399178 -75.005844 -75.159843
-38.651382 -73.700577 -77.970352
74.331245 -74.788307 -77.041046
93.124817 -74.646317 -79.720284
70.847237 -73.849411 -81.913345
70.650932 -73.517723 -84.650696
-48.994129 -76.913559 -88.052788
73.149284 -75.727463 -85.799599
-92.784279 -73.995171 -86.362167
58.675182 -71.810829 -87.604942
69.834488 -73.136292 -87.969810
-90.674919 -76.731651 -89.820541
58.014660 -74.339790 -93.251999
50.407948 -74.781929 -97.681122
72.200005 -72.527031 -96.526360
93.851181 -75.115036 -96.750565
49.533401 -73.770828 -96.737953
-93.951584 -73.626404 -96.448677
84.974785 -75.184692 -96.976204
92.388313 -74.490852 -98.101768
74.946243 -73.960167 -97.390694
92.110771 -73.682259 -99.112221
79.675560 -73.916946 -98.353638
82.851074 -72.608673 -100.662476
82.461121 -75.312309 -97.858452
86.394341 -75.079323 -98.664230
44.090282 -74.665070 -103.339325
40.620361 -74.656830 -104.392776
105.586243 -74.027321 -102.425331
-80.733032 -75.844467 -102.735344
-93.810837 -74.006630 -103.957726
40.375362 -75.190987 -108.821243
106.267471 -74.313614 -108.417900
106.861038 -74.184250 -112.978584
110.259987 -74.238098 -110.493904
37.058132 -74.285461 -114.329941
46.341625 -73.263184 -118.283577
31.803295 -74.161804 -120.512306
45.775845 -74.689980 -115.918785
107.776169 -74.008209 -120.015228
114.956810 -73.338005 -124.410141
108.850151 -73.846222 -129.159882
115.923721 -74.137589 -132.704605
-52.699993 -74.342033 -134.253723
-57.661846 -72.760506 -132.400085
-52.713566 -72.893417 -132.160294
28.745474 -73.897316 -128.902023
40.558979 -74.394707 -131.933853
112.452942 -73.529228 -131.778809
26.009493 -74.735847 -136.618225
-47.964443 -74.595772 -137.784454
37.804054 -74.565224 -139.680450
110.098267 -74.813782 -140.599976
-72.430092 -73.631729 -138.946091
24.693918 -74.947052 -141.102066
-71.217102 -74.370888 -142.288910
25.676517 -73.518303 -144.939880
-67.690239 -74.196411 -147.211624
-55.395809 -74.708351 -146.721725
-44.016846 -75.330856 -143.371872
113.549858 -74.048828 -140.233673
112.536919 -73.674545 -137.887924
109.529930 -72.923218 -143.958511
33.349060 -73.331268 -147.234268
-53.008942 -74.317413 -148.152344
-74.473885 -74.027153 -146.714355
-41.886559 -75.086082 -150.567596
-69.013168 -74.540710 -153.628815
22.125120 -75.386818 -150.936432
-72.628578 -75.221230 -151.839020
-63.807682 -75.423271 -155.510742
113.953934 -73.837807 -149.591644
-49.351559 -75.146202 -154.382904
-67.270721 -74.615089 -153.857101
-36.915554 -75.774834 -155.081024
33.250351 -73.538887 -155.364426
-69.592125 -73.186783 -154.061844
108.953758 -74.774384 -157.579254
20.438799 -74.252434 -157.205490
112.329315 -74.032898 -152.292328
113.481812 -73.900002 -158.237000
-66.856407 -73.187416 -155.375153
-47.275036 -74.318390 -158.390747
10.282204 -74.425491 -157.571640
-65.102203 -73.870628 -160.160751
-68.793259 -74.278748 -162.595322
-67.138779 -73.695786 -158.925095
21.962914 -74.982498 -162.326080
-59.021477 -74.577377 -165.965057
-32.562599 -74.112808 -161.788467
6.109532 -75.254639 -163.177505
111.128822 -74.074341 -160.694061
107.872520 -73.333878 -162.431213
115.930817 -73.583549 -161.467392
4.743537 -74.729103 -164.611282
-33.184868 -74.810890 -165.229950
0.769913 -74.152626 -167.289551
112.362587 -73.907814 -164.121552
-1.513663 -73.933334 -168.297424
29.640734 -74.275597 -170.652679
110.019943 -73.888519 -166.993668
-43.154648 -75.854301 -168.604935
114.532234 -74.230682 -168.365280
-40.203449 -73.559547 -169.636871
-28.093611 -74.627922 -169.586517
17.951542 -73.817032 -167.871292
27.605064 -73.371979 -170.747330
111.525024 -73.887383 -169.734467
-56.154984 -73.394920 -176.483826
-40.414989 -74.525879 -173.347336
-27.713877 -74.782990 -174.411240
-62.758183 -73.254601 -170.915939
110.206718 -73.878700 -175.101288
104.826073 -74.009323 -175.909149
-61.098808 -74.537117 -175.249832
28.563120 -73.506172 -174.278763
112.742310 -74.946373 -175.332764
-57.933128 -73.314629 -176.956909
-34.476418 -73.647453 -180.029984
-23.815016 -75.249001 -177.163681
106.529922 -73.901314 -180.458130
-145.038025 -73.442131 -176.688782
-57.216526 -74.266266 -180.543900
-24.816126 -75.346123 -180.029953
111.383621 -73.747826 -181.560425
-144.858551 -73.553459 -181.534683
-54.221661 -73.842590 -181.629791
-33.281876 -75.846550 -185.149643
-20.538727 -75.350395 -182.401047
-150.449478 -72.759651 -181.487671
-144.420410 -73.836884 -182.439240
-32.177284 -74.650169 -183.692627
13.711433 -74.585617 -184.784058
-147.678131 -74.234955 -182.872498
15.597052 -72.821602 -184.639359
-144.763916 -74.120682 -186.789124
-33.642616 -73.280067 -185.154755
13.282769 -75.500496 -187.654297
14.891206 -74.761238 -189.031326
23.650833 -74.386894 -186.479584
107.917496 -73.779648 -182.869675
-28.448446 -76.081833 -189.319031
11.358537 -74.411064 -192.186493
103.924950 -73.841530 -187.505463
20.773600 -74.410995 -196.071396
-146.052536 -74.983406 -192.572098
103.024101 -73.812637 -194.947205
-17.729990 -73.073479 -193.638138
100.867035 -73.822220 -194.309860
12.610592 -74.460472 -196.126343
-131.588333 -73.240410 -197.315933
98.511215 -72.828781 -200.141296
-145.717239 -74.787354 -198.185318
-131.569031 -73.864532 -200.607895
-146.659714 -81.757057 -201.006577
-140.225739 -75.189056 -200.795792
-153.007584 -73.708992 -202.723679
-23.868965 -73.574982 -202.236862
-13.380015 -71.989494 -202.785110
17.763996 -75.408371 -205.517654
-40.282616 -74.287437 -197.857437
20.996349 -74.070732 -202.405975
97.419548 -73.880775 -200.974243
101.016129 -74.234550 -204.360229
-10.631960 -75.433365 -203.004623
-13.128047 -75.652039 -203.166321
10.476163 -74.231766 -203.265045
-35.254360 -73.321732 -207.362793
-149.533035 -72.520142 -205.911469
-145.475449 -75.708969 -205.921158
98.861061 -73.819237 -203.021500
-76.756958 -74.083214 -209.511459
-34.043869 -73.474113 -206.204254
17.651684 -74.552017 -207.987045
-28.932808 -74.633835 -208.597870
-78.641312 -73.623367 -209.417847
-77.345627 -74.749916 -210.402084
-145.631943 -75.450401 -211.001785
-77.070557 -72.989517 -211.077042
-17.212812 -73.802017 -214.077271
8.823834 -73.802933 -211.300125
-28.511410 -73.203796 -210.862976
-4.763802 -75.952057 -213.003326
91.371696 -74.024612 -210.858536
-89.772224 -74.410431 -213.430496
-81.899376 -73.617378 -212.337402
-24.664789 -74.254181 -212.807648
95.798729 -73.199326 -212.653290
-7.026922 -75.048012 -213.229889
-91.783897 -74.512634 -214.369186
-145.939957 -75.718422 -217.870895
93.691017 -73.857254 -211.340424
92.447716 -74.347015 -217.082321
-79.409027 -74.356918 -214.722122
-14.764509 -73.723717 -214.634842
-20.582584 -73.216614 -217.090881
19.071096 -73.042747 -211.230515
-4.142163 -75.007614 -218.006104
-87.655319 -72.976418 -218.392380
-28.129982 -74.374817 -218.823761
86.138924 -73.933182 -218.052063
89.283562 -73.997940 -217.285828
-14.998023 -74.313202 -217.892212
-95.779358 -75.128029 -217.207779
-149.301575 -75.859680 -222.331375
-21.393408 -73.767097 -219.891846
16.254992 -73.506691 -216.626389
18.438898 -75.365112 -218.703033
-101.390587 -73.486946 -220.129105
-18.388380 -73.160423 -222.770660
5.762178 -74.475357 -221.275436
7.879932 -74.626793 -221.095932
-94.008965 -74.558792 -220.418335
-18.947948 -74.289276 -220.803513
83.963524 -73.982925 -223.272171
-145.868286 -73.576294 -221.945999
3.050833 -73.804787 -223.949722
-22.845881 -74.424629 -220.567444
-11.283335 -74.750595 -219.706085
17.861256 -73.234138 -222.259171
82.813377 -74.046463 -222.683334
-13.467255 -73.805443 -225.738602
-132.189575 -73.362144 -225.771454
-127.346687 -73.621201 -225.832108
-11.705309 -75.244041 -225.000366
16.028517 -74.065689 -225.899353
-132.515991 -73.724953 -226.611221
-141.193283 -76.756767 -226.687454
-125.033287 -73.951080 -226.675919
-16.783390 -74.668037 -225.876816
-148.423492 -72.463829 -227.344299
-18.642504 -72.425194 -228.233322
73.065651 -74.061157 -228.986588
-140.935089 -73.836395 -228.674301
8.680656 -72.748245 -227.520554
-134.330307 -73.666771 -230.421188
-12.991757 -73.797997 -228.728119
70.807938 -72.987541 -230.409134
79.710449 -73.687988 -226.977509
-141.116776 -73.677940 -230.843765
71.478165 -74.520599 -231.373581
-17.829550 -74.676178 -228.632339
-141.959824 -74.937241 -232.292526
4.382735 -75.223587 -232.537277
-132.387878 -74.349915 -231.772812
77.163788 -73.036400 -230.576797
-127.635254 -73.781792 -232.981857
8.828654 -74.514587 -232.838440
79.142906 -73.915535 -231.562714
-143.356140 -75.153404 -234.128952
-150.492401 -73.499405 -235.195877
-10.717966 -74.547218 -232.777573
-163.343338 -73.432503 -235.951721
-159.699295 -72.932434 -235.258698
16.352211 -73.967247 -234.134705
-164.189468 -73.285927 -232.472427
-1.930819 -73.707047 -236.485901
18.938854 -73.597214 -235.354675
-15.162002 -75.397797 -237.827927
-25.292061 -74.779434 -237.963104
-1.700797 -73.423637 -238.693771
-145.930725 -73.699188 -235.407486
0.427801 -74.473969 -236.713165
-160.865067 -74.038712 -237.562332
11.237984 -74.656128 -242.099899
-164.917755 -73.374489 -237.994492
-13.596091 -75.347198 -238.674866
68.582405 -74.554535 -238.222977
-24.275635 -72.883690 -239.904404
-12.076216 -74.501656 -240.654160
-162.437592 -73.498772 -239.835281
-27.050770 -73.370537 -240.946243
59.643631 -73.488235 -241.712570
-27.834333 -73.863564 -241.498001
64.098679 -74.280037 -240.155624
-23.846071 -74.110291 -242.282303
20.458298 -74.133224 -242.538010
-15.697632 -73.258804 -242.362045
-3.913373 -73.491707 -241.182571
9.204306 -74.270851 -243.234070
0.495515 -75.461662 -241.658920
5.992002 -73.652641 -243.151505
-146.051849 -73.762901 -242.314774
9.502873 -73.721451 -244.186356
62.897850 -73.484802 -242.955353
-150.506180 -73.745567 -243.121338
-54.550194 -72.963058 -244.560089
-47.810413 -73.676254 -243.584717
-2.360852 -73.361671 -244.946198
13.507145 -73.891182 -245.141968
16.681257 -73.694908 -240.433990
-158.607956 -73.229401 -239.292542
-157.364288 -73.409988 -245.108902
-49.933048 -73.352043 -245.084839
-1.225368 -76.221001 -246.214645
-151.764343 -73.236763 -245.900726
-48.834541 -74.474808 -246.676224
16.799019 -73.634422 -245.911285
-53.685749 -73.024559 -246.473785
-5.117089 -72.785614 -245.815628
21.962269 -74.861099 -247.058472
-70.542801 -73.900230 -246.664413
-153.114120 -73.353348 -248.132690
-164.612106 -73.869347 -248.371857
-75.016922 -74.323402 -247.748886
-7.546731 -73.128738 -247.056137
14.042827 -76.507172 -247.289459
-50.632053 -74.645157 -247.240845
-78.379013 -74.735413 -249.052094
-58.775826 -74.837151 -249.476273
-158.365784 -73.591949 -249.619003
-150.607346 -74.183182 -252.322632
-63.099918 -74.624619 -250.421936
-165.728226 -73.708649 -250.168488
-146.195648 -74.057709 -251.908066
-86.083748 -73.424652 -251.061829
-68.652229 -74.375328 -251.754562
-153.287201 -73.572540 -253.739395
-160.907242 -73.756683 -252.206223
-151.618790 -73.573471 -252.711472
-75.021187 -74.332489 -253.076157
-91.654396 -74.056000 -253.083679
20.153454 -74.325195 -252.095947
-162.913956 -73.785721 -254.411011
-98.856842 -72.298454 -254.074860
-95.505394 -72.578392 -253.483154
-83.094810 -74.800919 -253.688538
-166.362457 -73.455086 -255.181351
-155.154663 -73.643684 -256.169525
-133.582031 -74.082306 -255.409821
-83.361107 -74.612892 -254.630127
-164.651031 -73.911469 -253.335617
-142.724136 -73.008392 -255.335449
-124.621063 -74.416595 -255.567337
-85.477417 -73.306412 -255.476944
-96.179169 -73.747803 -254.604935
-135.606339 -72.807098 -256.048523
-117.074638 -74.045319 -255.710556
-94.749458 -73.717323 -256.327759
-87.938690 -73.555367 -256.104279
-91.248543 -72.621796 -257.184448
-148.188812 -73.568306 -257.275940
-99.484444 -73.479263 -257.347412
-93.783211 -73.665222 -257.021637
-149.665359 -73.683250 -257.509796
-105.833504 -73.386566 -257.145691
-100.486237 -73.510994 -256.918488
-164.709808 -74.173134 -259.383850
-160.150452 -73.850822 -259.225983
-147.257690 -73.608330 -259.216248
-114.958389 -73.767296 -258.754639
-123.802109 -73.778961 -257.505615
-106.533981 -73.329659 -259.270660
-149.971176 -73.403122 -259.779694
-142.021606 -74.446587 -261.024597
-115.132698 -73.700310 -260.839783
-14.715882 -74.677452 -261.831696
-158.147247 -73.854935 -263.177917
-142.361603 -73.617996 -262.138336
-123.918159 -73.993874 -260.356110
-133.504959 -74.437317 -263.061096
-155.169540 -73.796204 -261.824677
-156.056335 -73.959923 -264.581696
23.619541 -72.230843 -265.251160
-152.693298 -73.878853 -266.216370
-13.381722 -73.921562 -268.921356
20.743217 -74.356636 -271.857971
-146.066284 -73.971703 -273.826508
-166.714050 -73.971031 -271.510406
-11.185553 -74.031952 -275.206696
-8.358587 -75.235832 -278.482361
16.880472 -75.614082 -279.181305
-145.970215 -73.877357 -282.303711
-6.155891 -74.068985 -284.143066
13.689487 -73.991760 -283.725372
-143.172241 -73.823837 -285.422150
-135.365936 -73.874016 -285.770203
-59.338543 -74.751236 -285.798248
-70.801918 -74.260506 -286.320984
-39.390320 -74.113609 -286.172089
-29.181932 -74.565575 -285.226929
-79.781021 -74.052368 -286.582397
-32.453083 -73.626244 -286.597321
-26.219421 -73.813789 -286.606018
-124.620399 -74.163925 -286.802185
-119.376747 -74.311600 -287.389404
-115.057663 -73.646286 -287.026428
-92.038361 -74.460518 -287.295898
-88.118202 -73.910141 -286.698853
-102.895248 -74.068413 -287.553802
-167.165070 -74.094940 -285.878784
-115.279549 -74.702065 -288.523407
-113.034233 -73.187073 -287.322052
-165.998535 -73.680222 -288.889404
-54.230442 -74.859253 -290.856812
-97.089676 -74.523224 -290.953247
-93.391533 -73.852722 -291.308777
-78.478371 -73.864197 -291.254700
-44.667225 -74.371826 -290.962616
-116.163460 -74.789955 -290.844055
-114.184364 -74.402847 -290.364746
-108.770508 -73.803596 -290.975708
-31.779417 -73.782219 -291.425476
-120.226379 -73.284882 -292.192810
-113.581955 -73.110390 -291.805786
-104.724327 -73.036934 -291.843475
-19.667984 -73.891022 -291.732452
-124.778244 -74.145523 -291.898712
-143.371338 -74.198837 -292.375031
7.673703 -73.240265 -292.783020
14.499876 -75.278290 -294.164093
-158.547913 -74.628838 -293.240448
-157.575592 -72.587685 -294.977966
-126.929298 -74.761299 -293.971100
-156.212204 -74.639931 -294.388184
-152.999390 -74.760338 -296.581787
-146.099747 -74.718704 -299.542419
-154.815292 -75.552383 -301.758911
-144.202148 -75.085320 -307.574066
-156.159515 -73.219032 -308.291840
-144.320618 -74.834229 -311.575317
-150.016800 -72.582489 -312.012177
-150.717880 -74.893478 -312.533051
29.273531 -72.439949 -17.783722
25.563185 -72.395638 -16.537645
26.816471 -72.481079 -20.453220
22.342775 -72.598000 -22.574705
20.646023 -72.197235 -27.656202
24.550591 -72.659798 -23.397511
22.368187 -72.633415 -31.734066
26.603893 -72.520149 -32.412197
24.221430 -72.631950 -35.607422
28.960953 -72.428123 -39.494728
-62.805618 -71.806259 -49.800217
-55.310669 -72.311935 -50.232609
-51.618332 -73.697609 -52.105179
-63.517441 -73.323822 -51.706295
-45.536808 -72.305588 -51.029011
-38.931412 -72.829147 -52.827209
-73.863075 -72.104774 -52.475269
-31.777092 -72.564682 -55.317432
-80.066086 -73.014755 -57.529964
-17.055550 -73.808174 -68.539467
82.930092 -74.032059 -71.282852
-17.593315 -73.840027 -70.268433
90.168571 -73.225014 -70.391960
91.702560 -73.901520 -73.686729
75.092117 -73.506813 -73.220284
-91.211113 -73.352341 -75.435249
70.792595 -72.020523 -76.203934
-24.958796 -74.003479 -76.914764
-36.102596 -74.128860 -77.648804
-35.616047 -72.239067 -76.626038
-38.254116 -71.950882 -76.616295
