# This PCD file was generated using the MATLAB® pcwrite function
# from Computer Vision Toolbox®.
# .PCD v.7 - Point Cloud Data file format
VERSION .7
FIELDS x y z
SIZE 4 4 4
TYPE F F F
COUNT 1 1 1
WIDTH 1395
HEIGHT 1
VIEWPOINT 0 0 0 1 0 0 0
POINTS 1395
DATA ascii
-147.714938	309.881037	-76.8697729
-146.883741	313.046438	-71.3618573
-150.314286	301.67425	-79.3963479
-149.663313	306.924341	-75.33099
-153.465377	309.32226	-71.2954538
-149.504671	312.525722	-73.1114396
-149.864095	308.620517	-70.7222062
-146.474804	309.101087	-71.9324537
-154.352478	306.27186	-71.2268641
-152.257611	306.412539	-71.2650196
-146.050085	309.789922	-72.1369609
-147.055163	304.36299	-73.3009541
-146.551061	301.615822	-69.6217905
-155.87745	304.820536	-68.8686858
-153.376221	311.014674	-68.9899652
-154.806656	308.301369	-69.4296433
-147.712033	309.270066	-70.1088916
-150.160388	308.025488	-68.1581486
-144.518896	304.720305	-72.7808825
-136.990544	299.739162	-81.5449673
-142.332423	300.718435	-80.9159896
-143.406345	298.159271	-80.0601918
-136.982167	298.790872	-79.3218545
-141.48026	298.242744	-79.2126581
-136.47922	297.757259	-77.2852191
-136.539069	298.884446	-74.5681646
-140.816981	297.84191	-74.2131458
-137.651625	297.838147	-73.1452258
-142.225655	295.211249	-70.1328377
-136.427899	298.510055	-72.9921384
-133.568781	294.807552	-69.9943761
-133.591214	298.736864	-70.9040633
-140.838814	295.397749	-70.4634138
-137.31136	300.262132	-72.174795
-143.314185	300.561902	-77.5238361
-141.420723	302.689559	-82.8215913
-141.973925	302.546162	-73.0267875
-137.14721	301.499932	-68.6381583
-138.02526	303.491894	-67.7850884
-144.199853	304.693016	-68.434608
-148.090661	320.043521	-73.7144946
-153.559621	319.421017	-72.2854943
-150.312917	321.40759	-70.8356765
-153.812465	318.167528	-71.7398735
-152.392456	319.080959	-71.1663042
-150.777087	321.524158	-70.8153023
-153.053222	318.630929	-67.889243
-119.378791	296.594392	-72.2354256
-124.055025	295.526538	-68.0237328
-126.438263	291.549791	-69.1437691
-126.51688	302.059507	-67.8015691
-127.140524	301.916868	-67.9137906
-123.792735	306.551592	-68.4625133
-113.03756	299.372738	-67.8891685
-111.597133	299.54764	-70.863318
-112.930447	299.639233	-68.2973907
-111.822962	299.722425	-68.1528798
-111.85281	299.631187	-69.4841324
-156.435131	299.646675	-60.8940547
-152.597366	295.113542	-67.3992165
-150.927851	297.590561	-66.6753766
-148.704666	300.012185	-67.1788479
-145.195057	294.445735	-65.3559196
-149.512314	293.948783	-64.7696434
-148.849798	289.160604	-63.8592624
-149.425242	300.214171	-65.3257522
-152.8472	291.858514	-63.6557584
-155.00764	294.696084	-66.7924258
-154.786315	295.765926	-63.6346659
-150.764848	290.064367	-66.8584381
-148.172887	300.543322	-60.5785578
-150.603958	299.603611	-59.5885751
-150.457679	292.987343	-59.0988866
-149.725	292.640512	-59.158493
-149.968269	294.028824	-60.1345771
-145.71814	293.015495	-60.9481199
-153.767321	294.668765	-60.8644931
-152.411963	297.647214	-58.4500258
-148.73669	295.394191	-59.1402692
-147.849352	295.245269	-59.4141955
-145.24257	297.33997	-59.1016937
-146.090287	298.698849	-60.2593783
-151.932107	299.331369	-59.4753457
-149.03858	294.832898	-59.2360271
-149.459576	291.914112	-59.8781787
-149.765103	292.832158	-58.9831325
-151.98212	295.360798	-60.1888397
-150.036324	294.574933	-58.9486996
-156.314573	309.531578	-64.3029408
-151.19984	309.739337	-66.9762606
-155.735564	301.271663	-66.0633912
-153.382386	311.582109	-60.9378768
-152.127871	310.6647	-60.7064337
-153.679775	305.36629	-66.534956
-154.186613	311.053816	-61.6916101
-147.756372	309.870282	-65.6326131
-149.368875	312.627206	-61.1045002
-146.646421	306.37452	-64.1020286
-152.842851	305.481268	-59.672552
-149.409543	301.578993	-59.6032659
-150.459927	303.940951	-59.5186916
-145.878591	304.219818	-58.8128393
-151.450857	304.984213	-62.1517032
-144.566168	304.757536	-63.985368
-144.414502	311.317318	-62.7588282
-133.182026	296.97055	-67.5155871
-137.434578	295.734706	-63.8222616
-143.041233	298.452429	-65.4447779
-143.731254	294.454846	-62.6163203
-138.476508	295.228872	-67.3438636
-135.835293	296.778999	-62.0883947
-138.290065	299.646058	-61.8952096
-143.535545	296.111619	-63.6618311
-135.651029	297.237014	-61.9334248
-143.933818	300.764268	-59.7123075
-143.575015	300.568736	-59.9552676
-131.777241	303.05973	-67.2924079
-143.405005	310.109777	-67.2745909
-136.005398	301.191245	-67.1378795
-142.068032	302.934546	-65.2650448
-137.091859	302.836952	-60.8068169
-143.865955	310.343338	-63.6462035
-143.442554	301.292316	-60.55159
-135.552977	301.071912	-62.816555
-144.118126	302.755687	-60.2451114
-150.672918	322.539888	-64.0461456
-150.02544	322.931661	-65.2476766
-145.234585	323.010296	-66.0870326
-154.568945	320.881235	-63.2001679
-154.451561	321.735709	-60.1400885
-154.929192	322.029445	-59.4008573
-146.838952	314.864445	-60.1976237
-147.183698	323.120767	-63.3729867
-140.879521	319.3616	-67.6283835
-143.766493	320.972561	-63.8400021
-126.902463	294.324654	-67.5070874
-131.480272	292.798336	-59.5361324
-129.218626	293.938797	-66.5691787
-128.350872	295.596556	-63.0110324
-129.934558	295.28943	-61.5013577
-122.489227	300.707957	-64.8221154
-124.811495	297.183091	-60.4698746
-127.549956	297.432402	-61.6900856
-121.367594	299.167859	-61.8261078
-124.211685	299.222883	-62.297103
-123.039149	299.808672	-62.212013
-119.399069	298.387204	-62.0138929
-124.486666	302.096763	-67.6381932
-124.994715	303.394503	-67.2753838
-128.066597	305.332014	-63.9927197
-112.854468	299.609424	-66.6368235
-115.53224	297.905259	-67.0155124
-118.138879	299.672452	-67.5497315
-115.670951	297.681906	-67.3773331
-116.171574	300.095185	-62.967534
-116.153651	300.539633	-62.0666897
-116.563139	300.531423	-61.8304483
-118.648461	299.522512	-60.5765089
-113.274138	300.723242	-64.5255008
-116.425447	300.584234	-63.0270291
-108.652397	300.753253	-64.2634811
-109.402177	302.55768	-61.6280616
-109.412504	301.736381	-62.3746201
-97.2664418	227.561084	-70.3082619
-103.404406	228.562706	-70.6274161
-102.007383	233.16721	-67.6911034
-82.5380735	223.301542	-72.423733
-86.4302583	222.015335	-72.8551674
-82.4681968	222.54445	-72.5723591
-84.399819	222.220769	-71.4419414
-82.5976646	223.433349	-67.8759964
-86.3610852	223.251378	-70.0759972
-92.1140277	225.408668	-72.016902
-90.6917958	225.704321	-70.9964501
-93.0437134	229.291108	-68.0987826
-91.7348222	225.509793	-71.5083422
-83.5740118	227.14121	-70.0430209
-86.9130742	228.753598	-67.7581933
-56.5875114	190.394623	-73.1264775
-60.344343	188.136255	-68.2231312
-58.6374813	189.748493	-71.9481815
-58.692929	189.888392	-72.0604444
-56.7355776	188.424164	-68.524479
-62.4895396	211.623453	-72.5170582
-59.4215111	209.291034	-71.5923247
-62.04453	210.629731	-71.9517425
-70.3908458	218.82332	-77.4003122
-73.9841968	220.073432	-76.1751984
-72.2361127	223.964505	-78.1634154
-76.8421736	221.463099	-73.5516835
-75.0821345	221.633221	-72.6894685
-77.1228562	221.418686	-74.5592365
-72.3866193	222.153634	-76.0239269
-69.9050632	218.865808	-72.5273123
-76.5597622	219.485863	-69.7512629
-74.4160663	217.49884	-71.9655698
-70.8013888	220.5466	-74.7663138
-78.2285686	220.387103	-69.7503753
-76.8302942	220.098517	-70.127532
-78.9646816	219.737578	-67.7477874
-80.474694	226.139262	-76.175233
-78.5029533	225.455676	-76.2996244
-60.2736769	215.388834	-76.6555428
-66.7181916	217.912985	-77.7140796
-60.3126247	216.25477	-77.3065188
-58.0808668	214.950981	-76.4281176
-62.3726374	217.193041	-78.5170674
-60.7027741	215.573921	-74.5874142
-67.6968942	218.347953	-77.862731
-62.6320788	216.393075	-72.4030714
-61.7600146	218.136705	-71.3538169
-67.6893697	216.62219	-71.6771571
-106.315808	235.378625	-61.2171633
-101.567386	232.255572	-66.8560239
-95.221051	226.486759	-60.7936539
-96.0866876	229.355102	-66.1956662
-102.353574	231.08301	-62.2742429
-104.604255	235.320678	-61.1677792
-100.754384	232.115132	-61.3594258
-99.0925496	230.375158	-59.5509601
-103.389289	233.746019	-63.9442897
-85.4201918	224.641698	-65.5342308
-85.4547287	225.454862	-66.7735881
-85.6886604	229.606005	-67.624422
-91.2413319	228.207531	-64.0504245
-90.8671631	228.14245	-64.4533616
-89.8726946	228.802862	-66.5529674
-90.5179025	227.919496	-64.5696877
-61.7275102	187.694402	-66.7231382
-78.0579146	218.898177	-67.0935259
-79.7767657	220.198591	-67.2536804
-82.4625389	260.96663	-67.7914763
-83.2599176	260.483639	-69.1499617
-85.0107483	257.640881	-69.7538255
-89.954126	262.323433	-67.8348603
-100.3222	268.572267	-69.0334695
-103.863826	265.985541	-68.6324348
-69.562836	260.905091	-70.6114446
-74.3296982	258.657393	-70.5081413
-74.8491136	258.141003	-71.3135976
-77.6494802	259.646529	-69.3839821
-76.3700633	258.213139	-69.1142066
-62.9060717	258.399978	-72.1632011
-60.0678012	259.079409	-74.8343959
-66.8358373	260.781309	-71.3304766
-64.0137705	253.351074	-69.5384046
-68.4328449	257.101643	-68.8974372
-66.3030003	254.279431	-69.8062739
-61.3140689	252.868406	-69.4741241
-75.6540313	264.595051	-70.4938492
-92.0499145	262.046725	-67.3777108
-84.3841981	262.802865	-66.3509228
-86.848813	261.683214	-67.563564
-85.4587883	262.296029	-66.6162555
-91.8840494	262.177361	-67.1849477
-99.5747131	264.184105	-66.7754853
-94.5583331	265.87562	-65.1175402
-97.4960709	266.268799	-65.0466267
-102.770872	266.083208	-66.5295326
-100.539731	265.316929	-65.5014991
-100.780319	268.610078	-61.597454
-103.55862	266.910029	-64.6335345
-102.703973	266.369361	-63.5349346
-101.540761	266.100813	-61.9622945
-94.0815321	266.703889	-63.4576535
-99.7183258	266.149994	-61.8921424
-104.405433	268.172935	-60.3472946
-82.6535198	263.425361	-63.8937287
-86.4832265	263.584777	-66.477065
-92.0960625	263.682523	-66.4744113
-83.930556	265.950776	-65.1736311
-91.4766846	270.624325	-62.1616105
-83.3358487	266.187048	-64.8035084
-89.0966163	266.018983	-64.8341306
-69.1911444	258.30814	-66.8581949
-73.4038173	262.444694	-58.4530465
-71.5743652	258.957192	-65.4018997
-78.4409149	260.965996	-64.9269218
-77.9086051	262.779751	-63.4424023
-65.0739934	259.28815	-67.3085989
-61.6107087	258.527309	-66.522403
-59.0504764	258.617201	-63.2316865
-51.0791206	194.159649	-74.5953318
-50.7496099	194.591549	-75.3355406
-53.0359005	189.846159	-75.6427483
-49.9047383	191.024949	-77.5049805
-53.5186772	191.150738	-73.8574998
-50.0236575	195.860557	-73.123857
-51.0801681	194.348378	-72.1550255
-52.2729722	193.010722	-67.7940103
-51.1282443	193.786896	-73.4137453
-50.1870696	196.259927	-71.2793375
-49.5638762	199.723125	-72.0697258
-46.519014	198.369795	-72.471749
-53.6137659	189.541882	-72.9236255
-55.477977	188.597376	-68.4809731
-52.4584063	193.553501	-72.3130284
-48.1666625	199.448954	-70.5329261
-52.9957595	191.32829	-68.3963354
-50.0224478	198.763567	-69.1502896
-52.6710024	194.355466	-68.07921
-44.0004417	206.099974	-82.146568
-45.9573858	208.124927	-80.3242092
-54.0637628	207.582146	-79.5315036
-47.5269885	208.920085	-75.2029081
-54.1634795	210.543998	-75.7277513
-47.1957106	205.37128	-73.7649365
-45.0566576	200.348942	-73.7701151
-48.1855283	209.639092	-74.6353945
-47.975382	212.119888	-75.2575824
-46.8092246	206.115425	-73.5184288
-45.6449898	201.287829	-72.5324171
-49.595121	206.766229	-74.1306866
-55.7753622	201.026904	-70.2823824
-52.8765283	200.377684	-68.8495742
-48.3528947	204.165833	-69.2195802
-45.0425583	207.604151	-70.7454339
-48.8542223	212.497994	-74.4207625
-43.6496781	206.877369	-69.804016
-31.7063976	200.143578	-76.879838
-33.4429844	198.550766	-74.5940209
-33.6721279	196.846684	-73.2276711
-34.7647798	198.196315	-73.9413918
-31.2854545	194.4843	-72.3843398
-34.8190561	187.747693	-70.3602857
-35.7994899	190.502698	-68.8981844
-31.3806124	195.531793	-70.5432404
-31.8345848	192.178075	-70.039367
-36.8419051	187.955841	-68.6307983
-36.9856872	194.025949	-67.6819084
-34.9583634	205.614913	-81.2559221
-36.2093372	200.820388	-76.6161065
-35.1902141	202.844131	-78.388448
-40.1253123	205.88546	-79.377853
-42.1432486	202.80488	-76.2893933
-37.0713274	208.456814	-75.3478404
-42.6386563	205.090712	-74.6155621
-40.7050878	203.743964	-71.5994213
-40.1054243	210.533833	-72.6489498
-43.2283945	210.902843	-75.1451946
-43.3877591	211.814798	-74.9714391
-39.8112191	211.925655	-72.2354215
-39.7585139	203.933735	-75.1013453
-41.5874277	207.065612	-72.9072717
-42.9034486	209.241136	-71.9434407
-42.6401078	208.050024	-71.1120488
-38.1243447	210.366781	-70.9764128
-43.0465944	202.458008	-72.9028099
-40.8570214	202.700472	-72.0879332
-38.6677755	212.18874	-70.2257806
-34.5670906	212.641507	-70.5191626
-40.6018015	206.008306	-72.3991485
-38.2395282	207.337872	-69.498624
-38.8451235	211.888778	-69.5683913
-31.3882582	203.164114	-70.9830975
-30.9168346	200.824047	-78.2521236
-36.413512	206.672088	-68.8020256
-49.8309094	215.069812	-76.7184617
-54.2020252	217.929006	-77.6202159
-52.4150316	216.74709	-77.25219
-55.0837356	216.24019	-76.5316263
-36.4095122	215.770844	-74.8652738
-33.6012925	217.29413	-71.7802063
-33.8433898	220.531367	-74.8600886
-39.1775516	214.62987	-75.4285967
-33.1553399	220.907849	-73.3158582
-38.9812936	214.661864	-74.7534104
-36.3096339	224.232554	-74.7568618
-37.856489	219.948604	-72.1221966
-35.3562763	221.891669	-72.5839124
-36.0668266	217.536555	-72.401619
-32.7966855	216.824102	-70.8510644
-31.0667934	217.265814	-69.7576454
-38.7025662	214.390835	-70.5733773
-34.1759402	217.820311	-69.9308652
-34.103151	222.908486	-72.0903402
-31.3587186	216.077163	-67.9897416
-30.990572	227.726332	-75.4323082
-30.7820461	195.467756	-70.9648254
-30.3984414	195.289322	-68.7331747
-19.7786398	192.288737	-75.7610837
-20.9454002	190.849625	-75.5370787
-25.2111758	196.884631	-74.3650229
-21.4023128	193.663699	-75.3808382
-27.9526409	194.679291	-73.7429394
-25.3923528	189.832414	-71.8236473
-29.2178326	199.590188	-71.2574816
-27.8989906	198.473349	-71.8015681
-18.6065073	197.122125	-74.4586986
-30.0971545	192.778177	-72.6863861
-28.1265999	198.646354	-72.6995954
-27.976226	188.260335	-71.5567682
-20.5305961	190.916364	-71.7474522
-28.8791675	196.000168	-70.0988077
-22.2751612	192.454524	-68.993125
-23.3667187	195.356294	-70.8526834
-21.0251804	192.843662	-69.3838825
-29.4003979	197.111188	-71.435543
-23.178771	199.487236	-71.2632988
-28.1744086	196.291205	-70.8422269
-19.47905	198.619364	-70.0918012
-20.4730885	194.01041	-67.8038325
-19.3485059	194.166146	-68.2248907
-30.0399394	203.249982	-80.4223896
-29.9928612	201.021819	-75.0322028
-23.2834693	207.622503	-72.1536319
-25.6626378	206.956307	-73.8937004
-28.858452	211.509929	-69.933566
-23.1247599	201.822599	-72.1443196
-24.5406848	204.208963	-72.5731139
-22.516716	200.190153	-72.1692065
-18.9431321	207.348431	-69.4990202
-25.8413961	201.654441	-69.8325624
-27.9454422	207.21504	-73.6848581
-18.9898576	203.888735	-70.0693354
-26.2708203	204.845009	-68.5907756
-25.0737053	207.839987	-68.3394167
-22.3450279	212.686695	-68.6243285
-19.3244057	212.570622	-70.6760469
-11.415276	188.540785	-75.3936797
-14.4520908	192.159004	-75.0214292
-14.1111288	191.428942	-74.5095576
-13.8243428	187.965331	-72.7838386
-14.2059753	190.473866	-72.9134605
-14.645787	199.965262	-69.8340406
-17.6174735	206.912156	-72.444374
-17.7952699	208.241309	-69.9871251
-16.3224226	207.669088	-70.3311558
-17.8990326	212.18828	-69.2255961
-12.2437163	210.217391	-71.3427009
-14.0383807	208.434658	-69.765674
-18.054507	201.746746	-68.1290313
-20.5678053	214.069829	-68.1224256
-23.2631273	223.908709	-69.3053078
-30.5150362	223.977	-71.6154287
-30.1119686	222.648244	-70.3373308
-24.5220039	218.720109	-68.2833123
-29.4778904	221.714142	-70.527565
-26.906678	221.579037	-68.7819184
-18.4003315	219.402594	-69.338265
-25.6751547	220.188399	-67.9318771
-26.4839034	222.547838	-68.4625318
-28.4273781	225.003789	-69.1536092
-26.3280991	226.432232	-71.4588732
-26.335607	227.601611	-72.1985782
-22.5920279	231.844103	-73.8269745
-27.5511926	225.831454	-70.9724434
-21.3432605	230.749354	-71.1175728
-19.0158116	233.092167	-70.1766772
-23.9374904	226.788561	-68.4184484
-24.0074069	229.811883	-72.8922006
-27.8273321	226.077984	-69.822866
-25.5636639	228.533224	-68.1460509
-22.070071	229.419866	-68.6726688
-24.5987117	225.90065	-68.7908709
-21.0048054	236.417955	-68.7260277
-16.9612848	215.204159	-71.2668034
-17.2745749	212.978369	-70.2430282
-13.4671081	221.675689	-72.4278266
-11.9349569	223.946828	-71.2737742
-8.50511046	220.810319	-71.1805743
-11.7633358	220.294485	-70.9630819
-15.0829026	221.253966	-69.4917423
-9.18273531	224.309329	-71.4379073
-13.5499008	214.031789	-69.7167484
-8.91717929	214.295544	-70.8856288
-8.81494708	224.405998	-70.1757467
-15.963669	224.607976	-68.1133891
-10.3865131	215.48838	-70.0794788
-5.77135249	219.375361	-68.9872443
-9.32242859	225.348636	-71.61413
-7.82204366	227.442259	-72.1550878
-8.06958864	227.978407	-69.8103631
-7.27946932	232.350409	-69.5672529
-17.1763135	229.1965	-69.0721749
-17.1381156	229.849522	-69.597407
-6.77098723	232.663268	-71.8952821
-14.7212143	227.269821	-69.4620048
-17.1051269	229.461192	-69.6232981
-10.1480314	235.985308	-70.6785811
-17.4952547	234.556081	-69.0635499
-11.3547857	232.719009	-68.139739
-14.94054	232.433246	-67.7631729
-12.5702131	228.906437	-67.8505823
-6.11508892	232.665409	-67.6929216
-35.9998072	188.135907	-66.437404
-35.626907	187.819381	-66.8330767
-23.6853752	193.235873	-66.412655
-28.935199	198.768914	-66.1120254
-22.8681919	194.403399	-63.5957757
-24.749931	195.660918	-62.3870967
-25.080159	195.554269	-65.2369768
-29.3356098	196.941196	-65.3241626
-26.1256439	199.024137	-61.3793742
-28.4358634	196.47275	-63.1932173
-26.5334095	194.629303	-65.1720185
-26.9584951	194.339118	-63.1787403
-23.1429413	192.330637	-67.4379759
-21.788013	195.54022	-62.6050649
-27.862061	191.494131	-64.3943643
-23.3274521	199.253035	-59.8041171
-29.90635	204.836664	-67.4142412
-20.2837167	206.486951	-64.1589934
-24.919157	203.863339	-66.0514902
-18.892213	206.63875	-65.1372341
-19.0002767	208.630309	-64.7784187
-26.6817088	211.745193	-67.0375225
-21.062634	201.609805	-56.968502
-21.4491361	206.546508	-63.0974639
-15.8271777	207.932704	-67.3470428
-14.031653	207.778399	-66.7082367
-15.7052305	212.42373	-64.9747061
-17.8017376	206.672487	-65.6886615
-17.5871938	209.588474	-62.29864
-15.9519582	209.653343	-63.2996844
-23.8215254	214.505887	-64.5017418
-18.54465	214.291044	-64.1931508
-18.9581408	215.126928	-65.6545944
-19.7925917	233.744801	-67.6328633
-23.7573054	231.424122	-65.7713657
-22.1647754	229.134707	-66.7222898
-24.0710867	231.078248	-66.6557165
-13.5065671	212.786281	-67.3095733
-17.2065583	221.129801	-66.5271722
-15.7278858	212.980822	-64.0184242
-17.3987486	218.790273	-67.3754924
-13.0255354	213.932556	-67.3898214
-15.4190406	215.544709	-62.4242712
-14.7658456	224.893991	-66.6138735
-13.0577767	224.724035	-65.0653287
-11.4046093	220.589415	-63.5711323
-8.40578275	225.171427	-65.2653265
-12.8462193	221.940163	-62.095956
-17.2678654	216.265663	-63.8328008
-13.109844	215.517709	-66.4025291
-13.4465716	216.225371	-59.8569032
-11.7792458	234.307115	-67.2851305
-13.8115715	237.082978	-67.0978664
-12.9475983	228.945789	-65.6375794
-11.2831638	234.060606	-66.7179927
-15.9645013	234.287955	-67.3188806
-8.98537352	236.99165	-65.1394891
-15.4854481	228.913843	-66.9947495
-6.21300648	230.726072	-67.0268215
-9.35638361	232.925394	-64.8740198
-14.8108102	229.584143	-63.6723812
-8.06508508	234.60055	-65.4845579
-12.0956669	230.993317	-64.8735319
-13.3164364	236.936018	-64.4320543
-6.57493441	230.128578	-59.9775524
-9.33257421	226.656365	-63.0052377
-44.5957953	251.728291	-72.7744813
-50.4282505	251.768923	-73.730125
-46.6573009	252.747641	-72.3738461
-44.2202779	255.999848	-72.5061419
-51.3941465	253.011746	-71.7062054
-53.9660938	259.021719	-72.9468253
-54.4754622	252.227517	-70.0246182
-44.9415018	252.026119	-72.5019725
-47.455471	258.017411	-71.9015202
-52.5727742	255.434645	-68.9593397
-46.8010708	252.936094	-68.5954242
-49.4057885	253.92229	-68.6055245
-51.3956948	253.658576	-69.0452627
-53.6168871	257.378305	-70.1868058
-55.2477215	251.865087	-68.8654604
-31.3031324	248.116849	-73.3385939
-39.3353166	250.198328	-71.6029428
-30.9344286	247.700539	-73.2134532
-34.3102961	249.643137	-72.0336643
-36.5609131	247.489503	-70.4699858
-37.4353855	246.41352	-69.6565779
-34.9435392	254.702839	-76.482287
-40.7506989	251.172686	-71.4124828
-38.6005377	253.618628	-74.3900007
-29.3948055	249.616521	-71.5093945
-25.2336402	249.880519	-71.8869449
-21.5284419	250.455018	-70.4065615
-24.4160807	244.750937	-72.1368022
-20.0420704	238.397623	-69.3897747
-22.7441958	245.058832	-69.7875434
-23.5372239	253.887466	-71.0839953
-28.7125744	256.987733	-69.6697114
-19.4026367	251.705494	-70.1415744
-23.9135668	256.742106	-70.0405973
-28.5775388	253.22245	-69.9757098
-29.042387	252.638697	-70.2713151
-26.4020472	250.613157	-71.0745647
-28.7467008	252.740049	-69.9005612
-20.6225307	253.687171	-70.7060991
-19.9452857	251.855264	-69.570476
-12.7366462	239.198097	-69.1336526
-15.9331294	238.046664	-67.7901103
-11.6480663	249.170075	-68.2231355
-8.23102268	262.669113	-72.5860206
-7.99736019	260.986189	-71.8599649
-10.4660861	261.309432	-69.6096446
-16.6292314	251.87994	-69.2201676
-10.4234898	251.578143	-70.2765536
-11.1017285	262.473974	-70.1814801
-10.0561005	256.098097	-68.4297311
-13.1811386	258.814562	-68.9892199
-12.2646484	258.997059	-67.7665119
-5.75898904	273.073941	-78.5573143
-7.89641377	273.557455	-77.3762015
-7.62351766	266.392814	-74.2595261
-10.5481975	267.917497	-71.7959036
-11.9029805	275.060839	-71.3215359
-14.3007463	274.309371	-68.5575941
-10.7180512	277.185197	-73.4258196
-6.54320914	286.513435	-72.6374609
-10.725114	279.379619	-72.0412701
-12.5127652	279.203428	-69.6627096
-6.56605738	283.8791	-73.7596165
-49.8496056	248.699439	-65.4749404
-44.5766985	253.06652	-67.2884116
-54.6537223	256.287962	-66.5973251
-15.6455976	247.495514	-67.3130834
-6.03045947	247.865099	-67.2340704
-6.62991199	245.773948	-66.5326899
-17.8021268	248.942524	-66.4136397
-9.9918504	240.892051	-66.3533691
-11.2888563	246.623294	-65.6274565
-12.9764784	240.096205	-66.5023903
-13.4778467	244.941474	-64.4688827
-8.72112583	250.207403	-63.9741762
-13.8321012	241.194402	-64.7891631
-9.71954691	238.367535	-63.3478304
-14.6730077	241.563845	-64.9142814
-6.57138059	245.785018	-64.4988924
-13.1411856	241.506779	-64.6401699
-5.86332874	238.08503	-64.2769905
-8.02628605	241.514637	-64.2287681
-8.30048807	248.301748	-65.560588
-7.56998402	247.242209	-58.5529789
-10.5457369	248.534089	-63.4865997
-14.5931111	247.858588	-64.024841
-6.18201677	245.901717	-63.1765759
-11.003989	250.455408	-62.5457608
-6.86548258	250.455351	-57.8539166
-17.3474015	251.317822	-65.2513959
-7.66980786	250.889057	-59.3015228
-8.93729409	257.210005	-64.8842998
-8.84504374	257.775049	-67.2472924
-8.8651879	260.959454	-63.2262903
-12.4853623	253.081456	-63.5663701
-7.73703313	253.780854	-64.6093566
-12.3808948	262.129289	-66.7961249
-10.154473	252.571077	-63.1159331
-11.5321305	261.092303	-65.0435188
-13.0402008	256.286701	-65.0863852
-7.55543031	260.912369	-61.3580432
-7.54897384	252.564161	-59.5334914
-11.370706	256.37708	-64.024484
-5.98074806	255.178439	-57.0570714
-14.7440554	274.920003	-66.7585118
-15.0067166	271.62729	-66.5409055
-13.1284688	263.632079	-64.5976881
-11.6756609	269.890569	-60.2724252
-8.4059437	273.744106	-60.7038959
-12.0120636	264.274411	-64.6323745
-10.7971818	269.432284	-62.6288056
-12.8020221	284.187801	-67.1671988
-13.1736004	280.508058	-65.4690784
-11.6167712	287.269748	-62.6820341
-16.3447645	279.428878	-63.4913651
-11.3231708	281.280187	-63.8954861
-6.70960252	276.816195	-60.0205399
-11.2259245	286.301727	-63.3852558
-6.05043999	284.066513	-61.9468734
-97.5490983	295.452624	-68.8707403
-86.1882119	300.698444	-69.1886627
-93.2544889	301.615502	-73.2572776
-81.6837091	301.735617	-68.5778823
-80.1011957	298.375743	-71.057361
-79.1478369	301.591718	-68.750884
-68.9213381	302.338711	-72.4350371
-57.5221217	299.507838	-73.947323
-61.5651554	299.090997	-70.182841
-64.7972492	298.072203	-68.06914
-60.2271237	298.713756	-70.446445
-65.1515052	300.711136	-70.9565232
-56.2127682	299.051235	-67.7173834
-98.9201353	295.58005	-67.4379109
-95.1897745	297.742009	-66.3286023
-96.4416923	299.121325	-64.159228
-102.56588	298.961342	-63.9965479
-104.826361	299.969918	-63.1910774
-101.710137	302.09746	-63.0938219
-101.526832	301.208536	-63.3096061
-91.1382341	299.738221	-65.1728516
-84.722722	299.251301	-62.002565
-88.9458055	299.066119	-61.272265
-83.8049655	299.501843	-61.3330749
-84.8799705	299.994811	-57.9416541
-87.7734544	300.882859	-66.2117201
-84.4346325	301.02249	-65.2698718
-79.9443009	298.99997	-67.6167655
-73.0733947	295.561035	-64.5971698
-74.5869847	296.514171	-65.6699789
-69.4753307	298.210661	-64.5538473
-76.2778379	295.398454	-66.3832199
-71.3011907	296.875813	-64.1146735
-72.5550424	300.88714	-66.7475702
-68.7791064	298.791185	-65.5420359
-58.0123184	297.220866	-67.4279128
-62.3449243	295.774857	-65.8486158
-57.3717031	297.263439	-66.3638833
-61.2492819	295.289193	-64.4377129
-68.281367	296.639269	-64.8147066
-56.2951624	299.606171	-66.7113571
-45.4315318	297.963003	-73.079282
-54.3057919	298.464752	-72.214155
-51.9331993	298.670076	-70.6215595
-48.2506465	300.184286	-69.8687962
-44.2969916	300.723598	-67.9452499
-34.1272176	297.329919	-72.029261
-33.7346433	297.46361	-71.0053738
-37.2953342	297.932445	-73.3442791
-33.9252166	298.475492	-71.7488691
-35.0364835	298.990237	-70.3069539
-38.555672	297.526154	-70.1377921
-33.1255812	297.770468	-69.4472377
-31.3546229	299.573783	-68.087117
-19.0390837	298.377903	-75.9128116
-30.1473645	297.079952	-71.144992
-24.3859662	299.318823	-71.5676889
-27.6404231	294.821312	-69.1674853
-26.4619737	298.131711	-68.9922924
-13.8228183	298.990301	-67.9473252
-8.50822104	299.41319	-70.7572874
-8.26298096	298.906484	-71.0697201
-7.76817622	299.779482	-70.5168324
-8.52188857	289.715699	-68.2587341
-8.03992274	293.90992	-68.5810445
-11.4679789	297.268036	-67.7974421
-8.79883069	304.050434	-70.109258
-54.4738385	297.897582	-62.9829439
-55.0723817	297.579644	-63.8492046
-48.8504349	303.646514	-65.8713013
-33.5629536	300.341568	-67.5570618
-40.9475039	297.283303	-67.0734553
-40.8218838	296.136041	-67.0792693
-38.2502632	299.391194	-62.6422447
-34.0171568	299.08656	-66.5769211
-31.1842472	301.279365	-65.8123666
-18.9062652	299.174032	-66.7829685
-13.3874935	297.506519	-67.3198128
-12.9610712	297.928899	-66.467308
-7.11612122	295.100958	-66.849817
-15.8704314	297.979505	-65.8294038
-5.95922051	298.883569	-67.6442844
-8.62038336	295.077529	-64.6783291
-10.8723226	294.124755	-65.2339486
-6.99382185	296.478577	-65.8029847
-6.73572283	290.931696	-60.7794654
-16.6363257	306.223789	-67.2297299
-17.7744217	302.209259	-66.6664302
-16.2840831	301.544386	-66.5081915
-16.2799571	301.640394	-66.5459204
19.722094	34.366444	-69.7437507
21.4070332	34.3601375	-68.3836501
21.9212508	27.7270137	-68.285413
31.2867607	20.2706707	-64.5015924
25.9175307	23.2090852	-65.6740271
31.3731918	28.9347445	-64.7030833
25.356336	24.8572821	-65.6845011
23.4650835	31.832719	-65.8805166
22.6096436	34.364394	-64.8069859
27.3997762	25.8181426	-64.9413531
29.6774268	30.2402242	-64.8602461
24.6649859	33.6044256	-60.612304
28.7375479	32.0370861	-64.2383327
30.7439839	26.3585333	-60.8874441
23.6798241	28.4590896	-60.5601272
22.6991033	33.6087792	-55.1549505
24.7628918	33.1846344	-57.8943629
31.7963744	26.9467627	-55.0749739
27.8099752	28.0703669	-52.5985708
36.0239135	21.9264784	-60.7594359
42.1531418	22.2621624	-66.187335
37.873911	22.0274845	-52.7885643
35.2666125	21.9699721	-52.3681958
38.0687604	24.2842705	-64.7735921
35.7026693	24.176414	-63.6224804
36.8533013	28.5589856	-61.8180338
33.8820462	26.9966609	-63.1617957
40.8603141	29.0534145	-63.9849271
41.6693819	28.5705156	-61.3807261
40.9013545	30.8389457	-56.1929362
41.980194	25.3112369	-56.9690871
32.9187015	28.1605887	-57.6965322
41.7157671	31.9133181	-53.9465806
37.8891826	53.5116268	-67.8841336
22.4113638	37.0368366	-67.4914599
21.4877811	42.6685838	-66.3719362
24.747863	46.9320077	-66.3151786
24.1500068	43.5580568	-63.5877029
28.7551371	47.8970198	-65.3634373
27.070523	40.4426294	-65.6001382
27.0804427	44.9524063	-66.119547
22.0271813	40.1375051	-64.9979691
26.9258087	37.1028442	-65.1093311
22.1441478	45.6397817	-64.8400923
21.6571547	40.9965176	-64.066801
31.2785677	47.5133288	-58.8036264
28.8001362	47.3915432	-58.3031746
25.5829841	39.3540763	-58.5791738
21.1711644	45.2352513	-57.6915644
27.655133	48.9709486	-64.9957764
27.0910653	48.5699705	-64.5261865
28.8280557	47.8977657	-53.0814504
20.6620192	37.7617801	-54.3881707
30.1155694	51.6696868	-67.1723309
28.6017964	49.8769426	-66.3227178
42.6312571	43.2412003	-63.8705859
36.5848152	47.197483	-65.2269743
39.3910553	44.8523573	-63.418586
37.77061	45.2429443	-60.7776957
38.091408	47.389239	-63.357611
39.5215923	44.8939058	-62.4573099
42.3032502	48.1765009	-65.3750389
33.5193853	47.7417561	-62.7915435
36.9328538	44.248084	-58.5446298
35.3686272	45.085265	-55.7894548
34.1078709	46.6454191	-55.0581982
43.5916435	42.5495236	-53.9603801
40.8552367	50.2205178	-65.6687574
37.8333557	54.1394803	-66.7938911
32.1026837	49.240949	-64.6377131
34.713643	52.7888855	-66.1521319
33.3212403	51.372321	-63.668322
45.0668087	31.2994374	-64.4849857
44.9038523	36.2987708	-64.2609885
50.2949924	30.5310704	-64.1995411
52.410997	35.4370036	-64.6361488
49.3227795	29.4646518	-63.7804275
50.4949785	35.7619655	-64.5249604
51.9466928	33.4540579	-64.5818234
45.9471933	34.5326825	-59.8144417
46.2084952	35.8651314	-64.8599166
46.4519816	30.6215882	-61.1796077
49.1215359	27.0936428	-61.5732996
44.9954717	26.3491685	-56.6876595
46.2782458	24.2031319	-55.5998917
76.2591748	85.6414614	-69.5781205
81.4147101	84.4415498	-69.5230065
84.2277876	86.7193716	-70.6445722
89.5504601	82.2141417	-68.2546887
90.4194138	83.888007	-69.0057427
88.1262707	83.8952336	-69.4896701
92.1243917	82.8835165	-68.7182326
49.9055657	43.0847897	-64.9605288
51.4453087	40.1026472	-64.744295
45.059999	43.0999036	-64.8574482
46.3192962	38.1565684	-61.1380548
50.1906153	41.4807276	-63.8525423
45.6828571	45.2855492	-64.174205
46.7325834	42.8730644	-54.6737568
68.2603154	81.8932655	-60.6625375
67.7429623	83.825259	-59.5719909
68.8787949	80.6709283	-60.00365
66.9705739	84.9414493	-59.6433286
65.2341775	77.6107313	-56.4581751
67.3397705	86.78082	-60.7888424
67.3598069	81.2623948	-56.8541443
66.8268521	85.2460591	-57.6207246
81.1641907	72.8385168	-65.4204359
81.967093	71.0558404	-59.6732158
76.6504729	72.7924496	-61.0737688
73.7175353	73.8366186	-61.1102484
73.7065338	72.020705	-59.6372591
71.006564	68.6343214	-56.3651664
82.3640914	72.456348	-67.1959618
71.8432381	86.303761	-67.4514355
78.4007117	83.6613671	-65.8868532
81.5623676	81.1135142	-67.1694262
78.7430079	78.1774342	-65.1125012
71.1854082	80.1250562	-62.2385362
71.9520667	82.2345958	-64.7526196
86.0856324	73.7750603	-61.1880049
84.1407952	68.1886298	-56.325323
92.1897472	74.1679253	-57.1008671
92.4231406	73.1269604	-54.4445291
86.982338	66.3815882	-53.129945
83.7750291	80.4352991	-66.0675332
87.7542093	77.6117643	-66.0627367
87.522485	74.4266111	-61.0057922
91.3688907	77.3740869	-62.8748953
93.5482396	78.6228982	-65.0720146
93.1665488	76.7321695	-61.7261002
29.39146	134.809316	-71.5208674
43.9107544	121.002904	-72.1052881
41.8868065	121.50874	-71.4082522
39.7161879	123.539044	-73.1310969
43.358181	115.861974	-70.4288043
37.7837176	122.085016	-69.7515802
44.0182834	114.200431	-69.6746639
41.0179767	120.188818	-69.776929
39.552308	124.4744	-71.8786503
42.6749191	124.485807	-68.7306698
33.7393718	130.998747	-70.9511815
39.4008137	124.663054	-73.0459552
37.4052397	134.993281	-76.6438095
37.7305698	133.034619	-74.7108507
38.3861882	136.015288	-76.4801372
37.137973	129.194044	-73.6950526
34.388268	135.844927	-68.5858971
38.1722658	128.816608	-73.9787649
38.1644579	133.550675	-74.126423
39.2889966	125.467882	-70.3222785
36.6617637	126.467291	-71.3709832
39.157819	135.924406	-72.2355299
34.8455919	132.577235	-70.1180526
33.3617179	132.220549	-69.6705192
42.0047548	130.725191	-70.6006476
39.5073545	136.87252	-71.628986
33.5762283	133.226059	-69.0209812
44.1293858	124.940521	-70.6218983
43.0838652	110.698517	-62.1456146
44.5594787	108.530268	-61.6828574
44.1992879	102.419062	-61.3258957
27.1027039	137.220933	-54.2959375
37.941399	115.866681	-66.7360255
33.3800544	117.828401	-66.7580891
37.5626126	115.506286	-65.563096
35.7542676	117.377778	-66.257597
40.3729484	124.300149	-67.5394942
42.1138237	115.152621	-66.4761462
42.1801263	114.355781	-66.5672134
36.8510621	120.704281	-64.327814
39.0364245	122.051968	-65.1225656
34.4270517	132.321805	-67.536941
43.8681436	131.255047	-65.7463476
39.2520224	126.403256	-65.7837978
43.2300473	127.128931	-64.0681446
38.9147473	135.288045	-67.2918591
35.0623402	133.075	-65.9724034
39.6906294	131.115342	-63.4477786
42.3757937	129.489935	-63.0018778
39.2800448	132.020244	-61.3372624
33.4639068	136.199159	-66.7111158
43.2596435	130.80216	-65.2403155
35.7007141	134.231695	-62.669699
38.2827737	129.130267	-63.6467885
34.408128	135.381599	-56.2506301
38.7365584	128.384809	-55.5134196
36.1150799	134.033066	-56.8452887
35.1599877	135.862005	-55.2408917
38.3788039	125.99515	-53.2081913
44.5308237	125.373584	-51.7976977
4.06511314	173.350989	-73.7622616
2.46095844	172.439045	-70.9644562
-0.185693469	173.045989	-68.883215
6.32640404	171.614561	-68.7162245
3.96543106	172.36509	-69.5448527
0.335251564	174.244132	-67.8670114
-2.36797924	175.342324	-73.6788675
-5.22437581	180.160909	-74.270955
-5.00213089	179.202518	-72.4088009
-2.15443675	177.618991	-70.9571527
-5.49662425	180.346244	-67.9757534
1.40758289	178.712022	-67.9640249
9.92510606	171.630921	-71.3512446
16.462806	186.514439	-68.9954007
29.6721788	146.277424	-70.7416782
28.2061567	142.63425	-69.6113762
25.5922265	148.42982	-72.2716488
25.6404106	144.145087	-72.6571281
30.8383054	154.795307	-73.6641534
25.2303894	156.28142	-70.7696734
30.4491015	160.530803	-74.6556744
29.8036341	158.721484	-72.4816177
27.4904637	151.932124	-73.1060228
22.5529042	153.55649	-68.1186826
25.1806085	160.325785	-69.7948345
25.8978773	155.236161	-70.260142
26.983829	159.380756	-69.483355
34.4058413	147.147551	-73.7572935
37.991793	143.440833	-74.8879369
36.1365411	146.13907	-74.0064641
37.8904662	146.009128	-71.2315222
38.3849281	146.159657	-73.2053785
40.141957	139.41312	-68.7453172
38.9787335	144.644457	-70.744813
36.8144529	143.702947	-68.2294418
32.1719167	154.417324	-70.8692529
34.5615414	151.90022	-71.228515
32.1250396	151.930492	-71.4925035
36.6149553	149.829674	-70.7459047
33.1018092	158.894277	-68.7285045
32.8057003	161.144796	-71.0956919
34.4207816	161.753344	-68.4346752
34.7536854	156.544216	-69.5361934
33.1667082	160.120945	-70.0911158
34.6737253	151.840897	-67.7885731
19.9753114	170.386018	-69.8792939
26.0269988	171.587787	-72.5625028
29.1517718	165.114165	-73.1965774
30.3154544	163.198389	-71.8437884
30.1293477	170.695979	-72.6592399
22.8592326	167.36486	-72.3587303
26.3874415	172.686753	-73.1387052
23.7047172	169.99179	-73.0565879
27.4960276	169.104934	-69.9760169
23.1088953	166.672886	-71.5146694
30.9790322	167.60384	-71.5149954
21.6364251	164.014552	-68.1605156
25.513954	172.189927	-68.4282956
24.0420038	167.254376	-67.7101544
19.4774261	185.751405	-71.8383318
24.0954831	179.452422	-74.5249322
23.9413059	182.71151	-72.0837736
23.714786	185.136482	-73.9874142
20.9206285	181.507645	-68.5690613
25.9814082	175.261266	-70.8185846
22.8319065	182.552016	-71.5264393
20.8195945	183.45444	-70.4163183
28.2132444	183.828701	-68.1383393
27.1978312	177.162276	-68.910495
23.2838671	182.942471	-71.0714652
27.549522	180.803513	-69.515243
32.1636617	171.144855	-68.9591968
12.0250247	159.966563	-66.6551193
10.553886	159.935347	-64.9637752
19.3252718	157.277947	-62.1885661
16.8047595	159.952257	-60.9420935
16.4912095	159.889857	-60.8620937
18.2660268	156.521464	-61.0209823
18.8955602	156.515273	-60.7066147
19.2280565	159.342664	-59.1936936
0.0265850292	172.063179	-67.3378681
-0.644454125	174.526094	-67.57738
4.25311872	162.581603	-66.0417162
3.95826971	168.841031	-66.4999707
4.73889077	168.287991	-66.4175895
7.10449016	173.362972	-66.0496343
11.0265288	166.673081	-65.5899786
17.3441661	171.711624	-65.440863
17.6216049	166.823237	-65.7406693
14.1689235	167.17308	-64.9833162
13.8455827	168.303589	-65.1232403
19.3578529	174.462885	-64.7578285
7.45208777	165.972896	-65.0408658
16.4430539	167.218217	-65.4695273
17.7794455	163.97085	-64.0428731
9.93259547	164.341938	-64.1674561
12.7338069	165.242302	-63.9908753
11.9850362	166.681618	-64.6119889
10.7126965	164.129494	-61.7730955
16.6724589	162.5596	-60.1229137
18.1711881	162.980352	-61.5665348
18.4682635	163.733424	-58.3713038
17.2498829	182.814359	-66.4454812
16.5336189	184.920244	-66.186946
17.8033743	175.609511	-63.7911953
29.758578	147.71374	-67.6348187
30.5452622	142.274604	-67.2188431
28.0500401	144.320642	-66.6284057
25.3899859	149.109535	-66.0454768
31.0793413	147.691061	-66.0965247
29.7589203	148.285175	-65.9090512
30.3324619	144.302859	-66.4208121
30.8131524	142.253338	-63.4131171
22.8407093	149.713893	-57.5882558
25.2900925	148.682936	-60.3074226
29.1766791	145.996929	-58.0397143
30.6355685	143.426575	-58.1340871
24.5195166	148.699497	-57.3851095
23.668451	149.323093	-56.6746139
31.2122291	148.981197	-60.9113137
26.627148	143.346469	-54.2029797
31.6207377	143.333316	-52.6876024
27.709389	153.957412	-65.4716813
30.7637319	160.007446	-67.0478864
27.5361961	157.031244	-62.9714007
22.1499607	160.953941	-65.2059517
27.0622054	160.396776	-64.9353697
25.0519297	158.115385	-60.4710109
28.5796089	155.788666	-62.609754
27.487452	157.859683	-62.5831824
24.9284894	160.594084	-64.3162874
21.9109286	154.766449	-62.9823763
26.3494285	160.249838	-62.0115932
25.4054093	150.907253	-61.1431001
19.7703529	156.592185	-60.7425898
21.3503359	151.547782	-57.256604
21.3526878	154.155786	-57.52259
25.6203721	150.88491	-58.376494
31.8266018	159.835843	-64.9444366
38.7068029	137.650297	-65.6029079
35.2392657	141.143806	-64.9270267
35.2417515	143.89485	-66.3222691
33.0749385	139.143739	-62.780542
40.4691758	141.677434	-67.0464264
36.2999136	142.713915	-63.7672958
33.0786957	142.128301	-61.8560921
33.0416704	138.414767	-58.407373
32.2178709	141.446524	-57.0118084
32.4545451	155.819174	-67.3299286
33.4088922	154.45193	-66.1486574
23.6332074	165.315487	-67.3841891
26.7409004	173.260097	-64.4904072
26.2899367	163.31989	-63.6198094
28.9218209	170.110222	-64.9140554
27.6327658	168.073144	-65.6949124
27.985217	170.48504	-65.1857541
26.774883	173.176198	-64.7667929
19.9821147	166.609938	-60.3479211
23.4649096	168.663153	-62.2793458
30.4109069	174.522912	-67.4034891
24.665951	177.389942	-67.642939
27.9223742	183.433757	-65.8835171
27.830113	183.436618	-66.4375211
23.1606903	179.073303	-62.4509153
25.2801967	177.353823	-63.4871014
25.5992612	181.699415	-65.2551074
24.7450899	183.956942	-61.7640357
21.5707667	183.827078	-60.4075118
25.3676122	180.59569	-59.7995359
22.6849733	176.707076	-62.4344617
20.3279824	179.281561	-63.0275131
32.2039827	168.123061	-67.0181136
54.6306978	110.74145	-68.7923917
55.2406587	107.024651	-68.2455787
55.2054611	105.726257	-68.9149736
48.9903539	108.350238	-70.0082257
51.9544151	105.892263	-69.8255297
54.0126371	108.6853	-68.4867013
46.2347507	110.250768	-68.6503609
52.54853	103.90324	-67.9778505
55.1643907	111.898141	-69.3447134
59.7345716	109.267057	-68.4555341
46.4096289	117.710026	-72.0883156
48.8478936	117.892602	-71.9230892
45.8318078	116.557231	-68.0100874
49.9585345	116.26733	-71.1278367
55.1857223	114.195395	-70.4565167
45.9901244	122.941012	-70.5440528
52.5296917	116.100053	-70.9328673
47.7254895	126.661114	-68.2495996
49.7479067	129.660048	-68.7436261
70.1129109	95.3017293	-68.1355572
75.515866	98.8464913	-68.9010716
76.2234467	90.2597382	-70.8048777
78.6407883	91.8165919	-71.2509803
73.2075334	93.7025517	-69.9369709
75.0481567	88.0571012	-70.0566776
72.5322417	88.5956328	-69.2845321
82.1565228	101.358042	-72.7081868
80.7291882	102.412448	-69.8736546
77.9725998	99.9985158	-68.9351685
75.2898223	105.629776	-68.9218747
80.4835474	106.970915	-68.4183142
75.8133921	101.288599	-68.5721656
73.6136135	104.108883	-69.4887026
77.1798045	106.205913	-69.383746
88.2821784	86.935984	-70.491414
89.8006226	95.2157146	-70.4676295
82.6894262	95.1491567	-72.2562974
85.2288556	91.4891643	-70.710428
83.3719461	92.4641062	-70.1480772
93.2081942	97.4242644	-68.6487105
85.6528511	87.2578635	-69.8572214
89.04844	89.2738708	-70.3296988
91.2480136	91.364192	-70.1153474
87.9473237	99.6403179	-69.4496823
91.570265	103.66255	-70.569795
87.3200835	102.080201	-73.1724186
94.0436381	103.298672	-69.4169247
85.1987613	105.820542	-70.5642339
91.1491061	108.665003	-68.9042731
85.4674488	107.62502	-70.2561662
89.1100384	108.794741	-69.7119212
54.6906956	97.553833	-66.702341
54.5284037	98.6362549	-66.3511499
55.920485	98.5289752	-61.475224
56.2568139	97.3706339	-61.5776256
54.6632577	99.0875132	-60.5232469
53.7653022	99.4372377	-61.4268256
54.121681	96.8253181	-52.0042978
56.9190269	94.5336192	-53.6075915
45.926934	109.055759	-67.3725215
52.5634678	99.8451759	-62.8359911
54.3648376	99.4900185	-57.2459686
55.5483752	102.514806	-63.6037429
52.1054002	103.718396	-66.6587648
45.4917067	111.293817	-65.3848099
52.4768087	110.388739	-66.1573645
48.1799539	108.567198	-63.2373775
55.2081075	100.43341	-61.7952661
48.7863706	107.69015	-65.2551919
50.1942083	106.743112	-66.288659
47.6829012	109.092198	-61.3569449
51.6216911	109.162413	-63.8472608
50.5340343	102.559039	-64.4757541
55.7895744	104.398179	-59.9840075
54.78584	106.866497	-59.5650044
50.5874315	111.657382	-60.022426
50.8008864	108.676695	-60.4489131
52.8561202	103.090117	-56.5535402
54.3603198	105.620679	-57.678099
54.2354541	103.643149	-59.5238705
55.0870628	104.568645	-58.0440088
54.9312412	102.927733	-58.2960441
68.1898588	89.5645037	-63.9481964
67.3603916	95.8710373	-61.6493687
57.5418713	99.299104	-63.1685157
61.456019	94.41571	-60.8948688
66.3184697	94.2806976	-61.9216938
64.6074575	94.9412767	-61.0221595
66.5687653	93.5376193	-61.369723
66.3648543	92.2023975	-61.9560289
61.9537278	91.2403015	-56.7441071
58.4135797	93.723341	-57.9139785
64.9315296	97.1022672	-59.5711399
60.4214092	93.4936701	-59.4264011
65.2320917	91.7114246	-58.471076
63.6698279	97.3859875	-58.4004243
64.8791338	95.6432757	-57.8105544
64.3212998	91.0896035	-56.9452654
58.5687332	95.7424514	-54.4741622
60.7487981	99.8252291	-64.3611917
59.7396187	102.595296	-65.0854038
68.6922941	100.366046	-64.4113473
60.1873997	101.705992	-65.7792578
68.6550683	109.309997	-62.1594865
59.8388793	103.974382	-64.9188275
62.0784058	101.761468	-61.0575055
63.9825896	99.5518005	-59.1058495
68.6813919	106.153524	-60.6119931
60.0580967	100.252166	-64.103939
58.0187821	103.572954	-62.9514529
61.3750202	107.476036	-57.3572713
66.3144143	106.354507	-58.3158967
66.1763298	100.149743	-59.1689438
64.6136739	104.191047	-58.3198697
63.4659922	100.694265	-58.6870597
67.8196292	111.110749	-58.8006184
67.4976903	100.949785	-59.4154632
60.527579	105.718472	-56.6967992
47.5575343	120.407222	-65.9826912
47.5694733	120.523955	-66.0482281
51.0640586	118.600427	-65.3782673
49.1481799	118.526038	-67.4304463
48.1509262	113.647575	-63.8440725
48.5676223	121.090665	-66.7418721
45.6651994	122.548469	-62.7052812
55.7293702	116.158216	-61.2311843
46.9351559	115.941738	-62.68682
45.3560167	122.77607	-62.3971182
50.8838907	112.109412	-60.0954677
48.1000587	112.994302	-61.0119176
45.3065748	119.720989	-54.5169999
46.3209385	133.279658	-67.2133448
67.1008702	112.416796	-53.8838559
73.9392604	99.3760407	-67.3614095
70.1639055	94.3441663	-66.2565329
70.8800372	99.5007383	-63.8507878
72.7752463	109.149296	-66.4324713
71.0374161	110.031228	-63.9064632
70.0310323	103.941338	-60.7186131
82.9343698	111.439471	-66.0294964
94.8761199	110.999139	-64.8451138
81.2452253	112.230087	-65.0313868
81.2619213	112.470982	-65.1066088
79.2092097	112.647036	-65.0602441
74.6763367	114.684415	-62.8661874
73.7329952	113.490299	-59.9031879
79.1322045	117.07431	-60.2966541
78.5611259	117.025975	-60.9901312
80.9143926	116.320013	-60.757822
81.3237337	115.600567	-60.8443254
73.8253917	116.277121	-56.4014973
81.2130601	116.965838	-55.8153154
90.132817	116.318785	-60.2534689
89.9387815	112.148454	-66.1013356
84.3650681	117.765868	-58.589071
92.1564626	114.711522	-61.5354702
89.5345902	114.89801	-59.2151996
93.0321916	116.538936	-57.1853743
86.8547422	118.132457	-56.94617
91.0432498	116.310341	-49.4685989
83.533315	117.505913	-52.7930498
96.6001559	85.7159803	-65.676515
100.701676	82.5175436	-60.3337303
97.3290163	84.4610972	-63.8211247
95.3911964	79.0857121	-63.1038668
99.23817	83.1765715	-62.5569917
97.9266368	78.413333	-57.180263
103.785317	85.7116599	-57.5884992
103.351491	84.258594	-57.4805901
95.9795818	76.894255	-58.0668365
100.776629	81.1976547	-55.347591
106.271221	82.7590617	-52.3822338
98.2870825	74.8868167	-53.4428076
95.0042943	98.5403482	-68.9876492
96.7266377	104.750824	-68.0217059
102.518243	121.13457	-68.8835227
110.601976	123.450706	-68.0785691
112.379173	121.915761	-69.9810152
110.20013	127.677846	-68.4304774
114.462926	130.978583	-70.2559065
110.965775	125.343929	-68.4416838
113.713232	126.46471	-68.3354705
95.0760744	92.4555145	-67.1961655
95.78672	89.3480478	-66.7474696
100.056558	91.2765504	-61.0053023
101.745203	88.6473342	-62.033263
98.3440585	97.1662879	-65.9160675
101.18838	99.151568	-62.8228344
102.607017	91.907292	-57.092611
102.521963	87.2023496	-61.0168841
101.539085	97.3778109	-59.933358
99.3264078	108.815709	-66.8720027
99.462203	105.135399	-67.0522273
102.656629	107.019385	-65.609839
102.584115	110.310298	-66.5307644
101.614463	104.37748	-65.4080301
103.38318	107.528336	-64.9037473
102.981476	107.362445	-65.7454938
103.848191	108.320067	-64.9219727
105.229275	105.117075	-61.3261448
101.459627	110.168865	-66.4966211
102.777605	109.698965	-63.2013315
103.607983	103.010212	-63.3849132
104.768096	107.465371	-63.651855
104.670961	108.576116	-61.7456496
101.675569	105.813955	-60.9794839
105.28212	110.243073	-59.7741138
103.951419	100.651491	-58.479715
98.0468722	110.253255	-62.3151552
104.942808	106.521729	-61.5412743
103.861256	109.197706	-55.6014789
104.252846	99.4948604	-53.6502469
104.575881	102.450723	-54.1597134
107.44516	121.818182	-66.5009987
107.006878	116.576209	-67.2351874
105.858595	112.222762	-65.773174
105.009074	114.777002	-65.9778027
102.758478	119.77497	-65.702161
104.328214	123.295102	-65.6257232
105.479153	116.609035	-65.0370797
106.736168	114.272314	-65.1300219
100.849462	119.60445	-62.0270323
104.750939	118.148494	-63.0184824
104.239744	113.707224	-59.8122273
107.212427	116.886972	-63.4772052
100.669405	112.846942	-58.331756
100.839816	112.989071	-58.5872519
97.9783945	115.119265	-57.9393069
106.862593	112.833727	-63.0193176
105.925266	127.336656	-65.0216291
106.15296	125.952317	-65.8074401
107.751349	116.364941	-64.7587439
109.064396	123.346064	-66.1458935
108.412426	123.780679	-64.9312194
110.943509	119.044411	-62.3265959
110.359602	120.488975	-63.0988308
108.682094	118.437699	-63.7482425
110.471496	113.50357	-59.4256385
111.851911	123.939778	-60.2827172
109.242338	131.222345	-66.8815761
107.792936	125.475065	-65.2706393
109.689862	129.748367	-64.5876903
110.31888	131.813189	-67.1720242
110.715453	134.275684	-67.0011899
111.264591	136.747417	-63.4138777
112.349728	135.567949	-63.248275
109.443628	134.395093	-64.6143896
108.297054	126.433694	-65.1265689
110.858785	124.738955	-61.0248131
109.735045	130.909735	-61.4631971
113.553133	138.936477	-67.9554373
115.380353	139.812931	-69.4096334
114.697185	142.150195	-68.3619821
114.354714	138.870967	-68.1103389
111.09331	150.896517	-70.3090223
113.992192	150.552345	-69.1923151
109.223463	150.969593	-68.2506845
112.72796	159.180785	-69.722737
112.127106	160.17965	-69.099462
107.221025	169.793708	-69.2915583
108.591531	171.500064	-70.7787916
113.376397	167.750308	-68.4293232
117.592638	168.424628	-71.291208
115.849028	162.705136	-68.3808128
112.658345	172.244483	-69.9558037
115.232704	168.184711	-68.9607251
113.558584	165.612307	-67.8299014
114.492372	172.572515	-69.7530707
108.728188	184.186418	-69.8480699
107.806886	185.996219	-68.6822785
112.808248	175.08331	-71.528979
112.807814	175.363164	-74.1613533
