# This PCD file was generated using the MATLAB® pcwrite function
# from Computer Vision Toolbox®.
# .PCD v.7 - Point Cloud Data file format
VERSION .7
FIELDS x y z
SIZE 8 8 8
TYPE F F F
COUNT 1 1 1
WIDTH 808
HEIGHT 1
VIEWPOINT 0 0 0 1 0 0 0
POINTS 808
DATA ascii
-45.750000000000000 24.207876704897657 -83.460904376134934
99.125000000000000 24.202983112087416 -84.031256554830577
-49.562500000000000 24.828155773297969 -83.972033233178365
-46.703098297119141 24.676140046234732 -84.123927954218672
101.508003234863281 24.673013952647459 -84.692514040638230
-48.609401702880859 25.118031457685589 -85.137886066215657
100.078002929687500 25.067089459249644 -84.864214703272367
99.125000000000000 25.554951799124872 -85.507665669114488
-100.078002929687500 26.546397608931208 -85.647923237150735
-57.288200378417969 26.369395465829971 -86.390246966028343
100.078002929687500 26.369395465829971 -86.390246966028343
101.030998229980469 27.217583526097140 -87.239110730251312
-100.078002929687500 28.301702958804757 -87.286779229806868
-57.618598937988281 28.065776979012483 -88.087979891418456
-100.078002929687500 29.400931313746788 -88.450265011147280
-57.772899627685547 28.913965039279653 -88.936843655641425
-58.418498992919922 31.175808854405727 -91.200489355142977
-59.656501770019531 32.872184974940069 -92.898216883588901
-61.953098297119141 35.481582465058914 -94.249123083028294
-99.673202514648438 36.264948001305093 -96.293682734369142
-63.859401702880859 36.385135249994505 -96.173591155918928
-99.470703125000000 37.678598363515825 -97.708459272703536
-99.125000000000000 38.074593746678318 -97.312779105784401
-69.578102111816406 40.302538096728902 -100.175748981985762
-98.778999328613281 40.505899087937287 -100.538012349372337
-73.253196716308594 42.202280601119803 -102.235745274762451
-74.744300842285156 42.767737510415195 -102.801652651929700
-97.859901428222656 43.050468661386972 -103.084609038985420
-97.218803405761719 44.318215158864000 -103.514259123965815
-78.156196594238281 43.972875738435405 -104.007750946126379
-79.243499755859375 44.464119023597704 -104.499385577319813
-96.265602111816406 46.303959408826636 -106.053773825345189
-95.974700927734375 47.291419748019166 -107.328938653988615
-84.818298339843750 47.291419748019166 -107.328938653988615
-95.312500000000000 48.102854441368883 -107.083612351917637
-85.781196594238281 48.343906427916018 -107.973677207604410
-95.023498535156250 48.705070110229904 -108.743715192323023
-86.343696594238281 48.705070110229904 -108.743715192323023
-94.928001403808594 48.987801261201682 -109.026671579378728
-87.354698181152344 49.553263563145244 -109.592584353490167
-93.624099731445313 50.118720472440636 -110.158491730657417
-91.500000000000000 51.191452352902594 -110.217538717854367
-90.546897888183594 51.182314063485144 -110.792132214336732
-74.343803405761719 4.677468152009993 -62.262618875931281
-69.578102111816406 4.356031552863499 -62.583799608364252
-79.551101684570313 4.425273083950167 -63.080075675455184
-78.156196594238281 4.942162715491261 -62.563597493175401
-67.671897888183594 4.717423165437392 -62.788158148323639
-80.062500000000000 5.110365313759207 -62.960991267073751
-82.921897888183594 5.047279998293632 -63.702578107894510
-62.906200408935547 5.859236108528411 -63.909093239268600
-61.953098297119141 5.718198231550564 -64.374030824157586
-60.046901702880859 6.140879387863275 -64.797048706890692
-59.093799591064453 7.292708009037145 -64.738606928861785
-88.306503295898438 6.969842657399850 -65.626672365068274
-56.234401702880859 7.363787201769286 -65.233041404454212
-53.730800628662109 7.252573808371630 -65.909628752123993
-51.468799591064453 8.181914280737587 -66.111947613787365
-49.562500000000000 7.885182669019823 -66.542741576845287
-90.980102539062500 8.383493019610581 -67.041448903402667
-48.609401702880859 8.820515972522594 -66.604773825085488
-92.147300720214844 8.948955321554143 -67.607361677514106
-92.314102172851563 9.231683776201837 -67.890315366097724
-44.796901702880859 9.882823830097401 -67.805156107361782
-43.843799591064453 9.762438994515072 -68.421493407387814
-44.796901702880859 10.330231941355461 -67.923561225971198
-22.875000000000000 10.642365485594283 -69.302120886654293
-19.062500000000000 10.399219068523747 -69.058780768441821
-94.359397888183594 10.786699713898461 -69.446570097959992
-40.984401702880859 10.842257471683022 -69.502172115500684
-36.218799591064453 10.747824113231738 -69.407663527278018
-31.453100204467773 10.880353834688995 -69.540298827746867
-20.015600204467773 11.122183840991328 -68.828621778935030
-17.156200408935547 11.281417980911703 -68.669514390965645
-15.250000000000000 11.157342233931770 -68.793491372423262
-12.390600204467773 10.984667004500581 -68.966029150663203
-41.937500000000000 11.089844088491377 -69.426398269905704
-26.687500000000000 11.198495809877453 -69.858694248841033
-24.781200408935547 11.253533405842463 -69.262839250870925
-42.890598297119141 11.842279390079376 -69.240019002846907
-40.984401702880859 11.562507200097091 -69.519568491397635
-38.125000000000000 11.670100679513880 -69.412060657455100
-34.312500000000000 11.635579125988123 -69.446554731482664
-28.593799591064453 11.610326824112562 -69.471786932276061
-13.343799591064453 11.786960712108769 -69.295293646602488
-95.155197143554688 11.493524895003826 -70.153958367127188
-33.359401702880859 12.055970132471742 -69.591960841633664
-26.687500000000000 11.764100692082515 -69.883597951060310
-12.390600204467773 11.959127365885923 -69.688726520419024
-27.640600204467773 12.505133686164418 -70.274074396391725
-15.250000000000000 12.661680147877052 -70.117652547211634
-13.343799591064453 12.471248972053347 -70.307932137935083
-95.960998535156250 12.341715651595083 -71.002824829822245
-27.640600204467773 13.102637647925405 -70.807965623514121
-15.250000000000000 12.901032099151635 -71.009410692276191
-34.312500000000000 14.066063956909682 -71.541688262456120
-32.406200408935547 13.920341066774613 -71.687295155728719
-30.500000000000000 14.025530207553752 -71.582189746546476
-29.546899795532227 14.029065205999681 -71.578657561994291
-27.640600204467773 13.835665710870236 -71.771903109211934
-16.813600540161133 13.472634862834033 -72.134644981100919
-30.500000000000000 13.806752558229894 -72.469028849364634
-19.062500000000000 13.888815181776273 -72.551156847610272
-25.734399795532227 14.202079506693813 -72.864670732682541
-22.473699569702148 14.038094468453510 -72.700555056740271
-97.218803405761719 14.812390090344229 -72.492338263059906
-35.265598297119141 14.745187341262275 -72.559487518088631
-98.171897888183594 16.008654392608161 -74.672684815697181
-37.171901702880859 16.017219189396148 -74.115769840761359
-98.769599914550781 17.148126343846755 -75.813064520464778
-38.424598693847656 17.713588645790317 -76.378977294576217
-38.972198486328125 18.279045555085705 -76.944884671743466
-55.281200408935547 20.888510507006956 -78.295723463080719
-53.375000000000000 20.907399811679849 -78.276849194481258
-40.123798370361328 20.258158219239998 -78.925573984189299
-56.234401702880859 21.754808013511237 -79.126492196364964
-40.503200531005859 21.389077430478949 -80.057394135467987
-53.375000000000000 21.859549380594597 -80.152759166913640
-43.843799591064453 22.865356458896525 -80.278666898166122
-41.937500000000000 22.600792857648010 -80.543019904170194
-52.756000518798828 22.519996641717899 -81.189214286746662
-51.468799591064453 22.977463219230174 -80.732111857156710
-42.890598297119141 22.856629772809825 -81.418311600191771
-57.187500000000000 24.031296436702995 -81.375504945053763
-50.325000762939453 23.933647003928634 -82.603990825081056
-46.703098297119141 24.270718550400090 -82.267187590895901
-48.609401702880859 24.510651933927292 -82.592907677949839
-47.656200408935547 24.523068841697171 -83.193882222238685
-56.863601684570313 24.781840456843973 -83.452859986248214
-57.374198913574219 25.912759668082927 -84.584680137526902
-58.008201599121094 30.153710754715121 -88.829009752530098
-58.140598297119141 30.379894596962913 -89.055373782785836
-58.214801788330078 31.001898814982294 -89.677873516753053
-59.269599914550781 32.981011479136583 -91.658562829198900
-60.973800659179688 34.677392992319099 -93.356295754589013
-99.125000000000000 37.067622018658646 -95.491647653475823
-65.599899291992188 38.635612927979516 -97.317668982536489
-67.671897888183594 40.029256565474817 -98.712422857917630
-68.625000000000000 41.469020122082334 -99.010195487866795
-98.171897888183594 41.435903209618701 -99.608748520174132
-69.332603454589844 41.180182501429194 -99.864265672149571
-70.531196594238281 41.894265852539064 -100.281675700920445
-70.531196594238281 42.619322458387771 -100.122647943238348
-71.658096313476563 42.311101712668147 -100.996085823428260
-72.437500000000000 42.592419989819057 -101.277628211105608
-75.296897888183594 43.699309560806803 -102.385399579063602
-74.343803405761719 44.069191713072726 -101.501234419695322
-77.008399963378906 44.290214376822441 -102.976775135874092
-81.015602111816406 45.674178210850300 -104.361841496430131
-96.722801208496094 45.703864739033172 -104.391551674208486
-96.265602111816406 46.202279367704222 -104.458996269747374
-82.300102233886719 46.269321648328564 -104.957459051375736
-82.658401489257813 46.552052799300341 -105.240415438431455
-83.808898925781250 47.117515101243903 -105.806328212542894
-94.984901428222656 48.813896614426419 -107.504061137933007
-93.989799499511719 49.944815825665366 -108.635881289211696
-92.453102111816406 50.995965330598523 -108.716482686853212
-88.056900024414063 50.510272734960758 -109.201788666378931
-90.546897888183594 51.396193353579882 -108.882035730572099
-89.558502197265625 51.075735036904319 -109.767701440490370
-71.484397888183594 5.441506881463333 -62.064650810100431
-78.156196594238281 5.692333996842599 -62.379485836820642
-70.531196594238281 5.964466812320751 -62.107569641756356
-67.671897888183594 6.059171128254485 -62.578397799979030
-65.765602111816406 6.711286768296898 -63.057720820256293
-84.426002502441406 6.513134000906214 -63.821178337317136
-63.859401702880859 6.952423670378974 -63.382238346768027
-61.953098297119141 7.540094399821672 -63.925954978858485
-59.093799591064453 8.004185901150125 -64.593152468774804
-56.958000183105469 7.926784363116945 -65.235954875651530
-55.281200408935547 8.153604537848945 -65.462955745321949
-54.328098297119141 8.794440461837528 -65.499909009588492
-52.421901702880859 8.757869639708916 -66.067702231368756
-90.192398071289063 8.774975119708202 -66.084821338346586
-50.515598297119141 8.977833062291142 -66.287840886498728
-53.375000000000000 9.699729452410702 -65.726260207827153
-49.562500000000000 9.675455433006077 -66.315977386105857
-91.656700134277344 9.623165876299458 -66.933687801041657
-46.703098297119141 9.893453491616022 -67.204190739373743
-47.656200408935547 10.340726124517108 -66.782155826465640
-92.980903625488281 10.471353936566629 -67.782551565264612
-92.453102111816406 11.081759118599013 -67.172632271797056
-45.750000000000000 10.776381126896574 -67.477767179596398
-93.406196594238281 11.009249021058631 -68.320875160665238
-45.750000000000000 11.704663796052836 -67.681148395097523
-94.032600402832031 11.319544693157885 -68.631418027959668
-18.109399795532227 12.037037477425125 -68.479958856281982
-43.843799591064453 12.361076841392432 -68.721634519438581
-20.968799591064453 12.417102519052229 -68.665653438772580
-15.459500312805176 11.885004298777361 -69.197328103599020
-38.125000000000000 12.416891973206564 -69.729639503169466
-29.546899795532227 12.384730219513079 -69.697452128006873
-25.734399795532227 12.302564608032142 -69.345562657715845
-24.781200408935547 12.607448779340992 -69.040921177224178
-32.406200408935547 12.578965317670150 -69.891841962395588
-42.890598297119141 13.134214993574099 -69.645493843927483
-41.937500000000000 12.818013322130517 -70.131080403021954
-39.078098297119141 12.967411639424084 -69.812164420957075
-30.500000000000000 13.006177889557049 -69.773429029142804
-95.312500000000000 13.572853068371730 -69.772667410611405
-36.218799591064453 13.363041465953641 -69.982312000917887
-33.359401702880859 13.189518916284269 -70.155696424920734
-29.546899795532227 13.294567736514411 -70.050731224590947
-37.171901702880859 13.738934669720130 -70.172175100444875
-35.265598297119141 13.611461546371171 -70.299546753926307
-33.359401702880859 13.472247370931964 -70.438650113504352
-31.453100204467773 13.589393441569044 -70.321597292298648
-28.911500930786133 13.298654660988092 -70.612104641933414
-41.937500000000000 14.319818739693059 -70.722678382406897
-40.031200408935547 14.385181130805456 -70.657368020404590
-96.754699707031250 14.146845417579348 -71.460971104628470
-37.171901702880859 14.650083478786131 -70.958133625897929
-26.687500000000000 14.548432034925016 -71.059704154203899
-18.109399795532227 14.785336297188225 -70.822988470077604
-36.218799591064453 14.701852403050376 -71.471868391443365
-25.734399795532227 14.890016862313333 -71.283853712951853
-23.828100204467773 14.692867222865463 -72.007427894926835
-20.968799591064453 14.655760410798919 -71.970291521939927
-19.062500000000000 14.551504343703659 -71.865952399871063
-41.937500000000000 15.646471624424608 -71.658920666133866
-40.031200408935547 15.662033713002971 -71.643370965131993
-37.171901702880859 15.394995612842310 -71.910196500322598
-37.171901702880859 15.452563553641131 -72.418136865407988
-39.078098297119141 16.403408150141125 -72.598968720432921
-39.078098297119141 17.157376356551900 -73.541982731226184
-40.031200408935547 17.886592743472878 -73.944260984932427
-39.078098297119141 17.531554769785405 -74.299016344879760
-98.171897888183594 17.796459814090170 -74.599784648845201
-39.306701660156250 18.387799200535632 -75.705303418103767
-40.984401702880859 19.873131602835713 -75.917530013494599
-40.099300384521484 19.518718411774582 -76.837123569382442
-55.281200408935547 20.227934982122999 -76.693934023675411
-40.984401702880859 20.567180238499994 -76.920410505813265
-54.328098297119141 20.433825881553613 -77.619121192605689
-99.135696411132813 20.649637623013533 -77.968943720661130
-40.984401702880859 21.098251949150548 -78.086148977200452
-99.452201843261719 21.215099924957094 -78.534856494772569
-51.468799591064453 22.380552746510148 -79.066708043598950
-41.937500000000000 22.257113838944900 -79.190048692572361
-56.575901031494141 22.911476045491437 -80.232584023218493
-50.833301544189453 22.911476045491437 -80.232584023218493
-49.562500000000000 23.489401154474869 -80.220581429574068
-47.656200408935547 23.690583043129546 -80.019559683693444
-45.750000000000000 23.534603260557098 -80.175415304815544
-49.562500000000000 23.562395643005193 -80.884022171944594
-47.656200408935547 23.898702753558592 -81.220597199550355
-57.505199432373047 26.304239071856461 -83.628049873998734
-57.642398834228516 28.000620585038973 -85.325782799388847
-57.956401824951172 30.262459007516874 -87.589423101946210
-60.046901702880859 34.472310692145328 -91.802628539792678
-99.613296508789063 34.503410094149068 -91.833752716949405
-61.255798339843750 35.917060456359806 -93.248529255283799
-99.125000000000000 36.556021042785588 -93.741002250274732
-63.419898986816406 37.896173120514099 -95.229218567729646
-64.812500000000000 39.012176266911304 -96.346110771372551
-98.597099304199219 40.158011542992000 -97.492858870287009
-98.171897888183594 41.066700606258280 -97.715818094973940
-67.054397583007813 40.723473844935562 -98.058771644398448
-97.601699829101563 43.550774569357024 -100.888324721067235
-97.218803405761719 44.010437703155546 -100.429027483671575
-72.373397827148438 43.550774569357024 -100.888324721067235
-78.156196594238281 45.357419559697597 -102.696408964356394
-79.418296813964844 45.812612991834925 -103.151965023624598
-83.875000000000000 47.783949457326244 -105.124871942545212
-95.622596740722656 47.791725655989218 -105.132654336070445
-84.417999267578125 48.357182565284610 -105.698561713237680
-85.969001770019531 49.488107169171734 -106.830387261460558
-94.074897766113281 49.770832927495341 -107.113338251572088
-87.107299804687500 50.336295229438903 -107.679251025683513
-90.546897888183594 51.509545195481607 -107.637859940690475
-89.593803405761719 51.543643088888267 -107.603789189544358
-88.264099121093750 50.901757531382465 -108.245163799794952
-74.343803405761719 5.942133561218585 -61.901296079559174
-72.437500000000000 5.969840987522598 -61.929025578818980
-76.250000000000000 7.007071516877419 -61.631251949444874
-82.921897888183594 7.040327487030154 -63.000364875007158
-81.015602111816406 7.570550443978335 -62.199141126963070
-66.718803405761719 7.027204992006813 -62.742054070578448
-64.812500000000000 7.925917803933714 -62.974981605409994
-62.906200408935547 7.735844284920357 -63.696435752203200
-85.354499816894531 7.752806859743102 -63.713411840159935
-62.906200408935547 8.576265944753162 -63.456070717963350
-59.642501831054688 8.600997616334359 -64.562278302854992
-88.247497558593750 8.883728767306140 -64.845234689910711
-56.962200164794922 9.166457221953834 -65.128188378494343
-56.047901153564453 9.449188372925615 -65.411144765550048
-90.036300659179688 9.731916827573309 -65.694098454133680
-53.375000000000000 10.383407682841368 -65.608588673266595
-91.191101074218750 10.297379129516871 -66.260011228245119
-55.281200408935547 10.940748846675545 -65.617153639747414
-50.853199005126953 10.297379129516871 -66.260011228245119
-91.397003173828125 10.580107584164566 -66.542964916828737
-51.468799591064453 11.062545822454400 -66.060910704150288
-48.609401702880859 10.656939338984808 -66.619857879207885
-46.703098297119141 12.149609463039079 -67.236556909264934
-19.062500000000000 13.250678175950668 -68.398203797578930
-17.156200408935547 13.151714410297295 -68.497088787095606
-94.903099060058594 13.124679853938336 -69.089564304913907
-21.921899795532227 13.469177595618333 -68.745340786845077
-19.062500000000000 13.665407787976616 -68.549266795661609
-24.781200408935547 13.613328714241502 -69.166761502522533
-22.875000000000000 13.833537529645975 -68.946727975514079
-43.843799591064453 14.032443343423656 -69.313442973966048
-25.734399795532227 13.927467381940110 -69.418335373545517
-17.156200408935547 14.216789464670592 -69.129243594055723
-95.312500000000000 14.500508258577565 -69.411207731699903
-26.417999267578125 13.972867914205505 -69.938428069136876
-20.015600204467773 14.612983274016248 -69.298822247486456
-16.666999816894531 14.255599065177286 -70.221384456192595
-96.265602111816406 14.803036440608361 -70.769257944341419
-24.781200408935547 14.913598635141202 -70.129371141630955
-21.921899795532227 15.058614525587085 -69.984470685268789
-19.062500000000000 15.071982756351300 -69.971113095748549
-22.875000000000000 15.183312358869275 -70.425329201279609
-20.015600204467773 15.162161734579831 -70.446462989462830
-42.501399993896484 15.103789821768542 -71.070250918887652
-22.943099975585938 15.103789821768542 -71.070250918887652
-42.890598297119141 16.972008602460306 -72.030820879700059
-41.937500000000000 16.609611895366694 -72.392929115428927
-40.984401702880859 17.271984427846483 -72.862003407856676
-97.921699523925781 17.365630940570529 -73.333893919917116
-42.890598297119141 18.178406774552020 -73.087227544775558
-41.937500000000000 18.637827222830090 -73.759086976887929
-55.281200408935547 19.139283029553471 -73.823492815182306
-98.171897888183594 19.238304898692999 -74.290012249664144
-52.421901702880859 19.707926830098366 -74.386226623196777
-41.937500000000000 19.493943389819663 -74.600039730539649
-54.328098297119141 19.384395746728210 -75.354266963008598
-53.375000000000000 19.672811789679660 -75.552227888863499
-41.937500000000000 20.472914335797778 -75.883687194756504
-52.612499237060547 20.475662815963776 -76.446403383641623
-51.468799591064453 20.987741071757473 -75.934732747206539
-56.234401702880859 21.139940471891443 -76.913568676468742
-41.937500000000000 21.101954080194258 -76.951524830622262
-50.515598297119141 21.766815864698629 -76.852654763910849
-48.609401702880859 22.261765655198246 -76.923561439575693
-51.198001861572266 21.889313178174508 -77.861179921976031
-43.330501556396484 21.889313178174508 -77.861179921976031
-46.703098297119141 22.734270994670432 -77.582346396196797
-99.125000000000000 22.555925012465323 -78.326012894469059
-44.796901702880859 22.498274854603658 -78.383617162234628
-48.609401702880859 23.037927533847721 -78.409856533096786
-46.703098297119141 23.155920924722984 -78.291957066128205
-57.187500000000000 23.084037762126385 -78.929245490249812
-48.609401702880859 23.116216134213982 -79.089060282932650
-46.640998840332031 23.302963540385239 -79.275956460310425
-57.413101196289063 24.433882751624189 -80.407776611589114
-99.704498291015625 24.716613902595970 -80.690732998644833
-99.820899963378906 26.412990023130313 -82.388460527090757
-99.829803466796875 27.261183476045655 -83.237329688257901
-99.823402404785156 27.826640385341044 -83.803237065425151
-57.629001617431641 27.826640385341044 -83.803237065425151
-57.683799743652344 28.674833838256387 -84.652106226592309
-57.724800109863281 29.523021898523556 -85.500969990815264
-99.901000976562500 29.805753049495337 -85.783926377870984
-99.590301513671875 33.198516075860361 -89.179392228651224
-60.306499481201172 35.743085649310046 -91.725988918264306
-61.585700988769531 37.156736011520778 -93.140765456598700
-62.427398681640625 38.004924071787947 -93.989629220821669
-62.906200408935547 39.142451664222115 -93.983932074074289
-98.171897888183594 40.044611864883926 -94.778866660260420
-97.218803405761719 43.406744534485810 -98.204938485736719
-96.964599609375000 45.073175882841610 -101.063511912493667
-74.424301147460938 45.073175882841610 -101.063511912493667
-76.663002014160156 45.638638184785172 -101.629424686605105
-96.610397338867188 45.921369335756950 -101.912381073660825
-81.527397155761719 47.335019697967681 -103.327157611995219
-95.816596984863281 47.617745456291289 -103.610108602106749
-82.290802001953125 47.617745456291289 -103.610108602106749
-94.603797912597656 49.031395818502020 -105.024885140441143
-85.371002197265625 49.596858120445582 -105.590797914552581
-93.858703613281250 49.879589271417366 -105.873754301608301
-92.453102111816406 50.876328220576347 -106.574185424916919
-87.266502380371094 50.727777331684536 -106.722618065831270
-88.640602111816406 51.594515947744419 -106.987494344753529
-74.343803405761719 6.850021042845674 -61.461485287297592
-79.109397888183594 7.180107733733507 -61.791834939777594
-71.484397888183594 7.737651890810872 -61.466715605951848
-79.109397888183594 8.116796753453198 -61.653329634955639
-68.883499145507813 7.578826657897157 -62.190871500992422
-81.968803405761719 8.266112745520346 -62.069594981129363
-83.645500183105469 8.144288959840718 -62.756784275103861
-66.718803405761719 8.513545183002687 -62.387821983549308
-85.180397033691406 8.709748565460194 -63.322694350743205
-86.216003417968750 8.992477020107890 -63.605648039326823
-61.953098297119141 9.381670990688184 -63.782226352231888
-60.471801757812500 9.557939322051451 -64.171560813438262
-88.962799072265625 10.123398927670927 -64.737470889077599
-58.776000976562500 10.123398927670927 -64.737470889077599
-56.422698974609375 10.688858533290402 -65.303380964716936
-54.328098297119141 11.973791601695673 -65.715852766799742
-52.421901702880859 11.817601338299728 -65.871918701200528
-91.993598937988281 11.819777744529354 -66.435201115995625
-49.562500000000000 11.944037840015959 -66.559560202545654
-48.609401702880859 13.111996687594170 -66.840392843047198
-93.307403564453125 12.950699652092391 -67.567023965746401
-46.007198333740234 13.233428106740085 -67.849977654330019
-46.703098297119141 13.553167366938116 -67.530492909746911
-45.750000000000000 14.483912480366195 -68.296870729690070
-44.796901702880859 15.601463458692923 -69.442053865285175
-96.795097351074219 16.343459982133329 -70.962487118054540
-43.739799499511719 16.343459982133329 -70.962487118054540
-43.843799591064453 17.511249678373620 -71.492009045018946
-54.328098297119141 18.420064309076469 -72.280299890806077
-53.375000000000000 18.678814138529969 -72.587218510010857
-54.328098297119141 18.612368166363773 -73.233202814447949
-56.234401702880859 19.972148988290630 -73.556752307223178
-43.522499084472656 19.736223008498357 -74.357952968834780
-51.468799591064453 20.403769777034395 -74.256389270065796
-56.226501464843750 20.301679917793745 -74.923860346002016
-51.564998626708984 20.584411068765526 -75.206816733057735
-98.775199890136719 20.867142219737307 -75.489773120113455
-44.066101074218750 20.867142219737307 -75.489773120113455
-44.796901702880859 21.168278213304635 -75.188876833776732
-47.656200408935547 21.765867088452552 -75.157226126520271
-48.609401702880859 22.107294145855356 -75.946985025601222
-47.656200408935547 22.217788482775479 -75.836578643266620
-46.703098297119141 22.181216090456665 -75.873121923599271
-44.940799713134766 21.715330280004476 -76.338636884336424
-57.187500000000000 22.248053282905687 -76.371800415450508
-99.144500732421875 23.977174095130550 -78.602282583837976
-57.474201202392578 24.259899853454161 -78.885233573949506
-99.537200927734375 25.390824457341282 -80.017059122172370
-57.664100646972656 26.239012517608455 -80.865922886395339
-57.635501861572266 27.652662879819186 -82.280699424729733
-57.737201690673828 27.935394030790967 -82.563655811785452
-99.678298950195313 31.610882815479599 -86.242072652677223
-99.125000000000000 33.484760292156942 -87.196988421882054
-99.125000000000000 34.047099198985329 -88.331484586088962
-59.271900177001953 35.003645841844623 -89.637538503457449
-59.500499725341797 35.569102751140015 -90.203445880624699
-60.501399993896484 36.700027355027139 -91.335271428847577
-98.902603149414063 36.982753113350746 -91.618222418959093
-61.953098297119141 38.770964894864434 -92.658735692586575
-98.624801635742188 38.961865777505039 -93.598911731404939
-65.184097290039063 41.506435350954725 -96.145508421018008
-97.802696228027344 42.354628803870064 -96.994377582185166
-66.303596496582031 42.354628803870064 -96.994377582185166
-67.291801452636719 42.920085713165456 -97.560284959352416
-69.079803466796875 44.051004924404410 -98.692105110631090
-70.531196594238281 44.752356884164747 -99.122236396437998
-96.841003417968750 44.899198377319749 -99.540974271798248
-70.531196594238281 45.548510130034096 -98.892179377663979
-96.265602111816406 45.612516625254280 -99.393686313481041
-95.312500000000000 47.531295419007243 -100.869188203436892
-80.062500000000000 47.416200733317872 -102.059981782700518
-95.836700439453125 47.443767950769434 -102.087570961411330
-95.078796386718750 48.574687162008381 -103.219391112690005
-92.453102111816406 51.162425452183754 -105.157401752369125
-86.202400207519531 50.836530977134458 -105.483036812191571
-89.593803405761719 51.946948460286990 -106.069879890744531
-75.296897888183594 8.597537652794568 -61.172971410127055
-80.062500000000000 8.811652055306023 -61.524489926032366
-70.531196594238281 8.927451588367134 -61.408782570545405
-86.283599853515625 10.232222735543361 -63.497814136215496
-63.859401702880859 10.868589917612587 -62.861953508720021
-61.953098297119141 10.904437858657690 -63.391591191574541
-88.044898986816406 10.797682341162837 -64.063724211854833
-61.953098297119141 11.393939433995225 -63.467941745568282
-88.427101135253906 11.080410795810531 -64.346677900438451
-59.510101318359375 11.080410795810531 -64.346677900438451
-90.155700683593750 11.928601552401787 -65.195544363133521
-56.343299865722656 12.211332703373568 -65.478500750189241
-54.328098297119141 12.776792308993043 -66.044410825828578
-56.234401702880859 13.609234607611112 -65.778093640750896
-54.328098297119141 13.375514542421334 -66.011627662456135
-51.468799591064453 13.126316800214237 -66.394213763649560
-92.453102111816406 13.406907306035732 -66.545716976376042
-51.468799591064453 13.994805967886455 -66.523748768911091
-54.328098297119141 14.469519918285222 -66.614869784097948
-48.724399566650391 13.907711520231995 -67.176230977107252
-48.609401702880859 14.422889057564184 -67.226926007426158
-94.015602111816406 14.473173822175557 -67.742143751218691
-94.212097167968750 14.755902276823251 -68.025097439802309
-47.656200408935547 15.478273898640287 -67.868763314177798
-95.826698303222656 16.169552639033984 -69.439873978136717
-95.312500000000000 16.757673838496551 -68.852220928968364
-54.328098297119141 16.784769196813766 -68.825147138824477
-96.265602111816406 17.006222002807309 -70.277209869565027
-55.281200408935547 17.578771935242685 -69.728158485483220
-54.328098297119141 17.428453547127912 -69.878357218673656
-53.375000000000000 17.487237063269951 -69.819620494792133
-45.750000000000000 17.393295154187470 -69.913487625185425
-96.984901428222656 17.865934152216496 -71.137606903526830
-53.375000000000000 17.968505775062393 -71.035116928707666
-45.750000000000000 18.289942374208888 -70.713936196274688
-51.468799591064453 18.901594425169868 -71.233690596216093
-97.218803405761719 18.872722209313444 -71.828002310736721
-55.894001007080078 18.996856059779532 -72.269429753277606
-56.234401702880859 19.730813662173404 -72.666970565565393
-46.703098297119141 20.101270705418145 -72.296808409792732
-45.033298492431641 19.562312969074924 -72.835337130444856
-51.335601806640625 19.845044120046705 -73.118293517500575
-50.515598297119141 20.205246969326165 -72.758377393253340
-48.609401702880859 21.020964314860635 -73.639686025198770
-47.656200408935547 21.076496172126838 -73.584198371840444
-46.703098297119141 20.980643744800300 -73.679974499686367
-98.171897888183594 22.044377656393813 -74.313474774513224
-57.187500000000000 21.720606878884169 -74.636987827280279
-98.739799499511719 22.389613693496386 -75.664890207113658
-57.707801818847656 26.065107870833192 -79.343312444949603
-99.458900451660156 27.196027082072145 -80.475132596228292
-99.125000000000000 27.843215137246840 -79.828459709149413
-57.610599517822266 27.478758233043923 -80.758088983284011
-99.503601074218750 28.044215142339315 -81.323996360451247
-99.457901000976563 29.175134353578265 -82.455816511729935
-57.633098602294922 29.175134353578265 -82.455816511729935
-99.570198059082031 31.154247017732558 -84.436505824175768
-57.767700195312500 31.719709319676120 -85.002418598287207
-99.385696411132813 32.285166228971512 -85.568325975454457
-57.959999084472656 32.285166228971512 -85.568325975454457
-58.842601776123047 35.112466953392975 -88.397879052123244
-98.578498840332031 37.939767677814437 -91.227432128792046
-98.171897888183594 38.522867020706109 -90.644796938747064
-98.171897888183594 39.504729465871321 -92.491017686672492
-63.859401702880859 41.253366629025145 -94.543670838829982
-64.112297058105469 41.615261855151246 -94.905854366628006
-97.569503784179688 42.463449915418416 -95.754718130850961
-67.045799255371094 43.877100277629147 -97.169494669185369
-72.437500000000000 46.128336753802323 -99.422524579460756
-96.061096191406250 46.421669851078832 -99.716091358798451
-95.312500000000000 47.393101089052173 -99.876358352170229
-75.296897888183594 47.376054840820935 -99.893391031419199
-95.723800659179688 47.269863303994171 -100.564960519965595
-76.546096801757813 47.269863303994171 -100.564960519965595
-77.203102111816406 48.215765564662028 -100.185262902790853
-79.109397888183594 47.903882342139156 -101.199484645593174
-94.840599060058594 48.683513666204902 -101.979737058300003
-82.921897888183594 49.507672086220872 -102.804552039202278
-94.050498962402344 49.814432877443856 -103.111557209578677
-84.398300170898438 50.379889786739241 -103.677464586745927
-92.453102111816406 51.217850460793890 -103.405633418913126
-85.781196594238281 50.996948946385565 -104.295015322888858
-86.640197753906250 51.510814390626365 -104.809290134968805
-90.546897888183594 52.111865409769635 -104.774169254318096
-88.640602111816406 52.354215188722833 -104.532012388186985
-87.687500000000000 52.096230462444673 -104.789791756070272
-73.390602111816406 9.378622630479139 -60.957970665047235
-77.203102111816406 10.012643577396872 -60.889916886310573
-80.062500000000000 10.162453392005624 -61.305683410380446
-70.531196594238281 10.343048637038944 -61.125231920949155
-67.671897888183594 10.272158512173720 -61.761528097807243
-65.222602844238281 10.623702139316896 -62.541183872687327
-63.859401702880859 12.118870470259349 -62.743587761582184
-59.935501098632813 12.320083652499408 -64.238916798077440
-59.093799591064453 13.710556665204326 -64.545927274050683
-57.932498931884766 13.168271712766579 -65.087780562300409
-90.546897888183594 13.889585533521933 -64.932503395717461
-57.187500000000000 15.193600935839068 -65.891365142198836
-93.199699401855469 14.864653225949091 -66.785513487690523
-51.468799591064453 15.373568219168662 -67.294833905001980
-49.562500000000000 15.969844112762889 -67.891584818227955
-55.281200408935547 16.273153467828276 -67.639973565576014
-54.328098297119141 16.092555524322858 -67.820427751331394
-53.375000000000000 16.106420273952761 -67.806574038179392
-51.468799591064453 16.247968627755117 -67.665138358267271
-51.468799591064453 17.134501974360248 -68.475692752029502
-48.609401702880859 17.049119618766685 -68.561007142423165
-52.058799743652344 17.691953950370554 -69.615066564359324
-49.562500000000000 18.088375692124234 -69.218960378234655
-47.656200408935547 17.880121108105609 -69.427049189543737
-96.265602111816406 19.091766372852160 -69.912750457468363
-47.656200408935547 18.767358755927827 -70.236899842719609
-49.562500000000000 19.124716154866022 -70.445283992390841
-96.956802368164063 19.105604312581285 -71.029843102693718
-56.455501556396484 19.105604312581285 -71.029843102693718
-49.622100830078125 19.671066614524847 -71.595755876805157
-97.703796386718750 20.519254674792020 -72.444619641028126
-56.905498504638672 21.084716976735582 -73.010532415139551
-98.171897888183594 23.605825861109356 -74.449646156420471
-98.850402832031250 24.760205761424213 -76.688949256031322
-57.904098510742188 24.760205761424213 -76.688949256031322
-57.689399719238281 27.022044183902118 -78.952589558588684
-57.824699401855469 27.587506485845680 -79.518502332700123
-99.125000000000000 29.415816299807858 -81.084411973543411
-99.125000000000000 31.140210651820265 -82.754154358600530
-98.996597290039063 33.807570236632166 -85.743521260149151
-58.518699645996094 35.221220598842898 -87.158297798483559
-58.764499664306641 35.503946357166505 -87.441248788595075
-98.603996276855469 37.200327870349021 -89.138981713985203
-59.977699279785156 37.483059021320798 -89.421938101040908
-60.584899902343750 38.613978232559752 -90.553758252319597
-61.279499053955078 39.462171685475091 -91.402627413486755
-62.191398620605469 40.593090896714045 -92.534447564765429
-97.935699462890625 40.875822047685830 -92.817403951821149
-62.906200408935547 41.264006433646891 -93.205897582556403
-97.625198364257813 42.006741258924777 -93.949224103099837
-65.325698852539063 43.703122772107292 -95.646957028489950
-67.671897888183594 45.103340047723378 -97.048289778841436
-96.028396606445313 46.247692345556970 -98.193553718103033
-72.437500000000000 47.120621875633951 -99.067178662280057
-95.094802856445313 47.944073858739486 -99.891286643493146
-94.359397888183594 48.751188302559328 -99.650266366690900
-94.245597839355469 49.074993069978440 -101.023106794771834
-80.813796997070313 49.357724220950217 -101.306063181827554
-93.626197814941406 49.923181130245609 -101.871970558994789
-83.875000000000000 50.679483858322421 -102.628875791125935
-92.453102111816406 51.010279682444775 -102.959935141767218
-91.556098937988281 51.619562643428118 -103.569703484384917
-86.722000122070313 51.902293794399903 -103.852659871440622
-72.437500000000000 10.260154178454130 -60.828919359533302
-76.250000000000000 10.778517270023588 -60.690109925305308
-74.343803405761719 10.911012249943440 -60.557720412700505
-81.015602111816406 11.546502603401612 -61.053655485669381
-83.160202026367188 11.297915392534305 -61.867507299890789
-86.564796447753906 12.428834603773256 -62.999327451169464
-61.824298858642578 12.711565754745036 -63.282283838225183
-88.438003540039063 12.994296905716817 -63.565240225280903
-58.294700622558594 14.407947267927549 -64.980016763615296
-59.093799591064453 15.347910189363825 -64.606259150549221
-56.686199188232422 16.104326084785978 -66.677746990533322
-94.562400817871094 17.235247992349013 -67.809569840284098
-57.187500000000000 18.021071489182400 -67.589828955313720
-95.764900207519531 18.366167203587963 -68.941389991562787
-95.312500000000000 18.892887368975249 -68.415089100639022
-56.600601196289063 18.366167203587963 -68.941389991562787
-57.187500000000000 19.326418673815059 -69.112822460825186
-57.187500000000000 19.559054128042387 -70.011291756538881
-96.265602111816406 20.268621499763295 -69.867751688700722
-57.244800567626953 20.910736777037648 -71.487986681175869
-57.664100646972656 23.172580592163722 -73.751632380677421
-57.635501861572266 24.303499803402673 -74.883452531956095
-98.171897888183594 25.285749220305409 -75.032899172476192
-57.651401519775391 25.999881316585185 -76.581185457346223
-57.664100646972656 32.219939674723506 -82.806198987851062
-58.266300201416016 34.481783489849576 -85.069844687352614
-98.685501098632813 35.047240399144968 -85.635752064519863
-58.332401275634766 35.047240399144968 -85.635752064519863
-98.583900451660156 36.178159610383915 -86.767572215798538
-98.171897888183594 36.991490066717255 -87.085814141023747
-59.434700012207031 37.591809972594653 -88.182348754132946
-97.721000671386719 41.267304149931455 -91.860770991968892
-97.218803405761719 42.210646996152228 -92.049093233155716
-63.163898468017578 42.680954512142186 -93.275547530303299
-64.277496337890625 43.811873723381140 -94.407367681581974
-96.843803405761719 44.094604874352918 -94.690324068637693
-65.850402832031250 44.942792934620087 -95.539187832860662
-96.287498474121094 45.225524085591871 -95.822144219916382
-66.074600219726563 45.225524085591871 -95.822144219916382
-67.963500976562500 46.356443296830825 -96.953964371195056
-69.088302612304688 46.921905598774380 -97.519877145306495
-78.156196594238281 49.344196874940401 -99.944098125360199
-81.968803405761719 50.542971778118513 -101.143828025410016
-91.500000000000000 51.723885225024027 -101.203624804961137
-90.546897888183594 52.311614060100894 -102.312740466253913
-85.017402648925781 52.011044745673750 -102.613070524532660
-85.781196594238281 52.269034426835724 -102.871265731634310
-89.593803405761719 52.634949120703098 -102.555125264793048
-88.640602111816406 52.884444453766839 -102.305828532483176
-87.643203735351563 52.576507047617312 -103.178983298644084
-79.109397888183594 12.125430108432669 -60.475188812660789
-70.531196594238281 12.089707734824136 -60.510882750906461
-69.578102111816406 12.467864954531267 -60.698489029321777
-81.968803405761719 12.695277427532437 -61.036720060133064
-84.828102111816406 12.903294720826793 -61.959787920480039
-87.986099243164063 13.951235915109827 -63.174520037392071
-61.953098297119141 14.112450733548762 -63.013433547543833
-89.543899536132813 14.516695520729304 -63.740430113031415
-59.388401031494141 15.082157822672864 -64.306342887142847
-91.276603698730469 15.647617428292341 -64.872252962782184
-58.140598297119141 17.565990011362725 -65.782709044138940
-93.584396362304688 17.343996245150766 -66.569983189700210
-58.140598297119141 18.272857650235562 -66.207323648718628
-96.017501831054688 19.888568514924536 -69.116582577785394
-57.506698608398438 20.736759271515790 -69.965449040480451
-57.611598968505859 22.433140784698306 -71.663181965870564
-97.218803405761719 23.031927785752924 -71.630323301127717
-97.218803405761719 23.873554420486251 -71.920291571990916
-57.882499694824219 24.412248056204426 -73.643865881372207
-57.770000457763672 25.825898418415157 -75.058642419706615
-98.171897888183594 26.498966256563850 -74.951572831450775
-98.773803710937500 28.370467991864842 -77.605239109319697
-58.140598297119141 34.532537443261326 -83.322743690888856
-98.171897888183594 35.953970198997283 -84.729744030560283
-97.827301025390625 39.114213980255307 -88.357544038827641
-60.226001739501953 39.396945131227085 -88.640500425883360
-60.464401245117188 39.962402040522477 -89.206407803050610
-60.969001770019531 40.527864342466039 -89.772320577162048
-61.626300811767578 41.658783553704993 -90.904140728440723
-62.906200408935547 44.012116194105985 -91.945445466210131
-96.265602111816406 44.626724509732377 -93.027703043285868
-64.812500000000000 45.098689110383305 -94.346786665349654
-95.969299316406250 45.899734640337186 -95.148470343443918
-95.312500000000000 46.623099299885595 -94.991143970555882
-95.071800231933594 47.596116153519695 -96.846203268834046
-70.102897644042969 48.161573062815087 -97.412110646001281
-94.191703796386719 48.727035364758649 -97.978023420112720
-72.437500000000000 48.857089860705294 -98.108181523197331
-93.901298522949219 49.292497666702211 -98.543936194224159
-76.250000000000000 49.769601428359429 -99.021420037745500
-92.453102111816406 50.638292336973791 -99.890802983787424
-92.311698913574219 50.988873787236550 -100.241663722670083
-91.500000000000000 51.482241775778334 -100.735424749875264
-83.100601196289063 51.837067240151896 -101.090532883837241
-90.611503601074219 52.119798391123673 -101.373489270892961
-84.050598144531250 52.119798391123673 -101.373489270892961
-87.687500000000000 53.164935700226657 -101.460098078597269
-86.734397888183594 52.922747525882016 -102.177078070287095
-72.437500000000000 12.341344557398413 -60.214778914767628
-75.296897888183594 12.609989345790060 -59.991015289251031
-81.015602111816406 12.867645448322175 -60.741499080154910
-77.203102111816406 13.153182420424242 -60.013717082912841
-81.968803405761719 13.645640260427186 -60.652570814040935
-67.671897888183594 13.355751498556515 -60.942228821588721
-67.671897888183594 14.045018264698260 -60.818973199846795
-84.503402709960938 13.777328572010481 -61.651906897474248
-65.765602111816406 13.997820726985045 -61.431590256436806
-63.859401702880859 14.342790873954042 -62.217819671585687
-86.556198120117188 14.342790873954042 -62.217819671585687
-89.166801452636719 15.473710085192993 -63.349639822864368
-61.000000000000000 16.296532330788370 -63.092935033151988
-90.380500793457031 16.039169690812468 -63.915549898503713
-91.570198059082031 16.887360447403726 -64.764416361198769
-59.093799591064453 17.076091585806871 -64.575835454649280
-92.718803405761719 17.735551203994980 -65.613282823893826
-94.105499267578125 18.866470415233934 -66.745102975172514
-94.217697143554688 19.149201566205715 -67.028059362228234
-58.140598297119141 19.883173921712011 -66.860128344563364
-57.657699584960938 20.280120777444665 -68.159879513506908
-95.312500000000000 20.956726312511382 -68.049275044374795
-58.140598297119141 22.565470812475937 -69.269107349169602
-96.656097412109375 22.259230745274873 -70.140566127480653
-57.795501708984375 23.672881107485605 -71.555342665815047
-97.782402038574219 25.086531469696336 -72.970119204149441
-98.171897888183594 28.633010260545156 -76.211991649715429
-57.585300445556641 29.610213707300314 -77.497405206208370
-98.171897888183594 31.668294286203498 -78.268264500679408
-57.449699401855469 31.023864069511045 -78.912181744542764
-98.625999450683594 31.306595220482826 -79.195138131598483
-57.514400482177734 31.306595220482826 -79.195138131598483
-57.575698852539063 32.720245582693558 -80.609914669932877
-98.618301391601563 33.002976733665335 -80.892871056988596
-57.670799255371094 33.568433642960727 -81.458778434155846
-98.171897888183594 34.329925014755325 -81.263355698261833
-57.868301391601563 34.416627095876073 -82.307647595323004
-97.960098266601563 37.526653578621143 -85.420151662103322
-97.218803405761719 40.065509046775169 -87.407006212593757
-61.355598449707031 42.050335816225122 -89.947437664162237
-62.062099456787109 42.898529269140461 -90.796306825329395
-62.305900573730469 43.463986178435853 -91.362214202496645
-95.895202636718750 45.725829993561923 -93.625859901998197
-64.400299072265625 45.725829993561923 -93.625859901998197
-65.439903259277344 46.574018053829093 -94.474723666221166
-66.261199951171875 47.139480355772655 -95.040636440332591
-68.274597167968750 48.270399567011609 -96.172456591611279
-94.158203125000000 48.553130717983386 -96.455412978666999
-74.343803405761719 50.129347851965377 -98.032885796621102
-92.313102722167969 50.814969140461294 -98.719053281224362
-79.442497253417969 51.380431442404856 -99.284966055335801
-81.968803405761719 51.987589700008712 -99.892608001941738
-89.593803405761719 52.884427913293884 -100.044005920154660
-83.123802185058594 52.511350653643802 -100.416786206614475
-85.781196594238281 53.385810861270670 -100.108484559199340
-74.343803405761719 14.151931554326636 -59.581225444437322
-72.437500000000000 14.001540307465268 -59.731496978378075
-80.062500000000000 14.334069064646993 -59.964690005961259
-70.531196594238281 14.398511276774610 -59.900299090472146
-69.578102111816406 14.800367827665980 -60.064224902605353
-85.781196594238281 15.417723274222315 -61.709200016728268
-62.906200408935547 15.705518569263244 -62.233211438747730
-58.765098571777344 18.409761758740295 -64.939608947421377
-92.453102111816406 19.372490426351636 -65.108566191173153
-94.571197509765625 20.671602877542284 -67.203251948450827
-58.117599487304688 21.519790937809457 -68.052115712673796
-96.874702453613281 24.064360511259139 -70.598712402286878
-97.378898620605469 25.760742024441651 -72.296445327676992
-97.928497314453125 27.457123537624163 -73.994178253067119
-57.550598144531250 28.022585839567725 -74.560091027178544
-57.522098541259766 29.436236201778456 -75.974867565512952
-57.435501098632813 30.849886563989187 -77.389644103847345
-57.483798980712891 31.132612322312799 -77.672595093958876
-58.391399383544922 36.504488012832120 -83.048750257184949
-58.822299957275391 37.918138375042851 -84.463526795519343
-59.093799591064453 38.139582079548092 -84.685146911830088
-97.218803405761719 39.299473098330317 -85.345130767974950
-59.372100830078125 39.049057586281798 -85.595346946798031
-59.541801452636719 39.614514495577190 -86.161254323965267
-60.129501342773438 40.462707948492529 -87.010123485132425
-61.000000000000000 41.940962235795141 -88.489555414890035
-96.265602111816406 42.792273795906887 -88.075176097286075
-96.733100891113281 42.724546370970437 -89.273763787689788
-61.725601196289063 43.290008672913999 -89.839676561801227
-96.417098999023438 43.572739823885776 -90.122632948856946
-95.981002807617188 44.986390186096507 -91.537409487191340
-63.415500640869141 45.551847095391899 -92.103316864358590
-94.976097106933594 47.248228608574408 -93.801049789748703
-94.138298034667969 48.379147819813362 -94.932869941027391
-67.007598876953125 48.379147819813362 -94.932869941027391
-93.829002380371094 48.944610121756924 -95.498782715138830
-69.293998718261719 49.510067031052316 -96.064690092306066
-93.075698852539063 49.792798182024093 -96.347646479361785
-92.453102111816406 50.284041467186398 -96.839281110555220
-71.892898559570313 50.358260483967655 -96.913559253473224
-91.999298095703125 50.923717393263047 -97.479466630640474
-74.590599060058594 50.923717393263047 -97.479466630640474
-76.250000000000000 51.383154839511171 -97.939270084987982
-90.546897888183594 52.096037822004718 -98.004466824261272
-78.481002807617188 51.771910846178386 -98.328335791807618
-80.062500000000000 52.274462514555850 -98.831287814972214
-88.640602111816406 53.239901603888796 -99.123352708901152
-86.734397888183594 53.643170804922484 -99.285866995375528
-83.875000000000000 53.217367047303298 -99.774943506987938
-78.156196594238281 14.907478194241470 -59.391737315707793
-76.250000000000000 14.935420872796872 -59.363816879801021
-75.296897888183594 15.500753561743728 -59.364396682502218
-81.015602111816406 15.537805021343702 -59.892831804814534
-67.671897888183594 15.778093253951544 -60.218197325251204
-83.875000000000000 15.936395158098799 -60.625483912219757
