# This PCD file was generated using the MATLAB® pcwrite function
# from Computer Vision Toolbox®.
# .PCD v.7 - Point Cloud Data file format
VERSION .7
FIELDS x y z
SIZE 8 8 8
TYPE F F F
COUNT 1 1 1
WIDTH 787
HEIGHT 1
VIEWPOINT 0 0 0 1 0 0 0
POINTS 787
DATA ascii
-67.381301879882813 -62.424999237060547 -93.349998474121094
-67.671897888183594 -61.966800689697266 -93.349998474121094
61.820400238037109 -62.424999237060547 -93.349998474121094
61.000000000000000 -61.485698699951172 -93.349998474121094
65.765602111816406 -61.941101074218750 -93.349998474121094
104.222000122070313 -62.424999237060547 -93.349998474121094
52.421901702880859 -61.937198638916016 -93.750000000000000
61.548198699951172 -62.424999237060547 -93.750000000000000
61.000000000000000 -61.834999084472656 -93.750000000000000
65.992698669433594 -62.424999237060547 -93.750000000000000
104.262001037597656 -62.424999237060547 -93.750000000000000
-99.125000000000000 -61.806098937988281 -94.150001525878906
-67.803100585937500 -62.424999237060547 -94.150001525878906
53.375000000000000 -61.637798309326172 -94.150001525878906
60.046901702880859 -61.784698486328125 -94.150001525878906
66.026603698730469 -62.424999237060547 -94.150001525878906
-99.125000000000000 -62.011600494384766 -94.550003051757813
-68.075103759765625 -62.424999237060547 -94.550003051757813
-68.625000000000000 -61.603298187255859 -94.550003051757813
51.904201507568359 -62.424999237060547 -94.550003051757813
52.421901702880859 -62.040100097656250 -94.550003051757813
54.328098297119141 -61.555000305175781 -94.550003051757813
58.140598297119141 -61.573799133300781 -94.550003051757813
59.093799591064453 -61.817199707031250 -94.550003051757813
-68.625000000000000 -61.633998870849609 -94.949996948242188
-67.671897888183594 -62.265098571777344 -94.949996948242188
56.234401702880859 -61.624099731445313 -94.949996948242188
57.187500000000000 -61.674701690673828 -94.949996948242188
58.140598297119141 -61.802200317382813 -94.949996948242188
59.093799591064453 -62.193901062011719 -94.949996948242188
65.997802734375000 -62.424999237060547 -94.949996948242188
104.170997619628906 -62.424999237060547 -94.949996948242188
-99.125000000000000 -61.621700286865234 -95.349998474121094
-67.671897888183594 -61.882801055908203 -95.349998474121094
-66.024101257324219 -62.424999237060547 -95.349998474121094
-66.718803405761719 -61.925201416015625 -95.349998474121094
-65.765602111816406 -62.424999237060547 -95.482002258300781
52.421901702880859 -62.424999237060547 -95.349998474121094
53.375000000000000 -62.015800476074219 -95.349998474121094
54.328098297119141 -61.865100860595703 -95.349998474121094
55.281200408935547 -61.832000732421875 -95.349998474121094
56.234401702880859 -61.906501770019531 -95.349998474121094
57.187500000000000 -62.077800750732422 -95.349998474121094
-99.125000000000000 -61.883998870849609 -95.750000000000000
-67.671897888183594 -61.648998260498047 -95.750000000000000
-65.401199340820313 -62.424999237060547 -95.750000000000000
53.375000000000000 -62.259498596191406 -95.750000000000000
54.328098297119141 -62.115398406982422 -95.750000000000000
55.281200408935547 -62.424999237060547 -96.068496704101563
56.234401702880859 -62.360198974609375 -95.750000000000000
65.930603027343750 -62.424999237060547 -95.750000000000000
-65.078399658203125 -62.424999237060547 -96.150001525878906
65.946701049804688 -62.424999237060547 -96.150001525878906
103.890998840332031 -61.789600372314453 -96.150001525878906
-99.125000000000000 -61.583099365234375 -96.550003051757813
-65.142997741699219 -62.424999237060547 -96.550003051757813
-99.125000000000000 -61.784999847412109 -96.949996948242188
-65.226898193359375 -62.424999237060547 -96.949996948242188
103.596000671386719 -62.424999237060547 -96.949996948242188
-65.375099182128906 -62.424999237060547 -97.349998474121094
-65.765602111816406 -62.424999237060547 -97.715202331542969
66.057098388671875 -62.424999237060547 -97.349998474121094
66.259803771972656 -62.424999237060547 -97.750000000000000
103.334999084472656 -62.424999237060547 -97.750000000000000
-99.125000000000000 -61.630699157714844 -98.150001525878906
66.542198181152344 -62.424999237060547 -98.150001525878906
103.153999328613281 -62.424999237060547 -98.150001525878906
-66.073699951171875 -62.424999237060547 -98.550003051757813
66.718803405761719 -62.193199157714844 -98.550003051757813
-66.320503234863281 -62.424999237060547 -98.949996948242188
-66.718803405761719 -62.424999237060547 -99.305999755859375
66.991096496582031 -62.424999237060547 -98.949996948242188
103.155998229980469 -62.424999237060547 -98.949996948242188
102.938003540039063 -62.424999237060547 -99.327102661132813
-66.909400939941406 -62.424999237060547 -99.750000000000000
-67.115303039550781 -62.424999237060547 -100.150001525878906
67.834999084472656 -62.424999237060547 -100.150001525878906
102.726997375488281 -62.424999237060547 -100.150001525878906
-67.390800476074219 -62.424999237060547 -100.550003051757813
-67.785499572753906 -62.424999237060547 -100.949996948242188
102.439002990722656 -62.424999237060547 -100.949996948242188
-68.003501892089844 -62.424999237060547 -101.349998474121094
-68.625000000000000 -61.625198364257813 -101.349998474121094
68.625000000000000 -62.424999237060547 -101.467002868652344
101.984001159667969 -62.424999237060547 -101.477996826171875
-68.250000000000000 -62.424999237060547 -101.750000000000000
68.785598754882813 -62.424999237060547 -101.750000000000000
101.849998474121094 -62.424999237060547 -101.750000000000000
-68.736198425292969 -62.424999237060547 -102.150001525878906
-69.578102111816406 -61.525600433349609 -102.150001525878906
68.892501831054688 -62.424999237060547 -102.150001525878906
-98.793601989746094 -62.424999237060547 -102.550003051757813
-68.967102050781250 -62.424999237060547 -102.550003051757813
-69.578102111816406 -61.735801696777344 -102.550003051757813
69.249198913574219 -62.424999237060547 -102.550003051757813
69.578102111816406 -62.424999237060547 -102.742996215820313
101.477996826171875 -62.424999237060547 -102.550003051757813
101.030998229980469 -62.424999237060547 -102.916000366210938
-70.531196594238281 -61.475898742675781 -102.949996948242188
-69.216003417968750 -62.424999237060547 -102.949996948242188
-69.578102111816406 -62.424999237060547 -103.191001892089844
-69.578102111816406 -62.036899566650391 -102.949996948242188
-73.390602111816406 -61.581401824951172 -103.349998474121094
-70.531196594238281 -61.686798095703125 -103.349998474121094
69.887496948242188 -62.424999237060547 -103.349998474121094
-98.689697265625000 -62.424999237060547 -103.750000000000000
-74.343803405761719 -61.743499755859375 -103.750000000000000
-72.437500000000000 -61.513500213623047 -103.750000000000000
-71.484397888183594 -61.586700439453125 -103.750000000000000
-69.994499206542969 -62.424999237060547 -103.750000000000000
-70.531196594238281 -61.917800903320313 -103.750000000000000
70.284896850585938 -62.424999237060547 -103.750000000000000
100.611000061035156 -62.424999237060547 -103.750000000000000
100.078002929687500 -62.424999237060547 -104.119003295898438
-98.625099182128906 -62.424999237060547 -104.150001525878906
-76.470596313476563 -62.424999237060547 -104.150001525878906
-75.296897888183594 -62.037799835205078 -104.150001525878906
-74.343803405761719 -61.764301300048828 -104.150001525878906
-73.390602111816406 -61.581699371337891 -104.150001525878906
-72.437500000000000 -61.545600891113281 -104.150001525878906
-71.484397888183594 -61.662998199462891 -104.150001525878906
-70.531196594238281 -62.283798217773438 -104.150001525878906
70.947097778320313 -62.424999237060547 -104.150001525878906
-76.791999816894531 -62.424999237060547 -104.550003051757813
-76.250000000000000 -62.185699462890625 -104.550003051757813
-74.343803405761719 -61.908401489257813 -104.550003051757813
-73.390602111816406 -61.696998596191406 -104.550003051757813
-72.437500000000000 -61.697399139404297 -104.550003051757813
-70.831703186035156 -62.424999237060547 -104.550003051757813
-71.484397888183594 -61.920398712158203 -104.550003051757813
71.484397888183594 -62.424999237060547 -104.655998229980469
99.818801879882813 -62.424999237060547 -104.550003051757813
-98.623596191406250 -62.424999237060547 -104.949996948242188
-77.203102111816406 -62.235099792480469 -104.949996948242188
-76.250000000000000 -61.735500335693359 -104.949996948242188
-74.343803405761719 -61.942501068115234 -104.949996948242188
-71.484397888183594 -62.204101562500000 -104.949996948242188
71.633499145507813 -62.424999237060547 -104.949996948242188
99.486900329589844 -62.424999237060547 -104.949996948242188
-98.511901855468750 -62.424999237060547 -105.349998474121094
-78.632797241210938 -62.424999237060547 -105.349998474121094
-78.156196594238281 -62.267898559570313 -105.349998474121094
-77.203102111816406 -61.924499511718750 -105.349998474121094
-74.343803405761719 -61.890899658203125 -105.349998474121094
-73.390602111816406 -61.756500244140625 -105.349998474121094
-72.437500000000000 -61.903598785400391 -105.349998474121094
72.013900756835938 -62.424999237060547 -105.349998474121094
72.437500000000000 -62.424999237060547 -105.643997192382813
98.903900146484375 -62.424999237060547 -105.349998474121094
99.125000000000000 -61.471900939941406 -105.349998474121094
-98.536903381347656 -62.424999237060547 -105.750000000000000
-78.156196594238281 -62.145801544189453 -105.750000000000000
-77.203102111816406 -61.675098419189453 -105.750000000000000
-72.437500000000000 -62.360500335693359 -105.750000000000000
-98.482200622558594 -62.424999237060547 -106.150001525878906
-73.390602111816406 -62.220798492431641 -106.150001525878906
72.687103271484375 -62.424999237060547 -106.150001525878906
73.390602111816406 -62.424999237060547 -106.526000976562500
97.955703735351563 -62.424999237060547 -106.150001525878906
97.218803405761719 -62.424999237060547 -106.541000366210938
-80.355796813964844 -62.424999237060547 -106.550003051757813
-79.109397888183594 -61.883399963378906 -106.550003051757813
-74.343803405761719 -62.306900024414063 -106.550003051757813
-98.381401062011719 -62.424999237060547 -106.949996948242188
-80.672500610351563 -62.424999237060547 -106.949996948242188
-79.109397888183594 -61.710201263427734 -106.949996948242188
73.630798339843750 -62.424999237060547 -106.949996948242188
96.579299926757813 -62.424999237060547 -106.949996948242188
73.823402404785156 -62.424999237060547 -107.349998474121094
74.343803405761719 -62.424999237060547 -107.711997985839844
82.921897888183594 -62.424999237060547 -107.566001892089844
83.875000000000000 -62.325401306152344 -107.349998474121094
95.937202453613281 -62.424999237060547 -107.349998474121094
95.312500000000000 -62.424999237060547 -107.573997497558594
-98.171897888183594 -62.136901855468750 -107.750000000000000
-81.719299316406250 -62.424999237060547 -107.750000000000000
-81.015602111816406 -62.066398620605469 -107.750000000000000
82.766098022460938 -62.424999237060547 -107.750000000000000
82.921897888183594 -61.549198150634766 -107.750000000000000
84.828102111816406 -62.424999237060547 -107.848999023437500
93.406196594238281 -62.424999237060547 -108.133003234863281
-98.171897888183594 -62.198101043701172 -108.150001525878906
-81.968803405761719 -62.353599548339844 -108.150001525878906
-81.015602111816406 -61.896099090576172 -108.150001525878906
75.255401611328125 -62.424999237060547 -108.150001525878906
81.875999450683594 -62.424999237060547 -108.150001525878906
85.205299377441406 -62.424999237060547 -108.150001525878906
84.828102111816406 -61.521198272705078 -108.150001525878906
85.781196594238281 -62.424999237060547 -108.434997558593750
94.359397888183594 -61.738399505615234 -108.150001525878906
-82.395301818847656 -62.424999237060547 -108.550003051757813
-82.921897888183594 -62.424999237060547 -108.940002441406250
-81.015602111816406 -61.579399108886719 -108.550003051757813
-66.718803405761719 -61.623500823974609 -108.550003051757813
-65.765602111816406 -61.661098480224609 -108.550003051757813
75.840103149414063 -62.424999237060547 -108.550003051757813
76.250000000000000 -62.424999237060547 -108.725997924804688
76.250000000000000 -61.929901123046875 -108.550003051757813
77.203102111816406 -62.424999237060547 -108.857002258300781
77.203102111816406 -61.692401885986328 -108.550003051757813
78.156196594238281 -62.424999237060547 -108.888999938964844
78.156196594238281 -61.698200225830078 -108.550003051757813
79.109397888183594 -61.758499145507813 -108.550003051757813
80.062500000000000 -62.424999237060547 -108.814002990722656
80.062500000000000 -61.783599853515625 -108.550003051757813
81.076301574707031 -62.424999237060547 -108.550003051757813
86.734397888183594 -62.424999237060547 -108.889999389648438
92.883300781250000 -62.424999237060547 -108.550003051757813
92.453102111816406 -62.424999237060547 -108.735000610351563
-81.968803405761719 -61.888900756835938 -108.949996948242188
-67.671897888183594 -61.624900817871094 -108.949996948242188
-66.718803405761719 -61.819999694824219 -108.949996948242188
-65.765602111816406 -61.858699798583984 -108.949996948242188
-64.812500000000000 -61.808300018310547 -108.949996948242188
-63.859401702880859 -61.515201568603516 -108.949996948242188
87.687500000000000 -62.424999237060547 -109.143997192382813
88.640602111816406 -62.424999237060547 -109.258003234863281
89.593803405761719 -62.424999237060547 -109.262001037597656
90.546897888183594 -62.424999237060547 -109.206001281738281
91.500000000000000 -62.424999237060547 -109.039001464843750
-67.671897888183594 -61.713500976562500 -109.349998474121094
-66.718803405761719 -61.895500183105469 -109.349998474121094
-65.765602111816406 -61.934799194335938 -109.349998474121094
-64.812500000000000 -61.869998931884766 -109.349998474121094
-63.859401702880859 -61.629398345947266 -109.349998474121094
-83.413803100585938 -62.424999237060547 -109.750000000000000
-83.875000000000000 -62.424999237060547 -110.139999389648438
-68.625000000000000 -61.561901092529297 -109.750000000000000
-67.671897888183594 -61.903701782226563 -109.750000000000000
-66.718803405761719 -62.051399230957031 -109.750000000000000
-65.765602111816406 -62.091201782226563 -109.750000000000000
-64.812500000000000 -62.060699462890625 -109.750000000000000
-63.859401702880859 -61.920398712158203 -109.750000000000000
-98.003997802734375 -62.424999237060547 -110.150001525878906
-62.906200408935547 -61.774898529052734 -110.150001525878906
-84.130500793457031 -62.424999237060547 -110.550003051757813
-67.671897888183594 -62.019500732421875 -110.550003051757813
-66.718803405761719 -62.174198150634766 -110.550003051757813
-65.765602111816406 -62.228298187255859 -110.550003051757813
-64.812500000000000 -62.260299682617188 -110.550003051757813
-63.859401702880859 -62.181900024414063 -110.550003051757813
-62.906200408935547 -61.908199310302734 -110.550003051757813
-84.287597656250000 -62.424999237060547 -110.949996948242188
-68.625000000000000 -61.852001190185547 -110.949996948242188
-67.671897888183594 -62.133998870849609 -110.949996948242188
-66.718803405761719 -62.356899261474609 -110.949996948242188
-63.859401702880859 -62.424999237060547 -111.155998229980469
-62.906200408935547 -62.105598449707031 -110.949996948242188
-84.651603698730469 -62.424999237060547 -111.349998474121094
-61.953098297119141 -61.951198577880859 -111.349998474121094
-84.828102111816406 -62.197399139404297 -111.750000000000000
-82.921897888183594 -62.424999237060547 -111.856002807617188
-81.968803405761719 -62.424999237060547 -111.913002014160156
-81.015602111816406 -62.424999237060547 -111.975997924804688
-80.062500000000000 -62.424999237060547 -111.863998413085938
-79.109397888183594 -62.424999237060547 -112.097000122070313
-68.625000000000000 -61.939899444580078 -111.750000000000000
-67.048698425292969 -62.424999237060547 -111.750000000000000
-62.928901672363281 -62.424999237060547 -111.750000000000000
-61.953098297119141 -62.130901336669922 -111.750000000000000
-61.000000000000000 -61.524799346923828 -111.750000000000000
-97.923896789550781 -62.424999237060547 -112.150001525878906
-84.828102111816406 -62.203201293945313 -112.150001525878906
-82.921897888183594 -61.816799163818359 -112.150001525878906
-81.968803405761719 -62.123100280761719 -112.150001525878906
-81.015602111816406 -62.239898681640625 -112.150001525878906
-80.062500000000000 -61.975601196289063 -112.150001525878906
-79.019996643066406 -62.424999237060547 -112.150001525878906
-79.109397888183594 -62.259998321533203 -112.150001525878906
-68.625000000000000 -62.035099029541016 -112.150001525878906
-67.609397888183594 -62.424999237060547 -112.150001525878906
-61.953098297119141 -62.314098358154297 -112.150001525878906
-61.000000000000000 -61.824901580810547 -112.150001525878906
-85.463500976562500 -62.424999237060547 -112.550003051757813
-84.426200866699219 -62.424999237060547 -112.550003051757813
-84.828102111816406 -61.983200073242188 -112.550003051757813
-81.968803405761719 -61.958698272705078 -112.550003051757813
-81.015602111816406 -62.038898468017578 -112.550003051757813
-78.397003173828125 -62.424999237060547 -112.550003051757813
-68.625000000000000 -62.024299621582031 -112.550003051757813
-61.000000000000000 -62.145301818847656 -112.550003051757813
-85.781196594238281 -62.273601531982422 -112.949996948242188
-84.828102111816406 -61.737701416015625 -112.949996948242188
-81.968803405761719 -61.996601104736328 -112.949996948242188
-81.015602111816406 -62.179199218750000 -112.949996948242188
-78.199096679687500 -62.424999237060547 -112.949996948242188
-68.625000000000000 -62.047000885009766 -112.949996948242188
-61.000000000000000 -62.424999237060547 -113.103996276855469
-60.046901702880859 -61.729698181152344 -112.949996948242188
-97.820098876953125 -62.424999237060547 -113.349998474121094
-85.781196594238281 -62.115001678466797 -113.349998474121094
-84.828102111816406 -61.792198181152344 -113.349998474121094
-81.968803405761719 -62.098598480224609 -113.349998474121094
-80.940200805664063 -62.424999237060547 -113.349998474121094
-78.031196594238281 -62.424999237060547 -113.349998474121094
-69.578102111816406 -61.574298858642578 -113.349998474121094
-60.046901702880859 -61.944999694824219 -113.349998474121094
-85.781196594238281 -61.798099517822266 -113.750000000000000
-84.828102111816406 -61.705101013183594 -113.750000000000000
-81.693603515625000 -62.424999237060547 -113.750000000000000
-81.968803405761719 -62.192901611328125 -113.750000000000000
-80.633300781250000 -62.424999237060547 -113.750000000000000
-77.726501464843750 -62.424999237060547 -113.750000000000000
-64.812500000000000 -61.483600616455078 -113.750000000000000
-63.859401702880859 -61.483100891113281 -113.750000000000000
-97.702400207519531 -62.424999237060547 -114.150001525878906
-84.597702026367188 -62.424999237060547 -114.150001525878906
-81.687103271484375 -62.424999237060547 -114.150001525878906
-81.968803405761719 -62.049499511718750 -114.150001525878906
-77.523803710937500 -62.424999237060547 -114.150001525878906
-69.578102111816406 -61.471900939941406 -114.150001525878906
-68.625000000000000 -62.138000488281250 -114.150001525878906
-59.093799591064453 -61.821701049804688 -114.150001525878906
-86.734397888183594 -62.311798095703125 -114.550003051757813
-84.635696411132813 -62.424999237060547 -114.550003051757813
-81.952301025390625 -62.424999237060547 -114.550003051757813
-80.173301696777344 -62.424999237060547 -114.550003051757813
-77.455902099609375 -62.424999237060547 -114.550003051757813
-69.578102111816406 -61.497600555419922 -114.550003051757813
-68.625000000000000 -62.196498870849609 -114.550003051757813
-65.765602111816406 -61.484001159667969 -114.550003051757813
-63.859401702880859 -61.757801055908203 -114.550003051757813
-62.906200408935547 -61.679901123046875 -114.550003051757813
-59.479900360107422 -62.424999237060547 -114.550003051757813
-97.651496887207031 -62.424999237060547 -114.949996948242188
-81.847801208496094 -62.424999237060547 -114.949996948242188
-65.765602111816406 -61.606399536132813 -114.949996948242188
-64.812500000000000 -61.801101684570313 -114.949996948242188
-62.906200408935547 -61.888900756835938 -114.949996948242188
-61.953098297119141 -61.688899993896484 -114.949996948242188
-58.947898864746094 -62.424999237060547 -114.949996948242188
-87.337997436523438 -62.424999237060547 -115.349998474121094
-86.734397888183594 -61.545898437500000 -115.349998474121094
-84.585197448730469 -62.424999237060547 -115.349998474121094
-81.717903137207031 -62.424999237060547 -115.349998474121094
-79.811698913574219 -62.424999237060547 -115.349998474121094
-77.206802368164063 -62.424999237060547 -115.349998474121094
-65.765602111816406 -61.626098632812500 -115.349998474121094
-64.812500000000000 -61.886699676513672 -115.349998474121094
-61.000000000000000 -61.486400604248047 -115.349998474121094
-58.545200347900391 -62.424999237060547 -115.349998474121094
-97.458702087402344 -62.424999237060547 -115.750000000000000
-81.853797912597656 -62.424999237060547 -115.750000000000000
-79.750503540039063 -62.424999237060547 -115.750000000000000
-77.220298767089844 -62.424999237060547 -115.750000000000000
-68.625000000000000 -62.146999359130859 -115.750000000000000
-65.765602111816406 -61.694301605224609 -115.750000000000000
-63.859401702880859 -62.201499938964844 -115.750000000000000
-62.906200408935547 -62.217800140380859 -115.750000000000000
-61.953098297119141 -61.983798980712891 -115.750000000000000
-61.000000000000000 -61.615600585937500 -115.750000000000000
-58.411201477050781 -62.424999237060547 -115.750000000000000
-97.357101440429688 -62.424999237060547 -116.150001525878906
-97.218803405761719 -62.424999237060547 -116.438003540039063
-81.711898803710938 -62.424999237060547 -116.150001525878906
-64.812500000000000 -62.111400604248047 -116.150001525878906
-61.953098297119141 -62.424999237060547 -116.217002868652344
-61.000000000000000 -61.904598236083984 -116.150001525878906
-58.015499114990234 -62.424999237060547 -116.150001525878906
-88.028198242187500 -62.424999237060547 -116.550003051757813
-84.527496337890625 -62.424999237060547 -116.550003051757813
-81.556701660156250 -62.424999237060547 -116.550003051757813
-79.608200073242188 -62.424999237060547 -116.550003051757813
-76.780197143554688 -62.424999237060547 -116.550003051757813
-68.625000000000000 -62.055999755859375 -116.550003051757813
-65.765602111816406 -61.775398254394531 -116.550003051757813
-61.000000000000000 -62.146999359130859 -116.550003051757813
-60.046901702880859 -61.512599945068359 -116.550003051757813
-57.619598388671875 -62.424999237060547 -116.550003051757813
-88.217002868652344 -62.424999237060547 -116.949996948242188
-87.687500000000000 -61.508499145507813 -116.949996948242188
-81.609497070312500 -62.424999237060547 -116.949996948242188
-79.573097229003906 -62.424999237060547 -116.949996948242188
-76.753196716308594 -62.424999237060547 -116.949996948242188
-68.625000000000000 -62.052898406982422 -116.949996948242188
-64.499496459960938 -62.424999237060547 -116.949996948242188
-61.000000000000000 -62.424999237060547 -116.983001708984375
-60.046901702880859 -61.687801361083984 -116.949996948242188
-57.524200439453125 -62.424999237060547 -116.949996948242188
-81.479400634765625 -62.424999237060547 -117.349998474121094
-79.540000915527344 -62.424999237060547 -117.349998474121094
-65.765602111816406 -61.885799407958984 -117.349998474121094
-57.284801483154297 -62.424999237060547 -117.349998474121094
-88.640602111816406 -62.220798492431641 -117.750000000000000
-84.437797546386719 -62.424999237060547 -117.750000000000000
-81.364997863769531 -62.424999237060547 -117.750000000000000
-81.015602111816406 -61.669799804687500 -117.750000000000000
-79.470703125000000 -62.424999237060547 -117.750000000000000
-76.505302429199219 -62.424999237060547 -117.750000000000000
-56.899898529052734 -62.424999237060547 -117.750000000000000
-81.344596862792969 -62.424999237060547 -118.150001525878906
-81.015602111816406 -61.824699401855469 -118.150001525878906
-80.062500000000000 -61.806301116943359 -118.150001525878906
-76.509201049804688 -62.424999237060547 -118.150001525878906
-68.048896789550781 -62.424999237060547 -118.150001525878906
-59.778800964355469 -62.424999237060547 -118.150001525878906
-56.740898132324219 -62.424999237060547 -118.150001525878906
-89.034698486328125 -62.424999237060547 -118.550003051757813
-88.640602111816406 -61.497001647949219 -118.550003051757813
-84.293701171875000 -62.424999237060547 -118.550003051757813
-81.015602111816406 -62.108798980712891 -118.550003051757813
-79.517097473144531 -62.424999237060547 -118.550003051757813
-80.062500000000000 -62.000000000000000 -118.550003051757813
-67.970199584960938 -62.424999237060547 -118.550003051757813
-65.765602111816406 -61.863300323486328 -118.550003051757813
-59.366100311279297 -62.424999237060547 -118.550003051757813
-56.537601470947266 -62.424999237060547 -118.550003051757813
-84.128601074218750 -62.424999237060547 -118.949996948242188
-81.015602111816406 -62.355598449707031 -118.949996948242188
-80.062500000000000 -62.129100799560547 -118.949996948242188
-76.409500122070313 -62.424999237060547 -118.949996948242188
-58.920898437500000 -62.424999237060547 -118.949996948242188
-89.593803405761719 -62.159000396728516 -119.349998474121094
-84.078002929687500 -62.424999237060547 -119.349998474121094
-83.875000000000000 -62.424999237060547 -119.666999816894531
-79.585899353027344 -62.424999237060547 -119.349998474121094
-80.062500000000000 -62.169101715087891 -119.349998474121094
-67.817901611328125 -62.424999237060547 -119.349998474121094
-56.145900726318359 -62.424999237060547 -119.349998474121094
-96.855697631835938 -62.424999237060547 -119.750000000000000
-89.593803405761719 -61.999298095703125 -119.750000000000000
-79.786003112792969 -62.424999237060547 -119.750000000000000
-76.445602416992188 -62.424999237060547 -119.750000000000000
-65.031501770019531 -62.424999237060547 -119.750000000000000
-58.541301727294922 -62.424999237060547 -119.750000000000000
-55.883201599121094 -62.424999237060547 -119.750000000000000
-89.951797485351563 -62.424999237060547 -120.150001525878906
-83.756896972656250 -62.424999237060547 -120.150001525878906
-80.100898742675781 -62.424999237060547 -120.150001525878906
-67.588096618652344 -62.424999237060547 -120.150001525878906
-55.619800567626953 -62.424999237060547 -120.150001525878906
-90.383499145507813 -62.424999237060547 -120.550003051757813
-90.546897888183594 -62.424999237060547 -120.892997741699219
-83.743301391601563 -62.424999237060547 -120.550003051757813
-76.420196533203125 -62.424999237060547 -120.550003051757813
-96.487701416015625 -62.424999237060547 -120.949996948242188
-96.265602111816406 -62.424999237060547 -121.217002868652344
-76.469703674316406 -62.424999237060547 -120.949996948242188
-64.981300354003906 -62.424999237060547 -120.949996948242188
-57.833900451660156 -62.424999237060547 -120.949996948242188
-55.441699981689453 -62.424999237060547 -120.949996948242188
-90.546897888183594 -61.850498199462891 -121.349998474121094
-83.499000549316406 -62.424999237060547 -121.349998474121094
-67.380096435546875 -62.424999237060547 -121.349998474121094
-64.942901611328125 -62.424999237060547 -121.349998474121094
-57.580001831054688 -62.424999237060547 -121.349998474121094
-55.139999389648438 -62.424999237060547 -121.349998474121094
-96.153900146484375 -62.424999237060547 -121.750000000000000
-90.978202819824219 -62.424999237060547 -121.750000000000000
-83.480400085449219 -62.424999237060547 -121.750000000000000
-76.415802001953125 -62.424999237060547 -121.750000000000000
-67.298500061035156 -62.424999237060547 -121.750000000000000
-54.908000946044922 -62.424999237060547 -121.750000000000000
-96.043899536132813 -62.424999237060547 -122.150001525878906
-91.500000000000000 -62.424999237060547 -122.262001037597656
-76.451698303222656 -62.424999237060547 -122.150001525878906
-77.203102111816406 -61.519500732421875 -122.150001525878906
-64.864898681640625 -62.424999237060547 -122.150001525878906
-54.801700592041016 -62.424999237060547 -122.150001525878906
-91.680900573730469 -62.424999237060547 -122.550003051757813
-83.120796203613281 -62.424999237060547 -122.550003051757813
-67.139801025390625 -62.424999237060547 -122.550003051757813
-64.812500000000000 -62.339298248291016 -122.550003051757813
-54.628101348876953 -62.424999237060547 -122.550003051757813
-95.221702575683594 -62.424999237060547 -122.949996948242188
-91.879203796386719 -62.424999237060547 -122.949996948242188
-92.453102111816406 -62.424999237060547 -123.226997375488281
-76.397201538085938 -62.424999237060547 -122.949996948242188
-77.203102111816406 -61.519699096679688 -122.949996948242188
-64.577499389648438 -62.424999237060547 -122.949996948242188
-56.819499969482422 -62.424999237060547 -122.949996948242188
-94.639701843261719 -62.424999237060547 -123.349998474121094
-94.359397888183594 -62.424999237060547 -123.432998657226563
-93.406196594238281 -62.424999237060547 -123.475997924804688
-82.870697021484375 -62.424999237060547 -123.349998474121094
-76.474998474121094 -62.424999237060547 -123.349998474121094
-77.203102111816406 -61.642601013183594 -123.349998474121094
-66.886901855468750 -62.424999237060547 -123.349998474121094
-64.580703735351563 -62.424999237060547 -123.349998474121094
-56.777099609375000 -62.424999237060547 -123.349998474121094
-54.464900970458984 -62.424999237060547 -123.349998474121094
-82.723701477050781 -62.424999237060547 -123.750000000000000
-66.680603027343750 -62.424999237060547 -123.750000000000000
-64.440597534179688 -62.424999237060547 -123.750000000000000
-76.435302734375000 -62.424999237060547 -124.150001525878906
-77.203102111816406 -61.660701751708984 -124.150001525878906
-64.302398681640625 -62.424999237060547 -124.150001525878906
-56.389499664306641 -62.424999237060547 -124.150001525878906
-54.005599975585938 -62.424999237060547 -124.150001525878906
36.218799591064453 -61.691799163818359 -124.150001525878906
-82.434997558593750 -62.424999237060547 -124.550003051757813
-76.483200073242188 -62.424999237060547 -124.550003051757813
-77.203102111816406 -61.723701477050781 -124.550003051757813
-64.250701904296875 -62.424999237060547 -124.550003051757813
-53.891498565673828 -62.424999237060547 -124.550003051757813
35.265598297119141 -61.699199676513672 -124.550003051757813
36.218799591064453 -61.938701629638672 -124.550003051757813
37.171901702880859 -61.818500518798828 -124.550003051757813
-82.111198425292969 -62.424999237060547 -124.949996948242188
-66.339698791503906 -62.424999237060547 -124.949996948242188
-56.234401702880859 -61.471900939941406 -124.949996948242188
35.265598297119141 -61.877201080322266 -124.949996948242188
36.218799591064453 -61.954898834228516 -124.949996948242188
-81.877700805664063 -62.424999237060547 -125.349998474121094
-77.203102111816406 -61.688098907470703 -125.349998474121094
-63.977798461914063 -62.424999237060547 -125.349998474121094
-55.918098449707031 -62.424999237060547 -125.349998474121094
34.312500000000000 -61.773899078369141 -125.349998474121094
35.265598297119141 -62.050598144531250 -125.349998474121094
36.218799591064453 -62.028198242187500 -125.349998474121094
37.171901702880859 -61.732398986816406 -125.349998474121094
-81.786102294921875 -62.424999237060547 -125.750000000000000
-81.015602111816406 -61.485801696777344 -125.750000000000000
-66.027702331542969 -62.424999237060547 -125.750000000000000
-63.906700134277344 -62.424999237060547 -125.750000000000000
34.312500000000000 -62.074401855468750 -125.750000000000000
35.265598297119141 -62.167198181152344 -125.750000000000000
36.218799591064453 -62.084598541259766 -125.750000000000000
37.171901702880859 -61.667198181152344 -125.750000000000000
-81.585899353027344 -62.424999237060547 -126.150001525878906
-81.015602111816406 -61.606399536132813 -126.150001525878906
-65.813796997070313 -62.424999237060547 -126.150001525878906
-63.650699615478516 -62.424999237060547 -126.150001525878906
-55.767200469970703 -62.424999237060547 -126.150001525878906
33.359401702880859 -61.813598632812500 -126.150001525878906
37.171901702880859 -61.508899688720703 -126.150001525878906
-81.289596557617188 -62.424999237060547 -126.550003051757813
-81.015602111816406 -62.424999237060547 -126.857002258300781
-76.591499328613281 -62.424999237060547 -126.550003051757813
-77.203102111816406 -61.847099304199219 -126.550003051757813
-65.562500000000000 -62.424999237060547 -126.550003051757813
-63.402099609375000 -62.424999237060547 -126.550003051757813
-55.600898742675781 -62.424999237060547 -126.550003051757813
-53.241401672363281 -62.424999237060547 -126.550003051757813
33.359401702880859 -62.086601257324219 -126.550003051757813
34.312500000000000 -62.227600097656250 -126.550003051757813
36.218799591064453 -62.066699981689453 -126.550003051757813
-80.062500000000000 -61.513599395751953 -126.949996948242188
-78.156196594238281 -61.477199554443359 -126.949996948242188
-76.781600952148438 -62.424999237060547 -126.949996948242188
-77.203102111816406 -61.977600097656250 -126.949996948242188
-55.524501800537109 -62.424999237060547 -126.949996948242188
-53.375000000000000 -61.897399902343750 -126.949996948242188
32.406200408935547 -61.909500122070313 -126.949996948242188
33.359401702880859 -62.253601074218750 -126.949996948242188
34.312500000000000 -62.314201354980469 -126.949996948242188
35.265598297119141 -62.247200012207031 -126.949996948242188
-80.611297607421875 -62.424999237060547 -127.349998474121094
-80.062500000000000 -61.737300872802734 -127.349998474121094
-77.157203674316406 -62.424999237060547 -127.349998474121094
-65.394302368164063 -62.424999237060547 -127.349998474121094
-63.177200317382813 -62.424999237060547 -127.349998474121094
-55.336898803710938 -62.424999237060547 -127.349998474121094
-52.972301483154297 -62.424999237060547 -127.349998474121094
32.406200408935547 -62.109500885009766 -127.349998474121094
33.359401702880859 -62.303001403808594 -127.349998474121094
35.265598297119141 -62.243801116943359 -127.349998474121094
36.218799591064453 -61.931999206542969 -127.349998474121094
-80.238998413085938 -62.424999237060547 -127.750000000000000
-80.062500000000000 -62.144699096679688 -127.750000000000000
-79.109397888183594 -61.515598297119141 -127.750000000000000
-78.156196594238281 -61.608001708984375 -127.750000000000000
-55.172798156738281 -62.424999237060547 -127.750000000000000
-52.812000274658203 -62.424999237060547 -127.750000000000000
31.453100204467773 -61.905601501464844 -127.750000000000000
32.406200408935547 -62.275100708007813 -127.750000000000000
33.359401702880859 -62.424999237060547 -127.932998657226563
34.312500000000000 -62.362300872802734 -127.750000000000000
36.218799591064453 -61.703498840332031 -127.750000000000000
-79.109397888183594 -61.620800018310547 -128.149993896484375
-77.463996887207031 -62.424999237060547 -128.149993896484375
-78.156196594238281 -61.747001647949219 -128.149993896484375
-62.768001556396484 -62.424999237060547 -128.149993896484375
31.453100204467773 -62.206401824951172 -128.149993896484375
35.265598297119141 -62.193500518798828 -128.149993896484375
-79.401496887207031 -62.424999237060547 -128.550003051757813
-79.109397888183594 -62.424999237060547 -128.718994140625000
-79.109397888183594 -62.039699554443359 -128.550003051757813
-78.156196594238281 -62.424999237060547 -128.766006469726563
-78.156196594238281 -62.117500305175781 -128.550003051757813
-64.746398925781250 -62.424999237060547 -128.550003051757813
-55.061599731445313 -62.424999237060547 -128.550003051757813
-52.716701507568359 -62.424999237060547 -128.550003051757813
30.500000000000000 -61.762901306152344 -128.550003051757813
31.914300918579102 -62.424999237060547 -128.550003051757813
31.453100204467773 -62.324798583984375 -128.550003051757813
34.225898742675781 -62.424999237060547 -128.550003051757813
35.265598297119141 -62.154899597167969 -128.550003051757813
-64.547096252441406 -62.424999237060547 -128.949996948242188
-62.342601776123047 -62.424999237060547 -128.949996948242188
-54.966701507568359 -62.424999237060547 -128.949996948242188
-55.281200408935547 -61.646198272705078 -128.949996948242188
30.500000000000000 -62.187599182128906 -128.949996948242188
34.173698425292969 -62.424999237060547 -128.949996948242188
35.265598297119141 -62.058998107910156 -128.949996948242188
29.546899795532227 -61.645198822021484 -129.350006103515625
34.312500000000000 -62.365898132324219 -129.350006103515625
35.265598297119141 -61.864299774169922 -129.350006103515625
-64.310897827148438 -62.424999237060547 -129.750000000000000
-62.098999023437500 -62.424999237060547 -129.750000000000000
29.546899795532227 -62.093700408935547 -129.750000000000000
34.108200073242188 -62.424999237060547 -129.750000000000000
35.265598297119141 -61.712299346923828 -129.750000000000000
-63.859401702880859 -62.424999237060547 -130.304000854492188
-61.706501007080078 -62.424999237060547 -130.149993896484375
-54.846099853515625 -62.424999237060547 -130.149993896484375
-55.281200408935547 -61.582199096679688 -130.149993896484375
29.577100753784180 -62.424999237060547 -130.149993896484375
33.935798645019531 -62.424999237060547 -130.149993896484375
34.312500000000000 -62.239398956298828 -130.149993896484375
-63.731601715087891 -62.424999237060547 -130.550003051757813
-54.793899536132813 -62.424999237060547 -130.550003051757813
-55.281200408935547 -61.540699005126953 -130.550003051757813
-52.421901702880859 -62.242198944091797 -130.550003051757813
28.934099197387695 -62.424999237060547 -130.550003051757813
-63.630401611328125 -62.424999237060547 -130.949996948242188
-61.384300231933594 -62.424999237060547 -130.949996948242188
28.621799468994141 -62.424999237060547 -130.949996948242188
33.359401702880859 -62.424999237060547 -131.294998168945313
34.312500000000000 -61.993198394775391 -130.949996948242188
-61.148601531982422 -62.424999237060547 -131.350006103515625
28.005500793457031 -62.424999237060547 -131.350006103515625
27.640600204467773 -61.786399841308594 -131.350006103515625
34.312500000000000 -61.481498718261719 -131.350006103515625
-63.184200286865234 -62.424999237060547 -131.750000000000000
-60.813800811767578 -62.424999237060547 -131.750000000000000
-55.281200408935547 -61.712100982666016 -131.750000000000000
-52.050800323486328 -62.424999237060547 -131.750000000000000
27.668800354003906 -62.424999237060547 -131.750000000000000
33.359401702880859 -62.287200927734375 -131.750000000000000
-62.906200408935547 -62.249401092529297 -132.149993896484375
-60.601299285888672 -62.424999237060547 -132.149993896484375
-55.281200408935547 -61.926101684570313 -132.149993896484375
-52.096599578857422 -62.424999237060547 -132.149993896484375
27.067699432373047 -62.424999237060547 -132.149993896484375
33.359401702880859 -62.218700408935547 -132.149993896484375
-62.678600311279297 -62.424999237060547 -132.550003051757813
-60.270801544189453 -62.424999237060547 -132.550003051757813
26.761100769042969 -62.424999237060547 -132.550003051757813
32.947898864746094 -62.424999237060547 -132.550003051757813
-62.496898651123047 -62.424999237060547 -132.949996948242188
-55.281200408935547 -62.059299468994141 -132.949996948242188
-52.011299133300781 -62.424999237060547 -132.949996948242188
26.210899353027344 -62.424999237060547 -132.949996948242188
32.648200988769531 -62.424999237060547 -132.949996948242188
-62.399700164794922 -62.424999237060547 -133.350006103515625
-61.953098297119141 -61.538101196289063 -133.350006103515625
-59.767398834228516 -62.424999237060547 -133.350006103515625
-59.093799591064453 -61.665699005126953 -133.350006103515625
-56.234401702880859 -61.688201904296875 -133.350006103515625
-52.112098693847656 -62.424999237060547 -133.350006103515625
25.872699737548828 -62.424999237060547 -133.350006103515625
32.379199981689453 -62.424999237060547 -133.350006103515625
-61.963699340820313 -62.424999237060547 -133.750000000000000
-59.295600891113281 -62.424999237060547 -133.750000000000000
-59.093799591064453 -62.206401824951172 -133.750000000000000
-58.140598297119141 -61.677200317382813 -133.750000000000000
-57.187500000000000 -61.612300872802734 -133.750000000000000
-56.234401702880859 -61.918498992919922 -133.750000000000000
-55.246799468994141 -62.424999237060547 -133.750000000000000
25.498300552368164 -62.424999237060547 -133.750000000000000
32.248401641845703 -62.424999237060547 -133.750000000000000
-61.727001190185547 -62.424999237060547 -134.149993896484375
-58.140598297119141 -61.983798980712891 -134.149993896484375
-55.433300018310547 -62.424999237060547 -134.149993896484375
-56.234401702880859 -62.052200317382813 -134.149993896484375
-52.031200408935547 -62.424999237060547 -134.149993896484375
25.048000335693359 -62.424999237060547 -134.149993896484375
-61.599899291992188 -62.424999237060547 -134.550003051757813
-58.516899108886719 -62.424999237060547 -134.550003051757813
-58.140598297119141 -62.205001831054688 -134.550003051757813
-57.187500000000000 -62.132801055908203 -134.550003051757813
-56.234401702880859 -62.424999237060547 -134.690002441406250
-53.375000000000000 -61.492298126220703 -134.550003051757813
-52.421901702880859 -62.291599273681641 -134.550003051757813
24.799200057983398 -62.424999237060547 -134.550003051757813
31.809799194335938 -62.424999237060547 -134.550003051757813
31.453100204467773 -62.424999237060547 -134.912994384765625
-61.175598144531250 -62.424999237060547 -134.949996948242188
24.267200469970703 -62.424999237060547 -134.949996948242188
-60.798999786376953 -62.424999237060547 -135.350006103515625
-60.046901702880859 -61.479099273681641 -135.350006103515625
-53.375000000000000 -61.656898498535156 -135.350006103515625
-52.388198852539063 -62.424999237060547 -135.350006103515625
23.986099243164063 -62.424999237060547 -135.350006103515625
23.828100204467773 -62.424999237060547 -135.658004760742188
31.269500732421875 -62.424999237060547 -135.350006103515625
-60.678100585937500 -62.424999237060547 -135.750000000000000
-60.046901702880859 -61.697399139404297 -135.750000000000000
-53.375000000000000 -61.852001190185547 -135.750000000000000
23.653900146484375 -62.424999237060547 -135.750000000000000
-60.221900939941406 -62.424999237060547 -136.149993896484375
23.230699539184570 -62.424999237060547 -136.149993896484375
30.824600219726563 -62.424999237060547 -136.149993896484375
30.500000000000000 -62.424999237060547 -136.376998901367188
-59.721599578857422 -62.424999237060547 -136.550003051757813
-59.093799591064453 -61.859901428222656 -136.550003051757813
-54.328098297119141 -61.709098815917969 -136.550003051757813
-52.965099334716797 -62.424999237060547 -136.550003051757813
-53.375000000000000 -62.121398925781250 -136.550003051757813
23.009799957275391 -62.424999237060547 -136.550003051757813
22.875000000000000 -62.424999237060547 -136.848999023437500
-59.526199340820313 -62.424999237060547 -136.949996948242188
-59.093799591064453 -62.424999237060547 -137.188995361328125
-59.093799591064453 -62.048400878906250 -136.949996948242188
-58.140598297119141 -61.625099182128906 -136.949996948242188
-55.281200408935547 -61.589900970458984 -136.949996948242188
-54.328098297119141 -61.857398986816406 -136.949996948242188
-53.375000000000000 -62.424999237060547 -136.949996948242188
30.208000183105469 -62.424999237060547 -136.949996948242188
-58.140598297119141 -62.027198791503906 -137.350006103515625
-56.234401702880859 -61.764400482177734 -137.350006103515625
22.323699951171875 -62.424999237060547 -137.350006103515625
22.875000000000000 -61.546298980712891 -137.350006103515625
30.092199325561523 -62.424999237060547 -137.350006103515625
29.546899795532227 -62.424999237060547 -137.701995849609375
-57.187500000000000 -62.129199981689453 -137.750000000000000
-56.234401702880859 -62.025501251220703 -137.750000000000000
-54.753601074218750 -62.424999237060547 -137.750000000000000
-55.281200408935547 -62.188598632812500 -137.750000000000000
21.921899795532227 -62.424999237060547 -138.126007080078125
-56.234401702880859 -62.245201110839844 -138.149993896484375
-55.240699768066406 -62.424999237060547 -138.149993896484375
29.298799514770508 -62.424999237060547 -138.149993896484375
21.472700119018555 -62.424999237060547 -138.550003051757813
29.149400711059570 -62.424999237060547 -138.550003051757813
28.593799591064453 -62.424999237060547 -138.923004150390625
21.201099395751953 -62.424999237060547 -138.949996948242188
21.921899795532227 -61.498298645019531 -138.949996948242188
21.032400131225586 -62.424999237060547 -139.350006103515625
28.364200592041016 -62.424999237060547 -139.350006103515625
20.848600387573242 -62.424999237060547 -139.750000000000000
28.066999435424805 -62.424999237060547 -139.750000000000000
20.416299819946289 -62.424999237060547 -140.149993896484375
20.225700378417969 -62.424999237060547 -140.550003051757813
20.968799591064453 -61.644599914550781 -140.550003051757813
27.378200531005859 -62.424999237060547 -140.550003051757813
26.687500000000000 -62.424999237060547 -141.063003540039063
19.929700851440430 -62.424999237060547 -141.350006103515625
20.968799591064453 -61.507701873779297 -141.350006103515625
26.528200149536133 -62.424999237060547 -141.350006103515625
19.579299926757813 -62.424999237060547 -141.750000000000000
20.015600204467773 -62.001399993896484 -141.750000000000000
20.968799591064453 -61.475799560546875 -141.750000000000000
26.235200881958008 -62.424999237060547 -141.750000000000000
19.494400024414063 -62.424999237060547 -142.149993896484375
20.015600204467773 -61.963001251220703 -142.149993896484375
25.620500564575195 -62.424999237060547 -142.149993896484375
24.781200408935547 -61.481201171875000 -142.149993896484375
19.358200073242188 -62.424999237060547 -142.550003051757813
20.015600204467773 -61.830600738525391 -142.550003051757813
25.401699066162109 -62.424999237060547 -142.550003051757813
24.781200408935547 -61.753898620605469 -142.550003051757813
20.015600204467773 -61.786399841308594 -142.949996948242188
20.968799591064453 -61.538600921630859 -142.949996948242188
23.828100204467773 -61.605998992919922 -142.949996948242188
20.015600204467773 -61.833301544189453 -143.350006103515625
24.388500213623047 -62.424999237060547 -143.350006103515625
23.828100204467773 -61.868099212646484 -143.350006103515625
20.968799591064453 -61.650199890136719 -143.750000000000000
21.921899795532227 -61.606399536132813 -143.750000000000000
22.875000000000000 -61.715000152587891 -143.750000000000000
20.015600204467773 -61.871299743652344 -144.149993896484375
20.968799591064453 -61.726398468017578 -144.149993896484375
21.921899795532227 -61.745601654052734 -144.149993896484375
22.875000000000000 -62.121101379394531 -144.149993896484375
21.921899795532227 -62.004699707031250 -144.550003051757813
19.649000167846680 -62.424999237060547 -144.949996948242188
20.015600204467773 -62.424999237060547 -145.184997558593750
20.015600204467773 -62.198101043701172 -144.949996948242188
20.968799591064453 -62.424999237060547 -145.201004028320313
20.968799591064453 -62.104999542236328 -144.949996948242188
-148.688003540039063 -62.424999237060547 -175.824005126953125
-147.733993530273438 -62.424999237060547 -175.791000366210938
-146.781005859375000 -62.424999237060547 -175.854003906250000
-145.828002929687500 -62.424999237060547 -176.037002563476563
-149.904006958007813 -62.424999237060547 -176.149993896484375
-149.641006469726563 -62.225200653076172 -176.149993896484375
-148.688003540039063 -61.851501464843750 -176.149993896484375
-147.733993530273438 -61.793598175048828 -176.149993896484375
-146.781005859375000 -61.948398590087891 -176.149993896484375
-149.641006469726563 -62.243900299072266 -176.550003051757813
-148.688003540039063 -61.784400939941406 -176.550003051757813
-145.828002929687500 -61.830600738525391 -176.550003051757813
-144.630004882812500 -62.424999237060547 -176.550003051757813
-149.932006835937500 -62.424999237060547 -176.949996948242188
-149.641006469726563 -62.148601531982422 -176.949996948242188
