# This PCD file was generated using the MATLAB® pcwrite function
# from Computer Vision Toolbox®.
# .PCD v.7 - Point Cloud Data file format
VERSION .7
FIELDS x y z
SIZE 4 4 4
TYPE F F F
COUNT 1 1 1
WIDTH 1424
HEIGHT 1
VIEWPOINT 0 0 0 1 0 0 0
POINTS 1424
DATA ascii
-43.572250 -71.870583 -288.524841
-60.895283 -27.937738 -88.371605
27.893597 -79.570282 -171.522888
-38.225269 -78.470879 -161.334091
-78.136604 -66.110382 -107.019562
30.305223 -57.386482 -129.431076
-98.131561 -61.500561 -66.829292
-65.381409 -78.181129 -246.776901
-80.810844 -61.353268 -115.179764
-108.748405 -64.914497 -199.105423
38.421730 -70.201942 -133.365891
95.131302 -68.918007 -103.241737
-71.886787 -68.996529 -138.165817
27.856176 -74.490547 -169.450333
-26.257420 -78.930321 -184.885971
12.795002 -59.832756 -241.931747
-34.427254 -49.969749 -65.031906
-19.940331 -79.078224 -223.123581
105.427887 -69.324684 -113.686813
-64.865295 -86.297745 -94.471703
-53.776318 -84.926651 -90.297165
-82.260567 -25.718380 -100.653725
-73.267769 -55.433220 -99.684219
96.515457 -70.513107 -101.075851
-125.829811 -68.099800 -263.009857
-53.440056 -60.823387 -77.496117
-147.200165 -73.986679 -235.034714
-148.738342 -65.900482 -220.870178
11.434347 -72.459183 -236.875000
26.616493 -61.439968 -269.670685
-10.726840 -50.289291 -246.079727
16.259907 -82.051468 -248.855164
-37.047005 -78.128296 -239.465622
50.022606 -71.020973 -243.858368
97.637070 -51.403164 -64.670784
-153.194092 -61.011463 -231.352661
-44.051373 -67.626205 -154.818527
114.909660 -69.039871 -146.173950
41.779579 -57.553226 -114.617218
113.861229 -73.431511 -140.161667
-114.653358 -72.858253 -288.140137
41.395664 -74.430695 -108.788445
24.387947 -71.057930 -139.103210
-134.993057 -67.776817 -264.143738
-65.833633 -64.456749 -96.779518
74.575317 -54.681660 -79.587852
-146.314178 -72.077087 -218.711319
-36.280380 -42.945267 -56.789017
-33.581917 -83.405983 -187.425873
47.091381 -71.523270 -97.605049
-75.905243 -83.154114 -83.747238
-155.153488 -75.687927 -284.619293
-18.979609 -56.376831 -248.482971
104.907654 -43.024612 -96.936752
-23.465782 -76.701187 -195.013290
-133.970612 -79.774048 -258.294098
-63.680180 -71.888954 -159.025787
29.009836 -56.240089 -34.007538
34.505630 -66.707405 -17.176029
66.977219 -69.044456 -83.013695
104.870575 -43.765697 -82.079155
-76.490608 -85.012360 -101.413216
-54.310841 -80.562508 -206.317459
-133.035217 -64.430206 -262.275482
-133.082016 -65.239700 -197.366119
63.878456 -68.135971 -91.398392
84.663986 -70.457069 -219.086685
-28.293413 -70.586823 -77.671249
28.119627 -78.731033 -148.599609
-144.813370 -67.329666 -220.791534
28.643097 -70.624542 -39.173752
33.499409 -76.355980 -125.128532
27.313797 -63.979885 -263.918274
35.703735 -69.981712 -40.856911
41.984310 -63.670124 -14.651074
-68.694321 -74.782028 -147.191162
-87.492714 -75.566582 -252.383362
-39.841358 -81.942734 -82.614525
69.043831 -63.802395 -102.077217
-83.450203 -40.079041 -50.060005
-92.678963 -52.004723 -121.002892
-150.391006 -84.193741 -260.046570
-48.992577 -66.001427 -140.736359
-26.028423 -69.543419 -188.571320
103.767242 -54.118164 -96.370369
60.039417 -50.075470 -83.804764
47.538429 -68.437454 -253.834961
30.592279 -68.704865 -145.501740
-31.014608 -53.395859 -63.039169
5.046508 -81.830078 -276.133331
-133.943466 -67.019760 -193.684143
88.997200 -57.225964 -109.064415
-11.671408 -67.554619 -59.882717
110.196869 -72.521210 -160.151901
-66.053993 -56.486755 -69.551430
-40.946426 -73.134430 -170.621918
78.999237 -61.119057 -108.628044
-11.734518 -75.325294 -250.316299
-82.208611 -16.503273 -82.674583
111.240715 -72.003883 -117.924240
-48.144905 -75.829643 -54.469395
-115.360931 -64.822495 -197.413483
-98.550644 -71.788445 -254.883850
8.624176 -77.184441 -245.961807
-94.436440 -71.005241 -78.888992
-155.264862 -64.764740 -291.841125
99.187332 -70.346008 -197.304901
-157.085022 -69.700554 -262.469543
33.689503 -51.031769 -37.005123
104.244576 -44.743176 -82.563614
-77.397362 -77.513756 -216.949966
-48.990116 -56.510181 -78.165947
-136.164795 -70.889915 -285.448395
23.416887 -71.072815 -269.070587
62.917084 -49.053940 -73.226845
-58.281952 -35.402164 -55.990864
78.816513 -53.970493 -79.797974
106.702164 -73.635483 -167.591705
16.764690 -71.007652 -149.383133
69.005493 -47.711895 -98.954521
-108.035332 -66.783783 -261.749054
-148.792633 -60.522655 -225.721664
-74.133774 -49.851387 -99.237953
-141.761093 -69.515114 -222.625748
5.857556 -53.725712 -242.352875
-72.444603 -74.543159 -152.017532
-154.712509 -68.193710 -231.941727
-7.580158 -53.727814 -240.718842
71.410736 -73.113838 -92.046982
-11.063597 -70.215729 -230.326248
-150.273560 -60.489227 -205.736069
81.957985 -45.749401 -106.807526
29.669233 -71.256363 -139.838120
-95.839622 -34.062454 -62.599941
62.265755 -72.479515 -242.293182
11.422831 -74.591103 -198.914261
-23.528847 -47.454491 -54.332203
19.067570 -68.218445 -279.629761
48.571541 -49.681805 -22.751225
35.316803 -71.128777 -135.889694
-141.725479 -67.876328 -233.136444
16.380455 -71.101730 -153.258743
-90.092667 -64.673134 -55.314995
-35.565491 -57.650246 -73.128716
95.519981 -75.936821 -210.669937
-146.805710 -61.520168 -201.695847
16.058064 -63.000431 -142.043381
-28.526144 -77.008553 -70.585335
-55.667606 -44.967632 -78.321075
30.994091 -66.593636 -261.939392
-12.015683 -66.442268 -64.938530
-142.302322 -62.276299 -286.374054
13.798748 -68.253540 -198.884918
-21.207663 -72.712097 -225.548630
-16.641806 -70.165009 -230.011047
67.295944 -48.364727 -103.036461
-29.166861 -79.948952 -210.859207
109.368858 -74.474861 -157.981079
-45.902100 -78.998779 -192.224030
96.828224 -72.563210 -99.748985
105.455917 -46.850883 -69.510872
-95.089859 -71.638435 -90.621979
-10.652552 -79.292068 -214.130203
-59.483204 -76.801262 -53.455864
-79.491692 -73.478134 -214.554398
-59.844288 -78.240067 -66.558838
-155.590775 -63.750690 -262.271667
72.283241 -47.389450 -63.376751
31.665407 -80.153061 -145.911987
15.946296 -70.622002 -207.480438
-26.314337 -79.181923 -214.002625
3.144746 -85.679688 -262.824249
4.977342 -74.917854 -233.120468
74.594315 -48.579693 -106.807671
45.172989 -76.879021 -112.802406
-69.188271 -63.926350 -103.377281
-64.117393 -70.938179 -93.503990
63.876675 -58.868511 -73.252213
110.244415 -73.046532 -184.196976
-137.633865 -77.815765 -255.174210
-61.794827 -34.367695 -54.639713
56.405235 -68.765274 -245.221268
-14.117999 -70.080650 -273.209534
-101.765686 -72.296700 -258.097809
10.408421 -68.851280 -244.851654
99.280533 -50.355309 -90.943481
83.410820 -43.071682 -66.753998
-155.220032 -64.622704 -293.354919
-24.426401 -79.455482 -195.820816
116.941193 -72.811989 -153.839081
-3.196772 -71.466942 -289.817047
33.723785 -72.671806 -17.167831
-23.001226 -46.965485 -53.545002
-134.988495 -83.765030 -228.086426
-153.021179 -69.098465 -203.141083
-84.936073 -69.144691 -252.999298
-39.106842 -52.976170 -79.423386
100.136299 -74.278656 -98.254318
94.799538 -46.299690 -69.312195
63.801525 -71.263069 -86.559105
-87.683868 -66.714767 -112.721428
76.535187 -69.082787 -67.366653
-75.093262 -65.793076 -126.919724
-160.130035 -70.873688 -292.186829
-168.858749 -69.734512 -235.387680
-16.865171 -69.469551 -207.494705
-40.983261 -45.787296 -76.080269
-150.054901 -76.952080 -203.754166
-94.658569 -69.808105 -257.391846
-74.149902 -67.822334 -108.916183
-124.097221 -73.697266 -261.394226
-99.282829 -65.447685 -161.496002
-76.146194 -61.627636 -124.968620
-4.976350 -51.632359 -279.363129
-150.394241 -77.891418 -235.974640
94.432877 -76.880424 -91.863785
14.530190 -71.463318 -233.569305
75.177055 -75.017105 -231.111694
34.166328 -61.292496 -39.583904
-145.599045 -59.603386 -196.259995
-116.982307 -66.719200 -262.073425
-145.784973 -73.829178 -282.186859
66.821640 -52.694839 -96.771637
28.385290 -58.368309 -131.628220
8.200523 -50.975105 -286.303284
7.257858 -77.226768 -208.320007
43.854050 -57.426926 -24.583851
-158.394882 -71.958984 -296.761292
-14.624679 -71.739021 -249.328415
-144.988846 -68.943756 -265.958191
-12.104332 -50.867466 -247.884781
-31.729328 -77.796829 -212.947784
-122.945488 -72.842064 -225.888382
-115.630066 -68.347572 -288.899384
-150.766388 -61.085056 -205.908737
-37.459953 -77.494133 -153.686752
114.300957 -70.236061 -117.537460
-73.088043 -61.819153 -101.712158
44.498055 -69.334740 -39.447006
-79.794380 -81.611694 -82.177567
47.910374 -54.719391 -116.561676
-21.573576 -79.231560 -241.035950
-114.939110 -73.455238 -261.619598
-149.630890 -69.830086 -187.350143
26.701101 -55.245609 -269.099518
24.675823 -71.349174 -155.362839
45.710129 -68.187996 -112.738457
-60.031685 -40.605354 -51.595444
62.100620 -48.254158 -88.723099
-0.165147 -73.790749 -237.497635
-81.366936 -80.710518 -83.204445
31.723291 -77.958832 -143.095016
103.307167 -43.253815 -83.589989
-154.251511 -62.373714 -263.745941
15.898260 -82.998955 -255.646942
-151.973206 -85.364548 -286.450256
51.073345 -66.057060 -99.549843
-61.434120 -68.188705 -129.970993
115.370354 -72.432648 -140.732269
-30.174240 -73.265549 -189.976624
0.977495 -67.373085 -234.277618
7.929981 -71.770882 -208.233017
16.048758 -55.774551 -241.113953
84.002792 -45.169590 -70.546333
114.538498 -73.916992 -130.511841
83.588020 -54.203003 -57.606091
14.468036 -65.359077 -208.737213
-6.805479 -68.252708 -223.583939
44.373772 -50.452049 -22.807396
-142.042557 -62.440586 -258.719330
-5.749734 -67.917091 -273.057770
-15.435456 -57.169388 -255.517227
-2.601082 -84.127548 -258.569031
109.646797 -70.099037 -169.931686
-78.728516 -64.569092 -111.423622
87.219460 -55.544674 -84.326622
-16.963037 -56.042984 -61.564838
96.971420 -44.554382 -66.483559
15.419261 -54.603691 -279.447113
-74.387047 -72.008560 -143.109924
68.394943 -55.309906 -95.141281
-48.190617 -84.566063 -78.194511
-71.078331 -53.893730 -115.580635
-22.012915 -78.975319 -290.075043
21.878157 -76.852455 -266.904602
-52.773491 -76.577980 -148.272827
-49.596146 -76.486809 -87.819580
-150.860611 -69.495987 -295.268250
-78.758484 -68.756020 -99.318367
15.487160 -66.472580 -288.420929
-81.149643 -37.056381 -50.915337
-104.545044 -73.049721 -290.927582
-101.023224 -68.141457 -165.969238
66.878815 -64.732880 -100.166412
-38.419285 -74.574677 -242.698425
-143.737366 -71.671753 -294.602356
-66.645393 -72.771126 -285.672943
-82.369240 -73.602631 -212.406357
28.661495 -70.383232 -21.754456
-8.222290 -68.628555 -220.872757
-78.159134 -68.392189 -139.898346
-144.296967 -77.949944 -283.673981
-149.002457 -83.132240 -225.001495
79.447258 -75.115639 -230.094574
-160.434998 -71.949791 -287.500275
5.757904 -75.722481 -239.429138
-68.794373 -73.099899 -159.241318
81.840553 -45.528496 -97.258087
-95.797470 -62.294540 -66.746986
105.614326 -68.180084 -103.068092
-155.873260 -72.727028 -301.174164
95.694435 -55.620293 -98.922455
116.346237 -74.565666 -158.086197
-136.587387 -77.602783 -200.030045
-0.029943 -51.065845 -265.992706
-29.193363 -74.197273 -284.871704
-63.662453 -49.544926 -54.882603
-15.380968 -72.781242 -231.390198
-10.961102 -76.786064 -287.899261
12.126440 -56.137592 -286.886230
-6.646737 -72.374016 -234.171997
-145.826157 -62.001854 -187.657455
-108.444778 -65.766479 -166.511078
9.475250 -79.928185 -214.547607
19.478029 -69.165367 -190.829559
86.907768 -44.585869 -58.629230
0.447289 -63.854465 -284.673370
-133.094696 -64.420563 -258.461304
2.558920 -78.095261 -238.667404
22.756325 -53.240204 -31.932219
-85.897133 -68.494812 -133.104294
-59.331673 -56.383259 -110.797043
13.074583 -84.157440 -246.042175
-58.458866 -24.572647 -68.938301
44.433926 -71.309235 -102.899925
-133.579163 -71.665787 -294.515747
104.679115 -43.908508 -98.624077
-85.139542 -63.593945 -126.076965
26.212505 -64.930153 -37.939659
-102.340378 -73.337158 -222.427689
-29.801308 -78.513763 -205.933182
106.751450 -67.582443 -108.892212
-40.332516 -71.736145 -154.908524
-5.070184 -50.465954 -243.143997
-73.507835 -67.628426 -141.862900
28.374899 -71.085197 -169.708328
11.926636 -79.999214 -202.596863
-52.283535 -79.105835 -185.702347
-11.277100 -51.979694 -251.476715
-86.242798 -60.984108 -114.487541
-72.128021 -75.953392 -148.825195
98.537857 -67.194458 -103.003571
-80.615356 -61.088100 -111.566986
-142.681702 -71.490433 -232.771545
1.437901 -66.350204 -239.628845
-162.080215 -69.228325 -272.459747
-31.102579 -49.793556 -51.830414
72.614693 -74.432625 -96.809280
80.732864 -72.605057 -69.299553
-15.211671 -46.530499 -54.009804
-60.089706 -57.493443 -131.435043
-67.161171 -28.779495 -57.270489
-91.390244 -57.597149 -121.993729
-100.294327 -32.468483 -79.235207
-82.965698 -67.249382 -52.109253
-152.409378 -63.107178 -178.610260
-79.063522 -43.702698 -47.049992
-0.770203 -74.635483 -237.405441
-141.931625 -64.451698 -254.933838
-99.000473 -44.077324 -92.151367
52.541580 -72.916824 -90.689293
-68.412964 -72.696320 -159.224564
-144.642258 -83.540817 -217.684296
109.381378 -68.619431 -99.770027
-29.203979 -74.192841 -172.260437
78.653000 -67.555305 -62.780697
15.048006 -49.992603 -293.947144
-42.850643 -57.520908 -46.975143
-73.500763 -70.699005 -149.802368
21.010519 -67.302795 -185.312912
6.925262 -64.830376 -239.852829
-148.647736 -72.652679 -215.354736
75.645218 -50.651661 -107.684341
-144.118164 -69.665924 -292.826050
102.817741 -61.248112 -97.289360
77.387329 -48.838398 -67.992111
-88.571754 -74.157768 -287.212708
-48.494141 -41.571892 -76.361099
-18.842381 -75.103767 -191.116806
-92.628868 -62.653229 -146.258835
-149.201721 -60.641697 -261.896423
-122.615677 -70.936623 -255.870758
12.285482 -55.594170 -290.513214
109.980919 -74.151596 -166.271454
-3.184412 -54.126480 -285.872711
-98.505974 -56.632515 -104.957787
33.334911 -76.023476 -117.943375
-148.424118 -79.302902 -307.036896
-134.259460 -66.178108 -234.465103
13.127205 -82.654999 -270.453278
-132.789215 -74.052338 -201.994415
-145.323074 -80.057411 -247.974182
-45.503498 -82.471870 -194.936188
-78.897453 -63.613186 -107.877739
-67.948135 -70.361008 -152.121078
4.522302 -62.763374 -261.183044
-120.908531 -69.547729 -197.264725
-8.665661 -79.300224 -220.986603
56.576988 -70.042114 -93.702797
43.668262 -78.426315 -123.689911
-80.761101 -17.573402 -78.663307
-99.228195 -63.259968 -76.318207
-51.606964 -73.953918 -138.882263
-150.240631 -61.429058 -196.318085
9.982339 -57.969955 -258.614014
29.102444 -51.900829 -251.595520
33.810776 -72.918907 -141.946945
-112.478638 -69.095398 -186.721817
-140.922333 -84.963005 -259.044342
-105.648613 -65.351250 -177.518768
-32.502140 -78.254204 -209.620316
-132.934830 -69.082230 -224.680801
-68.451622 -59.911655 -107.936890
-75.514534 -70.800415 -130.704834
-20.966784 -69.028503 -197.158310
-47.172394 -77.009979 -159.323746
49.054626 -74.335541 -97.510902
-145.083954 -80.544632 -293.937439
-68.596611 -76.914711 -286.369232
-113.881027 -68.054413 -290.876923
17.178955 -51.271030 -253.440826
-149.951828 -63.492687 -235.202377
-31.448414 -87.134628 -187.868240
-8.929217 -68.150185 -241.333679
23.627665 -50.525604 -279.466797
-45.590645 -62.082832 -81.191109
-67.677269 -20.982162 -88.108963
-67.533943 -77.031120 -60.362797
-149.428864 -64.978020 -292.275208
-98.855766 -48.031845 -66.719994
-152.829803 -70.641518 -279.217316
-73.909805 -55.778069 -108.953522
82.373917 -75.957321 -222.208908
15.542637 -54.172127 -277.118500
3.227815 -83.622635 -255.803833
42.644150 -62.241840 -25.548504
103.866356 -75.156990 -189.960220
14.338857 -79.102310 -224.118652
65.819893 -65.374420 -85.422218
22.854548 -49.597473 -284.611725
-42.295025 -68.255089 -79.009773
-66.465988 -75.120628 -162.585938
71.598984 -74.012833 -230.677231
8.986274 -68.335854 -198.490173
67.398689 -45.452801 -62.117935
79.921425 -78.843689 -91.947601
48.780235 -51.618164 -24.495472
-5.736820 -71.344116 -286.886139
-66.465103 -27.289740 -100.827850
-124.625237 -66.444824 -224.998917
-55.195011 -65.923149 -140.849854
-17.162085 -78.068588 -198.550934
-154.064148 -72.518463 -225.851822
77.351501 -45.025047 -59.392227
28.737877 -65.847641 -264.134094
-50.282021 -60.070972 -44.496037
4.746199 -69.612267 -157.261887
42.579414 -67.233078 -111.956512
-99.139839 -48.178505 -96.872993
-153.641663 -66.620575 -199.913132
28.953602 -69.688034 -145.319733
-65.392212 -54.830566 -68.459732
-145.473557 -69.055687 -244.086075
19.688263 -72.896812 -206.481491
-65.486084 -80.894760 -210.584579
-134.941299 -76.715492 -198.728806
-96.762611 -49.495644 -57.155544
-32.232609 -78.687943 -204.202988
93.405121 -55.325947 -94.629028
-147.421371 -77.813553 -295.898407
3.179236 -56.790489 -294.821655
-53.250893 -70.980873 -290.110626
6.070518 -63.072056 -240.131577
21.355045 -57.029686 -274.581268
-105.673820 -75.112816 -257.511353
-139.800232 -69.917969 -202.241821
100.438736 -56.823402 -67.464363
24.363340 -52.056503 -267.736359
-115.012947 -66.315605 -290.751221
-155.771851 -79.874733 -289.721802
48.461678 -69.581520 -253.375000
-77.550117 -52.491997 -113.108749
46.617828 -78.448204 -117.773788
-12.474018 -53.204823 -256.965363
-15.360624 -56.884056 -258.382721
-42.008724 -40.812538 -73.736778
81.104546 -44.903461 -78.378868
-133.057449 -64.177757 -226.922791
-19.329586 -58.256199 -260.830078
5.115143 -70.401756 -160.320663
-149.905014 -82.530098 -239.288971
-91.154503 -66.292061 -60.311623
-31.551434 -76.450371 -213.145828
98.018654 -56.435692 -108.264717
-85.485619 -69.494606 -252.639114
-11.966512 -52.831482 -250.808868
113.967720 -74.474838 -159.740234
-150.115601 -77.967720 -217.201782
31.389162 -68.001511 -17.237059
-98.825676 -70.251472 -223.865524
103.785316 -72.174179 -190.889969
104.537750 -63.369720 -74.719856
11.438325 -68.842941 -205.574753
56.820358 -68.311729 -240.493744
-154.754196 -79.327621 -285.518921
-84.325241 -66.349258 -131.632950
-95.299240 -65.576012 -143.881439
15.532910 -50.961456 -265.193970
34.482483 -73.092018 -37.244411
-10.844335 -79.321251 -217.829041
-46.917892 -75.774681 -289.143188
-101.808006 -70.644081 -254.758575
75.900932 -71.528465 -228.198303
17.872055 -77.617561 -171.127686
26.232948 -66.265076 -265.515350
-76.695686 -21.237150 -95.076469
65.702065 -51.613716 -96.531326
-140.744598 -75.305580 -258.761810
32.009945 -78.653679 -132.992508
-67.190903 -60.586151 -105.076736
-149.067444 -62.171993 -294.495880
54.649250 -61.690052 -89.282883
-24.582390 -78.008255 -191.328476
-10.827624 -63.852840 -65.217491
14.970450 -49.245060 -245.613754
68.445824 -51.297726 -60.355545
32.746109 -67.590012 -36.521229
78.118919 -43.350571 -69.269463
22.564701 -75.417839 -257.122162
-10.438480 -52.653820 -261.306366
-33.145123 -41.075310 -58.877003
-64.901703 -75.289726 -169.367798
-86.115082 -56.516808 -119.067368
105.721733 -76.499725 -182.438309
51.119343 -63.768959 -249.167313
34.995125 -79.029129 -118.234482
20.875767 -57.320805 -248.326202
65.498833 -49.484070 -84.888123
88.324821 -54.846592 -57.757774
-148.151413 -67.006073 -266.071899
-153.036102 -65.893982 -293.856537
-70.121399 -80.476189 -212.858780
76.916428 -55.116959 -98.502060
61.090042 -71.428131 -236.622009
23.203018 -67.795219 -172.379105
23.942123 -73.853165 -142.247971
-118.461479 -74.259941 -287.106750
-149.489883 -62.156799 -281.390228
-51.828350 -74.510902 -88.541565
23.121578 -78.227409 -187.167953
-43.994892 -73.309219 -150.263306
51.131794 -67.706696 -108.980934
3.402238 -60.446548 -289.671936
48.574089 -64.107689 -21.099209
49.892967 -71.043869 -249.171173
51.618126 -71.412865 -93.088661
-141.714951 -69.032631 -290.849792
-85.205742 -69.930733 -117.874146
-61.767094 -80.842964 -167.544052
-116.712090 -70.917122 -194.435364
21.561543 -62.283653 -245.853333
-79.669128 -70.705582 -100.979141
23.092915 -61.057217 -34.523045
-46.426731 -71.160461 -145.195755
49.649593 -77.947197 -103.101601
-145.934372 -87.323341 -293.012909
-145.885574 -82.192032 -294.056702
-63.468395 -54.996155 -72.150475
-69.458138 -48.463528 -95.598793
28.144344 -53.807995 -265.518738
-38.827667 -39.848579 -66.669930
-50.287308 -74.520943 -187.569305
-3.782783 -67.395630 -234.791580
-113.829964 -68.241234 -256.887024
-84.853821 -65.215858 -130.603836
31.850752 -70.560356 -163.212952
-149.387955 -80.214790 -229.060196
-135.157013 -77.832909 -257.560547
4.330084 -48.470047 -242.882690
15.679288 -73.461426 -229.473709
22.347031 -53.550568 -278.952087
3.061887 -81.336540 -248.896957
-153.347351 -68.724434 -228.853851
-77.116806 -60.617527 -121.739914
-150.105667 -74.137863 -252.345139
-14.102922 -64.333344 -55.407963
47.826096 -60.239506 -109.783134
54.032883 -68.799065 -101.192192
5.524954 -72.664482 -226.464935
114.113312 -70.132103 -152.153809
99.195656 -72.905609 -191.206207
-42.822357 -82.281807 -192.924316
107.265839 -66.108994 -110.224487
41.879997 -79.646416 -109.442543
-77.059891 -72.458321 -143.868347
-98.896706 -50.743885 -110.896317
42.602516 -66.825706 -38.822548
110.822723 -70.852203 -129.559280
-115.111710 -64.705315 -196.555664
97.209442 -75.074188 -85.982277
108.547714 -70.943642 -126.849380
21.743214 -54.813789 -247.298233
77.157104 -49.461460 -110.834274
-129.174591 -76.382790 -259.273590
17.762787 -74.110474 -176.247818
115.034164 -70.564148 -166.477753
116.707718 -73.251038 -148.285324
12.984935 -69.639244 -158.603256
-97.493347 -61.739658 -114.462051
-144.022736 -83.229805 -231.542908
-95.178955 -60.759144 -59.914898
-74.416634 -75.400764 -210.891998
46.491104 -69.375717 -109.918732
58.211266 -67.817825 -94.563423
-77.906288 -76.793427 -64.500206
104.597328 -42.362129 -80.150375
-90.864769 -72.285797 -116.747276
-62.813652 -63.514786 -127.311279
27.532433 -63.900391 -134.600449
14.042936 -82.121132 -232.441711
83.066322 -49.759201 -109.257355
-99.851883 -41.171654 -68.951080
-39.071419 -77.836884 -167.138840
8.570971 -83.664856 -275.518951
-17.475512 -81.829613 -176.883972
39.914734 -66.812004 -250.589462
-108.088593 -69.888016 -261.685913
-90.317017 -77.046974 -97.995537
-24.657887 -42.388847 -56.160751
91.747696 -70.196045 -102.955292
-93.121475 -75.573456 -93.169418
65.758560 -54.305382 -84.092438
-147.797409 -84.495300 -258.490021
-13.013188 -72.656464 -228.456940
43.665024 -68.949455 -33.265472
101.336708 -45.651302 -60.153339
-158.650665 -66.687874 -241.000473
32.286983 -73.634537 -161.446854
43.264107 -67.592575 -108.433624
-98.622292 -63.051109 -98.416107
49.124168 -70.149055 -105.260017
0.717903 -84.277092 -265.768463
-15.161927 -52.285812 -255.768066
-59.681908 -82.204292 -202.611389
40.019855 -70.652481 -119.537277
75.450584 -47.474079 -107.726120
-61.900547 -50.652748 -57.684444
22.609064 -50.050137 -241.708008
-124.624573 -63.156403 -205.219635
-78.503227 -70.375046 -119.157745
59.516323 -53.011002 -103.192802
-65.319489 -55.158421 -118.286636
102.568245 -69.171776 -87.283531
112.692566 -71.619881 -121.608765
30.243591 -66.808212 -259.767731
93.226242 -73.288246 -208.616684
47.799519 -56.220104 -20.690975
0.503269 -74.768265 -168.390121
26.105648 -65.031273 -260.749542
-153.825226 -71.468712 -196.492691
93.198204 -70.781227 -105.783936
106.251945 -44.569767 -77.461395
-145.502258 -63.564835 -263.942566
71.656761 -52.592232 -59.393326
-18.941408 -70.274010 -203.237167
-146.944473 -83.250023 -204.919296
-141.680725 -65.385010 -198.151642
-12.773579 -68.496483 -210.284561
-33.144848 -78.921555 -182.650436
70.813118 -58.304607 -102.776962
37.912827 -69.627327 -120.788307
-5.639574 -50.763577 -271.470245
-120.365669 -66.256767 -290.408539
-8.931627 -74.952393 -169.975235
-108.484322 -74.396156 -290.387665
62.526577 -49.346748 -80.579376
-120.550781 -73.586037 -291.797791
-147.431961 -62.836105 -232.698792
-16.346560 -76.666969 -291.525665
108.541008 -69.362099 -155.424515
-93.200714 -54.263725 -121.839920
-107.025917 -68.728363 -188.761002
89.681015 -70.958298 -213.499969
-7.299960 -67.338913 -260.562927
-17.894215 -67.790749 -58.862896
64.708084 -65.097641 -76.021347
-30.890600 -72.542023 -287.960724
-84.241264 -82.018501 -109.035530
27.491846 -54.915279 -251.767792
-74.531509 -71.761200 -50.921314
-97.079521 -69.383530 -288.708344
69.276360 -66.379341 -69.384079
-146.255722 -75.612503 -234.537552
27.036589 -64.316818 -260.797577
24.441576 -77.018143 -163.696686
75.224213 -56.646835 -99.151382
87.043098 -59.374813 -59.574574
35.516335 -64.485992 -19.081421
-150.049835 -78.032410 -301.084961
-152.397064 -63.286858 -224.295120
49.066624 -77.698372 -107.342697
62.706787 -63.573982 -86.004570
11.790087 -80.457260 -249.274658
18.543734 -63.154762 -26.701038
-112.942879 -67.964844 -226.347488
-43.308571 -66.009644 -48.046055
32.497990 -81.113831 -133.225327
-12.038724 -66.519783 -239.567459
-118.868179 -74.074432 -256.128754
25.319273 -77.909828 -175.905380
15.584419 -78.049896 -277.402039
10.724213 -79.521217 -232.033096
-32.449615 -72.481064 -180.709549
-146.261902 -83.061073 -234.446503
115.193787 -72.249718 -125.823990
-106.237877 -71.680717 -291.004425
10.804286 -73.110962 -202.161057
-10.680054 -75.662514 -225.203323
-90.630119 -64.880234 -146.660126
-142.059006 -76.690079 -291.596039
12.593181 -69.279167 -233.039734
19.329115 -73.286667 -196.388489
64.078171 -48.838600 -99.895790
-42.984509 -68.129326 -158.203033
-144.200729 -70.450630 -174.991699
-70.426453 -77.100029 -209.500931
-121.396286 -69.292953 -225.340027
-42.116962 -77.759911 -62.880329
-147.746521 -74.762741 -186.469696
44.265778 -67.273041 -96.902351
-12.759625 -77.635056 -269.744720
-14.263395 -72.938560 -288.503815
38.602455 -64.825333 -249.966736
-91.477081 -72.545296 -215.051804
-106.575935 -65.799713 -186.638824
67.287735 -45.133591 -88.059174
81.322632 -54.055813 -81.682060
-27.138119 -75.897766 -211.601807
-22.576149 -43.825439 -61.897781
-11.367611 -76.321190 -173.560669
11.275454 -50.416214 -293.584167
56.010086 -68.938515 -88.202286
-5.160662 -77.017654 -288.845215
-159.475006 -72.328537 -234.915848
86.265030 -45.855137 -112.131927
-91.248154 -20.807724 -75.137535
-22.811836 -78.223885 -217.330063
44.235817 -51.236931 -36.341633
-95.824730 -65.689339 -156.996384
-82.349045 -63.917171 -118.489456
-158.998749 -73.737801 -262.523315
-139.498001 -78.849037 -290.980225
-10.041762 -71.060135 -241.341019
-148.063644 -77.572601 -210.948456
-98.813011 -63.545547 -85.463150
-74.297157 -27.988462 -102.127289
23.063719 -76.833969 -181.965759
-151.795349 -72.278717 -235.707565
112.321030 -70.192245 -164.917114
-135.248123 -69.216965 -263.089508
103.626762 -63.319164 -79.163170
-84.951767 -44.417351 -110.784637
-77.899002 -70.783630 -249.995132
27.344927 -76.469864 -173.546585
-55.870079 -42.562866 -76.214722
-55.421242 -48.999664 -83.528572
-1.256162 -76.743874 -237.406067
83.458801 -67.658119 -62.260300
70.924164 -45.482765 -97.081894
-76.704262 -18.453342 -70.344872
-93.485069 -34.740471 -101.387367
106.267021 -67.058128 -101.021370
-73.879417 -73.292717 -139.132614
29.622280 -51.127151 -39.620987
-151.573563 -83.559586 -262.154938
-147.799713 -77.990997 -283.076019
-13.892135 -50.200405 -252.666901
21.877844 -74.520912 -152.121582
-32.473328 -79.361206 -180.172668
14.300822 -49.718395 -241.689407
-84.571556 -20.880749 -69.745567
-29.778357 -70.167862 -179.071198
-148.043152 -84.797806 -232.395844
-154.671280 -70.061867 -306.602570
14.699333 -83.522263 -261.937286
111.625015 -75.244858 -120.746902
-53.902924 -74.132858 -149.927963
100.134941 -42.558270 -67.585991
-32.902252 -73.565254 -57.429295
-7.981925 -75.269913 -233.413132
-57.506577 -49.379143 -87.225845
-124.314705 -75.317970 -289.949158
70.497505 -65.603561 -63.387909
-149.695892 -65.306419 -301.887970
-14.878248 -77.528404 -174.544785
-139.446747 -84.922424 -260.383514
-38.972797 -76.113541 -170.543839
-47.832481 -66.465378 -146.710999
-65.459846 -61.116798 -121.110481
-89.468750 -19.884892 -72.977661
-28.469130 -77.144638 -217.921677
-20.397228 -79.229721 -201.177811
59.402794 -70.557159 -98.228775
52.977592 -69.311272 -247.890564
-137.782578 -67.176689 -290.523895
94.543549 -74.943146 -209.423874
-79.930397 -74.418282 -211.803253
-2.782471 -64.220901 -255.851257
-114.312485 -66.407928 -192.652023
-140.813766 -87.173096 -289.037048
-18.135908 -78.625076 -193.496613
36.239182 -71.369164 -16.571417
-41.158539 -79.528244 -67.230293
-55.395866 -79.718765 -248.238663
-48.383217 -76.902779 -195.579880
-74.976807 -39.575089 -103.544121
65.553032 -46.965065 -77.726479
-22.468441 -51.876514 -52.578693
50.804935 -74.683365 -97.466446
8.216845 -76.884552 -158.048538
14.415049 -72.799400 -222.672668
-146.282867 -83.054832 -292.529297
-33.156590 -75.654190 -242.740326
-116.178162 -68.567146 -255.828247
-8.640671 -58.253803 -58.850685
30.946402 -66.129974 -260.138580
83.005295 -75.020515 -222.221741
-144.852798 -64.356133 -193.642883
54.819355 -61.180519 -88.743584
-138.027176 -86.508675 -290.587891
36.411209 -64.952988 -260.746185
-134.360733 -68.836273 -286.868500
5.304440 -77.238770 -245.005142
40.412445 -66.905190 -252.708710
-8.587115 -50.060017 -267.200958
-64.517166 -55.660748 -42.466885
-113.182045 -72.302849 -262.113190
65.805023 -48.840572 -97.756401
17.328411 -68.736275 -175.446396
96.669563 -52.047024 -79.896904
106.653969 -71.914246 -114.236420
-161.122284 -68.511024 -286.596222
104.402504 -53.122459 -88.767990
-144.543991 -76.790680 -188.438324
24.024387 -70.339996 -254.051804
32.219326 -50.081532 -39.588303
35.529594 -79.483475 -137.427139
45.583633 -74.663109 -115.622482
-9.864120 -55.867020 -282.351044
-149.707321 -82.287437 -286.143066
-147.171539 -75.509682 -240.163620
-11.674280 -65.443871 -58.199024
16.317738 -68.956718 -185.530701
67.032578 -70.364197 -234.887665
92.190063 -44.834774 -107.351456
-152.081223 -77.950394 -300.002319
27.219532 -50.846687 -41.180809
-16.287634 -76.574081 -238.744781
-29.880346 -75.041092 -187.242096
-59.644115 -33.816730 -93.245529
-148.235870 -70.514771 -313.109406
-147.776794 -81.596451 -185.066635
27.336611 -76.797958 -173.445984
-153.676895 -82.641739 -262.666748
97.717918 -42.798798 -75.772430
21.890991 -69.493622 -277.207855
-99.523895 -53.296783 -68.337486
-16.607115 -56.969864 -260.231659
3.992231 -78.682884 -283.403351
-146.513565 -85.827225 -260.198517
-101.160988 -55.624298 -102.872025
69.361542 -75.979088 -234.867004
-96.517212 -73.650970 -255.128174
16.668770 -76.532928 -233.824692
-14.787246 -51.082043 -256.161835
-117.059753 -67.403015 -258.630585
-30.705265 -77.979744 -167.215195
-78.607513 -23.450212 -60.170544
-22.014940 -73.620567 -60.646679
10.137199 -69.982986 -226.902252
15.838424 -69.559204 -237.018845
-11.405684 -52.654453 -249.148239
-134.210556 -63.818668 -201.436844
-74.527489 -73.603722 -254.485306
105.559303 -68.772591 -97.945229
-78.920433 -21.176640 -93.103096
-82.677551 -63.323689 -110.753838
86.836754 -43.314770 -64.129692
82.802460 -75.385849 -97.868721
-12.696691 -50.452084 -252.966843
21.479538 -64.426636 -279.292511
-70.540359 -87.950539 -90.558807
-83.691139 -62.584770 -50.154064
-63.395164 -27.260368 -59.458900
49.009155 -67.523674 -97.272903
-156.708557 -63.936031 -286.240295
21.556673 -72.665215 -23.751976
21.074875 -60.391052 -279.771240
-49.804615 -68.099968 -84.802261
-109.678162 -73.141701 -224.804077
-151.527863 -68.834587 -223.372650
39.599331 -80.407555 -116.308792
-79.801643 -72.220901 -247.997528
-16.518906 -50.125069 -52.148502
24.436527 -68.872055 -187.114700
42.869137 -62.847057 -255.082596
-16.009794 -69.031174 -226.842850
-47.076012 -76.626488 -185.431549
-54.578663 -64.796371 -84.101471
-70.850853 -78.052490 -212.894943
-62.265144 -81.379845 -208.837311
-95.700584 -33.696739 -98.041100
-55.066936 -72.132042 -246.366501
-143.994644 -71.923622 -303.639343
6.031000 -76.964317 -234.008789
18.494368 -77.320450 -221.831375
-66.114380 -21.806709 -84.130997
91.333015 -73.569321 -211.168640
-135.547623 -85.271431 -288.156097
15.601823 -71.783829 -157.115463
-90.568420 -75.300026 -117.614006
-149.858856 -73.322098 -192.355972
-156.119339 -70.104874 -259.131653
30.426600 -61.739326 -35.896027
-163.264923 -75.676163 -285.655151
32.214909 -80.695068 -139.583466
-88.564514 -77.695091 -114.928345
62.553078 -68.621979 -89.243423
29.309717 -51.191135 -14.696660
14.652264 -48.778835 -278.713440
-4.117539 -51.102192 -254.894547
14.805041 -72.557060 -181.638031
-112.963394 -74.186310 -287.528381
61.583698 -47.621487 -91.976219
-5.300276 -73.567757 -238.624634
-21.465673 -80.208054 -220.831100
19.871204 -69.408333 -25.926851
65.411446 -46.176708 -69.463188
-49.440041 -43.028679 -51.608143
-84.837479 -70.282959 -127.095009
-54.851425 -71.026543 -132.590088
21.860449 -65.069496 -37.110584
-39.338554 -51.596401 -78.393959
-24.126583 -72.074799 -76.429344
-74.465485 -73.632927 -146.233368
88.562675 -62.272709 -61.927624
-82.604195 -84.313690 -105.516747
-24.351019 -79.021393 -240.185745
-6.637184 -68.039978 -237.509842
3.755453 -50.724640 -263.338837
-59.123280 -58.462975 -123.009171
-144.630569 -72.963905 -217.923157
-126.649208 -66.382126 -225.303421
43.671471 -78.488091 -104.251602
-91.931404 -66.497749 -120.282501
-88.668533 -33.438988 -108.892731
-1.394218 -67.449127 -223.784286
-34.436665 -79.023186 -174.543793
-58.873985 -69.909653 -289.260712
-63.333088 -46.840611 -54.791729
22.543282 -64.772987 -171.327057
-81.661789 -53.411968 -44.576107
-154.771408 -70.135750 -287.248627
-12.316486 -72.495934 -226.085602
-76.623428 -62.309494 -116.280067
-76.428871 -43.950336 -46.491009
-40.462337 -76.070755 -173.287949
103.740044 -74.742599 -198.260574
-89.477631 -71.586250 -216.931641
42.105873 -55.755596 -120.854057
-98.757950 -41.201649 -64.920792
66.126320 -68.674530 -242.497864
-22.894646 -74.570160 -219.588715
-6.459234 -73.010330 -211.486404
32.436661 -67.521988 -258.897827
-6.509367 -82.066132 -171.350388
-47.522243 -56.491013 -78.899223
82.445541 -44.782356 -61.821972
-60.457485 -55.289986 -110.992760
-141.310745 -68.823517 -176.251419
87.152870 -45.950096 -58.413181
-61.859486 -51.937874 -64.750824
-147.701279 -85.617203 -254.625229
5.282037 -56.645947 -245.957962
3.631517 -69.531212 -228.654434
-146.589218 -75.333321 -186.727203
43.562641 -81.854874 -113.971138
-4.638655 -77.227547 -246.033844
-23.597895 -64.124321 -66.880951
23.380308 -59.279125 -36.230724
15.517852 -73.560135 -216.798691
-100.585083 -65.539177 -151.892181
-147.561478 -81.347961 -228.511185
-80.701477 -31.147764 -53.842377
24.857954 -54.445446 -23.077375
-8.120372 -70.211548 -236.474838
0.812656 -51.491646 -251.046967
-9.620732 -59.686073 -55.121803
-68.406769 -73.352074 -142.289413
-109.187584 -66.790268 -196.708908
-36.261810 -56.524071 -72.701569
65.085098 -52.483101 -67.018715
92.235268 -77.280342 -86.615555
-14.286091 -53.570282 -267.998596
-10.545647 -55.992409 -283.545807
7.948409 -60.805450 -242.262589
-163.585083 -73.952805 -260.464264
6.241502 -49.891285 -295.972656
84.745148 -46.502792 -102.496010
-54.301186 -74.558220 -242.565018
32.771801 -78.751823 -145.172607
61.124378 -71.062820 -94.853737
105.455971 -43.075840 -70.430244
11.891910 -77.850044 -198.313995
46.061569 -50.737030 -34.261036
-25.363401 -77.173424 -215.664673
-161.148895 -74.668152 -240.690552
93.088837 -75.332039 -206.154297
14.301250 -53.347679 -280.343262
18.362909 -74.707985 -209.124390
-30.239719 -80.448418 -238.772537
113.605690 -77.661880 -167.243958
109.990791 -74.371620 -173.173355
-58.584476 -27.785221 -81.842751
-147.429321 -80.927895 -298.444061
-144.711899 -82.927414 -200.011536
-76.036926 -84.335175 -94.036522
-134.287338 -70.992409 -224.848969
111.956642 -73.987198 -152.099274
-109.043465 -72.863869 -260.643799
12.219073 -72.076195 -227.759933
-144.028900 -73.484825 -182.450592
-15.245578 -55.165485 -266.168396
-25.762568 -67.797523 -187.844345
28.145786 -63.086781 -262.892731
-72.906097 -17.138460 -77.651550
34.083523 -78.448868 -134.705612
-146.859482 -70.993782 -294.485229
10.082821 -66.604462 -291.584686
-32.194363 -69.139748 -182.018219
-15.386249 -70.599281 -68.451317
-18.728168 -78.647537 -288.157684
7.703032 -62.916553 -294.439941
-52.374138 -64.994240 -129.860123
-166.701157 -69.407906 -247.323196
27.112104 -77.942299 -143.025543
66.431168 -68.642250 -77.841827
7.064049 -49.589611 -254.754639
-66.384315 -53.470112 -67.291534
2.234972 -78.353775 -229.261322
103.410164 -42.106220 -98.670189
107.620750 -71.859863 -106.920746
-29.195471 -67.494919 -74.164734
-31.618828 -71.025955 -188.335480
74.336105 -47.486382 -62.178631
-101.829643 -64.415962 -258.916870
-40.127472 -79.626144 -243.607742
-98.250717 -54.122047 -108.295975
34.515598 -81.312454 -138.809723
110.501945 -75.712280 -152.204788
49.997288 -69.099808 -243.069626
98.623451 -75.133682 -197.085938
-141.419525 -64.376480 -229.352844
-79.146805 -57.405876 -113.726326
-150.676361 -80.988625 -198.227676
26.023191 -70.088593 -181.214874
-15.198483 -56.989532 -269.453766
95.885658 -60.105171 -63.106560
-146.254898 -83.230324 -278.105591
37.323406 -67.566971 -252.255249
29.627258 -69.568069 -141.938080
-132.303513 -74.835938 -223.865173
26.233135 -76.042366 -143.413956
-44.649036 -77.522881 -150.989792
-46.160603 -69.087341 -148.972626
-146.082397 -63.262733 -193.765274
8.428020 -65.684677 -237.384125
-3.010387 -78.850655 -222.390991
31.235474 -51.058216 -15.974291
10.988272 -84.034210 -263.324493
-83.649864 -71.728165 -107.017586
-75.826622 -65.688728 -118.319473
-100.973434 -37.943687 -75.834259
-145.764160 -73.481590 -300.926453
-82.083694 -69.510208 -290.523102
-162.153183 -74.896286 -261.749084
-79.052032 -68.275734 -123.320824
-143.879379 -75.226097 -194.751236
-74.875755 -75.626991 -211.022598
-67.764694 -82.548279 -73.596504
-59.521786 -61.816620 -118.494499
52.328175 -56.905190 -105.435219
17.187065 -77.757675 -185.790939
87.433784 -45.932636 -58.744881
-78.975319 -63.600731 -47.204601
-68.828773 -43.208042 -97.655945
-130.789276 -70.896935 -264.702667
-117.201973 -64.676018 -201.138489
58.172764 -64.934662 -243.265106
-31.090837 -78.522179 -212.214996
-19.591686 -67.538269 -200.351929
-67.428589 -53.034367 -93.395752
18.585566 -79.389999 -268.509705
101.795151 -73.412109 -193.138107
7.791591 -71.333389 -154.167343
14.354643 -71.158478 -226.727554
-36.974392 -81.183632 -190.250870
-29.752472 -39.653416 -60.236412
-149.101944 -68.541855 -261.000000
-36.044441 -68.973885 -174.482239
64.159576 -55.200565 -73.120171
114.750572 -71.477608 -132.207687
-15.607024 -56.250050 -254.817581
39.236713 -75.357353 -130.557785
-12.147152 -80.038025 -210.862518
61.405666 -72.952080 -92.420013
74.979675 -74.897560 -230.901703
-37.610458 -40.277466 -57.344501
27.930372 -53.510540 -258.517242
-96.954681 -31.839748 -81.640686
-100.101471 -61.059620 -86.289551
14.687815 -68.332443 -216.193192
-130.698532 -71.354965 -235.659134
-91.502014 -70.847267 -217.355942
-65.826355 -72.664009 -95.778419
33.715363 -68.840401 -128.219193
-25.386791 -72.102989 -191.971176
40.844776 -72.700661 -40.613369
-55.471436 -60.273716 -134.173248
-150.518570 -82.350639 -289.734711
99.916382 -74.001396 -201.861771
-90.803818 -62.359695 -138.023254
47.806831 -66.117531 -20.282038
-60.023643 -46.296665 -53.099117
-15.868921 -69.990631 -213.562119
73.434258 -64.512711 -107.884583
69.207085 -49.857468 -107.775200
5.876414 -77.572128 -242.651215
64.603195 -49.513569 -91.194000
-51.549637 -54.886406 -45.773304
41.075909 -78.810150 -111.564079
-135.682404 -76.151123 -202.328735
-150.213501 -73.258446 -246.050034
30.900906 -52.579067 -42.009232
-50.591091 -73.578751 -185.584152
-67.964348 -75.279572 -147.909958
-76.355499 -69.537994 -290.231354
-142.964157 -78.822876 -291.235870
-161.674133 -67.517159 -242.094650
69.213257 -52.971889 -97.562592
13.099710 -75.589706 -247.219467
104.741783 -70.406548 -103.809906
-141.703583 -83.355736 -197.320618
-56.819645 -74.306465 -177.348892
-62.897232 -74.860786 -166.913071
16.812609 -73.625435 -177.847214
-14.074145 -75.403923 -202.287704
-20.262789 -55.950661 -62.177555
-75.479782 -64.775032 -111.486389
8.204528 -54.510494 -242.374817
-15.733184 -54.001907 -260.348877
66.642151 -55.116962 -93.307228
-94.278839 -69.548676 -288.545624
-65.606895 -69.648972 -48.435364
-72.852600 -85.035461 -99.023201
29.527426 -53.005020 -11.845606
-148.134796 -60.226936 -233.916031
-148.615356 -78.452873 -241.651245
-116.934608 -72.439445 -196.019028
-113.561150 -68.217834 -226.427994
46.791588 -73.518555 -114.039360
-143.163055 -76.846657 -186.720901
-155.187592 -69.939674 -295.645264
-48.990944 -75.722534 -241.618225
50.006527 -64.202957 -101.935143
27.756691 -52.883190 -272.309814
-1.134027 -68.661873 -293.658936
-145.745117 -71.866600 -206.544449
4.872642 -53.264652 -244.332382
105.399048 -55.686977 -74.637032
13.584493 -48.692081 -247.946899
35.754318 -50.010002 -15.522204
15.223729 -53.190987 -289.554352
-38.617680 -82.701790 -74.972733
-150.615082 -83.844543 -261.333099
-81.166992 -63.014473 -111.216667
75.000084 -75.675720 -87.623009
-64.667114 -71.790207 -286.399139
-127.135193 -64.886559 -226.857849
-31.865625 -75.610931 -208.594467
-148.144989 -65.339096 -262.411041
-20.708565 -83.788071 -178.524841
35.417709 -69.751404 -141.570084
76.453018 -76.347466 -86.801155
25.214560 -52.985081 -254.808121
-146.361649 -65.215416 -281.667542
-148.402817 -80.361511 -194.200241
83.232841 -46.955666 -90.049362
16.024626 -52.531036 -243.706039
-8.488848 -65.349960 -243.749268
-61.884159 -83.466370 -76.332031
-3.256353 -53.120892 -275.815125
-2.067565 -53.193859 -288.045105
-51.588017 -76.570236 -289.267487
-162.368103 -73.883217 -254.506882
-70.786713 -74.342659 -248.631134
-123.297256 -73.220665 -228.763519
-81.711624 -57.521004 -116.942429
110.381912 -66.152664 -110.845085
-70.780411 -51.977291 -110.004242
-57.774815 -56.381321 -124.231148
-87.523613 -71.738777 -219.037613
32.363976 -71.781967 -147.696732
-152.277206 -63.182358 -259.388916
-41.596268 -55.362736 -47.349785
-145.138168 -66.314285 -223.466293
81.772057 -48.866749 -57.870289
-77.069778 -67.998474 -104.331474
-34.447491 -75.108963 -205.914673
-112.919876 -71.561630 -198.712845
-86.969231 -80.951279 -102.624222
-163.741089 -70.623322 -252.884842
-18.220354 -56.094170 -255.675461
13.270508 -50.153618 -236.365723
-111.019852 -73.575813 -260.160553
-127.804970 -64.133385 -204.570999
-29.641321 -39.633221 -57.857922
22.646278 -62.288601 -276.467621
37.639996 -71.344429 -115.413307
-28.642672 -70.310066 -185.183380
100.313217 -53.081699 -66.476631
96.606766 -73.744522 -91.597992
31.752098 -65.601303 -12.890288
-163.427277 -70.380493 -259.267120
-1.553642 -70.933380 -226.561111
-58.079082 -67.712578 -125.096626
-3.705254 -66.089539 -235.789032
-73.381523 -70.319199 -248.291763
-56.078327 -60.285267 -80.912430
-146.319702 -73.841499 -221.481003
-61.387665 -58.541435 -86.214996
22.096457 -63.059917 -18.728680
16.714314 -81.297432 -247.366150
15.716140 -67.876755 -185.143478
-148.247726 -77.665321 -243.163712
-124.919472 -65.179703 -263.870209
-4.453760 -79.858017 -216.419220
-8.706476 -73.606392 -291.278839
-140.842163 -68.792801 -181.971848
-71.794235 -19.406380 -81.393433
-38.394222 -75.133675 -172.148392
-141.728928 -79.138756 -289.623413
-58.206192 -71.745560 -132.399551
-69.691101 -61.900322 -111.328819
92.621925 -76.309471 -81.653549
-13.604154 -73.517525 -227.488220
-47.238789 -78.989494 -87.196167
-147.949524 -64.998009 -288.992401
-42.406380 -71.570572 -82.678665
100.537071 -43.429001 -66.863518
-14.918980 -53.881668 -238.646133
20.625687 -60.567841 -250.189819
16.691149 -75.202255 -188.972809
-36.240978 -81.286873 -83.049980
3.563088 -62.052776 -239.897125
-149.025162 -77.667061 -256.834839
-78.821037 -72.985031 -210.128754
-14.742584 -69.195595 -204.396484
81.455345 -70.300537 -219.535172
20.261328 -58.439087 -33.166340
104.823914 -77.533447 -189.321442
-1.359870 -72.395821 -242.387222
-65.457367 -80.097733 -205.359131
6.456857 -75.138779 -207.480621
101.515114 -46.225929 -97.427597
-149.458267 -62.579926 -186.890930
-26.782780 -75.725533 -214.779739
7.648717 -78.495720 -222.114868
-13.069183 -78.638664 -212.963043
-143.158203 -82.455162 -196.314545
-4.821263 -79.756714 -168.721054
-141.329330 -65.182022 -228.370697
82.890793 -51.363865 -71.588974
-97.093086 -31.565453 -85.433357
-25.171209 -67.752968 -195.030197
-14.023885 -77.535210 -177.521088
-36.988533 -75.553398 -59.477753
90.438606 -68.257538 -63.722496
-10.527107 -70.315636 -229.555847
-21.570997 -83.855553 -181.013397
-34.355530 -85.291771 -190.359833
2.947602 -69.722046 -232.824097
-5.933264 -68.629608 -289.911255
-40.212059 -79.374466 -201.803772
71.791817 -71.991577 -234.809174
73.438217 -58.596107 -104.448509
-77.649010 -54.751724 -114.120338
100.373764 -66.057724 -69.030167
-65.921341 -86.989372 -89.462852
-99.681190 -53.400913 -81.920593
-152.428360 -71.888771 -216.751099
3.015416 -82.073982 -252.810394
111.296700 -70.867043 -119.956367
-43.579941 -79.064850 -66.168671
72.925270 -44.657661 -61.777435
-47.425999 -73.031204 -163.159698
-90.915199 -73.458130 -291.831573
43.373672 -66.394821 -30.973124
-148.374069 -62.067726 -252.462875
-65.803459 -76.175316 -152.142914
-135.767212 -75.133774 -201.404724
100.896629 -52.290249 -81.011391
-77.576820 -18.099361 -84.675781
106.011543 -72.280998 -120.156044
-71.104904 -75.245361 -145.028824
-7.100889 -55.553917 -287.461945
18.098066 -50.581242 -248.293610
27.209867 -66.871162 -265.889404
-153.553299 -65.503510 -283.486023
16.498924 -76.232635 -223.157944
65.932098 -50.952271 -96.332787
114.266029 -75.100746 -162.328644
28.341955 -70.932671 -40.208347
94.603996 -43.786980 -113.230309
85.338051 -68.877457 -221.773621
-67.318565 -55.306606 -115.279572
-29.653637 -85.392563 -187.380280
-6.207204 -65.650551 -252.381943
-47.734592 -60.981800 -82.164764
-52.474400 -75.597969 -189.516739
32.255287 -59.858932 -124.942635
65.646721 -53.078529 -76.254387
-10.262861 -67.507660 -245.360580
-153.776321 -80.941071 -256.713989
86.441078 -49.146103 -112.451111
11.073848 -56.878372 -243.919724
104.747589 -43.298927 -82.808022
-63.099873 -84.328331 -206.970169
-104.448479 -69.230011 -166.288315
-145.829269 -77.668457 -306.121429
-57.707611 -36.076450 -60.188080
81.891762 -44.832661 -54.992485
-155.423462 -72.108154 -312.795715
-56.175598 -84.244591 -91.976746
-26.806168 -68.985245 -183.779678
19.007708 -67.386436 -201.234985
-147.893326 -68.748329 -298.683594
-146.924911 -66.785362 -304.341370
110.893211 -75.396965 -135.401505
54.464130 -75.214729 -96.802849
-143.381134 -77.233414 -194.666031
108.551994 -74.920654 -139.997101
-19.633972 -72.435577 -182.923584
-82.704224 -67.454826 -103.708107
103.299232 -44.092022 -70.618073
-35.789635 -41.051903 -63.167397
-62.460205 -55.738510 -126.403030
-160.924225 -72.860146 -236.653671
-39.753456 -58.785450 -45.893795
49.978836 -77.414680 -110.971146
82.222984 -67.634071 -105.358223
19.575165 -51.323910 -243.913544
27.653816 -51.767200 -257.924927
-21.452522 -76.181747 -225.367203
-79.671974 -55.764843 -116.476440
-164.984299 -72.566986 -237.900116
-142.624420 -81.126228 -202.834930
-62.673100 -26.024054 -89.716667
-68.590042 -18.944576 -69.235046
94.816406 -45.373177 -86.092255
-43.285629 -73.745430 -244.791931
-167.898499 -72.816116 -277.983307
-78.226730 -49.294529 -105.565170
-79.294762 -74.850853 -215.906326
86.769249 -72.825829 -223.336716
-164.697205 -66.711174 -221.356308
-20.029379 -70.859474 -205.035416
-8.650652 -71.251434 -246.194626
-150.600983 -60.732071 -203.135468
27.584322 -53.543354 -250.314865
-17.599272 -76.647476 -211.949127
-53.108028 -73.682556 -132.160751
-76.582230 -85.451698 -93.823593
-142.060226 -61.819736 -200.499725
-70.635818 -67.116867 -107.371597
-149.053116 -62.899887 -178.882813
-149.368561 -85.637718 -265.280121
-147.735474 -68.713783 -288.233459
42.984959 -55.821102 -122.077972
39.442154 -56.250053 -115.718422
-134.619003 -83.214615 -258.189728
-28.420639 -73.257660 -286.232513
22.933695 -52.489140 -242.252533
-51.252941 -75.860146 -247.941711
-80.598160 -71.507919 -118.810387
65.315399 -48.442474 -89.545067
-6.689971 -50.330929 -246.294678
-147.069946 -80.307648 -211.199051
66.380486 -66.991844 -88.023933
-47.049038 -83.843628 -81.229942
72.913498 -70.276245 -100.535278
-4.630021 -81.877808 -270.642731
19.590595 -58.900276 -244.508087
28.270239 -70.413261 -262.601501
16.877844 -73.797073 -170.799713
100.398598 -54.859001 -102.744209
-19.789509 -72.313072 -212.090591
110.381142 -77.898491 -176.867264
-56.903214 -83.469177 -202.393311
-56.489296 -58.456799 -130.957382
2.425785 -79.553726 -236.166138
47.973240 -66.848595 -248.918198
-146.625671 -81.894806 -251.729431
-148.232330 -61.569431 -254.995926
