-97.623245239258 -64.947669982910 -238.974014282227 13.929427146912
14.921981811523 -77.784629821777 -325.780426025391 31.718330383301
-103.675933837891 -65.748420715332 -227.512969970703 2.224982023239
-19.950164794922 -73.874679565430 -292.011474609375 0.397173076868
-3.497390747070 -73.618301391602 -303.966918945313 11.791897773743
-11.465179443359 -72.017303466797 -290.093292236328 1.552916765213
-14.243484497070 -72.718544006348 -283.204711914063 4.582602977753
-1.596160888672 -72.676727294922 -299.527343750000 7.663043975830
-18.617347717285 -74.828872680664 -280.541473388672 7.659847736359
27.061340332031 -75.850692749023 -314.665710449219 24.050662994385
34.699691772461 -75.342102050781 -314.083648681641 28.330675125122
10.500091552734 -78.110015869141 -299.765045166016 7.309398651123
16.999069213867 -74.901885986328 -304.440124511719 10.582271575928
25.048797607422 -76.991035461426 -314.883758544922 23.313467025757
31.597702026367 -80.095306396484 -315.883361816406 28.058259963989
-19.740631103516 -69.208786010742 -271.418945312500 6.034051895142
44.155029296875 -77.286293029785 -303.412048339844 30.186225891113
46.619140625000 -75.419662475586 -305.964996337891 33.286617279053
-15.917839050293 -72.077560424805 -255.822860717773 1.885087370872
-8.600242614746 -71.734176635742 -262.892303466797 3.849196434021
51.203216552734 -77.457191467285 -298.495758056641 35.415908813477
-7.586288452148 -70.564819335938 -255.094909667969 5.126603603363
52.853485107422 -77.876487731934 -297.777160644531 36.884708404541
46.928253173828 -76.932785034180 -300.253570556641 31.794292449951
-11.788055419922 -72.994941711426 -237.414520263672 1.191463708878
-72.541320800781 -65.672409057617 -195.097259521484 17.109123229980
-74.391448974609 -66.828506469727 -189.604446411133 20.445726394653
54.650344848633 -77.646057128906 -293.720214843750 37.843299865723
-86.234161376953 -64.018692016602 -174.215118408203 15.731271743774
-89.847732543945 -65.325714111328 -174.881256103516 12.383515357971
-74.336868286133 -64.899719238281 -183.171646118164 18.190130233765
-3.296020507813 -72.228530883789 -240.519836425781 1.253681898117
59.529510498047 -76.979507446289 -282.846588134766 32.123897552490
-79.640045166016 -65.881034851074 -175.204025268555 17.988481521606
-63.623676300049 -69.408821105957 -188.950607299805 11.258785247803
4.098175048828 -69.289924621582 -235.354858398438 1.959285140038
-77.190055847168 -64.403457641602 -172.630233764648 15.679660797119
61.738998413086 -78.760826110840 -286.318084716797 36.530227661133
68.268264770508 -75.876983642578 -275.143676757813 29.409101486206
66.237182617188 -75.188110351563 -282.310333251953 34.403858184814
-51.509872436523 -67.062080383301 -185.502700805664 7.331092357635
-69.873275756836 -65.172157287598 -164.035324096680 7.440057277679
-77.714202880859 -67.957862854004 -164.708831787109 10.527196884155
0.689445495605 -72.201194763184 -230.876022338867 2.556954145432
-17.381050109863 -67.637023925781 -201.501113891602 1.712566852570
66.364273071289 -75.350921630859 -271.351348876953 25.179702758789
65.809143066406 -77.965301513672 -275.993041992188 29.511980056763
68.910202026367 -76.981117248535 -275.314514160156 30.085870742798
-68.241867065430 -65.484733581543 -163.407989501953 6.502961158752
-53.782012939453 -65.442047119141 -175.177551269531 8.401519775391
-12.902099609375 -69.246940612793 -200.274673461914 2.005435228348
-29.984909057617 -69.251060485840 -177.475952148438 1.984389781952
68.894241333008 -75.491867065430 -265.604278564453 21.244482040405
-46.857963562012 -68.149757385254 -181.666427612305 7.823000907898
74.852249145508 -75.348205566406 -264.578552246094 23.331630706787
-43.586578369141 -67.246505737305 -169.545959472656 4.432472229004
73.220306396484 -75.322830200195 -266.146972656250 23.814056396484
-123.001625061035 -61.676757812500 -96.278839111328 23.358072280884
-32.324623107910 -69.092079162598 -174.295333862305 1.364622235298
-22.019508361816 -69.809272766113 -174.661407470703 4.305630207062
13.519271850586 -68.672622680664 -207.952667236328 1.890565514565
7.185958862305 -69.853782653809 -197.744049072266 2.875110387802
15.521804809570 -70.188697814941 -201.740463256836 1.942166566849
80.812805175781 -74.363418579102 -250.571151733398 15.406622886658
-121.534950256348 -62.072219848633 -90.623565673828 22.035655975342
-17.358283996582 -66.846740722656 -169.381759643555 11.590832710266
75.437225341797 -76.278892517090 -253.394241333008 14.885313987732
82.391113281250 -75.874771118164 -243.112014770508 11.382577896118
77.868316650391 -75.530288696289 -253.224792480469 15.887086868286
79.757400512695 -72.350753784180 -235.921783447266 3.304793119431
-117.810089111328 -54.874382019043 -83.440292358398 17.493658065796
87.396362304688 -72.310546875000 -230.890075683594 5.465865612030
-20.445999145508 -68.559989929199 -158.633026123047 13.500844001770
82.490844726563 -76.032272338867 -235.316619873047 5.457204341888
-95.810058593750 -61.651504516602 -99.439712524414 4.099995613098
-22.108093261719 -64.776939392090 -160.890045166016 12.738767623901
-105.673278808594 -61.260833740234 -86.949172973633 6.548741340637
79.569976806641 -74.600975036621 -229.815460205078 1.387984633446
12.841705322266 -68.928565979004 -179.110641479492 2.734433412552
21.292358398438 -69.247856140137 -191.107177734375 1.614899754524
-110.739051818848 -61.255187988281 -82.566772460938 11.433362007141
-102.625762939453 -62.483528137207 -84.982086181641 4.035370349884
-0.974273681641 -67.954498291016 -161.619583129883 4.954851150513
-91.329254150391 -59.249526977539 -95.273300170898 8.300548553467
-106.188148498535 -57.558685302734 -82.520141601563 6.990946769714
12.355285644531 -70.404945373535 -177.111083984375 3.647212743759
-10.062416076660 -66.905410766602 -156.322036743164 13.011298179626
24.587356567383 -70.059799194336 -180.659378051758 0.983039855957
18.164459228516 -69.233871459961 -169.688003540039 1.668836116791
81.877578735352 -73.408233642578 -219.268188476563 1.270265817642
-3.793914794922 -71.028381347656 -150.426651000977 10.497139930725
85.423690795898 -75.017890930176 -221.968719482422 1.776062011719
87.373245239258 -74.823394775391 -226.604721069336 2.966031551361
-100.655410766602 -62.218444824219 -69.096893310547 3.227866888046
88.461029052734 -75.983230590820 -222.143463134766 2.667943716049
16.683380126953 -70.125335693359 -169.281051635742 2.728990793228
17.824432373047 -68.602790832520 -165.658721923828 2.412597179413
-15.567382812500 -67.792747497559 -144.494232177734 23.651649475098
-57.052581787109 -65.614822387695 -106.823745727539 7.773783683777
-9.885765075684 -67.579170227051 -144.221572875977 19.561742782593
82.402359008789 -72.940002441406 -211.976684570313 4.735440254211
85.433349609375 -73.565711975098 -210.491516113281 2.613801240921
-12.714134216309 -68.656646728516 -140.630752563477 23.803518295288
-48.032348632813 -67.214096069336 -106.940933227539 14.221900939941
14.175292968750 -68.128097534180 -157.757263183594 1.483410716057
85.539199829102 -73.891365051270 -213.343872070313 1.640750050545
-98.744186401367 -59.715400695801 -64.045745849609 2.755151033401
-117.441833496094 -59.313171386719 -60.610412597656 19.759916305542
-106.381896972656 -60.617752075195 -58.315917968750 10.677069664001
6.552917480469 -67.179473876953 -138.723571777344 11.181068420410
-100.075538635254 -59.465476989746 -61.313903808594 3.970733165741
16.264556884766 -64.861709594727 -147.494186401367 1.185322165489
22.706069946289 -70.457679748535 -162.845275878906 2.094261884689
-108.586097717285 -58.022651672363 -54.972900390625 13.253046035767
-106.583496093750 -59.750396728516 -53.312500000000 12.551698684692
87.204910278320 -72.912094116211 -197.275985717773 8.213473320007
26.337951660156 -69.824569702148 -152.439208984375 1.764155983925
-99.859397888184 -59.989822387695 -60.135620117188 4.278818130493
-91.502471923828 -60.894798278809 -66.557373046875 5.435586929321
5.129364013672 -66.349273681641 -140.845916748047 10.835926055908
23.278976440430 -66.584495544434 -155.118164062500 2.245206356049
84.721023559570 -73.727218627930 -204.211868286133 6.548719882965
-103.497856140137 -59.261871337891 -52.293518066406 10.236677169800
-93.053726196289 -61.410812377930 -61.059936523438 1.963106751442
-74.237190246582 -63.110641479492 -73.174499511719 10.210011482239
87.473999023438 -72.705528259277 -199.286712646484 7.265057086945
-66.898483276367 -64.225143432617 -78.749877929688 7.940983295441
-93.701309204102 -59.440361022949 -59.185882568359 2.084619998932
-94.758193969727 -59.038208007813 -57.169158935547 2.526837348938
-92.655105590820 -60.417007446289 -59.858734130859 2.043495178223
-98.242546081543 -61.739280700684 -55.239044189453 5.865126609802
-105.362884521484 -60.936416625977 -46.077697753906 15.440882682800
-80.725326538086 -62.178878784180 -63.182922363281 10.482239723206
-80.047348022461 -61.064559936523 -65.066101074219 12.611309051514
-97.937873840332 -60.469192504883 -53.850799560547 5.805448532104
-88.121246337891 -62.171340942383 -57.320037841797 3.072638750076
-93.584259033203 -61.784057617188 -52.721984863281 3.511783361435
80.349868774414 -73.598999023438 -195.950073242188 15.135874748230
83.049194335938 -74.559799194336 -183.777175903320 18.007326126099
-98.162887573242 -60.463783264160 -46.055297851563 10.307586669922
81.769210815430 -73.398330688477 -188.696380615234 17.220584869385
13.247619628906 -67.661895751953 -132.021667480469 10.851704597473
35.955596923828 -69.442710876465 -149.628128051758 3.010748147964
35.358169555664 -67.367790222168 -150.246185302734 4.642574310303
-84.655227661133 -60.536827087402 -46.937469482422 1.519755721092
42.484298706055 -69.770416259766 -148.284667968750 8.070107460022
79.804229736328 -71.852554321289 -182.928146362305 21.426801681519
38.471405029297 -70.323600769043 -151.361007690430 5.198194026947
37.064361572266 -67.157203674316 -142.682235717773 3.709813356400
25.757217407227 -69.748382568359 -136.157257080078 2.994918107986
17.810089111328 -66.260810852051 -126.063034057617 11.577846527100
32.655364990234 -67.572914123535 -138.632568359375 2.438081979752
34.086151123047 -68.929931640625 -140.774780273438 1.139897704124
76.996994018555 -71.346794128418 -174.476776123047 27.214422225952
-11.758026123047 -65.204956054688 -102.195251464844 29.463638305664
49.709991455078 -69.778076171875 -146.508590698242 14.249134063721
-14.298446655273 -65.009078979492 -100.598876953125 27.026298522949
29.113418579102 -68.529983520508 -129.630920410156 3.109738826752
-13.772674560547 -66.746482849121 -93.008636474609 20.466009140015
-30.174194335938 -60.743644714355 -79.938369750977 5.436871528625
-28.208404541016 -62.667831420898 -82.761154174805 6.820386886597
26.760940551758 -68.424209594727 -123.080230712891 5.510854721069
-57.242713928223 -60.297500610352 -51.639739990234 9.012874603271
28.417312622070 -68.653274536133 -119.896026611328 5.226772785187
-53.413078308105 -61.707794189453 -55.337066650391 11.040270805359
-49.888587951660 -63.427658081055 -55.988342285156 10.322216987610
-39.814247131348 -61.163772583008 -63.403076171875 9.401857376099
-69.511741638184 -60.679290771484 -35.327911376953 8.206655502319
-69.036956787109 -61.395874023438 -31.569366455078 11.701801300049
-87.079940795898 -60.135452270508 -19.460601806641 26.622842788696
67.542221069336 -67.410232543945 -118.697036743164 13.630773544312
13.267974853516 -64.021759033203 -70.973968505859 24.439710617065
6.255676269531 -64.358673095703 -65.374603271484 16.144138336182
24.381103515625 -64.242134094238 -78.920715332031 27.929119110107
34.769897460938 -64.951560974121 -88.708312988281 13.998111724854
-14.775146484375 -62.698951721191 -43.710723876953 8.410460472107
36.064651489258 -67.732322692871 -85.068405151367 14.647551536560
55.936447143555 -69.323654174805 -102.006774902344 1.427992224693
-71.224151611328 -58.268829345703 -0.747192382813 42.040740966797
49.632858276367 -66.105087280273 -95.219421386719 1.063906669617
66.399093627930 -69.659011840820 -107.160964965820 6.614474773407
72.378479003906 -70.186073303223 -110.571960449219 6.572208404541
17.359497070313 -64.501747131348 -66.122497558594 26.993883132935
37.224761962891 -65.686126708984 -84.307418823242 14.309288024902
73.226760864258 -70.562103271484 -109.487182617188 5.555845737457
7.819458007813 -63.459129333496 -57.680633544922 16.903438568115
31.977249145508 -66.489616394043 -78.203063964844 22.018224716187
48.194107055664 -68.239624023438 -90.065170288086 2.314702749252
72.511383056641 -68.422454833984 -109.508666992188 4.826997756958
52.262817382813 -66.334777832031 -93.668014526367 2.076505899429
65.764373779297 -69.857307434082 -102.259475708008 5.215643882751
73.411483764648 -68.903053283691 -107.137420654297 2.975818395615
-43.509078979492 -59.926109313965 -17.153045654297 26.838243484497
-45.175750732422 -58.200515747070 -5.251129150391 38.423366546631
-42.597412109375 -56.584625244141 6.037506103516 50.018398284912
-76.893600463867 -78.202316284180 -345.239440917969 54.181945800781
-85.102676391602 -74.746261596680 -341.184234619141 49.678394317627
-75.713272094727 -74.933547973633 -342.391998291016 51.223163604736
-87.091674804688 -73.975738525391 -327.628448486328 35.999778747559
-67.811103820801 -75.088790893555 -339.531280517578 48.620830535889
-84.541069030762 -74.530906677246 -328.438873291016 37.058185577393
-78.858200073242 -71.920852661133 -322.535461425781 31.343370437622
-77.085784912109 -72.222549438477 -317.049224853516 25.884201049805
-62.776786804199 -76.345085144043 -331.969299316406 41.094245910645
-72.747261047363 -73.869041442871 -319.108520507813 27.892265319824
-62.922527313232 -74.682868957520 -329.571197509766 38.626537322998
-67.847854614258 -75.183013916016 -321.479553222656 30.609462738037
-65.596527099609 -73.997955322266 -321.757904052734 30.783224105835
-66.120681762695 -74.548347473145 -318.490997314453 27.549495697021
-57.354263305664 -74.852409362793 -324.149505615234 33.370838165283
-62.243797302246 -75.908493041992 -318.712860107422 27.897890090942
-114.868919372559 -73.341361999512 -266.318359375000 3.804921865463
-110.361824035645 -74.109420776367 -273.613037109375 12.076590538025
-151.545272827148 -70.289672851563 -232.516113281250 2.900703907013
-145.605285644531 -65.369232177734 -227.169464111328 2.918593168259
-10.852302551270 -75.717666625977 -325.466247558594 33.420421600342
-6.323524475098 -75.439239501953 -325.445983886719 33.313213348389
-84.770256042480 -70.713806152344 -263.290039062500 7.402338981628
-141.478744506836 -64.317169189453 -221.731475830078 4.136025428772
-88.188568115234 -69.990524291992 -254.376220703125 1.872033715248
-102.125473022461 -66.679756164551 -231.952651977539 5.713490486145
-12.637931823730 -77.598091125488 -302.775726318359 11.082482337952
-17.084281921387 -75.923828125000 -291.643341064453 0.828570842743
16.627655029297 -77.224731445313 -320.118591308594 26.114212036133
-0.731750488281 -74.837982177734 -299.353851318359 7.114660263062
-110.193901062012 -64.373573303223 -217.983520507813 7.249094009399
-109.107986450195 -67.503265380859 -215.039703369141 7.610003471375
-21.307907104492 -72.657234191895 -281.890472412109 6.858632564545
5.788482666016 -73.484222412109 -296.626098632813 4.287519454956
-11.548789978027 -70.979225158691 -281.548583984375 2.104058504105
23.572540283203 -76.056564331055 -315.342041015625 23.052644729614
-124.699394226074 -65.947906494141 -189.528640747070 5.214634418488
-17.671310424805 -69.948043823242 -266.386566162109 3.005185127258
33.922103881836 -78.363006591797 -311.156127929688 25.976091384888
-11.593116760254 -75.488449096680 -272.170471191406 2.636168718338
31.060836791992 -78.399185180664 -309.188018798828 22.577062606812
-114.532669067383 -65.816635131836 -189.413864135742 2.718649387360
-18.760246276855 -72.804496765137 -264.135803222656 3.989140272141
40.659347534180 -76.114372253418 -303.774810791016 26.999425888062
36.267959594727 -77.974411010742 -302.874023437500 22.876131057739
39.198638916016 -76.046478271484 -306.073486328125 26.739767074585
41.161026000977 -75.460479736328 -306.803710937500 28.767349243164
-18.057716369629 -73.344718933105 -263.154785156250 3.265164852142
-17.776321411133 -70.185928344727 -256.564605712891 2.860458374023
-11.190490722656 -73.856536865234 -266.760986328125 2.944025993347
45.797760009766 -77.260498046875 -300.433532714844 30.817308425903
-8.579673767090 -74.090225219727 -256.122222900391 4.502094268799
50.480255126953 -76.242126464844 -293.631408691406 33.759101867676
52.730377197266 -78.492317199707 -297.475402832031 36.757766723633
-15.137847900391 -73.466667175293 -254.389892578125 1.560572743416
-99.207977294922 -66.093582153320 -183.075927734375 6.717690944672
58.613784790039 -75.725456237793 -295.237030029297 41.598865509033
-77.297462463379 -64.943870544434 -186.542205810547 21.953233718872
-5.035171508789 -71.726432800293 -245.382568359375 1.147220969200
-89.388732910156 -66.134460449219 -176.767349243164 13.575677871704
-10.930839538574 -73.198501586914 -242.453735351563 1.291495084763
-89.692794799805 -65.467720031738 -173.022155761719 11.980610847473
-63.073837280273 -65.614868164063 -189.985382080078 13.853092193604
-89.714897155762 -66.136611938477 -178.971496582031 13.948747634888
56.012252807617 -79.594696044922 -289.458435058594 36.814720153809
60.694244384766 -77.103263854980 -289.145080566406 38.014141082764
66.659194946289 -76.502502441406 -289.201354980469 40.629825592041
-85.061195373535 -66.987266540527 -172.653701782227 16.498531341553
-16.720962524414 -72.725036621094 -217.608551025391 1.536473870277
-66.993690490723 -67.538825988770 -176.447692871094 9.011653900146
-59.579040527344 -66.258148193359 -179.143020629883 7.568489074707
66.764984130859 -77.775863647461 -271.356811523438 25.957490921021
-56.607841491699 -66.821472167969 -186.395675659180 8.139857292175
-9.945816040039 -71.924118041992 -213.252899169922 2.166966438293
-1.668891906738 -72.093528747559 -219.047271728516 2.017724990845
74.309402465820 -75.765060424805 -271.353271484375 28.868284225464
6.608489990234 -73.396720886230 -221.198745727539 1.373164772987
-18.748489379883 -68.151008605957 -202.309570312500 1.145670652390
7.832504272461 -71.944992065430 -221.914825439453 0.880976319313
-73.060501098633 -69.837959289551 -163.068862915039 5.459273338318
-69.437744140625 -67.992469787598 -166.392364501953 5.908110141754
-69.284446716309 -66.626846313477 -160.484466552734 4.707276821136
72.259384155273 -78.190177917480 -273.149932861328 29.884092330933
-52.145904541016 -69.050140380859 -174.455444335938 6.250132560730
1.578628540039 -69.138099670410 -209.768951416016 6.697645187378
-61.937984466553 -65.129936218262 -156.979156494141 7.120233535767
-58.651100158691 -65.503562927246 -158.102706909180 8.278448104858
-49.941551208496 -67.539237976074 -179.567565917969 7.208304405212
-39.734954833984 -71.134841918945 -176.726669311523 3.515644311905
78.733978271484 -78.256423950195 -264.054260253906 25.663637161255
-37.262367248535 -67.894012451172 -170.200500488281 1.154409885406
2.078292846680 -70.837203979492 -204.100357055664 6.192375659943
83.168563842773 -73.652603149414 -251.803329467773 17.768953323364
-126.942420959473 -59.825950622559 -100.251144409180 27.176584243774
-123.176063537598 -60.886077880859 -104.336288452148 23.940616607666
-127.700256347656 -62.135536193848 -98.301483154297 28.091518402100
-119.350013732910 -63.755264282227 -100.725051879883 20.194234848022
-26.527397155762 -69.209335327148 -167.265426635742 4.390429973602
-21.504592895508 -69.411872863770 -169.834503173828 7.257268905640
17.650100708008 -72.768196105957 -194.836334228516 3.467894315720
-114.416175842285 -62.210304260254 -96.415405273438 14.999264717102
-117.371208190918 -62.372200012207 -94.843597412109 17.928312301636
-18.297302246094 -73.385887145996 -169.532897949219 7.338072776794
6.275009155273 -68.411827087402 -195.380371093750 5.129854202271
-113.499755859375 -61.057998657227 -90.361968994141 14.089087486267
-29.675872802734 -65.357162475586 -165.287414550781 6.379494667053
79.038360595703 -74.826995849609 -243.402770996094 9.133875846863
85.825210571289 -76.361213684082 -245.229583740234 14.932951927185
18.533172607422 -72.135116577148 -192.615936279297 3.284641504288
-15.747322082520 -66.419433593750 -169.891433715820 11.032822608948
-16.940605163574 -66.117248535156 -160.574813842773 15.622688293457
-116.172958374023 -63.072067260742 -83.432723999023 16.936183929443
-100.646629333496 -62.447044372559 -93.654403686523 2.214275360107
-94.865859985352 -63.738067626953 -101.102279663086 3.512375116348
-92.578186035156 -62.766090393066 -99.640396118164 6.302857398987
-12.921432495117 -70.444541931152 -162.186859130859 9.993515968323
10.340896606445 -69.398513793945 -185.038421630859 3.406185150146
80.836257934570 -77.292587280273 -229.787322998047 3.060142040253
-112.619934082031 -61.885589599609 -85.632736206055 13.184379577637
-109.773880004883 -63.040718078613 -83.602996826172 10.762649536133
-112.316955566406 -64.535888671875 -83.384399414063 13.672624588013
-116.972229003906 -63.370735168457 -78.212066650391 18.151981353760
-15.452499389648 -68.142768859863 -156.279830932617 16.289463043213
-7.887466430664 -65.395431518555 -168.069732666016 9.331715583801
-110.967994689941 -64.409934997559 -83.815582275391 12.341353416443
-8.647804260254 -67.985649108887 -164.134811401367 8.078944206238
-123.380332946777 -60.673614501953 -74.391723632813 24.086809158325
-99.372619628906 -62.200302124023 -92.194107055664 1.705121397972
22.744537353516 -72.449989318848 -175.402267456055 4.102224349976
-121.137100219727 -61.435745239258 -70.573425292969 22.326375961304
-105.637145996094 -60.984825134277 -80.695480346680 6.790422439575
14.880035400391 -69.941696166992 -178.891113281250 0.881317019463
-113.430633544922 -60.420562744141 -75.256866455078 14.311141014099
-11.895538330078 -67.614196777344 -158.154403686523 13.022485733032
87.135681152344 -76.015731811523 -235.486846923828 8.770705223083
-107.469787597656 -61.161155700684 -66.342529296875 9.691247940063
-116.930320739746 -60.158042907715 -64.026397705078 18.776380538940
-49.131263732910 -66.505630493164 -115.062179565430 9.327870368958
83.159744262695 -75.285781860352 -219.248229980469 2.951626777649
12.119964599609 -70.379951477051 -158.623947143555 0.642425119877
-106.850234985352 -61.468231201172 -70.441833496094 8.316248893738
-54.966583251953 -67.459518432617 -106.586349487305 9.986214637756
6.803970336914 -69.068046569824 -159.554428100586 0.900266110897
31.609619140625 -71.190521240234 -164.062057495117 1.399026036263
-97.547065734863 -60.546493530273 -69.581878662109 1.552903175354
16.288055419922 -68.498847961426 -154.856216430664 1.568796634674
2.817100524902 -71.405609130859 -144.221466064453 10.153125762939
4.447586059570 -71.499748229980 -147.732757568359 6.427011489868
84.950286865234 -74.421272277832 -214.017181396484 2.507865905762
-1.201293945313 -70.510185241699 -145.859069824219 11.672328948975
-6.536499023438 -68.093429565430 -142.045471191406 18.424011230469
-63.890167236328 -63.981903076172 -90.424835205078 1.321860909462
8.210617065430 -69.433021545410 -144.878829956055 5.966058254242
88.616226196289 -76.135025024414 -212.372207641602 0.479511559010
81.671920776367 -74.974990844727 -207.593795776367 7.294028282166
24.195877075195 -67.907752990723 -159.042205810547 0.462733566761
12.698272705078 -68.803359985352 -145.569671630859 2.474272251129
81.841384887695 -70.564315795898 -202.825881958008 10.212932586670
-78.511749267578 -62.736877441406 -77.190063476563 14.415112495422
0.932228088379 -68.037170410156 -140.871719360352 13.721150398254
-58.662834167480 -65.353057861328 -91.867797851563 3.681311368942
-61.140857696533 -62.713806152344 -86.642517089844 1.328136324883
-83.529281616211 -62.018234252930 -68.769714355469 11.632355690002
84.440475463867 -74.478530883789 -202.679168701172 7.831509590149
-76.053398132324 -61.979553222656 -74.861114501953 11.308386802673
26.802825927734 -69.817993164063 -152.400833129883 1.400623559952
82.164154052734 -74.530227661133 -201.249176025391 10.450534820557
11.098770141602 -68.183364868164 -142.246261596680 5.812826156616
16.011749267578 -68.181770324707 -141.848083496094 2.837723016739
20.770187377930 -69.333518981934 -145.190780639648 1.229910969734
29.437911987305 -69.724174499512 -155.407867431641 1.307540059090
88.352127075195 -74.188598632813 -204.686660766602 3.711863517761
35.625061035156 -70.352371215820 -154.979827880859 3.412713766098
26.815078735352 -68.496246337891 -150.902496337891 0.881383776665
17.367523193359 -68.141609191895 -145.551498413086 1.174299716949
21.393692016602 -70.257492065430 -142.095596313477 3.111017704010
38.341186523438 -71.626869201660 -157.372985839844 5.797131538391
18.091583251953 -69.993644714355 -138.591659545898 4.957731723785
86.001281738281 -73.603866577148 -187.174194335938 13.962978363037
21.682174682617 -70.847389221191 -138.796234130859 4.213451385498
42.059524536133 -69.833175659180 -158.371246337891 9.991779327393
-98.514739990234 -61.096382141113 -38.907043457031 15.304673194885
26.706741333008 -69.485771179199 -137.713455200195 2.289395093918
23.711593627930 -70.043769836426 -133.784378051758 4.392388820648
-93.701309204102 -60.923614501953 -27.793029785156 21.721794128418
25.315505981445 -68.254257202148 -131.146789550781 4.758256912231
47.646881103516 -69.850753784180 -147.535293579102 12.424167633057
-78.493850708008 -58.833175659180 -42.262725830078 2.798395872116
-18.667076110840 -66.647575378418 -92.985321044922 18.183794021606
-12.300132751465 -67.152153015137 -98.754974365234 25.864480972290
77.560729980469 -72.808341979980 -168.393051147461 28.307825088501
-26.133758544922 -64.847938537598 -88.168136596680 11.716017723083
48.632583618164 -69.630058288574 -145.315902709961 12.795296669006
-21.584312438965 -65.669433593750 -86.120834350586 11.760337829590
23.728790283203 -67.922958374023 -123.593231201172 8.271920204163
-77.560379028320 -60.050750732422 -40.576019287109 3.812500476837
74.079818725586 -73.014289855957 -163.768630981445 33.049438476563
-25.757652282715 -66.872985839844 -82.536193847656 6.965851783752
-39.369316101074 -63.896865844727 -68.320343017578 8.273201942444
-37.532341003418 -60.717605590820 -70.850128173828 3.952632188797
-53.864715576172 -61.555488586426 -54.857330322266 10.787533760071
-43.508453369141 -63.567207336426 -62.635284423828 13.546881675720
-42.439697265625 -63.468444824219 -60.199066162109 12.420752525330
58.895904541016 -69.473190307617 -138.034851074219 19.942073822021
-55.389778137207 -63.642364501953 -42.779846191406 1.784294962883
44.725616455078 -66.776512145996 -105.755477905273 2.019389867783
-59.416137695313 -59.487129211426 -18.797973632813 23.468618392944
-76.794982910156 -59.604034423828 -3.919006347656 39.306549072266
-40.681243896484 -61.241989135742 -27.282928466797 18.172027587891
-33.290260314941 -62.487014770508 -35.693572998047 11.366564750671
-1.569137573242 -67.585586547852 -56.460449218750 10.010130882263
14.657119750977 -68.462806701660 -68.480468750000 25.555772781372
24.280364990234 -67.024978637695 -77.488433837891 28.576555252075
48.500015258789 -68.824485778809 -93.883743286133 1.673778295517
49.780868530273 -69.489158630371 -94.595993041992 2.222037315369
31.291061401367 -67.157531738281 -79.582061767578 21.663406372070
32.680786132813 -67.865814208984 -81.699310302734 19.287899017334
45.919342041016 -69.648452758789 -89.349075317383 4.308310031891
5.841125488281 -64.512557983398 -57.123870849609 15.269433021545
19.233078002930 -67.284812927246 -66.670104980469 28.414020538330
49.754318237305 -70.540344238281 -91.507797241211 0.964470326900
50.427398681641 -68.217491149902 -91.983306884766 1.114413380623
58.073928833008 -69.783935546875 -97.886108398438 1.666522383690
64.543243408203 -71.149986267090 -100.789810180664 6.148609638214
-9.755935668945 -64.193077087402 -47.570922851563 7.828439712524
-52.377861022949 -62.245689392090 -12.742614746094 30.062736511230
-29.926101684570 -61.514167785645 -26.744354248047 20.947244644165
-55.274032592773 -57.617942810059 -0.688720703125 41.743560791016
-55.861343383789 -59.733108520508 0.346954345703 42.814964294434
-47.132225036621 -59.895103454590 -4.343536376953 38.953929901123
-66.761833190918 -74.688209533691 -342.613586425781 51.673854827881
-86.647644042969 -74.142288208008 -323.854522705078 32.277431488037
-61.084114074707 -74.955909729004 -340.246276855469 49.394462585449
-57.878288269043 -74.048248291016 -333.659362792969 42.854553222656
-6.735412597656 -78.996589660645 -330.320037841797 38.365501403809
4.561477661133 -78.262161254883 -331.074432373047 38.111972808838
11.472869873047 -79.406524658203 -327.868347167969 34.090789794922
12.241943359375 -77.424041748047 -323.703399658203 29.703083038330
-18.735214233398 -74.863540649414 -295.284606933594 3.627616882324
-20.439376831055 -73.691032409668 -287.390930175781 3.403470516205
-11.352241516113 -77.152030944824 -296.688873291016 4.946201324463
-111.400817871094 -71.925102233887 -218.547760009766 6.200085163116
-6.214050292969 -74.844909667969 -303.238677978516 11.265280723572
23.179992675781 -79.111892700195 -317.656494140625 25.336414337158
3.457748413086 -73.854774475098 -297.585632324219 4.925229549408
19.628967285156 -78.909912109375 -310.329895019531 17.344434738159
-118.589721679688 -66.279640197754 -201.782150268555 2.166185617447
-18.302902221680 -74.096794128418 -277.068542480469 7.128633499146
-118.396049499512 -65.461418151855 -194.249267578125 4.653139114380
-8.274139404297 -73.099258422852 -273.424072265625 3.538924932480
-20.012382507324 -75.681335449219 -272.489898681641 6.933326244354
30.382156372070 -77.212608337402 -312.609191894531 24.417413711548
-19.335746765137 -75.815826416016 -268.824005126953 6.076721191406
-14.654502868652 -73.831542968750 -264.406616210938 2.667426109314
-12.983688354492 -76.328254699707 -266.443664550781 1.189403653145
38.036819458008 -80.211692810059 -304.453399658203 25.378883361816
-107.650733947754 -67.757164001465 -185.656311035156 2.524297475815
48.359390258789 -77.767837524414 -300.573059082031 33.312381744385
-12.084197998047 -76.312728881836 -257.728057861328 1.687671065331
-9.976470947266 -74.904045104980 -262.330657958984 4.322023391724
-14.315773010254 -73.724830627441 -255.957855224609 0.844550549984
-81.193023681641 -68.332511901855 -193.395812988281 17.064874649048
-16.955390930176 -74.140876770020 -251.950408935547 2.916257858276
-93.635063171387 -65.486099243164 -175.911361694336 9.382224082947
-80.265365600586 -68.584152221680 -190.324188232422 19.814111709595
-96.766082763672 -68.357185363770 -177.448181152344 7.124677658081
-11.493988037109 -74.371406555176 -250.181762695313 2.171139478683
-80.775222778320 -69.642662048340 -190.007263183594 19.929132461548
-6.023986816406 -74.201560974121 -247.483352661133 1.911075949669
-90.068595886230 -67.671432495117 -175.386764526367 12.477811813354
-77.630050659180 -66.216751098633 -185.344818115234 21.067880630493
-8.448715209961 -73.955268859863 -238.398315429688 1.685244202614
59.008041381836 -75.542488098145 -283.826934814453 32.400611877441
59.774932861328 -78.959304809570 -293.830108642578 42.019756317139
-5.642593383789 -74.364547729492 -239.870544433594 2.091501235962
-66.096588134766 -70.597618103027 -190.073699951172 13.008939743042
64.187973022461 -78.227783203125 -275.902252197266 28.857089996338
-85.623146057129 -67.618927001953 -170.538696289063 14.929773330688
-74.032318115234 -67.618690490723 -185.256164550781 17.755760192871
1.421630859375 -71.518714904785 -231.721374511719 2.119005203247
-85.946273803711 -66.797805786133 -170.697677612305 14.670838356018
-81.126968383789 -66.205497741699 -169.714279174805 16.309835433960
66.963577270508 -79.582443237305 -284.051147460938 37.311580657959
-74.290359497070 -67.611122131348 -171.246856689453 11.462353706360
-54.613876342773 -69.772796630859 -186.189361572266 4.925988674164
-1.981590270996 -75.824752807617 -229.730773925781 1.971433043480
-84.796005249023 -67.637695312500 -166.972427368164 14.160354614258
-13.436813354492 -70.668212890625 -215.496887207031 2.113109350204
4.086624145508 -75.112762451172 -227.929016113281 1.171502232552
-2.733497619629 -73.313255310059 -230.667114257813 1.875163555145
-13.692359924316 -69.136810302734 -214.289535522461 1.344447731972
-60.722457885742 -70.100372314453 -179.785186767578 5.109888076782
-2.121467590332 -74.140213012695 -226.247360229492 3.664571762085
-61.549148559570 -68.577087402344 -185.083663940430 8.470409393311
-17.849960327148 -70.990615844727 -214.349105834961 1.310910701752
-7.936836242676 -72.617752075195 -225.971832275391 1.237096071243
-78.746643066406 -65.684707641602 -164.582275390625 12.398654937744
-57.869140625000 -69.780921936035 -181.000488281250 4.555511951447
-73.966079711914 -69.415634155273 -163.410614013672 6.458693504333
-7.845710754395 -75.038116455078 -211.798278808594 1.649248361588
-7.384628295898 -72.984100341797 -227.360458374023 1.919644236565
-15.934669494629 -72.499397277832 -204.095504760742 2.916057586670
-4.720428466797 -73.171669006348 -220.420410156250 1.711747527122
7.401031494141 -72.308670043945 -219.768814086914 1.442651987076
-54.563201904297 -66.829833984375 -174.010375976563 7.193892002106
-44.554496765137 -69.372779846191 -183.125885009766 7.344745159149
-48.832405090332 -70.160888671875 -180.222671508789 5.299731254578
5.187194824219 -72.980758666992 -220.562286376953 1.087877035141
-49.608535766602 -68.482643127441 -171.622802734375 8.029928207397
-50.080612182617 -69.315773010254 -177.008270263672 6.517049312592
0.679916381836 -71.659843444824 -212.819885253906 4.748974323273
-43.170211791992 -69.021438598633 -168.988159179688 2.695382356644
12.128982543945 -74.252426147461 -213.602142333984 3.762405633926
75.975097656250 -79.295623779297 -269.641418457031 29.087049484253
-36.715080261230 -70.152679443359 -174.793746948242 1.864875555038
72.702163696289 -79.115097045898 -259.753051757813 19.393468856812
-35.386886596680 -70.948966979980 -169.882415771484 3.251872062683
-35.941986083984 -68.353370666504 -165.751586914063 2.895882129669
4.722839355469 -70.756134033203 -203.623001098633 4.143216133118
76.108886718750 -78.854476928711 -251.080398559570 14.469384193420
-26.889663696289 -70.155975341797 -167.649551391602 3.694113254547
-36.141090393066 -72.393333435059 -173.101684570313 1.786991357803
-21.266380310059 -69.258430480957 -169.431549072266 7.597643852234
-118.556266784668 -60.191871643066 -92.301269531250 18.800973892212
7.049179077148 -70.961975097656 -195.187500000000 3.743615865707
84.297683715820 -78.434432983398 -244.765243530273 14.502742767334
-121.861679077148 -62.368453979492 -81.526580810547 22.619123458862
-20.336647033691 -69.452598571777 -163.482223510742 10.766865730286
-88.198913574219 -65.321571350098 -105.595901489258 4.309204578400
-100.947357177734 -63.078208923340 -93.758697509766 2.582458496094
-80.466949462891 -66.119071960449 -105.828308105469 2.661446094513
-82.226058959961 -66.143096923828 -104.773132324219 2.227188587189
-7.707061767578 -71.727157592773 -165.356887817383 4.699775695801
19.663589477539 -70.877632141113 -187.226547241211 2.823360443115
-7.851516723633 -73.935997009277 -160.550933837891 6.193032741547
-90.541427612305 -64.668525695801 -93.619064331055 7.510303974152
-8.814590454102 -71.061302185059 -153.129531860352 12.432564735413
-95.898315429688 -61.250434875488 -90.538909912109 4.436291694641
-2.907691955566 -71.359489440918 -163.088546752930 2.636904001236
-105.685760498047 -62.976257324219 -81.126937866211 7.450533866882
82.882247924805 -76.907226562500 -221.779739379883 0.737346231937
-123.233650207520 -61.476554870605 -69.804595947266 24.492506027222
11.936935424805 -68.572624206543 -160.312576293945 2.751445531845
20.831909179688 -74.260505676270 -171.278549194336 2.688320636749
23.523925781250 -73.720123291016 -165.454971313477 2.990580797195
82.535583496094 -76.163314819336 -208.967712402344 6.047960281372
18.611892700195 -72.682846069336 -164.824691772461 1.944156646729
26.085449218750 -71.833465576172 -170.654129028320 1.962963581085
2.908897399902 -66.540145874023 -151.530929565430 6.574061393738
-55.484848022461 -66.272445678711 -104.951202392578 9.629066467285
-62.093147277832 -64.384544372559 -99.084106445313 4.357717990875
15.594924926758 -71.749382019043 -153.759475708008 1.246685385704
-110.608024597168 -60.869766235352 -49.946044921875 17.837551116943
28.607025146484 -72.711174011230 -163.535995483398 0.955308973789
-93.847007751465 -62.186470031738 -66.661926269531 3.393197059631
30.551208496094 -72.852333068848 -159.716354370117 0.974519133568
-85.808074951172 -62.781799316406 -72.467437744141 10.666155815125
-70.203216552734 -64.015632629395 -80.746475219727 9.362871170044
33.385025024414 -74.556747436523 -164.721847534180 2.043606519699
81.683547973633 -75.678123474121 -197.728118896484 13.274978637695
25.195098876953 -73.082443237305 -157.159576416016 3.179767608643
-67.378990173340 -63.134078979492 -82.708496093750 5.931612014771
82.599853515625 -75.687530517578 -196.769790649414 12.928085327148
87.862411499023 -74.785644531250 -197.661987304688 7.543641567230
-72.248870849609 -63.271942138672 -72.844024658203 8.665782928467
-66.810256958008 -62.729385375977 -76.655212402344 7.677852153778
15.753829956055 -70.496429443359 -141.121688842773 4.458602428436
79.299850463867 -73.391174316406 -193.270462036133 17.007270812988
79.161895751953 -74.931579589844 -184.679489135742 21.242265701294
83.982254028320 -75.773422241211 -192.268051147461 13.503616333008
-77.823593139648 -62.433074951172 -62.895599365234 11.674900054932
83.019149780273 -72.721794128418 -188.248443603516 16.536308288574
79.798599243164 -73.405273437500 -184.595275878906 20.676439285278
-108.938453674316 -59.693077087402 -48.529174804688 16.712764739990
30.122436523438 -68.231811523438 -141.006958007813 0.772906899452
44.389862060547 -71.807861328125 -149.149993896484 9.496559143066
26.594100952148 -69.812286376953 -137.476608276367 2.081067323685
41.816711425781 -70.643890380859 -148.628540039063 7.346166133881
82.254898071289 -73.478691101074 -181.714004516602 19.707221984863
39.194641113281 -69.635238647461 -147.091064453125 5.029695987701
24.629226684570 -73.420867919922 -133.064224243164 3.264963150024
31.284729003906 -70.866455078125 -138.160278320313 1.305696845055
84.383071899414 -74.103790283203 -177.736633300781 19.072158813477
37.412734985352 -68.855972290039 -141.372680664063 2.309550285339
24.059463500977 -69.686126708984 -133.790466308594 4.411187171936
44.698669433594 -70.355705261230 -145.152816772461 9.201570510864
-101.064453125000 -63.232803344727 -38.347778320313 17.953805923462
82.534301757813 -75.561599731445 -170.587707519531 22.970642089844
76.976684570313 -74.526634216309 -165.495010375977 29.737356185913
75.785537719727 -71.921203613281 -173.498580932617 28.655502319336
25.859008789063 -69.846855163574 -125.318130493164 5.605745792389
78.526947021484 -71.833175659180 -170.080261230469 27.025091171265
-22.691604614258 -65.769775390625 -89.662536621094 14.344980239868
77.332504272461 -72.570884704590 -164.233200073242 29.772216796875
-33.082305908203 -63.603515625000 -75.738952636719 1.847210526466
-61.313777923584 -61.172294616699 -52.710144042969 9.527054786682
-67.737495422363 -64.869308471680 -48.662780761719 4.238344192505
75.901885986328 -73.469841003418 -157.935836791992 32.285419464111
-68.068725585938 -62.947113037109 -44.797973632813 1.613679766655
-46.531822204590 -60.800804138184 -62.718994140625 14.651515960693
-48.707511901855 -65.049392700195 -58.384155273438 10.807584762573
-27.520652770996 -64.790405273438 -79.308441162109 4.258243083954
-45.173858642578 -62.162971496582 -55.377044677734 9.600541114807
-53.864700317383 -63.407287597656 -46.503662109375 3.209867238998
-68.719787597656 -62.809890747070 -32.004425048828 11.313972473145
31.932159423828 -68.757324218750 -115.258285522461 4.361036300659
-88.777313232422 -61.001800537109 -17.613647460938 29.008506774902
39.793563842773 -67.551780700684 -108.417846679688 2.246670246124
-79.524398803711 -63.817932128906 -22.632781982422 22.103738784790
-70.543983459473 -63.397712707520 -20.314483642578 23.140621185303
-81.466140747070 -62.612648010254 -9.636962890625 34.911251068115
41.792724609375 -71.118255615234 -104.985778808594 1.676791071892
-48.990829467773 -61.567192077637 -24.926116943359 18.519668579102
-66.976242065430 -62.326278686523 -6.873168945313 35.885662078857
-58.734550476074 -62.134239196777 -19.655944824219 22.885494232178
-49.753639221191 -59.615776062012 -23.069610595703 20.080398559570
49.890808105469 -70.379150390625 -101.044418334961 3.483416795731
-41.867660522461 -59.239784240723 -30.287597656250 14.999120712280
-54.249092102051 -61.072509765625 -18.618530273438 24.066549301147
-33.413467407227 -64.065246582031 -34.151611328125 12.898235321045
-1.339057922363 -66.303993225098 -56.279968261719 9.596998214722
8.777862548828 -66.828453063965 -66.703430175781 19.252996444702
55.257965087891 -69.273490905762 -99.395278930664 1.631674766541
19.520828247070 -66.637107849121 -70.078430175781 30.383544921875
12.338104248047 -66.333602905273 -66.451538085938 22.523805618286
6.277603149414 -67.373321533203 -58.479980468750 16.203929901123
-6.038070678711 -64.091598510742 -45.930084228516 10.716896057129
-19.233680725098 -67.838882446289 -39.713378906250 12.832712173462
-66.285018920898 -61.757301330566 -2.252075195313 40.309444427490
-65.473602294922 -60.591659545898 -3.174652099609 39.241798400879
-35.651939392090 -60.993629455566 -20.087860107422 26.440965652466
-51.218376159668 -60.940231323242 -8.954528808594 33.847320556641
-56.898841857910 -60.672698974609 2.053436279297 44.489742279053
-40.830871582031 -60.990005493164 8.000915527344 52.065116882324
-67.900787353516 -77.433868408203 -344.616760253906 53.807949066162
-84.460723876953 -71.005744934082 -322.188354492188 30.797639846802
-61.052268981934 -75.461814880371 -329.184356689453 38.392902374268
-89.815994262695 -69.800949096680 -267.552825927734 10.253599166870
-11.671012878418 -78.543434143066 -328.429504394531 36.547588348389
-7.167404174805 -81.300003051758 -328.915893554688 37.326175689697
-13.930534362793 -78.468208312988 -322.960906982422 31.156803131104
-15.229400634766 -77.729049682617 -322.817993164063 31.039262771606
2.624671936035 -76.118499755859 -329.892028808594 37.066894531250
-147.656829833984 -67.325698852539 -216.725814819336 3.200258493423
-14.024963378906 -75.367340087891 -312.768829345703 20.785425186157
-98.389541625977 -73.056289672852 -247.926086425781 6.092505931854
15.560577392578 -77.809494018555 -322.885650634766 28.852382659912
-12.669807434082 -74.022605895996 -297.537567138672 5.531162261963
26.325790405273 -78.334884643555 -322.047821044922 30.441703796387
26.801834106445 -77.591888427734 -317.635223388672 26.600467681885
-0.153358459473 -76.343185424805 -296.244720458984 4.405956268311
-117.284446716309 -66.227775573730 -205.117233276367 1.345173358917
-9.221771240234 -74.215377807617 -281.790435791016 2.012610673904
31.970321655273 -78.362503051758 -312.355346679688 25.409654617310
-9.461875915527 -71.794235229492 -272.589477539063 3.850749015808
11.698791503906 -77.402481079102 -299.275115966797 6.203290939331
-16.674751281738 -73.131805419922 -271.467132568359 3.016004085541
30.352188110352 -80.207954406738 -314.991210937500 26.633930206299
-12.672813415527 -76.512786865234 -274.931060791016 2.905591487885
39.200393676758 -77.585189819336 -309.664886474609 28.845905303955
39.475265502930 -79.213973999023 -306.279815673828 27.407949447632
-109.061103820801 -71.210998535156 -192.879043579102 2.206955671310
-108.686248779297 -68.149520874023 -190.001159667969 1.671937465668
-8.656730651855 -74.012245178223 -262.763671875000 5.418453216553
46.627136230469 -80.552734375000 -307.333221435547 34.311645507813
49.672836303711 -81.052352905273 -303.388000488281 35.709671020508
-104.483741760254 -67.881614685059 -180.005233764648 2.008203506470
43.975250244141 -79.304595947266 -299.318817138672 28.963508605957
-83.819244384766 -67.910057067871 -188.407257080078 22.380744934082
-108.070526123047 -68.692329406738 -177.723800659180 1.465773463249
-97.529472351074 -69.481788635254 -183.656234741211 8.634999275208
-85.115386962891 -73.176437377930 -196.124069213867 14.793170928955
-11.364685058594 -75.300895690918 -248.377593994141 2.511790037155
-2.748519897461 -74.229850769043 -250.218750000000 4.400446891785
-92.843673706055 -67.819061279297 -177.061798095703 10.453240394592
-13.362464904785 -75.044570922852 -244.012420654297 3.314943552017
53.591873168945 -77.905212402344 -287.489318847656 33.577804565430
-59.441146850586 -70.073410034180 -189.110488891602 8.545506477356
-6.478843688965 -75.511535644531 -230.153778076172 0.574243605137
62.395080566406 -81.949554443359 -284.432281494141 36.260047912598
-0.929817199707 -73.851669311523 -238.570770263672 0.890365302563
59.099136352539 -78.962699890137 -285.390319824219 34.590343475342
-68.535881042480 -68.251441955566 -180.692230224609 11.155243873596
-78.178634643555 -67.667251586914 -171.386505126953 14.162200927734
-62.992668151855 -67.884796142578 -176.752120971680 7.077919960022
-48.633430480957 -69.966224670410 -173.323760986328 7.827720642090
-18.026885986328 -74.156303405762 -210.971786499023 1.390787124634
65.629821777344 -81.361129760742 -276.147705078125 30.742881774902
67.044677734375 -79.475891113281 -271.453826904297 26.606189727783
-12.374923706055 -75.808326721191 -210.293624877930 2.709492921829
-14.642982482910 -72.021629333496 -205.284500122070 2.685480833054
-7.569152832031 -73.630477905273 -215.356903076172 1.975799918175
-4.394721984863 -74.687423706055 -223.910552978516 3.255030155182
74.143569946289 -77.930847167969 -268.314331054688 26.728418350220
72.168029785156 -77.062187194824 -261.756469726563 20.107433319092
8.402709960938 -75.014755249023 -209.632308959961 2.019166707993
3.982955932617 -74.708648681641 -218.313995361328 3.370318889618
72.809692382813 -79.520240783691 -272.207336425781 29.769901275635
-33.187950134277 -71.448074340820 -175.362533569336 1.862933397293
74.593750000000 -79.812026977539 -264.231811523438 24.195205688477
4.479476928711 -74.715103149414 -204.046951293945 3.850744962692
0.271270751953 -72.784271240234 -212.202606201172 4.517954349518
76.866394042969 -79.519485473633 -258.685424804688 20.869167327881
7.407897949219 -73.950263977051 -210.936584472656 0.939894735813
81.394500732422 -79.406806945801 -254.268112182617 19.856691360474
-39.896972656250 -71.402976989746 -168.358764648438 1.321771740913
10.639846801758 -75.807136535645 -210.282592773438 2.464179277420
80.727355957031 -79.031089782715 -250.847656250000 16.690555572510
12.213088989258 -74.300971984863 -203.451644897461 1.748290896416
-124.740852355957 -65.007476806641 -91.513671875000 25.513618469238
-25.337921142578 -71.274658203125 -163.598144531250 6.058175086975
16.468170166016 -73.157135009766 -199.958267211914 3.225486278534
-87.253761291504 -65.836769104004 -110.585601806641 1.927934169769
-88.404380798340 -65.510108947754 -113.826538085938 1.046332240105
17.256790161133 -74.829536437988 -193.016510009766 2.907248497009
7.313812255859 -72.167655944824 -191.510055541992 4.451067924500
-21.049827575684 -69.549438476563 -163.988754272461 9.928324699402
-25.104614257813 -69.718536376953 -163.848861694336 6.631579399109
-23.739654541016 -70.122444152832 -168.255462646484 5.531360626221
8.187637329102 -72.410453796387 -200.603637695313 1.007848262787
-118.468498229980 -63.523994445801 -85.405212402344 19.223840713501
-111.166816711426 -62.686416625977 -87.612670898438 12.131171226501
-108.998382568359 -63.892082214355 -90.479446411133 10.185970306396
-15.811027526855 -72.751739501953 -166.868347167969 8.096642494202
