# This PCD file was generated using the MATLAB® pcwrite function
# from Computer Vision Toolbox®.
# .PCD v.7 - Point Cloud Data file format
VERSION .7
FIELDS x y z
SIZE 8 8 8
TYPE F F F
COUNT 1 1 1
WIDTH 784
HEIGHT 1
VIEWPOINT 0 0 0 1 0 0 0
POINTS 784
DATA ascii
-69.807258419213852 -73.648007762390421 -143.745075712312683
26.031743671829521 -69.920625727932574 -148.096391103938231
113.458601389394204 -67.799571154908634 -147.935021263125492
-42.354645047847548 -67.013711721448416 -147.043981624371753
114.794992322536601 -73.791443866077387 -147.930481473701150
-46.043322415446383 -67.694153050289131 -153.272014035238243
-50.154444311438553 -71.366737045643177 -151.214248940112810
9.001636620699299 -71.446341877283132 -149.305724902481131
-73.938237164114199 -66.138488837944863 -148.925928133049410
-53.684362807634052 -66.824115109693423 -151.661464180081197
17.854335187200935 -70.021664863896021 -152.808521002429273
-42.630622982401469 -67.581145806634808 -151.910317349748965
15.253943589612183 -68.862854933875482 -153.197134235263007
-50.774136911885826 -69.928296676692682 -156.857623381062837
13.952099405678243 -66.868926253963537 -158.958351877562791
10.360253670265960 -69.919047407651576 -157.562703267393573
22.235278241805538 -69.253709028312883 -158.935672486808556
27.046241317774349 -68.379113911993244 -156.097816716321603
113.505438505834661 -68.116582239205542 -161.133757423330877
26.861499472784516 -68.937005075310978 -162.364515829787393
-33.080445686071577 -68.690058031300069 -164.926354459942871
23.422027458451375 -70.616195379135263 -166.890681438284417
111.282498331113430 -71.753237982314431 -168.491269418810759
-41.112739033001588 -67.644230786088173 -167.612775504199902
26.543017851485182 -70.097518214956565 -167.523965252274223
107.753895126823977 -71.758712004222886 -170.523093611589701
-148.128010075471735 -66.953838172311080 -171.945239743547688
-143.006728096173504 -70.690436294442463 -174.655332769313446
20.164178089147647 -66.176592393084874 -177.631317345505693
21.410389610725389 -69.400609714784778 -179.056593600350567
-107.657941418854435 -71.216276983550614 -180.709119720231030
23.153659551501431 -68.352122218830203 -183.625302668530480
-20.885393477642015 -69.613337975338965 -182.046019677556671
-107.617947595533892 -70.928962062226091 -184.813113767581967
-108.918205705458035 -72.792021535186208 -184.846837874189845
-26.660741789151682 -66.282052123062783 -182.997452772447019
-141.273212975096726 -67.609701410113999 -187.505502899888995
24.731238980306557 -71.696366822335321 -194.238779403924241
-22.547958691744896 -70.731346512386622 -189.106721879387351
13.061149620611930 -68.894447244076005 -191.581939392170852
-22.040251268744047 -72.950305228862049 -191.116521155477443
16.100690306095576 -66.708748207992443 -190.803962354944304
-130.279881580625158 -63.320982863404865 -192.536679234358417
21.218850700437354 -68.744168649229792 -195.108024410952254
-140.038163588132448 -67.583008384648565 -194.535804958181444
-21.053018103467110 -70.269903425874759 -194.305904982971242
20.117519394251218 -67.281771806043764 -196.949397563566151
-162.830765375881668 -65.581762743973982 -196.415184614445479
102.642276786132840 -69.468175498085586 -197.533689511006230
-111.807616959992018 -67.243469303779548 -196.218582557388800
11.568840834078205 -65.815153701688402 -198.353851025226049
-20.981891805932307 -70.449306678633931 -197.307898529102289
14.896733185665301 -69.059911799169129 -202.625746504526035
-142.026058204637309 -68.432984677646388 -200.663946345548140
-132.011897149117289 -68.494024824619103 -204.088650951577193
-129.308793474820277 -69.129271786733824 -202.376586213374907
21.243061197814978 -69.947031972046801 -205.763910123817283
-10.443836572020070 -70.737539154811117 -207.922473723597989
92.702631397115070 -72.824187102305004 -209.244662023807706
11.730533046668647 -70.438720872405582 -207.285040670274299
-16.027460826437618 -71.247570293567080 -208.182638471247259
91.254367673147399 -71.912224648717782 -209.513259512536422
6.545869287889230 -70.062508440653872 -212.720239991345835
-15.964087157829292 -65.763377998410064 -210.895275510714271
-5.262549492677405 -67.848140775268121 -211.316001766294363
85.114532217526602 -74.706210384747536 -219.260769437605688
89.411363565116105 -70.544449459036883 -216.671196199064667
-9.767259134167174 -71.471788270315528 -218.778636198008627
2.903053884396669 -69.455666827457222 -221.329791985838483
-104.139617809066237 -71.042971654772288 -216.997339768541593
-144.484045196478121 -69.675554559916534 -221.167117115658044
-3.353247768816812 -69.759972452629796 -222.255094682590851
80.251294141699077 -71.344186820910537 -224.344430232753297
-129.616778345202391 -69.040525363096776 -221.370543503770620
-3.506080236349592 -66.413108670059231 -221.863193696821440
-139.496544717608828 -70.825349230080491 -225.290889481876349
-133.933754964919160 -68.152166717433659 -223.212554366087232
-132.664110645549300 -68.673504287942578 -221.288758629765027
-19.807597281746730 -66.405764244871506 -224.447917183370691
-14.228915451067563 -68.935159938706818 -226.906158291627889
-7.769459185517949 -70.908833379455004 -226.908060915086736
3.624827147193592 -67.022174837727562 -227.583095252073264
-0.231660562394462 -68.796879216726737 -230.173066729927484
-155.770689667122440 -68.602273701746014 -230.521806564981034
-0.252171620888505 -66.656991180650252 -232.394278589349341
8.607263774590921 -66.491056759311277 -231.771500247564234
6.482250807361784 -70.857417254449231 -229.760250983142839
-133.759284250451032 -70.679389100464178 -230.876379552990727
-4.069441003362604 -69.245337441787541 -235.107472247977967
-152.979502397086861 -70.424477688850118 -232.899119172418807
-123.241273131352827 -70.401101328722334 -232.764829676095928
64.121879064896333 -73.839844223376801 -237.787175152321737
72.788947630905156 -70.262055730645741 -234.942939416401572
68.651216000176319 -69.231200978801780 -235.660529751463372
-145.887554987413068 -69.792696483909467 -235.339447028962326
69.288972070110958 -73.624438798077378 -241.033074769204717
61.555136212685625 -71.503040041169072 -239.989663378633594
-154.711734748329633 -68.198507081909582 -233.939597801254649
-16.672052320516535 -66.637666526164566 -239.951243834875299
71.919695436416987 -71.564243245526711 -242.091738228195254
5.800648538618839 -68.741100671621055 -239.163593763056753
6.758020589759720 -69.761043860043628 -241.813563201250957
59.326327309584840 -68.392440992035674 -241.867736416227842
-169.094969051690413 -69.251926615634304 -240.366524591021886
64.912857142116366 -72.921493049205509 -241.653808398047545
-12.724413586981820 -70.844421256620805 -244.286995811379967
-153.476265529566234 -66.679445970224677 -246.029181357731090
47.579116022444239 -66.003182454440761 -250.553105109685305
-87.213082435534545 -71.762206551204130 -252.975440218584026
-78.716405463475567 -69.145420441812334 -248.080810661157841
-93.504310234686784 -70.463862016469037 -251.222499933195422
23.860375250425520 -67.507292981048053 -252.200818935439258
-148.962857872247469 -67.861512085693946 -251.699385464278748
-159.114032054506424 -71.274824508335527 -251.595575161161605
-151.536881631322842 -68.312867474034917 -251.309964107754467
-82.634331287359345 -68.445937853371944 -253.779312066953821
-106.814432793258760 -69.820195902632975 -256.702511222020348
-92.928884159347831 -67.108818668746480 -254.782924850584664
25.733671052426757 -73.422323473861780 -259.347497254288442
-106.219622833748872 -68.756697736945242 -260.346126778821770
-14.685674540366454 -72.560778047156575 -262.034806218847507
21.452850271450366 -70.732081961930348 -261.310923397281385
27.291272166599931 -70.413614410540092 -262.823822265547506
-126.995050179394497 -68.899161720624747 -262.066766359399026
-138.050060492248377 -69.804187525746613 -263.260111521351291
-168.586894811094368 -69.655758392143312 -263.659893191567107
-165.622062462521882 -67.566772204509675 -263.418793178932674
-130.667145027082285 -72.342018019015015 -266.104324751024023
-153.968373052087969 -67.345708474201601 -263.121483564617392
-158.398501998738595 -70.668053986880835 -264.073348909134381
-162.540183528234252 -67.257310494511756 -266.501999580315271
-148.831005181527559 -67.882935684640117 -267.914918660414003
-13.970766411394917 -69.923739822848177 -269.985513075293738
-168.297151821938172 -67.622265333989191 -273.305542072100479
16.685570576775337 -71.842838712653332 -275.968683522825245
-163.942413921336794 -70.350144663761839 -278.158128403013052
-167.619139096601913 -67.001472199374717 -278.638629353658473
-10.712107784874885 -71.100138964841861 -280.030342892778947
17.091867193144338 -69.608080411128583 -281.838024879801594
-169.767516073887975 -66.238194290647982 -283.394896322673503
-154.073468966448644 -66.893284887359982 -282.245916223628797
-128.019874274986961 -69.753151196686645 -281.439870499265453
-9.075666564485632 -67.166068271120565 -284.434190100099613
-124.855434416646460 -69.624756041547002 -284.291465046389590
-119.660118890572477 -68.123312409983896 -283.712189579530730
-117.363346657645295 -70.029120348320646 -285.455690531318112
-94.714224621891120 -69.689955810373604 -289.624610126933646
-148.408746498738680 -68.116271112925332 -285.859462317716520
-90.034839135632950 -68.382012863761574 -287.221488357539272
-70.295076702906869 -69.564140141794610 -290.096425778315677
-164.176128292254162 -71.052802022815527 -286.870383568198008
-82.172562179263380 -72.387341578158455 -288.661090593830750
-93.709940222483155 -71.079938900814781 -290.295139895504121
-158.496527498247588 -68.056355256035189 -291.375341444355172
-107.296487509266441 -70.215302723862408 -291.391119654206818
4.227812422699327 -70.555877866104225 -293.341162979099465
-155.805010671320701 -70.526065763532571 -291.010516644601353
-146.934761424050151 -70.339277081843278 -290.124696181393176
-136.898414564502502 -72.760389885710040 -292.687355007930989
-146.050264318783320 -68.619373619603920 -298.511099077526580
-154.615096273894068 -67.835726296389552 -299.508919281995361
-155.572794523713583 -74.337635759043977 -309.163256122268251
42.103897067090578 -63.568420304157144 -11.184773428281851
50.008697162575352 -68.987009399097829 -22.142932667653970
35.208841435766388 -65.398337623841940 -37.147624656361899
-77.645485158214314 -70.148682774311780 -49.541155157033629
104.291787966819470 -64.466653607541105 -72.324507682814513
-92.828924373117147 -70.000714498110156 -71.089859321446554
104.533293230668605 -67.669065614111503 -82.989320538263826
69.220752522068977 -65.225263696194006 -85.949045486178605
65.065278823182481 -68.742729135944401 -84.726627296043446
56.574647277277876 -65.329528421810153 -85.357680429753884
102.103857519189461 -65.613522611261629 -84.615956182265805
68.192982323710481 -66.935453476839982 -87.446529158788550
51.509018583890409 -66.866135674964085 -91.687788377220244
67.597412104485613 -66.920285408507411 -92.870288188720025
66.265805511349171 -66.784202326911043 -91.979537308356981
59.481448778417118 -66.474396682585478 -96.982381845086422
70.718135931140282 -63.543727436553624 -94.437424459777304
103.567301893934456 -68.683161594830807 -101.470461099363945
106.140430863336775 -66.534256414816909 -101.398393125402976
68.293198638178623 -66.871781289755745 -97.171869418007390
48.829082639896775 -67.734174211926401 -103.686205043856575
76.506206721113472 -70.577742418857511 -106.089752502747501
91.576879809243579 -66.453357727451291 -104.525056114072285
-75.390797890721842 -67.329148966254834 -113.971769393979983
43.582852922145655 -68.693499570495092 -114.630882300109576
37.978186867239941 -70.502945157715459 -119.711039121923662
108.878573732636283 -67.514429788791091 -121.217442766306974
-79.419397415413926 -71.338162388989190 -117.768804077465830
-93.353253702453756 -65.072316668636489 -119.903843667814854
-83.312154364940923 -70.994507050150560 -123.342650097290871
-84.103549464305104 -69.060441347951354 -121.249861132005250
41.769502151069588 -68.859356866609076 -122.397082175635049
-63.448842642446444 -64.515729726281393 -126.736610000901649
119.195476597603133 -72.235581072729602 -129.067837939940262
110.571079628693710 -70.963896430157945 -128.412828976855025
-81.604734189327985 -65.006384255725351 -126.160042633313068
114.266805811297047 -70.160745704088740 -135.355016078193387
-57.340839764607558 -69.098438309676354 -135.150492323319696
-80.662647229764005 -69.478293017411701 -134.458069533000156
-58.371208376969690 -66.213656167368413 -135.938378447400282
34.183650261824809 -69.607100962621971 -139.309057362447902
32.115210776604876 -68.022896243780977 -134.528961669994544
-74.269833956701433 -67.107176529155922 -134.157176365509969
113.940484921568526 -68.399214385230749 -141.999820846403736
-89.708034151851990 -66.006947049799436 -140.350664775987468
-62.705563884075737 -66.938840449236366 -142.634376760111451
-47.066851650010051 -67.546271567776699 -144.739897909892335
-74.482245001396663 -69.668147092416149 -143.241395833650699
35.503252273460426 -65.993023436522563 -142.846687985962291
-52.868123033617934 -67.639463298129456 -143.794818440606264
-49.740543258263841 -64.029997895835677 -146.616918640400968
-96.475481925076309 -66.950185779486858 -142.305954573967796
20.799380149827986 -66.116317922935579 -145.990966452756993
24.667009138634167 -65.453859665031942 -149.149577320451982
-39.764983612625301 -69.902142247746340 -151.169106422066221
-53.281858659712633 -65.348760455831794 -149.925870029191714
-93.466361637168760 -69.347424650971249 -152.729209375497049
-92.698544767572756 -63.343959254158591 -152.631458561674435
9.811900903338019 -70.141162203138080 -152.759087083988476
-46.307171064802759 -69.058780494834352 -152.312125997506996
-39.891472130482789 -68.627862714119416 -158.844194031155723
19.398878511743231 -69.679010763710750 -158.341069918793892
28.999266385046120 -68.764358308877135 -161.867283580435469
15.929601964487217 -68.519393084632455 -164.164493481782728
-97.471562546067148 -69.299650430285979 -165.618653089290291
-106.826926233787177 -64.718464543663089 -166.631765159075599
-38.170275523421779 -70.764646877551172 -167.351752934151278
-101.246504396351980 -66.950933409171427 -171.527402966435488
23.355283453674513 -66.982112759780790 -172.160028368461838
-104.945234239369640 -71.557519548188822 -174.166342399017680
-28.092290748137103 -67.327982277566889 -170.274493912692520
-32.982791797133800 -69.550445424759715 -178.116040787250654
-150.738939972562633 -66.836272858360388 -176.613725234954813
16.465310706772069 -68.739630876648363 -176.779517784817727
23.597816778611396 -67.658187195657490 -181.905938143077151
27.283420800338945 -69.251738495612344 -183.988388853142254
-28.981249967399151 -69.038097541031405 -182.713696068691206
-27.213092387556351 -63.572391775066563 -181.712708333828516
-140.086078249024041 -66.931965950024534 -186.015301411546147
16.368146155801814 -73.409006018422943 -184.621403381572463
-23.173020701865603 -68.336809354863107 -186.641591188358575
-109.901150928113992 -68.237638245175205 -194.566226418259532
18.438165806429318 -70.987799448069012 -192.404030021547214
-27.578760635891630 -68.221493727902029 -194.515053902771399
-117.976731074764729 -69.278508911057358 -196.671400678374539
-19.894189599598157 -66.175900884464653 -196.812025839871524
11.836498339975995 -68.305380297274226 -198.309862962245148
-16.405608321188836 -68.254863828377253 -201.152119875046736
-110.149809845461562 -68.465776506481916 -200.833850666340226
9.961433880948164 -68.989665550858263 -202.996336497195273
-155.357303558088972 -67.272859522672505 -202.572093979896124
-142.373070281585001 -71.533447166637060 -206.740372275009378
-18.022171996391307 -69.164483682636288 -209.248253550754100
-23.649582479215212 -67.143335963815503 -203.568592468227450
-143.995732358585627 -70.273951800153029 -203.478385466013066
-164.135836976525724 -65.658041326131951 -206.474368730305827
14.304486015288136 -67.407774760820530 -209.152259566307436
-14.087972742566675 -68.754110918266136 -208.152759886400702
-4.820838884864665 -68.374775178487539 -212.256729981821195
-151.127060611051377 -66.581355504627695 -211.763206199940441
-11.641988760255780 -66.267081370674362 -213.800447017056030
11.292801016193335 -70.431654374820127 -213.224698819036178
-8.856439166184694 -69.721322919893197 -216.359030674089809
8.551030086199477 -68.632070730678606 -219.890203211160156
-12.090984671104179 -70.017446254354695 -217.260709475336682
-99.580389241016235 -67.104527742347386 -216.837153799519029
-159.130257510078394 -67.328929463314111 -218.571319783432955
11.974576921919404 -64.482250962008095 -224.388978737912396
-100.186530569281899 -68.438279867572717 -221.824846197082337
79.688844847103809 -69.042462025867010 -224.397689384666478
-152.180081139639327 -66.871972443091593 -220.706111851052924
-121.967304995332626 -66.945460668128078 -223.455971310134601
10.979247696082625 -66.511848426041553 -226.303515331682348
-156.222822276056604 -69.337272168484105 -226.022771938887217
-135.200782518456577 -66.738234860341720 -222.826156888650218
-134.725188157261357 -67.685788554809591 -222.259820119027040
-122.449507784933886 -69.818656690542284 -226.009474192247950
-117.127016843983469 -66.433263083991562 -224.329921187946439
-2.527715147203194 -67.924385142611953 -226.944922438547479
6.448172967560891 -65.310442223209364 -227.648246073481261
-167.001946307180361 -66.154593077055551 -224.023367097485391
-11.275087036834170 -69.347317869380689 -230.625402224321590
1.939425581393611 -67.123458855056143 -231.036515563558339
74.165275408451862 -69.055662520268797 -234.742657833470105
-14.041094387075910 -69.686346494521615 -230.432966092885891
76.383995193894719 -67.177153058903343 -233.716570758173674
0.337212245413766 -68.074046832925220 -233.694693748749160
-2.207680102355919 -65.624864355302122 -235.412872590122618
-6.798954198956956 -70.830270656244480 -238.995795286584780
-160.860407831077936 -69.061271953505482 -236.372449663147677
-6.110854376921525 -68.287906628176728 -235.217556611010991
-166.029220137920618 -67.636246155201647 -238.362860369020552
55.875555306923594 -71.118363069315038 -241.552529090743491
-158.425001286934219 -65.281386392396215 -240.753603691700391
13.869787648867067 -68.828697015158042 -243.194254834935720
57.078575439046041 -68.517148322475236 -243.901035367229383
-161.193434984693027 -69.980085688487534 -240.716988902563571
-160.560439638951124 -68.954450885137732 -243.946195042154898
18.440359351271606 -68.750160329695973 -244.302194236453772
48.592275020963420 -65.234740538550554 -246.010660749985362
16.671510223848998 -71.550079532447128 -245.640507487079901
-15.505578541969486 -70.605052082688033 -250.410594106639849
45.177949452506439 -68.796133796114745 -250.888222616552412
-163.191476893818333 -67.904089871865835 -247.169966345004866
39.971530399020132 -69.084530616979038 -251.656462160308195
-155.601399399823293 -70.548535708136086 -251.764111080235864
-159.796070506747782 -64.131696458478203 -249.819752611466527
-146.753583634707695 -70.210063889410378 -249.807965271324292
-90.457941630608858 -65.288193354776695 -249.758508825827050
-127.157653666817254 -68.674868780563230 -254.649683433209418
-98.314964425502083 -64.222894140879021 -251.167206701451107
40.824984884958837 -72.275937936857375 -254.319372748996159
-13.588897242826791 -70.136210255303837 -252.915084819011156
-146.242965480093687 -69.937948915579483 -253.144827757733538
-135.864513548275369 -68.925495953495840 -251.632690288975425
-117.598161669459913 -68.692318394531810 -255.595220330275936
-112.327595339933779 -66.259016581660731 -256.003971065292660
33.790853582693195 -68.124379270367939 -254.997782256811320
-96.232590525248455 -68.515096586212437 -259.094320201972266
-155.711339529727496 -68.343890165642961 -259.736461736621777
-166.218614471558254 -71.124447117702843 -255.299031710816678
-161.471173168154735 -68.377589126819899 -254.756403853109646
-163.890142948578557 -64.436553887442372 -260.220678747406566
-155.881297309400196 -67.501646546666805 -259.237255133257975
27.021608262239916 -63.153702857074620 -263.584620654843718
23.998078562602032 -67.908016856865430 -263.209528976249885
-11.695885376471699 -70.470419955069332 -268.819530394331707
-151.062726210989268 -70.413000888542740 -274.728559547396117
-9.573534043550284 -64.823250494494545 -279.372018261399091
-136.106244248801062 -66.174724593643489 -283.676291730114826
-142.159685131882043 -71.203301140775480 -285.450734022158542
-112.574666010771409 -72.817480353758427 -285.482142765457183
10.087541659547787 -71.468095037192541 -289.466732529786157
-91.809926659587632 -66.303149705318148 -286.225154129519638
-152.460583321100955 -69.155575768114389 -290.962261681104962
-100.233161916645201 -68.986853525666817 -288.024340187562927
-5.733329006562945 -68.808553591406408 -285.839970665419003
-152.302893162766111 -70.659703475713528 -286.740095949125362
-103.221186075075721 -65.717644441065289 -287.729102932524427
-141.278018233553070 -68.341157306167901 -289.709662681830139
-2.124400589576925 -69.142915070168371 -290.640747042502255
-139.318422958313647 -69.939172605884750 -288.678958049333346
-118.914595184064112 -67.206685329058800 -289.189997319828763
-128.871104913498726 -66.795852516592973 -294.699941456198360
-150.100605218066420 -68.204016695386542 -299.868818282619941
-145.186196470247097 -71.248941669002036 -297.488794668764513
-147.363149974292753 -70.753188669140229 -306.755159213031220
46.719027121120185 -65.983283351018912 -33.829107072484618
-31.979069175905366 -66.539969448441397 -47.827504459878469
94.164986836074277 -63.965253479109528 -66.836872361540159
95.410416131056124 -68.996952898613642 -66.413164136755753
66.080595723444148 -65.571984133376887 -75.531624742170294
-97.628569232650079 -65.746826170115753 -88.418261179298227
55.808778330715846 -65.350990424151760 -88.000895933494931
58.498452048852073 -69.966899445287325 -87.644918758024090
-52.846411095117134 -68.053880795527363 -87.654022658572586
51.986303025093228 -65.274618006948771 -90.843160955786090
64.951848682468182 -68.600694935281155 -91.661415689388718
66.053759882753667 -64.689738099329517 -93.533005561810626
47.509507614430845 -66.875834720404271 -96.501011120614905
47.580099403543436 -65.359192282961743 -99.526393417214408
100.611799123420113 -64.353696520494125 -99.858141668666988
-66.624035880243142 -64.753296541213302 -96.855125606849342
-76.902742775159282 -68.020021000783331 -97.835333179803442
57.460320700938148 -68.912591814810682 -103.605651983030640
70.531049670452816 -65.259108238721225 -105.044526428353279
-68.494637929588507 -65.228931934605228 -100.798791939693785
-76.036250453472633 -67.406990551614854 -107.148674474002931
-73.037511700647443 -65.800579645813826 -103.072919025037834
90.665803811925443 -69.574140458101340 -105.323595583191690
112.426542514251722 -66.232858551845126 -109.033472374076396
46.312300895243347 -69.030839722230851 -106.234738736354288
45.189229437283132 -69.365071440399646 -108.992678939369043
-79.047489209746033 -62.170568633856654 -110.249599889375915
108.036737604628158 -65.440686477083972 -109.876420308009912
111.759390863294001 -63.052703487341283 -111.357686882448064
109.813709544594545 -67.253281532730369 -116.473954262997665
-84.127217397888515 -66.605332666977660 -114.902632547599055
-80.911174211427365 -63.665083835801020 -119.179725910172337
-59.548129433766540 -66.885638602483070 -125.516023969642546
111.062248990787822 -69.638213385663192 -125.371532184563293
-82.172698579986374 -68.762597207853432 -126.293592997330833
-52.518019225227590 -66.989426532573347 -127.729040192437125
-66.301446688517387 -64.948283537202656 -128.469701647646048
-89.673134175571079 -67.122695422788112 -125.926831622455737
-75.442465546717003 -67.157301574101936 -132.074090290146785
-70.855366484949585 -65.608265290991795 -133.226329182446676
-74.235767020395045 -69.314333078008787 -132.025470977980063
-58.696769791822518 -65.168472538124959 -137.578714092620885
-42.754231773214187 -64.173582297724579 -141.504765463022494
-70.828037461468526 -66.377882076270609 -141.436261854270697
20.834770143005422 -67.696642676565489 -142.328951861510404
-71.204968528986427 -62.834508634500580 -146.410643424427377
-46.836499126391949 -63.846234521979000 -145.252972817452815
-91.307666296450904 -65.125178465857189 -144.296103648299152
23.243782138010864 -67.161653508828849 -151.013726351227575
-45.424737637693411 -66.252870766653402 -149.509716334178535
-42.151353527227513 -68.254664593142820 -155.694557227052826
26.779126567319430 -66.934101683978312 -156.769857747785210
24.332922920415292 -69.406056026469642 -161.138616806184530
27.635231229233881 -68.586700250833445 -165.366356690078419
23.087780971748188 -70.006435614271822 -170.248123074843221
26.183099204503232 -67.416045619394666 -172.911670836846071
-151.566059896745315 -66.738858871861439 -172.951873629201742
-107.238604240975079 -64.063874784421571 -175.596505972201101
16.808562308448355 -68.017300358638323 -177.835996088426072
-109.350441678942545 -70.606148920934842 -179.051258174923078
-105.279849069353631 -66.090325276747279 -177.436953281429169
22.266735889509125 -66.633023368421647 -187.600253008768220
-104.249587793642874 -65.624600024822058 -190.609752650869069
-144.915784574009081 -69.888598533121936 -190.387166870801252
12.510656088618950 -70.052344059115185 -193.003658776096273
-125.888706833361596 -65.390452291169780 -190.813440017091267
-138.188581466199196 -65.579051741233258 -196.050686767626331
-131.758821656261347 -64.280575029518374 -193.984646333633208
-159.703219755086053 -70.285265037946587 -194.522576908283298
-123.188305348340606 -65.809554927798715 -194.258985668415960
19.040532748455497 -70.526280236551429 -198.138884282995321
-114.206879976599069 -66.906158976978062 -192.696297669730598
-107.795419408894475 -67.591937156885507 -197.322011005496108
-154.404604950829764 -66.959305901351769 -195.905099003687383
-163.413668133196495 -64.013945905256932 -196.469196935085961
11.618654392611264 -66.011816952362295 -201.362579613760573
-161.505517323780310 -66.357232976969343 -198.055572443632968
15.324974911935509 -66.160574324131346 -204.285768468757055
-18.949270197436043 -68.309749593341067 -200.077446908472552
-119.384109177436187 -71.681727439280422 -203.298010536087531
-164.982097915197585 -68.293751489702046 -203.592850417466593
-123.337291070920671 -69.437642329825309 -201.536965406009131
-14.614406077106301 -65.495116722014728 -207.913159866305620
-142.130934268357123 -67.276662797372751 -201.778362212168815
-151.019652225036253 -69.597154592292441 -203.778946585766334
-19.774276724966484 -70.616978354987992 -212.941358847226809
14.255148514968596 -67.146106568860176 -215.945172417905894
-165.021870588328795 -67.404308538811264 -211.835311768268440
-3.551711272620302 -66.860332835511272 -220.345586075181018
-160.231336204625819 -68.097695016906769 -218.894260655398341
-102.808298025117764 -66.384790768446535 -221.336531694470295
-101.656330255134293 -65.014001142389588 -223.730982442622377
-152.358321608342834 -68.237745596935383 -224.916493675736717
-141.837358621720256 -63.997202469409849 -223.839201576055046
-131.968251766748210 -70.259469168212078 -224.135712311012043
-170.827368518980137 -63.618402012374254 -226.012026947925307
-104.563389304688883 -65.475082777738308 -227.503317563576218
-159.437746970129012 -66.140290094569622 -226.928872686366958
-3.064289142455445 -65.431367637345872 -228.962568887698779
-148.224809649332315 -66.774260196671307 -226.335239905671017
-105.618043832115987 -70.628952562209790 -230.109434844998844
-145.627584133578750 -65.425668196557424 -228.307924503446884
-110.902579974879913 -69.535619483759746 -230.803281538130875
-154.933966234578293 -68.451716054845704 -229.082575199057004
-140.079244944979166 -66.714863009761103 -233.950611067586522
7.251375627728398 -68.035474089814741 -234.614767028085424
0.433065015209153 -66.990345596139193 -231.530906063935475
-156.000534438577546 -64.870029328710686 -229.738136812957606
-124.549783384344465 -63.630320944381431 -235.664064814039534
67.997255592954119 -68.082373344481752 -236.395771676000322
71.702916404167013 -69.420295701148746 -233.904909381224343
-163.225170110990007 -65.616584856970547 -237.144299510608192
63.187502693313775 -67.677150966270972 -237.977604121925395
-2.991379756106125 -69.626844955635590 -239.810755607637304
-2.616088919545823 -67.310063102960868 -239.164294866142399
2.625962465291065 -69.553519773507944 -238.117027367865802
-162.380536006043855 -67.990472864290055 -239.526917508877574
-12.287185702347642 -66.872932173174760 -241.076119793730385
9.259227969458196 -63.958099405132003 -243.269938059100497
65.670202344039694 -68.843929771485278 -240.002640570446090
-6.309180429364480 -61.985458848216105 -244.758804153459494
51.267102188471796 -70.945005429303606 -245.378458309433142
61.007746062031813 -66.564971485666106 -246.763479326629465
56.233217777208395 -72.977808974849452 -243.038270170176077
49.686066989422358 -64.528097120208230 -249.698487998849032
-160.657673506550594 -64.930779002697847 -249.179888001583834
49.587453455432836 -64.100560222681708 -248.308952342737314
48.374498259689609 -69.126363775054088 -253.861183384208175
52.831158413956175 -66.487069912295794 -250.948263505157286
46.680180790878069 -67.870157380292397 -251.532512765746674
-134.264836105851998 -68.540864256775677 -254.738532381646905
-100.460306628287000 -65.099167312190289 -255.241555142683580
-91.349809943531753 -68.062161738115350 -255.634527299778313
26.509421689267175 -69.487421856614418 -251.979618802844755
40.886154518021378 -68.761298137987609 -255.417185074934366
-137.623466966367175 -66.268269347208800 -256.016278965904917
-123.260296356992924 -69.721940012993514 -256.874772514859956
-153.638656992926144 -69.436743703997124 -253.536343534202615
-147.191789492296266 -65.544755586994853 -256.430040845721066
38.309577303362182 -70.520951640557527 -258.512421256484402
-101.105040731138132 -68.145352947071558 -258.166372016029129
25.460977984470560 -68.576632732875254 -258.897095984430791
-152.930814098361338 -65.176033340755410 -256.680454101105852
-107.867994147194906 -66.396785045391610 -261.178225303269301
25.742476461039036 -69.460540152276963 -259.054767823189252
-142.425078114864050 -67.865424733428043 -260.710817640076129
-109.960494879179635 -69.369138692627160 -259.553505113321535
-136.703706262622887 -67.276069563561393 -261.342160371814145
34.675019107078278 -69.210444160700618 -263.487883261133561
-8.473065370444422 -65.956049523607163 -262.841917747104333
-135.510440422033668 -68.563797648378753 -264.146189034301131
-128.635792012381984 -69.341602967216005 -263.050078963150270
-155.063476217853918 -68.808642302940484 -265.428446928271001
-5.272155930858968 -72.440514415015670 -266.694352938905354
-150.828553340478891 -67.137014109754290 -277.136951316618422
-9.621612404177874 -65.508409073022989 -281.530440150909101
-147.898438933638943 -69.005299972172196 -277.825535062080519
-127.725453456591737 -71.085478397785053 -287.789510824308024
-138.545288955924491 -67.593540434069766 -285.009403438769141
-126.283584833152759 -65.754489142678807 -286.417821406554424
-121.995861547233858 -68.898763651666599 -283.314595783984828
-116.720656788342836 -67.985349629803849 -287.880483598726585
-108.226976599224585 -70.132406473680703 -292.607200519713558
-135.184634449558558 -68.726132479451849 -289.913664173717052
-112.741369626209703 -66.648943327202488 -286.054636891394864
-125.452056388579791 -68.128535803362766 -288.535756246903190
-126.769086179744676 -68.381566195598836 -292.893228364144022
-145.183040379652681 -67.558251156445976 -294.947205621232229
-154.106203975243147 -68.701379055293913 -293.216204466046406
-150.781549369754174 -67.183595685404782 -297.107216370013589
-157.216019251060629 -68.092509283579901 -298.298332531003496
-150.225939240863767 -67.442385587723450 -298.108139024325340
-155.043999430012235 -69.404184293198171 -307.720185749449399
-148.935526188766232 -63.184186738641671 -311.932813598990151
-150.965870318174467 -69.834510236671832 -309.427580732020544
-15.300604701245659 -62.841548918966687 -55.765161460386906
-87.333991210672309 -66.434785850114920 -60.362188606181491
78.381912193498877 -68.755274026881608 -66.554349139600973
-6.734461191897964 -67.340830529352175 -63.706470377449719
-14.332112511084071 -66.036119729614470 -68.198689307779219
103.053678986139289 -65.704666097775871 -69.002293793617341
-25.185764655066084 -66.369320255716929 -75.386678512035857
-96.939269620384707 -67.624797684132673 -77.130028612239769
-31.539301632568602 -62.070733347906547 -80.025770622162881
-39.866420193030599 -64.950585653122658 -77.165953811103691
-34.173604159362071 -64.269702436061877 -77.013913226846853
69.132352303713418 -68.106052275511885 -86.488938617750435
50.033106440216606 -67.521936377734391 -87.446057901220428
107.730091979160150 -67.936826218673659 -91.195673432576356
-60.461412443366477 -63.163537175701819 -91.866379708295895
58.791810084577364 -66.471362321258766 -96.116041978295655
104.359191304035761 -63.214455648603362 -98.966668235290570
106.747618933970998 -68.163179215082010 -98.439251297598886
100.476374187267979 -65.726028567977778 -98.562864886600352
109.809541651736438 -64.383171573858377 -97.359710968940306
47.415024701387182 -62.152888677380290 -96.971092501738468
53.940994722619244 -66.715738263904356 -99.327771974984643
-70.443464716946380 -65.054707020395426 -99.708204508578348
53.961957473801725 -67.180077082034074 -101.649531561409873
-69.996862535549269 -64.417267752390956 -100.542997203596741
-78.323696137276428 -66.866441587016126 -104.438476190265987
45.164342911939293 -65.196778701263995 -103.698173037756789
108.662955207481644 -67.376824322206417 -108.040874981380639
45.873364980453800 -66.892924927816551 -111.836960925914781
105.036880242520937 -65.087535542614830 -110.725849464371336
-95.459877572327983 -66.704193777609660 -118.430747636027476
-95.112353215474798 -67.733974634231174 -122.606149183440451
-87.809640945036733 -64.636139494199739 -119.051060323853093
-62.779284653181300 -65.113436698866408 -125.039493392582202
-78.709710788514855 -70.142031856111927 -122.514998883067406
-81.567664880596013 -64.236358920865598 -127.831172762801984
-51.523419175282463 -65.018460926652935 -132.145095727685799
-86.230654498446171 -64.134086783907932 -132.811854193648799
-49.436638477574981 -65.601294637022434 -135.114784959522723
-78.973108768375297 -66.851858362865229 -133.413844341312966
-70.528968224065721 -65.917371912174545 -139.923336518264023
-76.964752025342904 -64.474684031099216 -138.943645700262465
-94.643884152735012 -67.358510019537050 -139.035829929985397
-54.037297437619443 -63.896918030352168 -145.073183533911987
-49.667402426056199 -63.589456341070537 -143.583063602274876
-97.502757520034152 -65.660895301067853 -146.259992600017142
12.362942830042657 -65.567581993294340 -151.316183396576605
16.586452411761254 -63.602712933633363 -157.226236641894786
10.709577467754103 -67.277387591923414 -155.771064621308938
-102.280578101976928 -66.581473330373981 -155.105554959469401
-92.759677593352208 -66.097221443736373 -153.851114854320031
-106.965871041564256 -67.680709259941466 -161.345189634455153
-99.144600628272428 -67.577152062165538 -167.641587729883582
19.429463083923938 -63.136509729193783 -171.959617327562881
24.596631658745977 -62.975356825073511 -172.822119065929542
-142.278896857971120 -65.117968297899310 -172.046086007114184
21.706503162815284 -68.343524895844979 -182.825036119588674
-105.358871477159582 -68.851145830661608 -175.459056631032496
17.429743501169025 -63.601317516096046 -186.563243097352711
-153.202340209940729 -63.187852920254315 -188.004372064516133
-143.452208262243204 -65.487312556023568 -188.100316000741799
19.200582836237281 -62.098403819165419 -184.915760937870601
-109.866758801949416 -65.350079152655425 -186.519149932151976
-156.353953278873547 -63.789558974379901 -190.945718133734488
-126.195132523934205 -64.965866400047332 -194.144350956861985
17.395447788009772 -68.258590968383558 -197.286461982011190
-156.597368938942850 -67.419627914589540 -191.656932519703673
17.819763450835037 -67.416272002773283 -198.305315895075665
-21.366570230194689 -67.224549977535887 -200.062695144719328
-154.334072543271333 -68.012664052709610 -193.763369959864065
-162.922082750630153 -65.861863532703268 -199.193469159286082
-158.052347745620494 -67.977549818820393 -196.637836445924847
-148.937634280421520 -65.669471016235065 -200.777239060842874
-109.077824085365421 -67.417431472364441 -200.340506433110477
-16.100630998606960 -65.866295223900181 -199.746503455200667
-139.991284698199109 -69.731272172367539 -201.251789848623559
-152.638544689617760 -69.343886306257772 -201.199033195195824
-15.799027349003842 -66.643633541392234 -201.436851170732126
-165.326633109022652 -66.010443465734724 -201.697303508241390
-18.185437422787842 -72.190293444379876 -207.177110718798389
-13.051186705308410 -68.047468282908156 -214.825098312443089
-166.368356028432345 -66.353727354171681 -208.697450710581990
-11.189151518637226 -65.273503735164198 -214.925446553178290
-162.181585110273630 -66.381805568057402 -210.319124478077839
-145.212907250203614 -64.928837708767020 -221.572512654621448
-2.777474847649056 -67.341549380993385 -224.182376126267940
-132.181745254378541 -67.226338328486520 -221.209911560389855
-110.200858808973877 -65.767004835302799 -221.517683262546484
-164.522163417919245 -65.199191009085553 -225.117560885940122
-116.236522137488237 -66.836383780928401 -227.835503222033907
3.351859000455149 -65.578917224418120 -228.436348568053745
-0.956189678013829 -63.856787997915518 -231.556724260466751
-148.933946081898796 -65.303845485396749 -229.454002916638899
-135.193550439566735 -67.101256226641567 -233.402511269719014
-116.059677251149239 -68.617307461567194 -232.316975360246460
-4.292155521480586 -68.932403728842729 -230.654353628306126
-1.414541188381730 -66.432701337439596 -234.720398998794082
-7.127034742541561 -67.481353979705332 -235.857393742988592
-10.137867600391242 -64.623278711448805 -237.952353682526478
8.366294085075721 -66.655332433100710 -239.606584347374962
65.081555074936290 -67.459067175636648 -240.284429457659911
11.691355727433034 -69.389230163811163 -240.610483616172559
9.007957490214036 -65.516831648717925 -245.019971240401986
-12.264706046578596 -63.291459454982778 -244.039878462462070
61.850370528919022 -64.070234165903344 -245.938285637385405
-12.153670769466416 -67.536772954416278 -251.118581599890717
-150.080164442120036 -66.615267053397503 -249.583096511861072
-145.322330261302170 -68.690809123560257 -252.534417789681015
37.101038849515184 -67.796996273720211 -254.188071526057968
39.572691079734902 -69.689911186209216 -254.188644832450052
-143.072489814513546 -68.384001545714952 -257.654897204968506
-107.050205086833557 -65.099689071190298 -257.065247915996338
-114.932677771305322 -64.398090951176371 -256.253541019294403
-119.935290991890938 -66.100126433880590 -258.453613030492875
-111.432665801463315 -65.480434007502353 -259.001502581747047
-133.323201729087288 -63.721283104690954 -258.448273706479881
31.478183417654947 -67.477451946550815 -259.793310350346871
-119.187328229698394 -65.672072031252043 -258.982248035389944
-5.208445016448703 -65.388371626648578 -264.127982072789621
-148.166678372720895 -65.393003229688205 -262.458618795186396
-8.349813186992227 -67.010220440047263 -272.703214691342566
-5.188766161033728 -66.898071987420366 -286.382659276230015
-134.072455958405271 -67.154703529457322 -285.796315037198497
-5.732412056612894 -70.795337726374797 -288.415485827495672
-134.265787062870345 -65.197422358319756 -290.856686013476690
-128.167307239749448 -64.797780363648229 -287.628299061079531
-153.141961255304210 -65.495587535558300 -300.317621895743855
-145.243104738041382 -66.266708019581117 -304.180874585498202
-154.152918215444203 -67.682187209610916 -312.327177429654796
25.024351320733242 -65.939495960407939 -25.961382726276046
32.614985542440934 -64.189445435153516 -38.440516786300890
50.881090954870643 -67.043030243573952 -35.615636232795708
-61.154651394265414 -65.093138493346274 -43.934517726414896
-55.162014609510493 -61.631158124912545 -41.762867184825026
-71.418141569697170 -62.625887383202496 -43.694917058736451
-32.696686489691032 -63.024193963742114 -47.985453360593411
-76.383653016772570 -63.505802415092084 -46.021521323541634
89.675537053352357 -66.777832273411491 -60.069396994693804
-11.347648848432945 -67.221747900256105 -69.639782127415842
69.096127321486136 -66.770108429862688 -69.225350909800596
101.097703825891358 -68.720449248262057 -73.418726141506994
68.815652469432720 -64.510190651654995 -70.321577371159492
-27.622191211295377 -67.071930194077879 -77.222642171773117
64.053781003486520 -63.783162906432679 -83.615917911159301
-45.729287884968251 -67.185419775351136 -81.546086502626068
60.053707825518373 -65.260962616450996 -85.523996632697191
-51.851877105515683 -65.407964219510845 -84.492306054188646
-60.488636156884027 -62.747876700426431 -86.447925887522160
55.815547641452220 -62.625175890765611 -94.781467040804344
-98.778049004066233 -65.908849999789254 -99.269590330456793
62.841854886767671 -65.531564807339336 -95.590565936808702
107.247139186846070 -62.993197934204680 -102.208368014914484
-74.204977918648481 -64.626414935307963 -100.259861010650553
55.790012363714915 -63.400147537812323 -103.453328990240635
52.142023447673509 -64.314128099548896 -105.420373476892991
-96.763046915964736 -67.270103948390414 -103.196049126173591
78.961789033819343 -65.303468540933821 -106.785915123905568
-82.204035339043557 -66.128133431469990 -109.511642485450636
-75.143672801583079 -62.942881919177445 -114.157836982019646
-90.064931317637701 -65.286610247039476 -116.979170058362314
-58.682427360490742 -62.440883961444307 -119.537405348541611
-59.064606579644163 -65.528539675276036 -117.511245950975820
-65.169153406236703 -63.718271238490118 -119.832474926510216
-88.790164150347010 -64.808085933792952 -123.888926383484900
-75.285394087727312 -68.176648814448200 -124.698347022799041
-77.952129425438912 -64.039081201041000 -121.415415434717787
-51.586996015855838 -67.599638075551908 -123.249052350288267
-90.485427366719378 -63.467488109154111 -126.791812242189778
-78.148307597114425 -64.523785998141818 -129.847332666769830
-51.213651350622122 -61.773710340958203 -132.265347140879840
-46.746390471056237 -67.153200131044386 -133.809883668956729
-94.707892828801903 -65.064865198514710 -133.051730603199559
-72.662131729580594 -66.952144799143241 -137.492342304298688
-50.232291685089720 -62.413387491900693 -133.355910016878767
-56.635317545381042 -65.436545033709663 -135.804513880433262
-89.035955593561098 -65.993401033719891 -141.591902116876440
-49.644007709876128 -64.811563505817389 -145.450952350443146
23.293951602568562 -66.300153243792678 -145.791548975819552
-93.201721021284158 -62.566755743340359 -147.575222793089722
19.576800491210385 -66.535681513425970 -148.406894216314583
18.243986637511718 -65.533985614022555 -151.074820555927232
-101.293666752080924 -64.340390562755218 -157.022367788017192
-108.143967999584873 -64.697982682426229 -175.792753384191315
-151.678592081179403 -66.062157750755517 -174.503800728738469
-105.670430931602951 -65.145494072570202 -181.069246325335001
-145.277014529459933 -64.290632876678018 -186.245283809089472
-151.543409803740474 -67.214489459991043 -188.077787213714942
-111.183961762875782 -66.107756910191000 -189.145139201918937
-153.300557949191131 -65.134025209700766 -192.863888928969828
-108.465439943818794 -63.690844794140872 -192.543172481066307
-143.892376395278575 -65.493259860824836 -194.154415943231527
-145.656442897011686 -62.259012734165331 -198.546994770046609
-141.485990437567068 -60.494514334125974 -202.635166714194526
-134.367811483430899 -67.401732631070459 -205.395518976796239
-132.322160678222644 -61.857417303020583 -202.069403144354538
-118.476646721516829 -67.458394713105889 -204.244827325795768
-145.902461201544952 -65.669757548902354 -220.662528803303502
-141.866143170208147 -67.646219866322511 -227.628807930821040
-134.931998768027313 -62.673293254191400 -226.237054966128255
-123.814550811829022 -63.780755118186789 -229.686974989581159
-111.117468189980187 -62.573092890329960 -228.425551215173130
-115.219177562669188 -65.032466300754891 -228.382057535177040
-125.428805947095526 -67.436861881898594 -229.225715580701547
-135.541507761179446 -66.839902995359921 -229.278837493219243
-0.679617990271609 -65.867850444963324 -231.767927668359334
6.023427195189513 -66.567670219683095 -236.027839882486631
-114.509934320816640 -62.661899802893480 -231.662189029685720
-124.221352031073309 -65.195848243015774 -235.144046574618557
-148.287912312205520 -67.080545294725908 -235.519551566391812
-143.575855141090244 -65.403827143921760 -233.226572727421427
-6.399690924293690 -68.635021241415998 -238.460768812389603
-0.103649149221369 -67.954515322419525 -240.155704496159501
11.429129691715483 -67.072130992921529 -242.543665239048494
12.823198979435890 -65.416558732783045 -241.803205689005893
59.725803107495267 -66.132142846734652 -241.007217176263623
53.553596514248113 -64.094009251564231 -243.713752734835907
18.010208485061558 -64.535768031381238 -248.218381326355484
-152.102662520118088 -67.383739448795438 -250.467514942757703
48.626056085766962 -65.786589300522422 -254.755643869450068
35.123874253768385 -67.690863354437283 -251.155358331923935
-128.796866401448597 -63.798683320851367 -256.399685837317861
-132.295506493018024 -68.661419227490796 -256.330781578011965
23.762513389926273 -66.786339971136087 -257.057289054245359
33.517142363981975 -68.752038100930179 -258.825031088965545
-127.587082475980509 -63.200418597176515 -265.963331995780777
-127.382787824059733 -62.981691977983125 -260.317542154435955
-117.839506219778784 -67.662448293024951 -263.138294031702628
-2.445327124861755 -65.935405191049355 -267.791857781360136
21.641812873460839 -65.800027071450927 -269.012051107117657
-125.842013953703486 -66.382034619413034 -289.285376317767202
-1.685203295601883 -65.883169070723127 -287.922874286107970
15.608530368322070 -68.760823987122507 -288.654440173977548
-133.294547052055123 -65.660544883295231 -285.456354030210605
-124.836094345384325 -63.023118168298410 -288.298494214611367
-124.497929746716309 -67.206421681768674 -286.690712673729536
-1.567850606007704 -63.477062229533225 -288.630349685772217
6.097432617557487 -67.588704799193394 -292.449910650386357
39.692104731658681 -61.803580177701321 -36.053116600491308
28.194024709373750 -66.224408639132434 -39.384779924784809
43.706116864354506 -64.454532029659674 -38.960840422160487
-44.802993020241907 -63.628777577181530 -46.105592880313523
-18.141244011804321 -63.162980600122538 -52.088210302596110
-92.461875514570821 -67.090639239294717 -64.797890573623135
-28.096634948331815 -62.926148733317419 -73.648626825386785
108.499084571363895 -60.777561476033341 -82.509136475619414
-94.907067056314460 -62.036414709288032 -79.671074391441763
-44.316778072368265 -60.646891293972914 -84.543722563348226
-50.162457841772451 -63.454476539199050 -85.849970726309948
108.275075956447751 -65.605515016575481 -89.534618983053875
103.664686371500778 -65.197977281087361 -89.442442921413132
54.932200211646034 -65.762232496662335 -87.861139407392741
68.069124209274094 -65.308777554686827 -89.130039616100035
66.237844397614325 -68.106116154186267 -95.595971310819650
-65.777384393015723 -62.300210731925482 -94.059461195016340
60.860532356076440 -59.544361615486146 -100.467520849037555
70.564962737064420 -64.815343680290567 -108.113964164499279
-67.242086540249673 -64.100518363653407 -104.654596952159068
93.115456703387665 -62.387014777721568 -108.959668660289495
-87.597570019411990 -63.619271519077564 -110.027095514320578
-83.996587116280352 -63.309669960845191 -114.109373306823542
