# This PCD file was generated using the MATLAB® pcwrite function
# from Computer Vision Toolbox®.
# .PCD v.7 - Point Cloud Data file format
VERSION .7
FIELDS x y z
SIZE 8 8 8
TYPE F F F
COUNT 1 1 1
WIDTH 784
HEIGHT 1
VIEWPOINT 0 0 0 1 0 0 0
POINTS 784
DATA ascii
-20.154162540121899 -61.660985307539967 -71.796659212727391
70.489711221606285 -60.290497141168245 -79.321461420481015
60.299015563387179 -67.569069897887871 -82.822942222435174
63.920894325769581 -56.643267478236197 -85.803001903472605
62.419339818613722 -61.689877416784284 -87.593346764297763
65.221022049966678 -64.349649299232610 -96.487752871465759
-55.913154883807060 -66.922188277512376 -87.753942841550511
111.295678617438512 -62.679718111877392 -97.867915350719855
-92.749573965902471 -70.003490320537011 -97.119195933353794
105.167792263175144 -58.585558369852230 -93.900967340239418
97.790381899611617 -53.365251124428816 -104.313227601416159
-76.265540197492442 -69.607259725947557 -103.445642600448238
59.336490217359767 -66.452491236441332 -102.210225054397753
74.821123274563419 -67.765942261546996 -99.388029149125984
-83.954244957957002 -76.077461762775769 -97.945846610638256
43.747659218782189 -60.722758034787539 -105.813119587417148
103.733676516200902 -64.708579179936450 -106.856312835862880
58.416372240618685 -57.411262649232761 -104.865165611062238
91.036329065937366 -62.110820364071245 -99.833890778977107
-78.970166406329724 -65.818700636307483 -112.079996697550769
51.798648500692117 -70.845371759027188 -102.732033313382331
41.804036416732799 -59.723457449363423 -110.346074112654023
44.134530107347686 -57.703702005690047 -107.962278789260708
-77.564754508685454 -69.380618152063633 -98.613141448012371
-89.773794951316148 -73.529105456072429 -110.386733357334649
112.196584236899156 -55.721439860406790 -108.007034931099170
-89.240092836444489 -68.648383102674657 -115.006282987093812
119.123093705458288 -61.117611765503334 -116.559252863242477
53.138863226565924 -61.869256122634049 -108.638424141379176
33.426125013631577 -64.499788578377306 -115.376136886365117
46.299234688968063 -57.811217192870245 -119.995918931759391
122.145892638169940 -61.411304451366867 -123.376931688847336
-77.061701604747626 -66.170023839655485 -129.120363553210609
-53.444644985989640 -67.918730514688690 -120.981880808459422
-62.285598652496489 -65.823430535032443 -127.791358286384096
109.037585429516199 -55.627659727118534 -129.064827408247737
-56.980316207907720 -64.080416128587260 -127.287340107019205
26.672612321036031 -65.682254478973462 -135.025936319330469
-75.128629800650273 -65.644761506492728 -126.195498806442416
-88.480433303088319 -61.765389068204719 -133.582479934185898
117.823205921826187 -60.091044788957106 -129.464591445565475
-74.676114257444240 -63.453561682702450 -134.154795039321328
37.722569705873148 -68.057120528065425 -130.378494979158262
-68.595677182489311 -59.087727329040163 -134.686129826896945
118.683590837925010 -54.946145823012515 -129.731264196598602
-92.964755385442032 -62.343248308293632 -132.114692171359707
-69.597591909621173 -60.005484386986993 -136.247730348199866
39.199347918316342 -62.378340732528379 -140.808444300849999
-76.964596457322912 -69.089365971920529 -142.915649030523070
107.653902594231369 -55.991044955833388 -145.981865889741954
-69.506367819825840 -66.380822653331094 -142.436763354840082
27.626797196765505 -59.171886708734633 -144.358978652347673
114.997967501327992 -60.746988858925071 -142.008774677728809
-44.145428384442866 -70.699439461803109 -142.417996369294684
111.696623249283647 -66.321021960922025 -138.246037224473952
-43.869836575858599 -63.050290909017306 -149.591481993198443
-45.743200587875343 -62.822970936705495 -150.232651322796272
19.051944410105712 -54.615158293447053 -150.847651654933685
-72.314432544223521 -61.039822474542639 -145.634501260324100
-54.218297403873336 -68.166754771630110 -151.260064691638007
15.063708942432367 -62.764761793882592 -153.361085538889000
-32.857733276106821 -66.663749156340216 -153.275131981650190
10.735451059593148 -65.813921446415875 -163.353385174259159
-46.060668866944873 -67.349151870451990 -152.485726271172467
14.319604891390426 -65.828152763706839 -156.492489981209587
6.794886575118171 -61.741635516109270 -153.122849275296602
19.645166049687351 -73.297088887597894 -163.386288149106889
35.695496793743466 -60.742594594544919 -165.374597824359881
110.470443423726607 -64.510103738905144 -155.736449742768883
24.270425255553487 -60.933839789398974 -162.026177249263867
-33.663617047995075 -61.208762141746966 -170.469098441690079
30.673787794208760 -60.897452046877653 -166.799382828276606
109.604789748952086 -54.470798826869149 -167.130660457489057
-41.618970692167920 -66.085468779800820 -168.782850439382287
33.339830765733439 -62.143415511794196 -169.406640854471419
109.281450383695486 -52.721804741607215 -167.336824813374363
-147.568477813746966 -70.797565439744986 -174.957310345889368
-140.141227195379940 -70.359114808641067 -173.330786883582533
21.542499571554096 -64.745120866993219 -171.151887725506811
15.355937988605579 -62.565779390605080 -174.295895366527617
-115.334282135720713 -70.661055106680578 -181.133703779928652
26.522586198010782 -56.489549818133057 -180.618632492707235
-16.876937165691857 -62.564182693842568 -177.830797445275891
-107.467335385411971 -67.905707717536771 -187.785315563901520
-106.769081825848318 -73.168933651435680 -182.895786261895950
-28.537398869182365 -61.183657674804131 -190.396305681096749
-146.772269999076485 -65.823310211784062 -189.947378957154342
26.033573197080560 -61.544577337062528 -187.234683374107021
-21.481291415041536 -62.055460966232374 -191.924120282015281
9.495999185338233 -67.208024981066629 -190.887200850654153
-18.650310234321562 -60.968388959077501 -191.678171675213946
16.133523064177087 -65.369413669720089 -194.024996121608552
-134.471988279763167 -63.226187036330352 -192.587459125715753
29.862738985653980 -55.564374181785119 -189.246488132231065
-145.569892557236926 -69.331660145567511 -197.628448326486080
-28.459264423441823 -66.167398335339229 -196.741080805119253
13.375135019700961 -62.431985607629940 -194.128766957081837
-159.122967335248688 -66.586567528020410 -197.355436888551282
102.317205779569179 -60.794479742273275 -197.863654722656861
-105.696512057888867 -70.513759753465180 -191.901160467994742
4.672831872845482 -61.639059390579781 -190.629506877387513
-20.229325017973323 -61.683088113751644 -197.942410075760762
16.466409772356641 -60.885782826094186 -193.158415945826079
-134.424243172745548 -76.053724763756549 -202.643406576935888
-131.438433584684986 -76.222929707432897 -197.719891647309822
-124.234617666934582 -70.099393051418090 -204.806632427172104
24.713724745025750 -63.554573871892323 -199.586555894344201
-7.381738776717809 -65.317380627804440 -203.137362661367888
93.748173142649165 -61.340146409775308 -212.304134692961213
13.761066304743045 -66.577433969844932 -207.550815975797263
-12.123337482637380 -64.098986518581427 -204.684063102900268
94.014872498595324 -54.213745753410450 -211.075382089040431
10.805486624048932 -61.273394798296842 -209.821836246198075
-13.849471689377690 -63.660170479980088 -210.275598550261236
-5.392274859520656 -66.773660297535585 -213.605726894958053
86.800357220862153 -61.773381445593309 -208.774961179550615
89.006862844116313 -67.125100603494573 -212.556741016757343
-2.230248795921812 -60.830107298398786 -213.894073201702838
-0.532731337862303 -65.134152349582862 -222.204360697937432
-105.759904708471311 -67.992547849108718 -219.881099546026405
-146.439991184308582 -66.522856991789808 -222.301264780344894
-4.206273571440861 -65.148907244747136 -218.623314542766877
86.860187683359655 -62.805577558664865 -216.765139974433737
-132.823845950991767 -66.322353921307510 -224.492959137605311
-0.865614188820010 -62.699303750048749 -228.046865336996632
-143.510276683274441 -69.057672385148436 -223.071044135176436
-134.053145145507102 -68.510840850222550 -227.837950739195207
-136.820312048949660 -69.516864085911010 -224.339387770606237
-15.166941747176109 -68.379108533968875 -230.354940734551093
-14.514366417442133 -62.442545471923907 -223.287391999172939
-7.416678700139957 -69.994104794390154 -224.126017816641507
2.945140923885485 -56.920999102967428 -230.033417350639610
0.774815420239201 -58.713595557702043 -234.402403261481794
-155.181787879816767 -73.017043600389357 -230.135111328513773
-8.289560090966583 -65.649953382924039 -235.139720699239945
10.740880142391395 -60.299337805660471 -231.018960030580786
5.425034656264704 -60.305842691172352 -225.669453983099800
-134.365539339092322 -68.503341874685972 -227.527513542347464
-7.000791578722219 -67.560435803366218 -236.018550158987665
-149.654847284283676 -67.775433566899210 -235.938584374407696
-127.678762313542620 -67.804527188951965 -233.617242241126831
65.113633316186849 -58.851280134177294 -233.265399783557882
74.775402747433390 -57.487678339239061 -236.512366180081528
72.555528348634681 -59.544701689107519 -233.241157469829261
-142.177819515706204 -75.671230427635550 -235.609567065939729
66.684436305636694 -59.547691136746053 -232.058562027252492
64.883524109387480 -62.262601028953100 -238.486649601080330
-153.205027282012281 -63.589419777787313 -230.848323844203463
-19.863998541458962 -72.397443498400307 -240.010305622574350
69.105491251169326 -60.749915222530525 -244.600153037944324
6.030506973493083 -60.983728784353872 -242.198402090244315
14.655407995726380 -71.234035973426444 -240.252187690414672
62.104509377194432 -61.740123511274227 -239.898225709527821
-168.106406589019628 -69.323662682410031 -241.090734555026046
68.180410061529187 -62.223947315642320 -253.640627925466845
-13.311452609441050 -62.286046405053284 -251.811696177375666
-155.949463883699565 -69.215182206365242 -246.319913452779645
50.869326114846061 -51.969942477188958 -251.374531078426571
-81.697690158119798 -70.548804360550093 -251.768280800716298
-77.085071490534531 -63.676804027578356 -257.632651421206219
-88.105459706924819 -71.290888359333351 -252.474744765299022
20.507645749363522 -57.473661396240750 -251.305597962738887
-152.348838820447014 -72.983716505616016 -246.540580250817754
-151.909038465992865 -67.506230288086329 -258.232441396140189
-152.819358987243191 -73.051459538874383 -252.997591357907822
-81.212040195789172 -61.924927203328870 -255.253500828255255
-102.819278783486240 -68.195721372150075 -257.455785762097378
-95.441492498096352 -62.324414913397426 -250.226144974522754
30.145708158553070 -62.629573159239797 -262.208256995840657
-99.952345546545217 -71.802012310395952 -261.153095170018275
-16.315594135889121 -63.490488004196187 -267.435161411667252
22.375601782197144 -59.740890709280045 -258.774047195478147
29.541363579487523 -65.338480554933426 -258.389717627546929
-120.484069031623093 -80.023838460803944 -270.860158936236985
-138.348563291570912 -68.185026886619283 -263.079064443765958
-169.470701424923078 -67.330062791959378 -264.503486532330498
-162.415879415815226 -66.835375351773152 -265.463497559825043
-136.619953095323751 -67.199592858440795 -259.203879380529202
-161.560322595941813 -70.113191051768140 -266.636702600666410
-166.596956275673818 -65.963811406963785 -267.859927944953654
-162.618743308572647 -77.264475282675079 -263.709067959233380
-141.810632269108567 -75.228027968099568 -270.891303272615403
-13.106993758823709 -67.545493096993923 -264.121141652019389
-167.202117523811978 -75.503358112565579 -276.741903524836516
21.251715272116897 -61.179378062984590 -279.944101885191571
-169.516565788801643 -67.085026314351254 -270.712818929567334
-166.209138197645075 -75.900135635756826 -277.438844788241113
-11.984491065912991 -60.567053530513704 -275.592400435332422
24.498288716957546 -52.559398131747336 -283.540122240438166
-164.312877536775687 -67.777024001690179 -282.403988859092919
-150.895735556357153 -72.069466882309783 -282.014789670558571
-123.111404865905257 -65.170784602645213 -281.307128333548576
-7.346731775508224 -60.374933131377553 -281.756979103747142
-123.309320481209852 -65.534681438319794 -281.290991521397984
-113.345892492924932 -56.635153463829035 -284.731292630851556
-118.424922429072794 -61.163362032519679 -283.210856516819888
-93.639183749188334 -72.584383047557793 -278.144872367868629
-146.259672988671753 -65.871911602123603 -281.465421204588893
-92.455997200794371 -59.484560428379318 -284.628540516454848
-66.168307969582258 -68.973811607228996 -282.836040464959979
-164.020938843124753 -71.128632737845095 -289.405751573424538
-80.133097484833442 -62.094595189083066 -287.376827611700207
-92.044710920270418 -64.250335800620988 -292.065138912395810
-162.745513006432645 -64.318388899022324 -287.569061295721156
-104.606990936547390 -59.600631385435989 -289.749460461383933
7.490206999807238 -62.989207942078785 -290.712409036638178
-154.241482950213395 -67.569189618127524 -293.121965038093435
-143.132098453350551 -70.396679296774309 -291.882704523476548
-136.609923243148501 -67.084219829302597 -296.614521787964236
-145.638560464976848 -61.832785957007061 -289.238452718725455
-152.650429264540577 -64.287504055879154 -301.320228390233638
-154.620250905136743 -66.331251942190164 -316.028004727756752
40.787598290664221 -64.067823224137172 -12.876900175368720
45.332600311162714 -62.516478962018404 -22.076126136805300
32.166662836638935 -62.684506242668164 -36.445026566372363
-70.368471386579714 -60.994219182985240 -52.167401962415916
95.553713464993891 -57.866287832825442 -72.755643183033570
-97.511181622174533 -64.129851004442742 -75.384219294268576
101.999977750633022 -59.842509018968308 -83.858912215374502
71.124146804289154 -62.061895634795903 -77.853693699537189
63.709588308722559 -54.450489815969881 -86.750971429553715
57.820763573620475 -63.112374422401423 -81.666853280277863
100.861727365162807 -56.256765138681416 -85.169550128841919
68.225008492908614 -58.993302708873614 -85.300536488362525
52.415412283817524 -55.793474422592340 -89.782456692759794
63.194531121522225 -60.198011016976054 -96.232036860713734
61.924753756849739 -54.548071866231282 -92.146058180661598
66.126548216313580 -66.506887291205985 -91.219918036759452
70.229301502716950 -62.216111634548682 -95.389621265167818
102.474538165991049 -59.537082184223252 -92.777521818019096
104.293133430050958 -60.632514839514400 -96.567661006501908
69.942305378122740 -63.127634593455831 -97.081750203599697
48.487183748955964 -58.759795607054841 -110.558875609665478
74.290352371911254 -55.882266034393901 -102.111020717125299
94.500306568306812 -53.504917680158222 -107.397194580691433
-78.992345609108071 -72.871521909921299 -118.020807042233557
45.937291658635047 -57.995736270980629 -112.094670610310757
36.380339608144403 -55.955906446886338 -116.436553250046515
109.854538480186861 -52.476557333516944 -112.726071704732192
-71.988098919756141 -65.781668418220846 -114.974047678397966
-90.868668144843454 -66.096353310391990 -121.699227634315591
-78.169787976227980 -61.914046048288725 -124.035751037950902
-86.979814510114366 -60.763655467712226 -120.580447695714597
38.093205032608388 -68.094947195993754 -119.835955425577637
-59.075985300020271 -60.144570887673211 -125.485220031292258
121.920163119242758 -52.494077560581893 -127.952422903756357
110.943741520755069 -55.245786584228590 -127.885044724830564
-83.857161691543340 -68.668019661156890 -131.268060026940162
111.037902397365613 -46.495299204540970 -130.949815766247838
-67.119798669071059 -66.265421258109754 -132.924275025180947
-75.497339615721643 -60.162201799527558 -135.112077385603158
-64.093254070168229 -56.663689931830369 -143.426553089809545
35.526757912501353 -60.953815011674209 -139.763477010909554
35.278340129801094 -52.898021472659195 -136.112856516099043
-77.414621952586046 -58.780020864030909 -134.787068369618737
116.111045993058994 -57.256676309582147 -134.524963920913251
-85.030195729379969 -61.104595748066835 -141.075004164787771
-58.767056650159091 -70.400598977673354 -138.116265136391178
-49.420078904487127 -60.633329256253141 -141.415355765682307
-77.725910999372786 -66.196784938621548 -131.935500993743233
29.550851787103632 -63.740836075099956 -146.443904865516146
-49.645386804193407 -66.144434935890246 -144.186687817543458
-47.685417091017065 -59.485876924623312 -145.072525440697376
-89.588952293821649 -67.515687940643048 -143.788093762597498
20.353932520164367 -63.218784784165081 -150.187834973769100
24.934703897635835 -62.183152092343207 -146.851493068554731
-50.707829732168562 -61.260213941920703 -151.635459244107324
-52.513557661195939 -68.583991926946524 -151.113069028358922
-97.312032451575149 -64.889879590996202 -153.047684917678254
-99.896374215669169 -66.396769670691057 -153.420591500620361
14.395553176453500 -62.793297322547581 -151.271264172237096
-42.302211999958196 -70.696971527793025 -159.872348558366042
-34.522748907153627 -63.656338193974918 -150.179246072490287
21.192155705974123 -63.139001079335323 -159.987825204523091
29.618481085383369 -66.314783502535917 -158.298136357251678
20.935265077586195 -61.092618502501693 -166.172854276275530
-101.754879758485899 -75.738320736023198 -165.976645464275862
-108.521498416936168 -63.598769344751240 -164.483364599133324
-35.767545909030410 -62.688709141567898 -159.493978895074633
-100.915228593477266 -70.140771741906391 -168.563409165279779
25.890957542613865 -57.784356427625291 -170.733984136410612
-101.256101568617467 -69.099465709478011 -166.076162952746216
-29.658696956655479 -64.924615814975354 -170.630401574620748
-35.712415487554310 -62.554997926753401 -174.485900474344106
-152.200861754952427 -73.008218026177559 -178.890954296981647
27.928122478286497 -64.996555760241066 -178.190676444821548
23.496374064835390 -65.051024243072362 -180.217438953971055
23.084159663062422 -56.623298231226144 -180.434754820526791
-24.436446575809363 -65.190949256474852 -190.265405388723508
-23.991432779505718 -59.148950070134461 -179.351496444662047
-133.453660462716499 -66.610409706852437 -188.786987863714359
19.592143223852887 -64.787722738151970 -185.030731365568982
-22.165392743652134 -59.715069778394820 -188.219344525296378
-111.521138685690588 -68.426854141874472 -191.074575879796384
23.899082545779908 -58.711733804380216 -193.076432102439611
-27.945801111741975 -60.617258906432319 -191.242479705211196
-115.205023635083052 -67.154006584768695 -197.926127428258752
-14.322016026915323 -65.201682598623236 -193.528476622611009
12.394042486770180 -55.477619070852995 -194.813653744417451
-14.062317509481970 -62.988213402882572 -200.724890711708952
-115.167580918867969 -68.113522730994859 -197.246357483457246
11.707946052395711 -63.415746331744685 -206.497954758276819
-151.325222912526641 -69.414543630015757 -198.836636117424689
-144.138093972403453 -68.127770157438320 -203.065270597169501
-5.903937437350438 -68.410533546558426 -201.360095599941019
-21.512030728742463 -68.644964405318845 -205.196166128538835
-141.853024178301041 -68.738946666466205 -201.327819805271986
-170.991495619632929 -72.014113252514917 -205.880649230126920
14.430687635458037 -59.593065557195310 -216.301735798203111
-16.712856187228152 -71.174489934347463 -205.832085717136607
-7.990327831585135 -62.490796967270498 -208.572193983240936
-158.038721594694323 -70.255413569213275 -223.182934249110446
-7.754560865861379 -62.347661667442388 -214.656381136338894
21.089760306000478 -59.984905562543283 -210.660618069935964
-7.626057074970822 -63.140851959756077 -207.348811312293606
12.760346449157609 -59.533252406592652 -215.049598207154759
-19.576655303865124 -64.007760547100318 -221.486221347781083
-101.550661467758900 -63.428285488191257 -217.931577880184392
-156.012354177550748 -66.138186112921957 -217.935481610827679
15.651564304333684 -57.695175986672254 -223.675709576417148
-91.825568419245712 -58.677346991360096 -219.265727023024652
87.152235345861499 -58.494641439050170 -225.636913897707132
-152.203213307213929 -61.425801842255026 -222.727289342221951
-122.654940912075006 -67.235138419849079 -225.440785025822919
7.627526716298387 -60.839117500680018 -225.265109804119248
-153.659563677472306 -65.023036380659065 -219.812769830613291
-135.388369145652831 -71.240617997249217 -223.375889965237548
-130.811250427210126 -73.280524269730307 -221.919415119004157
-123.330109249347231 -67.750960368820529 -217.700273755051938
-111.607012888028251 -70.619495819583207 -232.168921048977097
0.474085000958037 -63.013049790362174 -227.914013887444980
3.920971715185749 -68.043240886427540 -225.811825397198277
-171.911860091223986 -73.559003670451816 -223.416660358341630
-4.760040588848020 -60.026803231743450 -227.843687280355255
-1.015914039959411 -65.449621221911741 -230.708924467434457
75.936032169431641 -56.345121775362870 -228.163573848287399
-9.733101767049396 -64.739999135226455 -229.011861346668496
74.025088293360852 -56.125926131529063 -235.447740439359961
-0.127185344506836 -63.269122901905178 -233.105059418330143
-5.537898235929869 -63.877129800208678 -229.925335831932955
-12.089836001362235 -64.918407687967360 -235.728367968827371
-155.455700154106523 -67.407196780849631 -234.416674006255448
-3.755987982347527 -62.080210854983406 -239.445662151305640
-169.582173441212944 -70.688721820847718 -238.705128052789377
56.532544185271448 -62.641776814389416 -238.673419622316800
-156.476881617005603 -69.223934271727231 -247.526962254469254
14.478528032037715 -57.791793130924020 -245.838640365905860
58.333747429106971 -58.426693132172780 -239.007613668923085
-163.994161623197954 -65.978938891034403 -244.190103515454666
-163.685795297332874 -69.305387725180950 -241.578052712856390
21.887749966753873 -58.049980385904647 -248.719664534849471
51.260613681151476 -60.283673071948911 -245.446565945287489
24.360908248476786 -58.609852391113115 -242.700590943303609
-16.669688330307906 -63.915274474300176 -253.041334525007130
41.844707310368065 -53.327951051469910 -245.476538153472745
-167.542733318245610 -69.538496442715982 -248.516165603279205
40.228367563728810 -59.663150144818921 -248.526958952705797
-154.312247535546732 -70.990385984842590 -250.059994785804690
-154.978013728108607 -66.123807359233950 -241.395704052171055
-142.143734088914016 -65.767623684568889 -244.511735912426985
-93.857148707607266 -62.006246832715881 -253.516416227231559
-131.089459374864532 -69.913079570629321 -253.519807595569830
-107.922418458611943 -64.875888287822377 -253.102774640397342
41.241125332207908 -60.020083932108342 -248.195044419642613
-16.055108149005296 -63.655458086847098 -256.237585156714204
-140.872756510423216 -70.530895996226036 -246.890460329820144
-132.625601935406991 -63.876387386120399 -251.914793260615454
-107.918760282048723 -72.179836563078325 -255.580840526361158
-112.400725170116615 -70.616029343776802 -256.448826663718933
35.734293268652252 -57.455071280742089 -256.825541275763555
-94.488242490851960 -63.874771020700621 -257.478568453598882
-156.363793331243102 -64.439159070066864 -261.671277122979461
-167.888473900506312 -61.133633210320667 -253.554179800527095
-162.927770618730307 -67.708262328131582 -255.250592367362913
-156.794262715172380 -67.061840462287549 -263.693571992527666
-155.141136745149538 -69.466152318377652 -261.403214544061370
28.333262639264841 -59.925599496822308 -259.331906712939940
30.159930977649630 -62.836333952275666 -264.805112869466996
-15.177409623407488 -60.331417970996355 -260.324126853158930
-153.941217592408350 -70.364645732766306 -276.889232202700157
-2.406038344800624 -62.674412050075652 -278.766415265231615
-134.685934747177612 -65.596432661162808 -280.786670498617525
-141.766712617692718 -69.507669274524403 -286.047996383760108
-111.858056530514517 -62.516276598594736 -292.308310533700876
14.295464827377973 -68.317502249355229 -287.661216655278622
-87.184492535083322 -71.238665705379574 -289.643401053350431
-146.561310851476151 -71.143893273848377 -291.232245311825011
-96.865825649476918 -63.351245033495829 -291.914583117791608
-3.963502872031749 -63.787292465867282 -295.070535140701338
-144.924385623186453 -73.431572019335476 -292.865448947741640
-109.305179311112866 -72.889003346927879 -295.738910545841634
-145.581656653189157 -67.158674036826440 -292.663826937957992
5.430776988523219 -66.369522713087576 -292.852738299875625
-132.071354157946729 -65.116685343462706 -289.359059136104236
-112.593652677513390 -61.784386261561849 -293.418078508594135
-122.054207805490037 -68.395246771396600 -286.258447022658572
-148.224344295966546 -62.919644943593731 -301.518520435696473
-143.455370652781170 -61.596249846909934 -291.681298700781667
-141.968909614025506 -70.931172684067633 -305.143950100292045
43.188363633925782 -60.119803011786402 -31.640071271971252
-23.441996882637856 -66.515989362960923 -45.885427296663586
97.287188555830127 -57.237269658535922 -57.416664161603570
100.823214679500651 -56.992402657292764 -68.890642072917458
74.623838607629168 -64.312169952141872 -80.129988138966453
-95.327048090583787 -71.407924308286766 -80.576063633843859
55.112453558408937 -50.882503545442489 -89.482428870309548
57.211270436529979 -56.689088142488131 -96.096652512828740
-60.104858693519610 -69.318706890901481 -92.182143759318819
60.448785438089075 -56.715266226315116 -87.214128182047304
66.711508668009401 -57.388159900556751 -93.939449360159855
75.614056670593541 -61.156238957266147 -97.681430028428380
49.123289645904123 -62.133682578629497 -95.675498191703824
52.481070633474239 -56.826845540380248 -97.430507927918129
104.794698290209112 -60.741043757229200 -92.071213347123404
-72.364785539156898 -60.440795730713944 -95.320535262109033
-75.759920855154277 -58.240833396175994 -99.059514325567264
61.968906882573265 -59.973324792156454 -93.891766669867678
76.602669089001367 -55.304458326229280 -104.019792814076595
-71.906370647908091 -63.910167569186640 -104.526644501105409
-66.682590475919895 -66.270663844067442 -104.785166584538160
-70.046548434331058 -59.533319982239448 -106.063824246321118
88.782366056959788 -57.305976481291644 -108.394934977042439
116.134265521933443 -52.847700653638192 -102.274648036615432
43.774072032950379 -59.238774114115451 -109.594531737315563
46.726806443232157 -59.210133586851988 -113.085543790435139
-79.332651532674006 -66.611334434480142 -105.860113335440332
111.789759295558795 -58.134511488242573 -113.359675948799378
108.832090647982611 -60.129754323531373 -110.321561923246932
109.051010674096332 -63.420301405719016 -114.728455808098474
-82.273346358250990 -66.768714961511819 -115.400435206032867
-72.695325230644286 -64.749367830043923 -116.987491111411487
-53.493305935517206 -66.261062978343276 -124.519725644479891
113.042438155041523 -54.176134086614340 -120.960837486247115
-83.795433662776944 -62.274240613886157 -123.945464532486184
-50.242733754062456 -69.264283193601358 -127.116613624067682
-62.144328118571018 -66.005101942324657 -134.542703152678797
-84.953505521683098 -58.487069247966296 -127.894577408296712
-68.506928923053962 -67.179722677254247 -126.936398184707130
-77.732778722194766 -66.386311809692316 -130.030228877864914
-74.124578406739033 -63.459627374834852 -126.499736735799999
-59.052313155693916 -68.752588282795514 -133.396629895779256
-46.049724729746210 -66.717833201312430 -137.440505105407397
-73.369686949568532 -64.597647778341027 -142.156034044890049
14.490879709284469 -61.860780442930036 -144.853699775594890
-69.894118476979301 -63.444098902082409 -144.907055455135293
-46.951838347490749 -64.480257637906561 -151.863020178648156
-93.178643212006676 -65.423438451503984 -136.509535846807609
33.066838585826588 -66.522409062149066 -144.044795538927247
-45.141460352791150 -59.363883386342508 -151.969475847895325
-36.792837329081486 -69.631539698300330 -157.840290434119197
27.735651617010436 -58.457299561903959 -158.922710776021376
30.589199112950460 -61.855455948687684 -165.565380188341010
30.020859069511971 -60.227848385454223 -169.124986438731867
20.874793727073364 -55.772510708677451 -166.456144565098953
22.796109489971371 -58.533301351053382 -166.360635437806934
-144.768780104056873 -68.441577742473314 -173.564361804152924
-108.864586253076510 -72.598304084871984 -176.048615979834210
14.979582731704001 -65.246446567373269 -177.906081025779628
-106.803789551724051 -69.336751827983264 -173.284101814022648
-104.184454055690779 -63.028226382026972 -181.107107511920674
28.056032032155638 -64.629869551940104 -191.634567431567604
-108.477352654314799 -67.294280580467586 -182.167980931858949
-140.070320585161483 -61.391559759884842 -188.718048984134839
15.095434981802164 -57.656978385837490 -197.682194435816058
-130.285659108673457 -66.483393639599299 -186.628034817887482
-137.360166410058810 -66.240222537200822 -196.580612990455876
-135.324810174715651 -71.210339444779834 -192.677325166976374
-158.648742647471352 -65.054409360013850 -195.690432344750690
-116.013784273399878 -67.691963595667232 -201.817634055098267
18.453551483873856 -61.676209633976207 -198.866915746667132
-108.514876870428353 -68.978192383756380 -195.302074813244815
-104.210483937291670 -68.857649730960901 -197.772716456268284
-159.440827132895691 -64.792896713640218 -197.387189595034556
-166.429391377751614 -66.912970697374831 -198.857359055897803
10.892802384931732 -57.104476745081826 -201.510911667863240
-159.997081028327983 -70.358098707323464 -198.886969283615088
18.040224258556783 -59.508854302531141 -201.457602332960420
-15.648037131161137 -64.501699053228336 -205.946802401280678
-117.419631132403595 -65.519579426832024 -204.563931794457403
-165.937870808552447 -72.742497364834293 -200.991418742173977
-125.497031815277381 -65.959019626229050 -199.550977924794040
-7.326843965611002 -63.145116815203316 -202.978965678328279
-142.947202729836391 -70.694018681711611 -200.847431657531047
-150.008064866970273 -75.211443961830028 -202.139404731022324
-17.933820868942924 -53.972662688643247 -214.077428579823192
13.388714517727914 -61.874042857835967 -212.722764394523040
-171.085643949871610 -68.325898740093209 -207.389274861270223
0.843287448676048 -56.309005854673885 -212.524537205529015
-159.905764038499257 -63.905536083078829 -223.206702259478249
-106.715508341136371 -61.749393947331399 -221.425273009977758
-100.993751457456497 -64.551780211603329 -223.379686892447040
-145.710159386888819 -65.145439711281711 -229.914402778214111
-141.449270276352593 -65.432465537375847 -222.656514770619708
-132.107098985990490 -66.531485170312180 -223.551694858687455
-169.045864177370817 -67.901225772386383 -222.266025229746162
-104.543558969317871 -67.868205830728684 -221.140127229023136
-155.163157900235120 -58.641257914058855 -222.358913130635102
-4.542170375075540 -58.581100463145198 -228.277899365243513
-143.846903573469831 -67.767615391021266 -230.580971939658610
-108.159321787559463 -68.330473133799771 -226.307030114890296
-147.126706076054688 -65.470068279546012 -223.531162043994101
-109.857857208584647 -70.542525159227125 -233.146035061183824
-152.348430552159158 -66.207778182311301 -224.141186582484664
-143.827271142180450 -74.080963577863642 -229.193766020008752
12.511656529180021 -64.818944411440199 -227.362591680868036
15.664757716065788 -61.538946300293588 -230.085354892390683
-160.559588820713969 -62.487581157319681 -231.391917986652942
-120.220479921371322 -65.708699792815679 -239.465411518707128
60.504727868618843 -56.312127408183684 -238.201874416848085
74.174934006050904 -59.389825790189654 -233.556203688332857
-158.845483492440678 -65.385724063604400 -235.541969684608404
63.432750651520124 -51.955974914142701 -231.335143409241510
-1.067539916224865 -56.013273827161200 -237.449319747780436
2.382044783353728 -59.263030470337810 -239.623001140104464
9.070236719561716 -59.441536409577537 -236.137689366786873
-157.904278414110848 -68.372862708470876 -237.487115693219778
-7.830251148007833 -57.329838658747953 -242.494645666110898
9.340069712120805 -61.874067017070466 -235.363263115317267
64.524486560403901 -64.282379433678713 -244.852237018114096
-8.993875052364540 -61.953092088824597 -247.694316297197531
51.469635376557044 -54.937930339951798 -240.768970851706229
65.367292926811118 -54.995134873418159 -245.189582851362559
62.905231034519836 -60.168796297995982 -244.978977399908899
56.403365965379848 -56.691553668060244 -246.360431756984781
-160.062302027206101 -64.588228023455727 -242.875707284731675
48.362832250891358 -56.654195003581151 -247.815916551756800
50.070795854455199 -61.774883951667469 -251.829514724062733
49.736964295577998 -61.625027275794764 -252.157857272317642
56.120869558717040 -58.620768485088888 -249.686731408265757
-134.381739099697569 -67.535123150820866 -253.734512244870302
-93.512058257806387 -58.986857280209577 -255.786191574028010
-90.628570844610607 -56.424644895711836 -258.701503471903550
21.280870277898043 -60.665267528323653 -256.695207083430773
44.580045799933998 -60.947245131681093 -248.188258073548127
-134.148687365282996 -69.559893797278662 -252.904529248242284
-125.960842397063018 -65.146934370733746 -253.138411626530797
-147.349645214724887 -67.540683031568449 -254.664253104985505
-152.207257491654303 -70.851300727762293 -254.362739246552678
41.726709191263829 -64.149881595708308 -261.888830480741888
-99.367040902077690 -66.132324639075392 -258.153137739752367
27.371238017091681 -65.797476935819404 -265.914479261653639
-152.432504446416800 -65.699300687479251 -260.690702135626282
-105.015328384447130 -63.308787602901340 -258.936106121834996
28.458525602940433 -59.396006254039740 -264.158234324539251
-138.319791615059245 -65.088429151802600 -258.296133604373097
-109.749301078889303 -63.139442880935754 -258.711666916412867
-133.706142814344048 -73.238500462193571 -260.411553566577936
31.445123711459694 -61.122627217136497 -256.960161875383051
-7.075664533003125 -66.621784368391346 -260.799840148300120
-133.682231385175527 -61.335410362510878 -259.359120531421866
-131.555192642249750 -67.078690093764934 -260.370898828770976
-148.238029517482772 -70.446525293528524 -262.099932916003070
-3.732554668429717 -58.732411320445742 -260.942842654688775
-149.840242181674199 -65.594388030687384 -278.922392186213472
1.996713453298447 -56.748854660827021 -281.577334449251794
-153.262923957274751 -64.881315319444468 -286.720336503010628
-127.937281757940426 -63.500489098737134 -288.693488602481409
-135.831768314673241 -67.758912257961867 -285.132814612661718
-127.150487027505406 -66.803382510597700 -285.390307939282877
-113.827121765216191 -69.987557561916532 -291.339114856854394
-114.476483998750595 -65.397594227409428 -288.302296822061976
-104.917202134854833 -66.050319896264753 -284.477275491514604
-130.242305212372827 -61.970124666249305 -287.893077196684715
-119.171464774605525 -66.394708780448056 -288.163277806738279
-119.987401386877679 -69.415861964222344 -284.714336785843500
-120.202186623291240 -70.130914695717038 -290.820950769276692
-153.962128711183908 -64.304212358664429 -299.333987078017628
-148.549441200065644 -66.953292223357408 -297.163861137968752
-147.010567485814249 -62.704913716040394 -299.148594532175537
-157.735708338686749 -66.370080146919875 -299.853684075690694
-140.639673803861484 -64.825853743643734 -300.091761716628810
-150.285795036228649 -64.425003176026038 -313.579217496948104
-145.361820603889527 -71.772086331454389 -309.600671906643470
-151.785623314280883 -66.251473398999110 -312.324033795682624
-12.058872152481493 -59.701563503075533 -52.655054889115071
-82.359007117569774 -63.516129487342489 -54.176041608374497
79.093507150163035 -57.263062173232292 -61.956090404971071
-10.016163204028333 -61.592683763457600 -65.374258419093835
-10.548709355300089 -66.536480459465579 -71.129313694524910
98.377129207878610 -56.476666554952608 -68.965382717668120
-17.135404847469598 -61.275724158064548 -65.552898693944769
-92.455510135080374 -60.347127229085224 -77.511832241286015
-33.407180738201724 -64.073439357378703 -77.007022163833327
-35.798027971529685 -64.804837380567733 -74.624701886774787
-31.356834282906451 -64.659714694133399 -75.052567393280242
67.197380860554489 -55.792966630888159 -79.862007217720532
48.717387015636326 -63.155825829099435 -90.056355376078457
101.410962873065756 -48.851814131925565 -92.752645445295016
-63.937165418016605 -65.479384281768461 -95.126551834533913
52.601753763990239 -55.535444687535723 -97.519793397256080
106.864471244389435 -49.416442096815949 -96.085327401982141
105.927716197338469 -56.914396156185738 -97.109142633902465
102.912625565428641 -53.002028696269583 -95.996764014589928
107.606294713368513 -53.032701962657470 -104.043754231743804
52.209203158407213 -56.940134135906135 -94.205445731229460
50.917284412220596 -58.281558797152584 -100.383338959920152
-69.279122511709474 -60.786503450922169 -103.122891747545040
56.181353438585646 -56.035377834561409 -101.970374400822493
-62.487068656674829 -70.827174381580946 -103.318566599902582
-83.451150127047796 -66.355317612587427 -101.329141354602726
52.029365682789482 -49.936007533839657 -100.132683210552784
103.938732519627266 -53.470310238848164 -107.154775284995637
44.012994003240109 -61.627423195853972 -112.375118713746318
108.598629806777780 -57.585432934806889 -111.468707580335632
-102.042761731266822 -62.379412897838947 -112.690626599532294
-101.042240674534298 -66.143499462327398 -111.773930830633276
-81.554215863196319 -62.397050281826672 -123.235998662975462
-55.087009669694105 -60.970807190137457 -132.478082546840881
-78.347036456222270 -63.599552896508825 -129.123579148864025
-86.664154451992232 -67.329851658763332 -135.925300391966999
-49.077916928751527 -62.998892940963799 -133.292657931784390
-80.437114519479806 -59.999779471405738 -127.409799073016998
-50.553946954894919 -60.371043194180103 -131.682552413685812
-76.058927101079149 -63.139126141373850 -135.834390092908620
-64.223783238944549 -56.719167454535977 -135.804973580727591
-77.726966624147579 -56.096905244374518 -139.322972957709737
-92.519723607363574 -57.443812989964137 -134.839382315481799
-43.634352002512003 -68.413015733664835 -144.512220453003579
-54.904043833983245 -57.403362700481075 -149.488999361671375
-97.953611206026991 -61.814128640197247 -142.992105826917850
16.868235662411369 -62.485326909558040 -148.971155560737628
19.267041027906323 -63.032626037688701 -154.982699313596839
22.120199577513983 -61.625404077438027 -153.105801247803043
-101.130800011708672 -65.101257121780151 -154.996633839657164
-96.145307532104013 -63.205792575454915 -155.484370558332643
-104.121134823497215 -62.104405708319412 -162.813908538393093
-101.371127568181265 -58.523258069529014 -166.029044639558236
26.809721751739890 -62.118272873700320 -172.638311592295622
22.702444597377742 -55.983517293002137 -166.849016247272175
-143.071517827629492 -61.186896911947315 -167.374832736147283
23.998524292617809 -57.527260082887288 -185.286192476175785
-105.783688450187242 -67.286323038228133 -176.260897918881625
22.044266326620487 -57.035557394914044 -182.874082737773307
-149.852776543766595 -64.749856624985540 -184.681216454517852
-144.675848728520265 -68.472291967298446 -183.221176161428133
17.829015319890537 -59.607404021018596 -193.343156542324266
-120.280230575263957 -60.283554672318878 -190.367832015507219
-152.449767870813503 -68.671780766113997 -190.385880863709303
-125.814991184953357 -67.582302824436482 -195.689330254956246
17.541425102793308 -62.017317825856750 -197.227971933944616
-155.365771350724856 -69.449772964849103 -190.606788154051117
18.530644503217292 -57.173710102168201 -200.356835547268105
-17.134816907309215 -61.116320530737326 -198.582211260762335
-158.718944059034214 -65.797951682408936 -200.474752447930541
-165.146588349417527 -62.157065947014786 -198.874312623522883
-157.107908508473429 -59.428798874124162 -201.244179245008581
-139.927361914706353 -61.576006872309996 -193.812645574255441
-114.032042790453517 -62.957120176782766 -204.376686818032226
-14.870179148665704 -54.020174763179234 -192.118898600574738
-137.317055441684346 -63.823704686827419 -196.167739109056839
-150.866505878411516 -59.015046557013584 -203.024775817930475
-16.558226550532037 -60.349480756793625 -200.242031100845026
-165.076852552692174 -65.107794237864454 -204.201348457458892
-15.058741796105995 -57.490615823633604 -210.656491857576299
-12.679277470157416 -60.832404862747985 -213.322994512679713
-161.251957972522945 -69.319595492129565 -213.127756307005939
-12.858632163302612 -56.473053875954037 -215.291936197542014
-165.348977555968304 -65.681085718283214 -215.669469188608190
-147.768928555294565 -67.602491292723442 -225.035991290941382
-5.080138081010305 -62.297487545405453 -226.357309174943083
-132.092338142765527 -64.917479437639813 -226.832164179411592
-112.561436042139732 -71.003872485487619 -226.604509873778255
-161.378007246834102 -66.706594025585503 -227.162684291985698
-110.370897338462086 -70.441648237938665 -226.149671475262721
3.982265776527591 -66.888979744046438 -228.481265586260037
0.488721948162634 -55.651545544830569 -229.005407400963520
-148.384787128083389 -65.423109258423310 -228.826839088808043
-128.303761901947610 -70.059525550037108 -241.402527243926130
-121.649621229746671 -63.308385603892816 -242.548385939726501
4.915268116872038 -59.763934790452915 -231.931598508408086
2.500159239924561 -59.511523101770948 -237.162575639463910
-9.575997353324642 -57.581061402151938 -234.572256832417850
-11.313076156112698 -62.652440604094409 -236.663639057098891
6.333352442177055 -58.652600551553405 -241.047820741098349
62.183260821750657 -55.424962968854473 -242.507719807393528
13.426863192976121 -62.393498695621041 -245.624671641083410
9.526110908522416 -60.699435926749331 -237.062601577525470
-10.849789979330358 -56.732648670924149 -237.975267673443994
59.118004621737128 -57.403048395173258 -249.036198513533009
-10.178948727565791 -60.352379984297194 -248.825342567204359
-145.188837987870897 -61.739942852269856 -252.731283596833407
-146.434532204477875 -65.795732370073580 -257.402057934872801
42.146124784498738 -60.944962397592597 -252.295835264747097
33.275430725399929 -57.200323982241656 -251.897104681844723
-137.579653261436590 -60.426002350267758 -255.514883707443403
-95.369772607559909 -64.681572263637321 -254.973787801750120
-112.338935955999176 -65.508313679729156 -263.193431121796721
-121.529895709770017 -66.084269896544441 -254.173153092519726
-108.923786380299163 -61.287015693492876 -254.830711158630095
-139.404065676105404 -71.666708469706734 -260.110086414056923
32.591775413030362 -53.869419514988934 -260.270793310621002
-117.272904942794142 -60.824789224977806 -257.392201585502391
4.738034340788011 -59.141374668708202 -262.457256246504869
-149.962747929690920 -67.208506431164309 -270.299532598435178
-2.900152494098047 -59.826993379067986 -270.956107318574368
-9.096929209478958 -62.376835973313995 -291.241051548001565
-136.308922487141956 -57.665553173202142 -283.281673227913245
-5.393128220788384 -61.924608230868493 -292.092333754475760
-135.644413882985475 -65.038780209334391 -290.673285391184777
-131.609482971486557 -65.349826646566967 -296.927303723916054
-146.038053489888568 -68.406590853095423 -301.623810729964134
-143.630321041435479 -65.194816415503183 -308.894623516358081
-151.718876600622366 -68.607080769455067 -308.370209363289064
29.340029200018545 -57.228495297175066 -29.884352271034167
31.813373262191355 -51.370403572228689 -38.146934753300556
48.840364680969380 -60.882489130634248 -37.680901736780726
-63.582284637540312 -68.652622041880008 -38.015749235931892
-56.479149230990707 -65.708467256004639 -40.923925115871192
-69.207274900582888 -66.599830914533541 -49.010255786327484
-32.664286941682576 -62.809100592458705 -41.824998420568747
-70.614168905796959 -61.987796189433858 -34.291367081913087
91.209323734207246 -52.771861806859356 -58.879384162002019
-10.375867481081245 -62.430897046160105 -71.374438689127075
66.011409943484864 -53.839596408702256 -65.103994029801711
109.779087395593251 -59.578996046654225 -74.542419448983836
64.912321231972527 -55.391145165570222 -71.629888531851506
-29.515564217549787 -68.673960669070055 -77.957022812104171
64.943359001847270 -58.449837308281253 -81.767881991322028
-45.191532622114359 -61.686450915793522 -76.602188211854497
68.013693236387525 -60.803741176865721 -80.840825677002627
-49.834392285731298 -65.075895428084777 -81.761441656719214
-62.747148320469329 -68.925751489213027 -89.317916036970360
55.680459996005126 -58.109375176833538 -93.768542053379008
-95.514639150530044 -69.770544871672541 -96.159038965016151
68.232497726691292 -58.812562830849750 -90.835835553836603
107.359317153964099 -56.711946344502003 -103.154043791765289
-72.716159139056614 -58.547174027471854 -101.700912927608869
53.124951814821962 -49.232483289298251 -106.381404822078210
53.471386980711671 -58.023920570890887 -104.570285308937144
-93.404636224495533 -61.923299190586384 -100.795677904138813
80.122720264972145 -59.537075048727921 -115.082365863601765
-82.655245661751934 -69.232098907432871 -118.755957813902327
-77.783251449528436 -61.413951479750899 -107.891889930705901
-88.472502680951365 -73.246521742361594 -118.290195741539250
-60.927433496055528 -60.299994259571086 -117.453823065855559
-54.935695734577294 -60.724765734410823 -119.299003933767139
-57.494951116146737 -59.597340792501875 -120.214086249248155
-88.472569735735675 -63.020246101743815 -115.993425997734192
-71.439738928532933 -68.323704984842180 -123.147815280562284
-78.576175333475533 -60.936336244164963 -121.447079365345886
-50.125213796555379 -65.150769415720490 -121.267729273927031
-82.774506002162596 -69.312048792252639 -121.362081086626475
-73.611563563391357 -61.998057998885372 -130.120014323445361
-46.796681128964067 -63.472267491580396 -130.007656056143048
-45.786987374989820 -63.292132854015868 -131.573370311928159
-95.514863264569144 -67.993857233794145 -134.990632827997615
-69.932328376512473 -62.490606059213086 -138.488573593258991
-51.560458991649398 -68.466135138141965 -134.288599246749072
-58.338542803742023 -64.794512147715295 -136.736756957582287
-83.789481975564598 -66.301827498606073 -136.956375980930090
-48.429258995655076 -62.215390493246737 -145.353313604877229
28.062176673829420 -56.663199024855544 -147.371642709284089
-85.478846259101658 -60.772950826987639 -148.037829560551671
25.008986259275680 -60.337891627560275 -152.242654308189600
15.260865659156593 -59.913057129564400 -151.580747469667926
-86.301223252327631 -60.215840268079901 -159.748332985166286
-106.047207585058388 -61.047687994670284 -177.944429766654906
-151.896055154262456 -67.760897196597668 -181.034228416179815
-101.568371550733147 -68.135114082141740 -180.743734022769445
-141.032943778848249 -69.740746427838687 -181.975639351301169
-149.831895539557649 -64.035767414606894 -181.400600984616517
-106.072745703789707 -63.324075111719800 -187.535747624892707
-149.727504261502247 -62.995946667578622 -193.994715139566551
-114.759430113661594 -61.929613618112043 -195.958811347489672
-149.841027296517439 -66.690145895036508 -191.493337893291852
-142.931932449209825 -62.161598502873844 -203.838198862448081
-143.752350467620346 -66.059915181792761 -193.608869304707099
-130.903441249143299 -64.579057827805968 -203.143718468742264
-131.228126787327341 -66.484488938852351 -212.111887292556077
-110.947504588694173 -65.665986968696487 -203.633604467854525
-143.162136187902405 -66.079450892098777 -225.218191623512780
-138.514323831014508 -61.844797115025393 -226.666882137723519
-128.583413280399697 -62.977642926437234 -223.729889355403969
-120.023894443841755 -66.031089340322865 -224.760040921501883
-106.858980632781893 -57.706221453974742 -225.032920750468151
-107.663981499438151 -61.967742586223601 -233.420730743543743
-122.673677782633874 -65.402352487080066 -223.985660455745574
-128.804992598407011 -65.846170101875089 -226.981817558388627
-5.183856541906734 -51.464169580716700 -233.836947378833685
-2.026306266085679 -56.832930332786702 -235.159175402559583
-112.635945719790769 -66.507667173477941 -235.701317384015539
-121.340928064906592 -57.338157338372554 -229.230059463071910
-150.038203208149952 -64.843540989130688 -234.531140474732751
-147.286818330453883 -66.093790985196264 -228.939133119562285
