# This PCD file was generated using the MATLAB® pcwrite function
# from Computer Vision Toolbox®.
# .PCD v.7 - Point Cloud Data file format
VERSION .7
FIELDS x y z
SIZE 4 4 4
TYPE F F F
COUNT 1 1 1
WIDTH 1462
HEIGHT 1
VIEWPOINT 0 0 0 1 0 0 0
POINTS 1462
DATA ascii
80.499100 235.507553 -70.354118
98.810905 214.075195 -71.338654
28.551151 168.961853 -74.015907
-39.293812 201.745972 -78.970230
-151.985321 190.133270 -58.104248
40.463593 44.637886 -60.251915
-151.319183 199.831039 -62.707638
45.346199 47.423409 -57.406223
0.999433 271.118134 -79.615181
-37.922905 170.195160 -71.750885
-64.946487 221.002029 -74.636391
23.306778 30.562099 -66.237160
-49.050678 152.121689 -62.582428
-36.537228 217.563965 -68.094933
-30.606781 225.366272 -72.293159
68.832024 85.171471 -63.840492
-154.409454 279.473633 -68.406815
61.597443 94.312706 -60.027817
-160.307953 302.483765 -64.686844
-45.937363 64.715157 -69.198730
-70.900848 163.824036 -70.280296
24.587709 195.297211 -63.449467
-55.722210 152.708298 -59.894577
-20.033087 215.134232 -71.944603
17.875505 208.631561 -70.980698
8.609055 251.902298 -60.118824
92.372009 97.391502 -70.790184
-34.344330 296.403259 -69.855324
-87.835037 72.104713 -64.728134
-151.204071 256.285919 -61.743164
-154.106262 305.824097 -68.927002
-128.690735 266.410828 -69.361359
31.353550 45.640636 -62.031166
-55.974014 100.802826 -67.845406
-53.877392 89.974678 -56.586121
19.038767 201.675491 -73.004410
-146.167496 201.388870 -69.467972
-76.534744 89.154442 -75.795174
75.404785 241.158096 -69.679962
-31.081837 184.349319 -72.388725
-97.869057 91.120125 -59.092571
-46.208794 167.147888 -71.264854
-148.899780 203.331116 -75.727631
-139.127350 300.546906 -79.137489
-148.169266 240.549530 -76.350868
-77.142235 126.596115 -62.802181
12.321855 253.494125 -77.010315
-43.314468 171.034485 -73.929543
49.845100 107.989540 -58.007126
17.448357 196.138138 -63.077881
-153.477036 270.038696 -76.662422
0.056994 277.623932 -59.316692
-151.668930 293.549622 -76.549042
31.234335 28.080753 -56.288525
31.591871 173.581375 -68.122963
-42.455776 159.742447 -68.183739
89.574806 72.220276 -59.582024
-145.030670 303.609100 -72.647476
-147.959290 270.104767 -68.497757
-75.709435 112.807838 -58.089725
28.020855 143.946320 -71.954803
78.342697 70.050438 -57.402695
18.151541 235.382568 -68.539322
-28.905098 178.759613 -67.115120
-148.999374 307.450714 -62.376934
80.823997 114.345505 -63.301079
-146.211746 303.802216 -76.451714
-2.391552 254.470505 -56.461788
-45.599667 165.934250 -73.803078
-86.792572 139.314102 -58.278381
42.982025 24.128426 -61.148357
-130.589005 304.023773 -63.319305
33.576477 27.255053 -62.472687
26.405167 33.699909 -58.484356
-43.900208 176.958664 -67.299446
-76.517700 117.869621 -53.701027
-36.492432 56.831604 -57.339439
-30.098469 220.477936 -74.552673
-14.827799 268.395111 -66.708412
-68.667442 53.075901 -54.409958
-131.324768 265.830200 -60.170567
25.613138 188.063507 -67.950981
103.230782 82.274750 -54.127266
11.668105 201.296463 -68.280487
14.324896 166.598801 -66.534286
-93.469818 75.950966 -61.349224
-28.145836 189.832260 -62.544022
2.631044 272.903046 -57.964958
-55.261646 54.420891 -59.461838
19.613157 199.217392 -70.975334
112.165230 152.343903 -67.302803
-54.620209 183.549179 -69.868690
-141.517044 269.647675 -70.869156
88.787056 222.674149 -70.619499
39.264694 268.337341 -63.013763
-149.058548 239.090591 -61.409405
17.649841 238.225967 -72.900139
29.085590 156.370819 -62.225384
-5.872621 220.817001 -69.306519
58.176929 94.518394 -54.244915
32.627235 168.739563 -68.695572
-26.518925 58.751572 -55.644646
103.777161 103.701958 -59.004578
18.821383 193.449432 -60.751163
-83.321678 82.930687 -71.880013
25.816185 195.007034 -69.198479
-97.937057 110.049232 -59.616596
-18.936583 220.039215 -64.015175
-7.273600 243.286697 -66.120949
-54.668655 52.800442 -55.065414
-27.318644 223.661240 -66.719757
-163.964218 241.298599 -61.836357
-74.820984 116.922249 -56.858356
-151.186920 309.918457 -62.205437
5.375809 256.001648 -72.773499
-158.981018 224.100357 -62.205017
1.191396 232.054306 -69.420296
-13.669976 212.078400 -67.453690
-97.132401 125.831520 -58.361691
-32.496517 251.602509 -74.468048
-71.889023 258.501923 -64.652466
-72.515427 78.683662 -73.860168
-77.782486 66.273186 -67.187340
-19.415798 208.112976 -72.074310
-54.322044 152.322906 -61.630135
20.049892 176.034073 -62.989555
57.779053 255.427643 -63.436626
-50.941219 163.301926 -71.073898
-95.881378 126.477989 -63.573559
-3.129695 244.698105 -68.974655
-2.719166 248.238556 -64.143150
43.028992 24.288063 -59.411064
-120.155258 298.706818 -60.298302
-151.747879 214.545822 -59.473209
-10.856365 73.991516 -58.731880
91.145752 216.539322 -66.697449
-143.691711 274.421814 -64.519653
-145.252563 217.397278 -67.151711
-15.722485 79.960793 -64.319321
-164.069794 229.990799 -66.811577
8.757450 233.106842 -66.506264
-73.729553 56.132874 -59.549591
-15.695796 190.077789 -72.064217
-10.693592 73.725082 -58.338982
-28.555431 226.354416 -66.920395
9.528353 252.364090 -67.101372
-143.975037 271.901855 -75.859642
-102.445801 178.910873 -57.554138
-153.281586 266.673492 -77.131393
-146.034882 274.945740 -73.097504
49.056896 32.885559 -65.221458
-70.434525 149.847565 -64.551819
-75.433899 111.346954 -72.287544
-14.542932 217.653107 -72.080948
-66.138382 104.258972 -81.724854
-77.675499 134.378647 -59.905449
-47.696163 94.805801 -64.946274
43.565250 133.995804 -67.679115
-84.600761 137.327148 -64.692551
-97.976540 157.495895 -59.180595
-147.695526 196.275085 -74.095161
-80.910759 99.423553 -77.111275
92.971191 96.984070 -70.629883
-25.172844 63.367229 -62.404213
90.791733 69.959366 -53.954025
10.652534 219.467072 -71.377625
-145.365112 304.270264 -69.114395
110.017525 194.858627 -67.716843
13.700917 195.992279 -69.452972
23.319466 172.663788 -63.997505
-14.138241 274.738068 -68.326759
29.640766 267.072693 -57.804768
-57.934097 104.021004 -73.627060
-11.694612 257.750977 -60.469238
-59.150661 126.713387 -58.031670
104.949944 201.710846 -64.428818
-165.945389 261.339447 -62.856586
-71.924408 100.218994 -80.040154
-27.482216 195.886566 -62.285019
-2.838048 230.483673 -70.236526
-79.537071 113.123360 -79.836189
-155.754593 314.559326 -66.454018
-144.532227 249.073532 -63.960735
15.316556 225.209641 -65.920853
71.947784 95.970612 -68.776642
-51.679245 298.960388 -71.517448
21.502686 190.449112 -63.174580
16.046064 224.085022 -67.172852
-66.338676 108.515343 -69.353409
-73.776451 110.118057 -63.458328
-150.297699 249.337463 -75.020866
20.607067 206.678192 -67.538475
-69.417046 110.714806 -72.381889
-6.191379 226.877853 -74.038582
-148.666763 233.707993 -55.023308
51.163628 102.991913 -57.246006
-146.998764 210.697098 -66.048775
21.767326 265.614929 -69.110504
-150.242386 251.894836 -69.594086
-69.883095 97.748932 -79.593369
109.955055 156.186279 -68.886757
18.859268 244.546310 -68.203522
44.359417 121.670670 -72.007759
32.715263 156.157440 -63.371208
17.967175 187.332870 -66.378822
-52.345463 90.560005 -78.854134
46.614819 128.120255 -67.766212
-50.801598 91.880478 -57.060116
46.563988 110.120361 -68.197250
-150.629456 253.611145 -58.394325
-76.973412 104.456055 -79.877686
-9.760010 66.273117 -54.388374
-39.412689 181.011856 -67.625549
41.856812 129.716415 -72.419228
-130.745392 206.851959 -67.058350
106.300339 193.556091 -67.055595
-82.237206 137.573959 -62.363605
-152.683029 309.279480 -63.218731
13.066805 230.534683 -73.035179
-90.923187 145.569061 -63.089241
-49.228157 143.706665 -65.406029
-120.298851 212.132523 -58.613956
-158.634521 274.637268 -68.306740
29.302940 271.649902 -63.779160
18.447411 192.779800 -70.465378
-153.735733 286.355011 -64.763870
-28.209255 60.816723 -61.177925
-12.258652 231.622482 -68.452309
8.340448 225.323029 -73.202789
-107.020187 183.485443 -63.142643
-143.017700 199.624680 -62.903648
-153.247101 293.541290 -60.224873
-11.936075 243.542938 -63.961235
-58.506805 52.505272 -54.682098
-151.081726 289.162750 -73.782555
-11.433749 186.881180 -71.277008
11.500730 166.772461 -62.622986
-144.481827 249.501419 -64.629372
61.414871 253.424164 -67.618416
-45.723274 166.614838 -71.704956
-60.297600 175.440521 -73.085579
-159.587662 210.304230 -60.670464
-46.044876 208.493881 -71.320435
41.037712 44.197968 -56.553154
5.124703 279.189850 -79.200676
113.516937 163.185074 -68.315445
57.487568 97.799789 -65.792000
-145.452881 246.188049 -61.600304
9.946177 219.546570 -70.601234
-141.986237 206.045685 -73.162979
9.713992 299.726074 -64.567162
8.282590 284.708954 -53.921299
-50.680462 91.903122 -79.347946
-41.415012 255.455978 -72.288521
78.440979 241.214844 -63.555115
-163.908401 271.446075 -68.664444
-79.768097 110.649063 -64.707230
25.684294 36.387413 -56.175617
-149.722580 301.663269 -57.955853
-56.858727 154.430786 -67.728584
-74.791153 111.084328 -66.669968
91.945229 218.189224 -64.463051
-59.166965 122.824219 -54.716267
-71.261208 58.610325 -63.509998
2.030608 170.807541 -66.082985
75.675591 110.442955 -66.487656
-154.878876 228.941940 -66.543411
-144.700928 247.766464 -63.468529
-87.136513 112.226898 -75.669655
11.133098 203.035324 -68.398186
-96.052307 164.016373 -62.286068
-97.384537 120.297180 -59.997665
50.665535 114.666191 -69.948235
59.677696 94.730072 -58.240307
80.752151 87.923958 -70.595146
85.999283 229.559738 -70.833260
-37.844322 253.477676 -73.743584
-4.942674 280.255493 -75.806892
44.296631 47.991631 -65.182785
-21.673487 61.665920 -58.569683
-44.950596 175.332275 -67.038269
45.273537 129.444168 -66.621277
23.551384 46.154095 -61.803226
-148.357697 314.879700 -72.672409
-35.071110 180.252716 -72.486206
-143.119263 263.265015 -65.032211
-46.552471 205.362335 -68.963371
73.237892 111.577415 -63.477020
3.668659 252.807144 -70.874275
-28.545572 297.857086 -66.422028
-9.132343 274.624786 -74.775246
-71.528984 166.068909 -68.458527
-128.446045 273.034821 -68.766808
42.916340 32.192158 -56.563396
-45.896969 91.418465 -78.176300
82.948341 232.979446 -65.888329
-32.688625 296.492859 -67.809189
-107.946831 238.521149 -65.708710
78.019897 75.634193 -63.423389
-26.928616 300.211700 -71.953606
-1.339351 297.656799 -70.494095
-45.049942 171.245926 -66.817055
-149.125198 317.971649 -72.736656
-124.220688 237.782227 -59.196972
-69.391220 84.796906 -76.082596
-82.572281 137.886612 -62.930031
-56.070175 149.278809 -60.300522
-60.965038 143.828430 -54.803471
-7.256784 256.194397 -57.744019
8.475353 221.971375 -72.754456
63.816376 100.091568 -55.399078
23.564774 168.258499 -73.250046
21.306063 183.695328 -73.411018
-61.437523 300.831940 -68.849525
-138.850784 241.072708 -74.701843
27.213634 143.624619 -67.921890
-35.287224 176.504517 -74.511673
-153.616333 235.633392 -56.784428
-66.839142 215.792694 -75.053177
-54.666161 295.753143 -68.360054
-70.729980 152.807556 -68.222252
17.750195 179.680817 -67.633957
14.102614 162.370773 -66.217110
-23.305180 227.217499 -66.289787
28.000650 149.279160 -73.770088
-44.414047 55.495934 -56.572678
55.223942 95.991417 -57.537174
-43.189087 58.150845 -62.900761
-140.917664 211.230362 -74.354790
32.494579 22.307545 -54.618797
-6.766628 249.013855 -57.738052
-82.720612 117.825890 -75.658073
42.798008 114.531563 -65.847008
-15.703964 78.866676 -60.633224
-112.725342 298.964172 -68.728516
26.214540 172.890717 -64.050591
17.887545 205.837387 -71.129204
-90.969254 229.526169 -68.363220
-60.340790 74.856331 -73.516701
41.110893 120.042557 -64.892220
-102.060928 180.177383 -58.584236
95.874199 208.456406 -67.246376
-150.215576 227.864670 -72.641594
-19.484085 227.435349 -70.747955
-147.347580 207.067673 -75.588524
-92.605225 146.609116 -61.804470
50.724976 257.180145 -63.777996
-42.577393 170.635361 -64.665573
96.746620 77.182625 -60.597588
-12.661048 209.120926 -67.583107
33.209404 142.029709 -62.629803
52.861717 255.062439 -66.524696
-61.454346 172.116531 -67.551620
48.746048 42.649166 -58.391758
112.371689 136.005066 -65.814819
-20.973793 67.528748 -63.962467
-96.697479 86.863419 -61.051327
-50.943138 256.918274 -72.476494
114.819717 152.954712 -63.267044
-72.577164 222.346802 -70.506065
-78.236931 93.749924 -76.374001
50.147568 35.623432 -59.723351
-136.254547 243.147720 -62.975914
-64.218636 135.236191 -60.211231
-145.399155 280.111847 -64.267159
94.422791 115.459656 -61.836430
19.486078 191.512177 -63.130451
-155.201859 243.646957 -66.918251
-146.492081 196.147324 -72.347336
6.105171 235.015930 -68.443306
-114.439232 267.440918 -61.717869
111.367874 153.898209 -70.227646
-82.351891 71.492546 -67.969124
-161.280334 260.759247 -62.621384
-55.142738 192.350998 -74.728844
-100.659691 163.847900 -58.879650
-119.113876 242.626175 -59.494526
70.284363 99.132477 -67.100433
-111.461250 202.530380 -64.409653
-95.905617 128.786987 -61.954777
-166.451035 280.076965 -68.308220
-4.854755 242.077545 -69.533234
20.805126 287.850861 -64.265312
-41.494606 174.636292 -62.668472
-37.499580 92.131134 -75.698532
54.023258 99.021820 -55.427895
104.651787 204.208115 -65.080666
100.866653 106.611794 -63.425484
-59.693710 132.215363 -59.413689
113.157486 137.655975 -69.763893
-46.730183 196.769562 -69.659195
-89.042412 69.142006 -61.796730
-31.127882 69.256432 -68.685791
-29.824203 66.681572 -66.909462
-127.054321 243.496246 -67.282730
44.586750 265.094849 -59.911488
0.268081 234.607895 -65.430374
-149.812988 251.147705 -71.200462
-47.525028 194.779007 -70.470207
20.880354 193.841782 -73.263245
22.530451 163.916000 -63.983322
-36.739082 250.700226 -68.978065
68.796402 109.817307 -60.680981
-152.280075 262.349060 -63.492996
-146.490906 297.694550 -57.750160
44.908089 125.126297 -54.274906
-98.585617 99.735725 -57.940079
45.011658 38.100601 -65.380844
52.640091 116.842842 -64.497528
32.197983 131.232956 -71.049011
110.185440 139.842804 -63.025509
-162.439468 213.178009 -60.677258
-18.751532 213.155853 -71.231911
-5.716806 240.087494 -64.019531
-47.735603 54.047714 -55.345470
-29.613119 196.959427 -70.503143
16.955105 249.592926 -68.248306
21.229694 252.308746 -71.352737
111.683212 119.145065 -65.914833
44.625427 109.734779 -69.139328
61.755859 101.842796 -62.262535
10.821069 223.248978 -64.816368
40.842770 28.876867 -63.731361
-132.393311 211.745483 -66.863007
26.404774 162.198746 -61.940739
94.797920 100.498177 -69.919434
-80.484940 112.344124 -79.791931
2.862794 261.238159 -76.992821
-146.564087 202.720596 -68.710808
-144.241119 269.088043 -78.600281
113.756699 180.554337 -69.122108
-35.004356 299.084625 -65.860916
-161.879974 301.874878 -64.965652
-148.544617 305.588684 -61.254219
10.975134 252.753662 -69.673851
-16.460869 209.929169 -64.095596
-74.069778 223.533234 -71.006447
-14.996965 272.389191 -64.541138
-30.811642 84.290123 -73.883247
-153.454071 235.042709 -61.869667
-22.680424 206.377670 -64.016319
-149.637039 226.698242 -72.120003
85.420639 90.556854 -70.748428
-73.474709 147.936127 -67.578751
-149.087128 266.882416 -74.006996
-139.290314 236.003723 -64.610069
-150.275589 216.223831 -59.854748
-23.219894 188.273529 -69.458946
89.493568 230.868286 -67.175110
-130.440262 213.655151 -58.642277
-10.270136 251.959869 -62.779644
-136.854889 213.327744 -61.395046
-149.817749 215.933350 -73.138809
93.238403 225.870514 -67.019516
106.446213 112.044167 -64.127090
-15.574914 231.216309 -67.067673
-45.854218 298.581940 -65.474854
104.796356 206.672470 -66.833755
-78.013672 145.497620 -59.310658
12.902940 205.748230 -68.924461
-148.457489 185.279999 -65.938705
80.848114 69.219124 -55.664204
-23.543144 226.226135 -66.469963
-88.089928 124.013542 -70.662254
-25.742119 184.133041 -68.759094
-61.923489 134.606888 -59.893024
10.986975 166.151855 -62.136028
-58.458633 181.620773 -74.336983
13.895666 299.947052 -67.280296
-149.434113 208.819458 -76.686996
-104.983238 235.477814 -60.908382
-149.064529 194.497864 -56.409836
95.538284 77.454018 -61.832241
7.355123 245.883041 -63.951832
-15.322060 270.757599 -65.122620
23.451496 190.680710 -61.503109
-125.520210 299.283112 -59.839485
-82.255875 136.922684 -58.823330
20.049286 205.475876 -72.365051
-9.651183 231.738602 -68.717445
-1.252969 301.739105 -59.711681
-35.495293 72.059998 -70.768547
115.087189 144.928986 -63.423855
1.390463 298.693848 -71.580467
-83.400146 118.930328 -69.721565
3.546269 284.971161 -77.140488
79.050636 98.536140 -71.541153
100.489082 80.580383 -59.962986
23.117975 150.166519 -54.553898
-49.677174 161.204346 -70.529854
116.452782 143.254517 -66.893845
-42.055733 94.848114 -72.565346
-71.652161 96.665466 -78.926613
-10.751148 217.977829 -70.590919
79.343269 78.853912 -66.396721
-145.213440 219.176468 -70.595207
28.712517 182.714233 -69.263290
31.781105 45.922024 -58.462715
-65.039284 116.445366 -54.562042
-94.708130 162.184479 -57.768517
-145.811600 209.951721 -68.873734
-57.554779 144.636215 -56.558765
-53.068810 55.276024 -60.590511
-31.576607 58.529381 -59.386536
-39.040169 210.943253 -72.952721
48.334488 40.182682 -65.644325
103.332451 100.537689 -61.544746
-155.806656 304.879517 -68.594780
-147.690430 285.508636 -58.662788
-77.362953 127.066376 -63.014114
-16.900433 247.053192 -68.193665
12.896755 215.469498 -71.700096
15.897439 224.668213 -66.801010
-77.290672 116.778885 -61.724342
25.726164 36.876472 -58.425095
-146.731995 196.233170 -71.143280
-4.378092 290.926361 -70.900414
-37.542824 215.500183 -74.644432
-158.217743 211.418152 -61.685005
17.523436 189.183075 -61.742573
99.382057 211.899155 -67.954758
-154.305542 277.433319 -68.279320
-151.870590 308.565704 -78.564728
-138.370926 206.082306 -64.439034
81.591370 111.600716 -65.889183
39.239422 22.524363 -62.043900
-139.238007 240.085983 -59.483727
-153.010010 281.549438 -68.445877
-24.121273 200.081451 -61.714493
-18.512527 214.954361 -70.478798
23.713413 147.060379 -58.789135
77.339882 234.632019 -68.136902
-107.727966 186.964569 -57.106236
-151.654999 190.964066 -57.633186
-52.840073 143.708099 -65.512634
-0.515443 301.068176 -65.755402
-75.982620 111.410530 -79.592590
-111.788567 268.439819 -60.854687
-57.943031 256.097565 -72.526520
-153.147614 303.549988 -74.021812
-140.226440 236.370850 -66.522858
-64.499893 73.065277 -72.841125
38.294849 134.206512 -65.196419
79.491295 100.247864 -71.526947
-36.418636 186.005875 -69.318764
9.771266 218.396179 -70.070610
-111.730911 267.779144 -66.978027
-84.958496 121.536568 -70.655037
-97.456802 91.749306 -60.205471
-148.501343 322.247345 -61.975548
-65.270248 162.576080 -68.618195
28.396778 149.225464 -56.099277
20.789433 287.891602 -64.279884
-17.636515 250.074585 -71.280045
-158.210938 302.992767 -64.297417
-56.596165 149.187332 -60.526890
-80.670403 136.175491 -55.989841
-18.063869 248.885391 -65.161995
116.422646 148.827316 -68.212532
-43.341991 63.612938 -68.082520
69.137733 84.081543 -63.744629
50.093910 35.610947 -58.660149
-4.665023 277.458344 -77.258629
51.049038 116.668877 -62.848614
-65.455315 107.968086 -70.511971
15.125645 238.563477 -75.127747
-96.977203 155.849030 -58.370384
35.845245 143.422241 -74.663177
-25.247849 79.924072 -58.968880
38.120316 122.973442 -69.469933
-80.954926 57.488094 -56.767662
-146.163757 246.465851 -78.261360
95.534760 221.268509 -65.193619
-166.549255 274.791077 -63.476898
81.791245 88.213371 -70.641258
-150.212677 268.575836 -77.788818
-46.023098 253.430893 -74.113533
12.692460 227.033447 -62.429405
-145.658325 196.586502 -71.168900
-18.599478 233.167496 -72.163857
3.329435 265.441956 -78.608131
7.120087 227.817535 -72.104515
-7.098820 278.420990 -75.371758
-57.034691 67.302277 -71.056610
0.730497 261.083618 -54.819759
-152.948349 293.181885 -71.150993
8.163766 170.205414 -69.062721
-11.976962 226.204483 -73.531219
-34.948044 171.413376 -72.846977
87.392174 231.202255 -70.104553
25.912329 179.070297 -73.690895
58.286419 251.045319 -66.620270
-149.918304 215.770065 -72.349937
-71.037109 103.917130 -81.127792
-89.690147 114.548172 -73.144455
-106.069801 233.026520 -66.381546
-66.155762 176.965240 -71.101242
-150.805237 259.590515 -72.495110
18.122574 261.328003 -70.910233
-93.851761 230.941406 -66.597015
109.540779 143.015823 -64.206573
5.651667 249.258835 -69.286079
-150.789948 313.420898 -60.688473
-156.439667 300.236908 -60.304325
60.272099 100.582413 -66.801308
12.968375 292.989746 -69.285423
88.956657 227.143600 -63.649990
-41.812149 88.086517 -76.889511
-92.794739 115.093559 -69.432663
83.078491 232.676849 -65.915039
-65.453880 90.613251 -78.396622
-65.744003 109.480461 -74.793358
-57.504135 150.148941 -64.618607
77.988266 241.264465 -63.241711
-92.558937 262.296051 -66.129013
-10.262788 220.192123 -73.584778
53.055454 113.929115 -70.458160
22.396746 189.668671 -73.394745
-134.873337 265.942719 -61.820076
41.510433 112.942375 -67.972244
46.049564 105.866333 -65.239937
-118.085999 302.353821 -63.978008
-65.805992 297.496521 -64.526634
103.143135 107.694168 -62.112770
-101.306976 228.783386 -64.929893
-166.333405 286.422394 -63.745049
-41.149841 160.325211 -64.443665
-83.397133 297.979523 -69.772491
-81.957794 125.943649 -56.300018
-149.556274 223.138977 -67.478027
7.662927 252.740219 -57.242805
-145.888779 231.652802 -59.678703
-151.214203 274.990845 -76.124161
-147.210052 299.418610 -59.520042
-92.410301 68.010811 -56.882374
-163.292572 265.868408 -68.082352
-119.883751 265.278809 -66.427238
-112.186737 241.833084 -62.230061
-97.980103 77.045036 -53.759144
-145.491364 287.010376 -67.138931
-62.951393 167.510071 -70.350632
108.582947 109.536774 -64.934174
-15.163837 272.469635 -66.043427
-66.151810 122.512581 -56.981125
-57.233040 90.300789 -78.775978
29.070261 142.255829 -72.691032
-106.759621 177.435120 -60.054550
-68.538956 130.566727 -54.779270
-87.063766 265.916687 -66.019646
-145.344208 217.853683 -67.876717
-11.700916 234.556107 -67.885773
43.745586 24.661032 -60.511780
-6.636212 181.143936 -75.103157
-125.697014 209.054230 -56.313202
-1.454879 241.367737 -71.446320
-96.261803 128.831741 -60.263290
17.998665 234.138580 -70.204056
-158.238815 228.100174 -62.716213
-69.580399 257.628235 -65.359245
12.356634 253.148529 -77.037231
-84.205070 140.955673 -61.400875
-54.526886 151.588409 -58.733719
65.370697 247.542587 -64.548920
-163.256882 247.539459 -67.807159
-42.009178 209.215698 -75.176025
-73.498230 221.041382 -76.267204
-74.186722 159.772903 -67.369331
-18.936823 205.330612 -74.053848
13.835674 223.175888 -74.449821
106.074051 121.015579 -61.877777
-32.402351 184.776321 -64.585701
43.701706 129.428452 -70.554031
0.213971 231.869293 -71.375969
-160.997620 247.309830 -67.954079
28.954166 50.181759 -59.046040
-22.256830 196.074402 -71.058548
114.017502 178.618912 -69.303062
-13.099162 214.713806 -73.687920
62.288940 249.919891 -64.972351
83.463806 227.962418 -69.013687
-152.436951 320.806000 -72.145782
-130.136337 235.279968 -66.783279
49.865540 102.081253 -59.466095
-19.962700 77.223198 -68.719460
81.233452 231.096344 -64.113358
-63.532276 259.370514 -71.307365
-150.333755 312.844177 -60.647472
30.375074 142.514404 -66.445930
32.856892 158.855530 -69.212799
55.257168 105.778618 -67.723267
20.828569 157.483032 -58.675732
49.471050 122.192078 -66.300133
-40.831493 67.720139 -70.170654
32.085594 156.557938 -71.942963
-30.937664 216.831329 -68.692932
-147.457932 214.998947 -54.582672
-10.602233 217.982285 -65.871994
11.768799 238.023346 -63.567390
-87.170929 227.964081 -67.490349
-29.888794 186.482101 -62.623661
-77.061493 101.565109 -79.062325
-3.818507 294.831879 -69.522469
113.554451 170.622879 -63.626137
-101.906013 297.711212 -68.532494
-63.970741 125.025169 -58.185253
-153.958084 209.111526 -68.780884
84.209732 98.773071 -71.547371
-84.750015 142.601395 -61.139458
-7.011346 222.288467 -72.460876
-67.996071 105.713974 -54.606087
29.603783 174.445847 -64.356544
102.832054 196.375946 -70.470078
-25.095848 204.540192 -62.607147
-103.705704 230.310455 -65.492950
-147.660522 269.756317 -62.419304
-12.586397 72.554375 -62.025772
-153.710266 269.570496 -57.451893
69.036423 241.571396 -66.320480
-29.260538 199.848984 -72.075066
-28.439432 195.856064 -72.089584
-160.614777 290.303436 -64.797897
-61.237122 74.932365 -73.514259
42.073196 128.860977 -65.665543
41.427658 43.843456 -57.172642
-80.178795 258.907013 -66.752602
28.752365 163.834488 -62.301388
-35.591709 90.355942 -70.503075
101.760994 107.490692 -63.466381
-148.694611 234.451874 -55.551014
-41.731705 179.121475 -64.800285
-149.727936 245.269272 -55.791481
-39.417709 181.066132 -68.673592
-85.388336 141.561050 -63.745701
101.650040 82.670280 -59.574585
3.916383 249.253693 -70.034920
6.716647 251.555710 -56.409702
-23.923286 187.610199 -70.415573
-37.043934 59.176029 -62.528904
14.323133 273.368774 -76.866646
-94.293121 154.940353 -62.847847
-148.345352 208.015762 -71.562866
-80.465187 141.618271 -63.173252
25.606907 156.167023 -69.207985
31.139641 165.482483 -67.347176
-145.656525 225.483459 -68.670807
93.180733 213.419464 -66.149567
-162.138351 234.781326 -61.356564
-148.907318 240.084732 -72.037544
42.453960 115.212944 -71.701027
-104.088394 301.725037 -63.691879
11.000355 295.554108 -68.840790
3.865101 285.738953 -76.951950
-149.652618 228.768402 -70.576881
-78.241707 111.823273 -59.781071
-24.520504 249.012115 -67.384682
101.133865 208.478088 -68.425415
-6.009267 262.968811 -59.296314
-75.756027 134.716110 -62.113899
-147.359512 185.255814 -64.608124
30.083513 144.491272 -74.123482
-70.243637 153.454407 -62.678185
3.790059 241.216599 -72.009209
23.946985 163.471466 -69.298973
85.313904 72.748497 -60.247406
-32.473785 184.433701 -74.436607
-147.554733 299.911743 -78.576950
-47.562210 147.717377 -61.529465
-26.477615 202.908798 -63.027176
7.241275 263.386230 -78.014694
19.584454 245.669128 -69.446091
-166.513855 233.068069 -65.191315
-25.410969 199.713165 -64.287262
-163.703049 242.064880 -67.281837
14.097490 234.409973 -66.144180
-154.250641 299.029724 -78.345413
49.602425 262.222229 -60.433155
8.232657 252.609329 -64.370636
70.502838 240.724442 -63.892738
-145.940262 228.977402 -58.442226
90.288483 70.363831 -54.822739
-7.563941 280.024811 -74.486137
-20.551970 67.056282 -63.345131
-4.095944 298.822815 -60.246002
23.721661 170.751755 -61.633892
-57.376854 151.976929 -60.149994
41.868805 260.463318 -59.040802
-47.313297 93.682358 -77.755974
31.997742 150.242508 -62.556786
-117.194809 207.714691 -59.299618
-153.699738 313.432129 -70.821198
70.997688 240.604950 -63.570530
24.893303 187.761292 -65.122086
-95.416664 70.853996 -54.685806
-150.770645 256.942139 -58.571705
-162.695679 264.318665 -68.001312
-143.714508 302.932465 -67.947342
114.687309 148.561172 -70.181137
-14.929754 214.194992 -74.006378
38.347618 135.927536 -54.940060
-87.638580 148.778641 -61.026436
30.772438 45.513481 -58.552364
13.055664 224.018997 -64.541603
-99.253494 160.374222 -58.763336
-38.601887 251.000122 -68.895782
-134.395416 273.326080 -61.898460
17.155155 229.126343 -72.472572
105.727890 187.524185 -65.036865
4.366846 266.589142 -55.167015
43.285072 134.933884 -71.327446
-16.583302 201.125626 -68.869339
-166.405334 218.282074 -62.843449
-69.247528 111.533379 -59.950649
14.613944 296.317627 -63.245663
-19.875820 247.392715 -69.775581
22.397629 198.311523 -69.622429
-33.260803 215.278397 -68.367577
51.806454 110.013161 -61.060364
-74.203003 261.532257 -69.961609
4.197682 240.166946 -60.660183
-41.172112 173.102585 -74.231201
-29.327316 177.660645 -69.140747
63.246605 246.057526 -63.957592
-54.960804 149.120178 -67.567291
-122.166878 210.830353 -58.470402
-118.386856 238.252228 -66.529411
-39.513081 164.713226 -69.240486
11.009123 253.090698 -55.457283
-33.858902 87.186310 -66.927505
-43.316151 67.100105 -70.225426
-8.968020 244.775803 -67.682304
12.650583 203.390961 -62.623013
-143.882996 244.430450 -59.511204
94.712326 219.457321 -67.963623
-32.499092 59.236973 -61.061417
-23.130859 82.406517 -70.878845
46.877655 259.716278 -63.267803
-143.137711 297.250336 -79.239182
29.580584 44.778805 -55.520363
-37.094185 249.699127 -70.363342
23.104332 153.734238 -56.052063
40.896049 116.772415 -71.419449
-58.770210 184.363297 -71.729317
1.732395 251.363342 -67.076729
-150.551651 307.431458 -62.292728
-47.224495 54.251835 -55.376526
2.862241 173.960220 -66.582268
-60.963867 60.016705 -66.079834
-17.935516 74.087502 -66.531319
-160.350677 262.166260 -62.705414
95.986053 219.219421 -64.630608
12.245181 247.363113 -76.936333
108.345734 122.026672 -66.169785
22.786114 195.072021 -61.767990
-141.124283 297.127716 -72.816078
-145.891891 230.122726 -69.158691
-146.581848 202.557861 -67.447922
-87.326118 146.916229 -62.383236
-67.660950 124.626282 -54.571022
-148.503479 246.131317 -78.317528
-10.156130 263.169922 -61.011883
-1.926959 250.952652 -66.860756
-144.857956 247.265732 -63.140297
-144.271194 199.959213 -74.960960
-4.861715 257.852020 -71.515907
-49.635654 67.660301 -70.746223
-77.654892 110.041237 -68.637848
13.897964 252.208755 -77.283783
90.732231 117.003296 -61.583447
108.735634 140.471146 -66.533623
42.903980 32.211124 -55.176353
25.885643 194.881287 -65.518745
55.555016 255.383957 -64.650322
15.307129 244.536011 -64.691269
111.699532 150.083252 -70.327324
-98.922577 102.715218 -56.918736
-155.490921 206.142502 -65.682907
-8.854183 287.535950 -62.275185
-61.201809 126.960289 -58.936588
-6.222186 279.354004 -75.467911
-118.625687 265.535522 -67.862068
6.071503 231.356888 -67.524498
17.807339 230.978180 -67.403763
22.226374 255.739151 -70.528946
39.507355 128.203522 -62.641621
-38.462639 296.653137 -70.686943
-86.613586 59.650024 -54.115929
17.926401 211.840683 -70.108345
94.247887 84.514984 -67.416679
31.125591 172.504379 -66.118828
18.945904 153.489716 -62.074360
33.123779 134.728455 -69.996979
4.216378 251.356857 -69.489441
-21.623528 81.469597 -70.117249
-147.629257 238.103897 -61.262707
10.497362 162.786392 -61.385437
25.837959 153.968170 -72.733429
35.985821 263.665741 -58.531155
1.060966 235.551666 -65.208252
27.324921 41.993980 -61.694061
-25.514761 198.168106 -77.200409
-57.349995 178.293961 -70.729698
-130.830505 274.248627 -61.811119
-30.994122 83.758240 -73.777359
113.910339 160.068527 -67.105736
-145.278290 283.936157 -65.864273
-84.572243 142.211166 -61.527782
-147.402191 202.663391 -68.328018
-130.700043 213.986740 -59.245018
-20.592285 217.824448 -66.099426
15.975297 272.383240 -75.919571
-40.037060 204.351685 -72.323967
-150.215195 245.309067 -75.399933
10.904484 203.723328 -65.361382
-39.280655 298.645844 -65.706924
97.518715 213.365128 -69.115364
66.440346 249.115341 -64.251793
-25.293148 189.834320 -67.457436
17.754780 220.749985 -64.184044
42.773724 124.728477 -72.466461
-75.781563 132.780045 -57.609989
-42.202755 163.172562 -62.706989
-63.189625 181.044281 -67.924393
-6.215257 250.705795 -57.512310
106.747025 180.685349 -66.084358
-155.693100 296.042847 -64.014908
-65.324326 105.841194 -57.529823
-132.645126 264.778534 -67.394516
1.266315 296.741852 -56.876221
-158.208328 250.248611 -62.586395
-133.805435 302.061371 -70.215797
35.409046 135.393036 -72.788460
86.474167 230.449890 -63.401104
33.687439 132.504288 -68.984070
-71.101555 147.968811 -64.657494
112.815125 171.302750 -66.994171
80.382484 83.356888 -68.804344
-93.095650 147.719803 -61.938717
-75.524338 151.762115 -67.676819
-81.426476 223.137192 -67.881287
49.224808 106.522240 -61.572147
24.748791 181.805984 -71.764557
6.961617 258.949860 -75.390015
-124.323074 272.510376 -60.062542
-52.857986 199.023575 -72.463493
-20.319361 216.168671 -62.717926
39.267010 121.204308 -69.742088
-166.054413 241.994354 -66.441513
40.341862 23.088396 -64.946091
-100.698227 178.310059 -61.060200
-13.690218 297.274200 -66.860863
-130.866577 264.487671 -66.681000
-145.309113 288.621338 -66.252167
-44.282974 168.088669 -72.061165
-26.922583 59.015511 -57.137920
-68.731308 112.486549 -57.818241
-143.992996 234.817093 -56.685913
-8.853017 243.279678 -61.676960
59.609074 92.656494 -57.918079
-53.227421 215.045883 -78.440292
-6.726819 267.634766 -76.112480
-66.890289 73.712204 -72.948463
72.334930 113.349823 -61.847870
-5.553535 277.407196 -61.265461
-148.247131 185.944031 -56.514954
-87.743446 265.929321 -63.685646
-96.997162 227.163284 -68.022514
-153.425919 242.283493 -71.465546
19.381834 218.923218 -67.939438
26.400221 33.712173 -57.720890
-20.370060 297.509735 -66.443954
-8.456493 182.416916 -69.585846
-15.473446 240.430618 -68.179817
-54.651417 196.425415 -71.501526
4.066494 167.358353 -67.435593
-81.706253 112.677979 -65.826088
-33.008373 182.195038 -64.730072
23.994667 263.393738 -60.100594
-38.582436 81.614311 -74.550758
-50.373688 210.344864 -73.886398
-70.669449 150.608292 -63.238777
-90.362236 298.170319 -69.525406
-75.935150 82.706589 -74.281693
-56.751884 132.658676 -60.812237
-61.350399 143.671310 -55.138699
46.909828 117.016228 -60.902416
-1.783059 248.384384 -60.868587
-92.627182 95.250717 -67.923676
-145.573944 268.851044 -78.580589
-49.373241 73.143585 -72.720627
-62.122654 138.822174 -58.425259
21.321363 175.047287 -72.410774
-135.613678 300.077911 -69.997086
43.630096 40.672924 -62.377445
-137.085693 265.657043 -63.443447
-125.248924 243.222397 -58.915264
-150.971008 259.106598 -72.844528
-149.033752 203.946152 -74.701050
-126.421066 213.725586 -65.936287
-152.555267 190.076050 -59.498341
35.362915 135.940002 -62.733215
-0.159711 261.125641 -76.350258
-27.531742 65.680473 -65.340332
19.138485 203.668381 -72.891479
10.062635 167.887711 -68.514030
-151.105606 305.508972 -61.112968
64.849388 252.753296 -62.209209
-71.248154 147.436493 -63.926437
-65.449783 216.283539 -77.200859
-11.654163 274.736877 -72.841110
50.076141 255.634796 -65.143845
17.102613 272.074951 -75.040070
-10.588032 217.785034 -66.162483
-39.316078 161.452530 -69.945152
-117.406227 301.392670 -62.174358
-38.332207 169.525314 -62.942112
-38.216949 57.123272 -59.745922
-38.924343 56.334148 -56.574017
47.512074 107.596512 -64.234848
-76.051857 113.695473 -59.730057
-145.453506 245.820129 -77.385460
-33.600338 189.715698 -66.281815
10.961051 288.659088 -74.102440
15.266773 255.354858 -63.929649
85.289459 76.979919 -64.110077
21.832302 39.275070 -66.598831
-63.086491 104.628983 -73.000511
35.941940 264.972321 -61.593521
-15.903684 208.595596 -65.525085
-1.449564 301.725769 -63.260849
-73.127975 147.734467 -60.548721
-136.654175 300.216827 -74.525482
72.124237 83.592735 -65.893158
111.011185 182.961411 -71.425400
-54.525681 150.089752 -57.843670
21.987417 177.457260 -61.544186
-60.619232 142.384583 -60.637775
-143.559814 273.159088 -68.802490
-153.552109 291.444702 -64.686058
103.737068 208.118820 -65.959145
-159.258942 292.091858 -65.282730
-136.976456 297.612396 -69.825043
-4.427052 235.349274 -60.849075
31.968079 165.137115 -72.676674
-32.773865 181.221741 -62.666180
19.098927 254.181702 -66.996841
101.227547 78.883217 -56.032940
37.226147 145.644974 -64.391006
-119.439941 213.184937 -58.498386
-61.119240 177.456161 -66.520775
70.055573 247.382828 -68.589630
-22.140507 196.437881 -71.119865
47.229359 28.250027 -56.573315
-142.859955 198.013367 -62.796806
34.759808 136.156097 -74.929550
-47.609474 93.507454 -59.579407
9.563734 208.006989 -66.042000
-5.905126 264.070801 -59.651814
36.849426 51.200966 -64.933784
18.307835 192.134140 -63.276417
-20.320812 193.111816 -67.577400
-7.009319 239.776672 -63.729691
-68.133476 169.191833 -65.039330
-7.464409 298.654022 -71.704857
21.281883 259.869019 -62.067139
-61.565289 140.231277 -56.198090
32.388844 129.488831 -67.879616
-76.814621 139.507401 -60.683491
16.656464 256.818848 -75.388367
94.378082 86.256821 -68.173065
17.093443 294.972565 -59.353783
28.522421 175.242615 -66.502457
-85.405342 298.869263 -69.846443
22.515259 286.242889 -55.868420
-151.434525 290.541229 -75.664268
-147.021683 253.049210 -57.137207
-38.235432 90.478729 -69.794807
-10.617081 219.129776 -61.731438
94.245560 216.527512 -71.440483
-23.407787 233.402130 -69.974037
88.280876 229.826324 -70.433762
20.177811 152.364349 -55.980618
-16.148346 206.895508 -67.623528
-18.578894 229.507446 -66.415924
-10.636087 218.598267 -64.983948
-66.931793 107.078300 -80.649323
18.116735 183.501785 -62.870655
13.163629 213.570297 -61.432262
-49.480518 194.493332 -75.460724
-76.640099 111.932999 -73.303711
-69.143326 222.005493 -75.226318
17.922691 247.930756 -71.627663
100.845039 201.194534 -70.670776
-76.959625 259.501282 -64.252609
78.135071 239.210205 -67.332283
112.036308 122.310379 -63.155636
6.492245 243.742935 -64.700203
23.826891 165.542145 -73.154312
-4.136549 246.734451 -63.535625
40.813000 114.669830 -64.177040
33.734901 159.544937 -72.103775
-31.717365 81.793999 -55.617508
-161.689407 265.890350 -62.831661
-150.397537 252.579773 -57.207832
14.011495 222.912003 -62.431999
-98.145485 172.225311 -59.214485
-7.193893 301.521851 -66.975174
-145.386963 256.235596 -62.675148
-57.978615 183.641785 -70.005592
49.559494 118.922974 -71.954460
-7.476593 274.407471 -76.164833
-165.692978 247.929779 -62.418510
-140.769806 299.423615 -61.863377
48.458885 43.200424 -57.643101
-162.252396 225.199036 -61.270634
-110.485687 205.527908 -64.802391
15.491824 242.590454 -75.848511
-30.001513 71.717834 -69.559357
-128.914688 235.964905 -58.786354
-57.356895 126.264145 -55.481293
-72.649628 110.926514 -64.868912
37.421246 46.109306 -56.792370
36.188244 22.001980 -62.548923
-147.878494 206.053192 -76.842209
-81.432098 112.888680 -61.665482
-59.564819 187.286606 -73.347153
-149.484253 232.833450 -76.603622
-91.262772 107.276947 -71.025635
-16.235474 202.749176 -70.476105
17.801104 258.845306 -68.941093
-62.074249 72.585304 -72.791641
-92.461349 296.836487 -68.080956
-147.193192 287.678131 -60.736874
-131.752808 236.576691 -58.600716
110.129181 181.985138 -67.003334
-145.837234 229.024750 -68.499420
-60.468483 103.753258 -70.863121
30.775917 268.536102 -61.987015
-7.948438 217.401245 -68.383850
-55.337906 300.207275 -65.713013
15.149740 252.381271 -75.151978
-66.931091 175.346054 -71.021751
-29.168003 297.148346 -66.577003
-114.008507 267.904236 -61.313385
41.252949 131.003494 -65.952103
-150.756775 298.270660 -74.958633
14.502388 289.608704 -71.147179
79.950737 75.715225 -63.806786
43.998543 38.639004 -55.632912
15.292448 203.865555 -60.946461
-161.588287 238.746552 -67.019714
-76.440765 111.586998 -73.070740
-151.223938 320.697937 -72.547905
47.793640 44.419155 -58.397369
-69.203598 219.197067 -71.172287
82.838638 227.677216 -65.939003
5.559663 302.689087 -69.325020
110.182602 185.765686 -64.111519
-24.411686 196.781540 -72.412903
-158.935852 220.613693 -66.221085
46.704170 118.258751 -73.460350
-156.069580 304.374939 -64.273697
42.529659 24.143173 -57.951584
-145.425888 275.697723 -63.802860
106.260574 203.561188 -66.837830
43.913223 36.374199 -54.182068
28.832190 29.845711 -55.574593
47.349701 111.597054 -59.647652
-158.869659 303.499359 -66.962334
6.355761 165.124557 -66.251053
106.215553 107.584572 -60.947201
20.851009 156.908035 -57.928753
-16.696587 234.252930 -67.068604
-19.445139 207.152481 -60.937187
4.204379 247.880798 -58.213390
26.422962 267.263855 -60.637238
-110.835175 271.688660 -65.452133
8.003990 299.191345 -71.679779
26.801872 175.434113 -61.977348
-48.460609 296.212616 -70.172691
-8.021176 220.055466 -63.343998
-74.194244 300.942200 -65.639084
-55.202919 186.603287 -67.913025
-54.524395 210.247086 -75.956604
6.343643 274.261963 -79.974968
88.593018 221.450790 -65.032455
2.294956 288.943604 -57.426945
-70.068962 109.899574 -63.149635
37.131729 145.879028 -69.287102
-23.379419 250.811127 -67.057823
109.067177 144.488907 -65.692719
-38.039116 175.710678 -62.417061
-37.439869 298.432922 -71.872543
-18.508966 187.286377 -76.318893
-40.322098 89.507545 -56.185856
33.369740 156.834763 -69.538345
-51.435513 155.683014 -62.719990
-1.431797 281.688171 -59.746708
-85.895798 120.770767 -58.581516
9.245592 241.161728 -67.423347
-52.881680 142.041763 -66.870728
-68.178818 118.064102 -55.033558
4.683230 275.473755 -57.009449
-7.949205 233.641846 -70.037750
-3.535110 298.259155 -71.438866
50.673244 259.775360 -66.021515
7.102973 262.997742 -77.830101
-83.827324 120.077866 -72.562050
8.352015 271.590485 -53.996990
39.784138 265.651215 -64.982269
66.842056 76.735306 -54.060356
-14.283423 263.355225 -65.767075
27.140825 187.911942 -70.554405
-147.963684 299.630280 -77.499603
14.200174 207.959122 -73.235008
-13.725587 208.400879 -70.652702
28.803629 141.014648 -65.979919
-97.937271 121.366493 -56.005962
3.702883 277.680389 -57.603336
54.015907 113.268723 -69.622330
-7.981467 290.970306 -67.785721
-41.185509 167.843231 -74.397110
-118.494049 265.420166 -66.704628
-49.796955 298.435791 -65.392342
-42.716660 89.399376 -62.084137
-151.337219 288.332031 -58.609634
-24.977428 209.246460 -69.568817
-82.394073 123.978767 -55.585888
32.177425 22.366611 -54.847202
33.228813 164.179016 -67.452682
-150.786026 256.637177 -60.659309
20.380310 277.589417 -71.470146
13.663430 263.662262 -75.597145
-4.979330 231.202240 -63.407608
111.086052 152.307587 -63.596195
-50.117775 92.298981 -56.897289
-29.633606 74.448174 -70.486809
-55.162476 155.122635 -61.136932
-140.174576 267.948425 -71.628815
-14.636392 224.250946 -66.064774
112.226685 161.115967 -67.626518
19.438469 215.222610 -64.392395
-55.704609 190.091934 -71.843895
17.504269 242.836319 -66.193085
21.445650 202.798584 -62.353329
-38.617302 91.545792 -76.559349
18.884138 183.057846 -71.798325
18.401451 240.222458 -71.982414
14.260077 245.015091 -74.308609
-63.738136 71.948242 -72.519455
-34.386581 85.627914 -54.412224
-59.751133 254.005600 -69.764694
-23.283249 79.803780 -59.557720
-77.091293 98.419479 -78.053993
-56.105282 216.513916 -77.985153
-102.822632 183.154968 -59.071045
-89.339043 146.932785 -63.331753
-53.075294 193.751785 -71.791275
19.772139 215.145706 -65.310715
48.256966 120.709122 -66.792320
-11.818127 214.443573 -72.802887
-150.796661 203.519043 -58.265980
9.309498 230.903351 -65.795547
-165.997772 230.825500 -62.183750
-77.589371 97.603828 -77.676559
-12.154350 223.429092 -71.964043
-27.107338 222.811615 -69.973351
-5.084791 242.872253 -61.821098
24.565741 164.466354 -64.712807
7.366584 227.356552 -64.761429
-90.814987 141.940811 -61.344936
30.475111 169.501556 -68.260292
-62.023106 53.698559 -57.798412
-18.379021 205.875565 -61.584927
75.486481 116.291267 -60.248344
-88.808090 89.366142 -70.192749
-9.941321 246.938538 -63.535900
93.216949 79.592361 -65.215508
-123.550552 241.069183 -67.088570
98.671616 105.675819 -66.039551
102.912056 205.709137 -71.391640
-33.373421 296.451904 -69.750740
44.255035 42.990627 -65.894737
-153.365433 214.994247 -65.946938
3.018638 290.755890 -56.759945
-97.835251 89.867882 -59.103249
-61.591679 177.605392 -66.431381
-108.083771 206.591339 -61.415703
-46.786648 83.355232 -75.807640
-76.011055 135.337097 -57.048695
25.795258 25.129456 -56.395374
-24.951572 192.651627 -62.732174
-108.155365 191.261826 -57.507263
-160.065765 259.903473 -62.480362
26.961906 154.919601 -62.908104
17.461281 289.917725 -67.910568
-44.263355 170.746094 -62.768478
-74.544174 121.792435 -59.442009
-62.909885 255.212067 -67.436287
-96.362640 130.167252 -59.097301
39.002281 133.743698 -74.930153
-151.659134 204.221603 -68.380562
21.802332 179.205811 -63.724083
9.780049 247.701874 -61.677071
-45.777534 164.799866 -73.824638
-75.899689 56.713234 -59.526569
-166.708649 260.209717 -63.586990
-16.965492 230.571381 -71.009407
27.848026 268.803772 -57.151161
88.448929 220.638687 -68.410728
-17.790773 201.265533 -64.158691
110.970070 119.221115 -62.501534
10.442517 223.137573 -62.505192
101.826263 79.686211 -55.903179
-146.167328 228.209595 -56.510418
91.767792 79.836403 -66.089592
-65.526169 137.072861 -54.651726
-153.640152 211.279587 -67.241158
-16.739662 230.243011 -67.283768
-95.696976 231.703537 -64.905350
-96.117905 155.755417 -57.319908
-150.644547 246.967850 -60.522060
-151.154114 203.208405 -60.866272
-12.134901 224.378204 -73.830154
-147.568924 211.615250 -55.264584
-76.834702 91.184357 -76.225060
82.621750 113.378410 -64.009750
-141.274673 190.956207 -62.678608
-151.356705 310.286224 -77.482407
30.464622 166.367859 -66.332764
-69.050034 112.415604 -56.299320
-71.596283 158.195313 -66.843925
-77.613327 259.758881 -69.751984
-84.873619 67.872337 -64.270775
-142.474609 295.415192 -64.471802
-111.297272 193.996368 -58.677715
10.967410 220.432938 -62.299042
27.828850 158.803986 -74.494835
109.905640 133.551987 -62.296322
-145.284866 242.450439 -77.595131
17.650318 277.423340 -73.915184
96.854576 115.599792 -58.979965
-4.876478 256.285522 -56.220459
-112.289375 196.485657 -60.031582
-47.786915 194.275177 -70.594917
5.951222 250.160812 -71.443207
-45.809593 299.111298 -71.697960
-159.780106 238.042755 -61.888535
-42.459229 251.150284 -69.460663
-148.619781 267.752411 -58.710732
-26.915178 229.760513 -67.851524
13.732230 284.351410 -74.339996
19.770996 209.304886 -62.652233
-146.648560 214.343781 -77.158722
-149.651825 252.307510 -55.994766
-18.102345 218.293945 -65.879883
-48.529755 164.695480 -65.767036
-58.561142 218.202835 -74.734818
16.657454 247.656708 -65.480766
-60.851486 139.553574 -64.093117
-49.852848 213.427017 -74.955154
-118.766457 298.776947 -60.149170
-90.049629 119.199242 -72.210945
24.109278 282.612488 -55.890835
25.850899 278.496277 -55.183643
-126.138382 209.842880 -67.908096
-69.604378 56.154984 -60.885342
-150.289368 298.285339 -68.913254
-9.564364 228.276794 -74.090576
-40.522316 296.063049 -68.986542
-22.343754 198.725830 -62.192493
-100.158150 165.860931 -56.945572
-83.283852 92.704926 -74.340805
107.764687 199.855576 -67.134621
13.138312 237.786499 -65.735977
-53.618610 209.758835 -77.028152
0.908017 247.669968 -68.837036
-129.834564 269.863586 -70.343590
-67.725403 218.131638 -77.489784
-69.132217 110.304802 -66.369804
-65.347168 172.287048 -65.556458
104.429810 102.549179 -54.200161
-145.509506 250.047363 -61.714478
-15.380555 66.722443 -59.972061
14.517928 234.905243 -66.523605
48.322060 121.237823 -68.254440
-39.146149 89.116821 -56.982544
-93.257347 95.738945 -67.314690
-159.380890 242.632919 -67.042389
48.026787 260.293121 -63.683834
-67.831924 109.995010 -69.503502
-135.752609 207.205856 -72.774147
-57.981461 186.665146 -67.647377
-29.144224 200.838791 -71.286758
-5.376933 241.414902 -63.058975
39.531116 129.995743 -74.897812
-67.889755 110.081802 -69.684013
15.869240 245.535751 -65.039589
9.993731 247.058929 -69.078041
12.898642 197.897064 -68.392082
-148.984940 193.902191 -56.318493
0.765441 238.884247 -62.816261
-64.960701 170.472427 -65.460037
18.679966 162.522842 -58.638569
-167.096954 248.128036 -64.623466
37.943676 146.498367 -71.861885
-22.479866 252.635925 -71.159355
-49.513676 151.042618 -71.060799
-151.537262 295.983032 -57.974945
-93.998215 68.678055 -54.868237
-53.653767 69.735481 -71.907585
54.109978 254.208008 -59.976807
-12.818906 234.481186 -70.033051
-164.171112 255.519989 -62.489178
29.752554 168.333359 -71.067665
-32.598911 296.439636 -69.089798
-167.600922 278.185852 -65.057152
-22.573814 204.338379 -61.328529
-76.438530 72.922569 -71.154976
-80.119789 61.506107 -62.494072
-50.960876 159.410233 -72.101532
34.865189 50.255989 -61.498257
25.421799 176.210083 -61.668297
-2.643950 301.702362 -70.730972
109.241844 130.937408 -69.119781
-112.709885 238.012039 -66.104309
-94.517578 300.982361 -68.627281
80.073349 95.824287 -71.634438
-149.279541 237.680664 -56.436218
-91.893021 117.280167 -70.553154
-19.788921 236.611359 -68.874756
49.379044 106.336212 -67.256882
47.196976 121.404396 -62.842949
-44.555534 203.009674 -71.380737
-40.506081 82.723969 -75.286980
-6.514378 241.761749 -68.942490
0.326764 243.436356 -65.181549
20.864151 289.197174 -57.620136
-90.023689 141.482635 -59.120747
-89.606033 128.129486 -58.572971
38.511978 22.475861 -58.278854
85.700508 81.020691 -67.069435
43.774956 33.013348 -61.631958
-46.414726 173.279770 -68.907860
75.113731 75.753456 -62.687607
-28.859650 248.197617 -70.187843
-152.913177 187.140991 -60.211609
-139.196121 240.495285 -67.974548
-34.067257 90.872086 -74.239311
100.523735 112.741539 -57.724171
16.841118 210.188766 -73.421440
-145.758026 253.258011 -61.688202
-89.106216 123.277245 -71.335869
9.936471 286.905212 -75.665649
-136.576965 236.876694 -66.826431
12.872455 197.278625 -67.727829
28.666737 266.136383 -60.748928
-36.226978 168.044312 -65.230507
-121.801460 205.541580 -65.092247
-149.432373 270.192902 -69.029709
-84.852249 117.143768 -64.069946
-87.600670 296.497437 -66.413734
-56.145153 217.158218 -75.555870
