# This PCD file was generated using the MATLAB® pcwrite function
# from Computer Vision Toolbox®.
# .PCD v.7 - Point Cloud Data file format
VERSION .7
FIELDS x y z
SIZE 8 8 8
TYPE F F F
COUNT 1 1 1
WIDTH 785
HEIGHT 1
VIEWPOINT 0 0 0 1 0 0 0
POINTS 785
DATA ascii
101.315484450735013 -62.880827640317356 -185.174791444506127
-37.630790195241886 -72.165743462714588 -190.443351068484219
-157.072323397909116 -84.237080556216569 -188.392197757286539
-157.750415217898734 -79.867101579264499 -194.665247368803932
-146.389966767003386 -75.346240553322517 -196.477605924415826
-153.354574328967715 -79.237559423491888 -196.813850796115929
94.007396861216833 -58.043307011361591 -197.190816901020298
-17.281800599464006 -70.367120802381123 -195.004024818038715
-120.436961453765349 -77.868943021438952 -197.796474253241485
-10.546314531162189 -69.186284017213708 -196.269229538821349
-30.637641816768834 -70.707615483954328 -200.960171675797824
93.585094796499106 -58.720818579913370 -196.504834970410684
5.628781237902921 -67.827002404549205 -201.029078469643480
-124.475427190038488 -76.943576311862387 -202.446370457392931
-165.664958178257990 -79.108940882138953 -205.897661652960409
-147.479952651689899 -78.155232959151292 -202.119671244674947
-151.468958425860706 -79.413635199493825 -199.325402255092712
-17.443574947376227 -64.540331067282139 -209.107338728078645
96.248958983520637 -60.041982493822580 -207.789281991859212
14.888169517533164 -59.259440485885122 -216.037534281503554
14.583627140027890 -64.638090116047891 -215.571747633243888
4.454687379538022 -66.203924693514423 -216.001972420214003
-98.923027116966438 -68.676480050433511 -218.437481699281420
-101.696902196917847 -75.149509722042140 -220.524189767927311
-93.886341208548856 -80.428448496417005 -215.165242200804556
-2.816957634239273 -59.050410679876798 -216.471258107179608
-167.122665898980188 -72.162002491037967 -213.130736767794474
-20.209218420199306 -60.406905209674122 -220.135636741551053
6.915108814896030 -64.537595184313645 -220.507695128027876
76.600865879704003 -66.390986152091003 -213.466184687539311
-15.135822339346248 -70.852837904825179 -223.826420018811746
3.672310393534524 -72.402849726152994 -223.648992642339380
70.229129872297833 -68.775383484707916 -224.116639759602606
-126.651460489395646 -72.857914133863773 -216.816398179228656
-120.493526977507145 -78.604754279632800 -222.684207615661052
-136.259586931750135 -72.408357607471572 -222.367069925843651
6.646350154632579 -67.764340402791532 -225.817343595436853
-114.271999870515884 -72.529633306429204 -223.933749788719638
-170.464522502842840 -74.364828558918234 -230.852194121519261
81.703971007064041 -59.197639686158503 -225.245556856447564
-8.481956051469993 -62.332960613232196 -237.668073742907154
3.769972123346697 -64.106958723149276 -225.223365087054503
64.095674122396815 -66.061913613314928 -232.088937888459128
6.874217661262477 -60.689536590014164 -236.250598165124131
-145.749428563592261 -74.363638075683994 -232.114468748131003
-14.656284973695143 -66.626193438993667 -243.728921976147802
-7.359477307399025 -65.731354095067616 -243.615228750442924
-5.439033308257805 -61.155955324714419 -241.589958221780108
-7.121057983770498 -66.831431680725146 -239.854174114079200
12.298167624701151 -67.906722032471848 -241.655039074651967
8.002958059530620 -60.215793780678936 -231.886598436386919
48.200485745962737 -65.802748027769894 -240.067722596473857
14.114834010630684 -59.640543523278247 -243.987696059737488
-14.294331098564044 -65.215012630543839 -239.245295838159393
50.054226581721586 -57.498711108067837 -246.183938053100547
56.996483218918492 -54.696719120119724 -244.947023939295917
49.341811098246048 -52.776764416904960 -245.454859124778494
58.409147787583990 -61.889173007125656 -248.150535588118828
-77.008017369013004 -68.914121584813927 -251.132506484480587
-142.161699744834493 -73.541910496893607 -250.460960120110485
39.830763475380067 -63.260231171631055 -255.579039913205605
-133.264700964290000 -75.373689357845620 -252.140553848401709
-21.608276047565560 -68.278986642891411 -255.549900033190113
35.324996421898859 -61.743367099615476 -250.943330793756928
30.432654770705046 -63.575883881565993 -256.474267617789337
-155.808848987458418 -66.118790230574817 -264.756989502681677
-21.003846175535450 -70.402644340141407 -262.727671636752177
-121.946105977120709 -72.578804527663920 -264.340527619021259
-140.792501178642027 -75.159260231294851 -264.676262337399066
-117.889016930240473 -72.061841427466888 -265.883915355001534
-159.636151875351061 -76.250588708123189 -265.925610646198265
-128.393133700162338 -67.837154490372725 -269.868791356639235
-159.485442940847975 -71.444417678783694 -257.635901560617526
-152.208732155052417 -73.351688936778515 -264.018433666310102
-164.178962623355801 -74.822333351821825 -266.147865930531736
25.604393750477925 -52.493059832192905 -268.619124945704357
-15.317333056389536 -66.828793909624338 -269.483375689063109
10.891902719196544 -61.203232758590651 -273.033339397489499
-168.628770331696870 -75.182116059217705 -278.924138208974966
-165.696853454099681 -75.815681184064161 -278.794979889119531
-157.693442847523528 -74.292573535515700 -281.195048709644368
-171.726249091691983 -76.370270659913686 -289.523165180289595
-133.495033722429810 -70.811039136387166 -283.048410554985480
-148.449364281474914 -72.813525607416352 -291.252814184956549
-136.765106316088776 -74.148369217313302 -284.008012902321809
-128.694166772226538 -66.891473230725438 -284.364585813898941
-156.739184940788419 -69.780554704727962 -285.012683254449712
-110.974174655812448 -62.015280038040331 -287.866999404606247
-75.875287976850174 -65.062070543012112 -291.888526188437140
-67.748589153517798 -66.967193607501201 -286.993000012716379
-61.799370187134187 -72.332971691635947 -288.891637016012396
-50.439738329338269 -68.736029359873854 -287.314479690776636
-55.621891684170038 -65.095116208973081 -285.612669306138173
4.169910243600270 -64.905592748595481 -286.829050980743943
-72.109944867445421 -58.432891689112715 -285.910366248637501
-71.830996115526020 -67.598475375290974 -289.956521551491960
-10.009701133989225 -55.672628609271797 -286.123618570938845
-169.853620390456939 -77.487797887999363 -286.689953182299689
-99.368429103933437 -60.979987692048049 -294.919359609807373
-117.481294475984413 -65.836853006200812 -287.014301509745337
-133.839619988787462 -72.491899031053137 -292.344831071976046
-119.862547631995199 -68.813853550526048 -290.439944011153841
-157.400859313385070 -74.868345682572922 -293.674939456432924
-157.101262456427037 -75.116379854466231 -294.622869736066889
-154.477595755668517 -75.287570604963591 -317.151173165103899
28.268349916258853 -75.678697540519835 -11.317049157078266
39.704429359564450 -73.077943181031330 -18.604546270806797
13.888887363930426 -82.143444329540941 -20.240122374281455
46.804705872342467 -81.187458471335617 -14.340708374976000
33.469829619190747 -72.023647196458896 -23.641075509243898
25.868627420044170 -78.512980037148139 -24.182622281985360
51.787943037471379 -77.579563034445755 -37.264599629046479
37.033195720898462 -75.488175960277047 -24.006159521569018
47.051443984848007 -78.286851967659913 -30.504657587145843
43.950652660346307 -72.317936993406462 -31.928085450539470
41.486643907064526 -76.407773237455331 -33.465583612592980
44.117854394110147 -77.210495280205492 -33.466910215517856
27.735688045260311 -79.151507002382587 -36.443732283910457
25.145593173613385 -81.844816776321849 -32.225327846966231
29.688787550405245 -72.893210209529286 -45.139868166675583
38.676112258911687 -69.889968994851856 -34.956978673649445
31.560495713625041 -77.172637883004924 -39.466037826446076
33.190413830865872 -77.301511279347963 -36.846583751111780
25.600678774166060 -82.349641078503751 -44.797208304613989
39.049475424647589 -85.187883445333313 -40.975847318936424
-64.025032232434498 -85.561715378941145 -54.161648373829401
-54.894850688559814 -82.463706330623680 -52.400183864198624
-25.735222095395898 -72.829035713302517 -60.381101161590642
-87.128365685799395 -82.464203004687008 -61.261937703888300
75.177670412929928 -77.632077667582692 -68.749719457258834
-23.021238034112415 -79.698220164656405 -70.798739499325563
65.562492702853206 -70.260791968249606 -80.643727119483387
59.350469641581114 -72.971864050043393 -92.148826721171631
56.172362668458412 -66.791505502516060 -84.114362334010650
58.607334754172129 -71.704207360588825 -89.551634383627047
52.490281213074653 -68.456148317973486 -95.626891536005260
-63.889442582014780 -73.367928443099942 -93.217762797478926
104.015407450606517 -65.669750662732028 -101.149919784180952
-99.317020551760521 -80.085106084435239 -101.032495861418113
106.193912590022776 -68.956695242285107 -97.807179583414069
91.059964280222985 -71.644164429859018 -93.532902542615858
-83.401676816182473 -83.604244682770343 -102.302750691400163
49.328064061315736 -68.834494801584412 -105.139146480423662
71.327093875170121 -69.760967067016139 -108.057896488284939
-80.694190889732553 -83.959354291033762 -112.268593146823761
35.766095589780541 -70.914823130140974 -103.254875433729836
96.849036059073683 -67.610515790258091 -110.239913189942186
50.234086237910034 -68.041695617167917 -101.207449832804457
88.135655824499835 -64.859026666547464 -107.546092432834882
-94.069172878110209 -77.140031142687022 -105.861347951307977
47.241047958708585 -65.300008210854116 -118.023003452361962
37.417026721825138 -73.056745436809550 -107.675978621271994
44.732782722068521 -75.061375435662356 -105.878226628354810
-68.874646909576910 -81.613297168599729 -113.055388553860311
-99.696353721845497 -76.550144006047020 -117.041762889911979
108.559109888800265 -64.304214054514887 -108.212620785035782
-93.935390272901628 -82.930147739136117 -115.225502761258070
106.917208146840068 -61.310086306318404 -116.552725823085666
47.984571897038634 -63.942408780196715 -115.545763536868549
34.795744776033885 -74.500638459991833 -120.824778147582180
37.775915592459981 -67.213170127202218 -116.485412576721458
109.964222435282153 -58.954380802770380 -125.266892134885225
-85.268570970484618 -80.081467580154481 -125.184342703251815
-56.932860184781049 -74.123498081164612 -128.131722805517285
-60.966785727005117 -82.053882049361803 -129.533128188675960
104.871787048202876 -66.314615938984261 -125.476512701583616
-52.904056857195357 -81.395092306629053 -130.196783870799521
23.491235666249853 -75.527916408488835 -135.571214005112068
-84.510589047813923 -69.176688011364632 -130.927587607083979
-93.634170046678207 -80.566376827549760 -127.600153004856793
114.804208793548213 -62.224402651756378 -134.637544539729987
-82.149599127484407 -76.406180224332374 -131.179959218844317
37.321803218364934 -69.955040664192040 -140.727121157952325
-79.828662298909279 -73.022327436397589 -127.163182697759041
114.114138406018796 -56.495451353693362 -133.835696762657335
-89.003642566398725 -80.622254413191925 -134.704732228098834
-71.188765825863385 -77.813230752004159 -133.400074704506466
31.103320403870875 -66.698559358815729 -141.281720864459231
-76.595139194049125 -82.011350002951417 -146.402118012243079
108.445050807760424 -67.992182026368027 -144.297395455731532
-67.978941043491560 -78.976987981886751 -146.905100799437008
22.694126958764649 -67.922100640785786 -143.426326907027970
114.123973331758478 -60.654978782325308 -150.295280867840319
-40.871077478933529 -77.122024977107145 -153.495247194279102
121.636296620194571 -66.508744229075489 -156.176187725855812
-49.591315092838997 -74.145953636969267 -147.784967188319939
-51.370259967103848 -73.898948079540915 -148.526242448706427
6.101484778215209 -63.856656549865875 -142.173241284599044
-71.144373950140363 -76.907083518622983 -146.405192568004168
-57.357321767192275 -77.462677146915794 -153.749756704888256
12.220394544257463 -72.869118497352517 -152.877169865464026
-44.164213112472154 -68.291144378421563 -154.952860501814826
2.953230573562848 -75.693857380161717 -158.392587840986209
-48.620516811971910 -72.432707962616817 -158.978988802451141
10.752216617999224 -69.942997028623637 -160.835360195962437
11.345770813602915 -72.939975114985998 -158.202394799152501
13.070530570725989 -71.365880417776353 -170.393668961289450
16.740916942052063 -61.260376146355462 -158.311595043766943
114.710425491199459 -64.083927289271628 -168.051704499932242
21.991492554975764 -69.809850205679183 -162.182034320658460
-44.579848951787596 -73.402214631928317 -161.318873244270179
17.325704845768488 -60.958302539708086 -165.028387193715702
108.935408807525832 -65.564651313703337 -163.398481656242723
-47.296085918115537 -73.693788788853539 -168.928337401300666
19.890368939032928 -62.339199652615974 -167.214367006179856
110.044493680058778 -62.556678870832357 -165.910154048589163
-155.239188423442101 -78.146710280988984 -176.602478006667070
-142.546059863959613 -79.397343375981279 -177.814753096408680
21.886051122861559 -66.048091314153766 -180.132933620749242
19.272719064893536 -71.418442257241281 -179.264204167414249
-111.261980959739162 -84.430268498064493 -185.535776818286479
20.909350210164675 -65.319328476115004 -176.367362723331581
-22.497420641445487 -65.119429678098584 -181.127556343504153
-115.726368147212355 -74.722264834513695 -187.163847689962950
-108.816954912324292 -75.315766383394262 -192.465813632183966
-37.035958727037794 -70.428925080013499 -184.464033973406259
-148.869498759204504 -84.077954361539383 -185.032434549409089
19.741565361955448 -63.877996551159718 -188.149269151946584
-31.513588232958369 -67.989107717550596 -187.439530496756021
8.362416771180577 -71.162870716759500 -195.232246437182596
-22.764502331438493 -69.262647109263128 -189.986352417926668
9.288191412743011 -66.099393563550279 -195.927701998108120
-133.298853484524074 -81.750834918695048 -189.557130019023361
23.419035731050734 -59.903838457321633 -187.659295347495430
-146.730689184028421 -84.035699452921676 -196.359780887977479
-25.000892622983116 -76.954991513301906 -199.426095036942229
18.453635124969871 -72.827755806372778 -197.320266971133776
-167.391164423493990 -76.915139792986182 -194.316562067648391
96.197403585862503 -58.956889177324612 -199.671334637451793
-106.911000914712247 -72.818950250393371 -201.250652175202134
14.867885254775331 -72.794136206856592 -197.991626608064024
-24.575738034388792 -68.604738303789503 -196.949095927682862
20.617987132837712 -64.482092254875468 -201.717376321897888
-144.178313229757663 -72.835331742779459 -210.095706604909680
-131.098761708114779 -75.703959918864697 -211.622193948274145
-131.013385878683323 -75.045203810928882 -206.573624998236880
20.311150169251967 -61.286257061119315 -205.610647773495089
-10.635516726480915 -64.383257247890128 -209.716408387339015
87.217352755436593 -62.398092585977956 -210.352305664549135
8.140809630056808 -64.738917106786488 -212.034208786843607
-16.796883944529320 -63.793182069486072 -209.444859451359349
87.068546265322198 -58.229537509850203 -205.805939399339678
6.422386853705369 -64.203443427429775 -210.670668283774233
-19.628431834825896 -64.956971789501509 -212.248027704596353
-9.951884483241116 -65.423098900719552 -218.708341608509613
90.144830359689763 -58.734944657448828 -219.552015835880013
90.904563449371238 -58.925353578305206 -226.744750636408696
-9.664015184094517 -59.250202236466947 -216.358406167994133
-5.877078341345481 -66.846758471706920 -222.983821296924930
-108.288993801554312 -74.785628106751432 -221.874620180020514
-147.863615409642051 -80.051332438713672 -220.037622989162060
-3.552233055824658 -67.761751576211438 -224.090850852889787
81.996536092402721 -52.778143762971212 -226.402481291448368
-136.860912179974775 -76.892114787652119 -222.131957152288777
-13.565146612231018 -61.499858935376835 -224.676910602896328
-143.446520129725229 -79.244886362572160 -225.129219162983787
-141.530654651939130 -76.465889161867111 -224.826198560078069
-137.917392617287163 -78.337215734554519 -226.386923325290411
-24.056032968115588 -66.250741552797365 -231.633449602826602
-13.004552137460607 -68.761365545242924 -225.938902301273629
-9.197333378799733 -66.010374760600982 -233.495812070515541
-1.226607519422750 -67.098458692730674 -223.002625779045928
-10.040835636444925 -63.929660902428616 -226.067654469386810
-158.941831887252164 -76.311710185608348 -235.280346713551324
-10.883333235940732 -70.183006507395049 -235.024485783652949
8.248055665487421 -65.524342268925366 -229.832390999638108
8.918280290623080 -65.702731413325509 -230.005463803827951
-132.745983044977265 -75.572865366735059 -233.173049061422660
-9.406401994137013 -69.322054484830431 -238.599150606947688
-159.519763352816511 -72.645607429737055 -233.578942428885853
-128.670863570434506 -76.908909259927611 -234.482130818349390
62.707694290461518 -61.073897817760084 -233.049339102792430
70.341460553222490 -61.237175854973032 -232.566563417519461
66.429434835792165 -55.644191808592659 -235.273154759208808
-147.453797286152451 -73.856251962110449 -243.491968858175738
69.893046461220123 -62.219298791985977 -236.319648322092974
56.212998383092760 -57.603029721313384 -239.013030591109356
-154.100292495167906 -72.902899662384129 -232.383553310595516
-21.180519414820054 -69.536519286873684 -248.100913877296165
61.625160815642914 -61.605871016637870 -240.443887084122196
-1.372595264459612 -63.516418357718337 -238.652153229062151
7.144151401002425 -58.174621028628017 -251.296324228955996
56.281305579232708 -55.961345120006420 -243.859777076246928
-169.043201015421943 -78.077619361590962 -243.084178224860125
50.528509587410859 -56.430687143701704 -246.320927554989765
-22.988808871283339 -66.716251204542502 -244.526473209320045
-156.451438653184198 -78.907861171989282 -247.079486349003020
44.020890386551500 -58.009100261522839 -242.669140325543793
-89.721155968140920 -66.576217683307107 -256.073633969378989
-87.731457017579743 -70.037362608738022 -249.314574952789542
-97.268952365421626 -66.794097976378382 -256.460148001383629
21.407687826620048 -65.646276981155978 -248.458208975529431
-150.123205835875353 -74.327804661561075 -257.368472262579246
-165.516459761858670 -71.671045435006675 -251.781442414045415
-157.346144788504802 -73.812708774798878 -258.122537316902367
-89.686234978594200 -66.344791930197204 -250.801845842511597
-112.971314692867509 -68.219751827248629 -256.384960748041578
-86.646012276500812 -76.242998265807032 -252.667172438681007
18.562216734299380 -56.895451282653880 -260.603739375660325
-108.811036987147361 -67.353803928326215 -265.120057598276617
-24.335361456514818 -66.585143012426059 -261.837410329457214
23.507435352170301 -63.745505983965700 -259.475619840424827
29.563919711257508 -61.713800730628762 -265.220067410845786
-136.446278984456825 -69.483284507037908 -274.632040483524747
-139.358051800292571 -76.523479064638138 -262.881250629192550
-172.242437501296649 -77.859844438698204 -261.577002469917318
-172.943050955587182 -70.817851043870178 -261.599226014955434
-132.197178594370627 -76.110345874242554 -263.322831166510184
-157.984296120672894 -83.769925281710513 -266.017141692122266
-166.713346859510750 -80.952515073984600 -262.724173430316910
-162.261273389107572 -73.160197297064968 -277.228835028337357
-151.848090893570259 -70.262928486823270 -275.047907037943673
-11.052345082307639 -62.513056372971839 -274.971906358740796
-171.040584358645361 -74.605176223720264 -282.842949131574244
15.156396136811768 -60.230036153394032 -277.593679019380943
-157.835755016592003 -80.608129735757572 -276.991167524994296
-168.021406198901047 -73.723610649987151 -286.394270916324501
-9.175070890953982 -64.445837661921473 -277.731030038129120
12.404988995121595 -54.854065111235684 -272.316018925222807
-170.976313158628386 -71.372232791582164 -281.110155846183034
-156.394494621355477 -70.812619831828755 -285.999877097682770
-128.932535265666701 -67.492106781581114 -280.625520443552773
-9.138913853445359 -61.424659203635876 -281.961323097773459
-124.980539064680698 -69.115793487845892 -283.036838392542904
-119.201273035217156 -66.548587855518420 -276.114646316327025
-115.182318525197786 -73.694311968780156 -280.461207849640175
-91.908443745035555 -65.285164009751497 -292.465739526256243
-147.502836098325304 -69.528503455762930 -284.205439067952739
-90.720538136928980 -70.064478987365447 -281.419916795472773
-68.432253613712646 -62.709056599984272 -291.450636197516587
-167.887782575490633 -74.271892739275529 -290.572812972718907
-84.336172171419278 -63.994679570292710 -286.605339272455012
-96.954787434335742 -68.395904652838411 -288.743526450017043
-156.260179854466429 -78.638435657251307 -287.127965764094711
-109.404977915597044 -66.052484554753732 -284.738158104167667
1.854396384832839 -57.212755334701939 -292.930459571141341
-160.170175250559737 -70.912812272617558 -291.615928405283512
-147.355592328291351 -69.649608494403608 -295.483776531690069
-140.981508919346425 -73.341603338005413 -292.961917531391634
-140.404209603947436 -70.208560110858826 -292.446756815015249
-160.392839445570189 -69.498671683436015 -295.761597146035911
-165.775596429198458 -70.617165305590888 -307.496703401686943
33.929013001453058 -77.398567797546178 -15.232442393571365
46.747340920320738 -82.572353810983344 -24.487344144832271
31.625647109586403 -80.079653429176474 -39.010343879176716
-84.735031677727505 -76.642317582614638 -46.374968986758226
95.392669369355602 -73.978225738761068 -72.119547898787616
-100.595921667008696 -87.798882257425163 -71.209650758555895
94.316039256609656 -69.911022422430804 -81.429514591149186
67.992891826047114 -66.556924924257871 -85.920596907189250
60.585934553963973 -74.119164900782650 -80.113915645070051
57.306152744671678 -71.163193439107204 -88.886580463304185
99.365127311017147 -71.032891135972278 -83.502202433735576
64.795487483688902 -70.319164003261307 -86.247370784638534
47.438407297489810 -72.479091541007961 -84.484982984851868
55.564505478730155 -74.246633228783651 -90.496143548951508
60.007386500096807 -74.192441340333929 -86.242361719370990
58.954782645416927 -64.023452033792353 -101.639422841399650
65.386977770249715 -68.925850934315861 -98.738081746287321
104.778061729335946 -68.228069227721832 -99.530297264921117
102.024173601582461 -67.280821519129418 -100.998766169457028
69.291017718222690 -70.463828927811463 -103.381637164158533
36.139198312870469 -69.747937169660077 -102.950991389439068
71.413877908791960 -68.747736937004788 -100.600174051937628
87.541084540957797 -66.142648223990392 -101.498130796551621
-82.813665004981345 -82.670593023636158 -122.780385764795923
42.252845857737526 -67.463992845748152 -113.258290464176980
36.255200691832684 -72.638002831813893 -113.907544971204757
110.177927531932980 -63.378654922580409 -113.789226865876685
-78.284270132442828 -73.012806947250098 -119.659749215402840
-99.333713176660353 -77.382376782389002 -120.898235924471351
-85.644077774598856 -78.066565896189445 -118.870970039157882
-88.112018690735539 -80.780561485799083 -117.765492699501777
37.604828875970497 -70.151676141162525 -130.702295804172479
-65.856639115202270 -74.965580090897092 -121.382512291927355
108.678688353360698 -56.105864232357099 -122.631671306605881
107.656007369035024 -64.165767572361645 -126.685807515968236
-89.302147280176627 -80.004830342224125 -132.237088646559471
113.176235981164936 -66.385857613387600 -123.703331448849127
-61.315329084278886 -84.766693316235703 -136.229379217787908
-83.404602391166378 -74.679648186612141 -130.134699018885271
-72.836042176211976 -80.910575384741747 -127.687519705768693
23.434297158242718 -66.182683712814779 -136.090564045572847
29.882484314880450 -68.082314314725437 -128.936021339715978
-77.671057480253566 -79.597920848551283 -130.600691696181912
112.696108200102771 -59.904308242152140 -138.450562664579394
-94.115230799785280 -74.119207247437799 -136.375919407418280
-58.787994123758494 -76.123990558803627 -147.741258999698005
-50.977653764533500 -76.397699659897526 -139.528356079601991
-69.445971034255876 -77.953724805456375 -143.959956920615582
26.593373764788367 -72.280717218082458 -147.398654912282268
-56.740691445701898 -71.899529041981708 -146.811379581831403
-55.458582808455219 -71.585174028752007 -140.857753768281185
-97.807852024846653 -72.835519537925379 -147.144861267143142
12.783693250545362 -70.389181904313105 -148.430708771833594
22.914914892021347 -70.123618457604564 -149.203951975517867
-47.395569830380339 -82.352805186701090 -148.368135627608922
-55.103401282305185 -75.875534188901426 -155.896339562425737
-102.029488164794884 -77.482312890727457 -152.177322597486238
-100.173046407994093 -81.717576397873998 -153.971550810626468
6.661337929089981 -64.210505098869376 -154.751571070012375
-54.268636063808174 -69.639161523894728 -163.451344009212079
-34.612697574711575 -68.227309122845995 -158.915279312182321
17.532048302888626 -69.513110102132018 -161.596184602378827
26.198063703251975 -66.894104272132978 -165.451911857232062
15.171075386227844 -68.003609429325707 -164.957703887774414
-105.496445425618845 -77.066220018339891 -176.010531060910523
-106.294027059636875 -81.238794568423145 -164.400516182291000
-34.872777274694883 -69.393073950534728 -166.445403370101957
-104.836311233928598 -74.763899577160885 -174.951866066045682
20.856833023898336 -66.002804788376110 -168.321281077564663
-105.208921495139464 -71.604648328026030 -174.526747025823965
-33.635747318033808 -69.758272506612371 -174.244554081249504
-38.774862239777960 -72.284209531288695 -174.183793265789291
-159.155341596599044 -80.117216495711375 -181.331460576387542
12.044151275886730 -56.075047587930221 -181.964977950150143
17.689582207472231 -64.696055826809371 -184.754002785046112
23.593764183511507 -69.312260031073436 -178.012567052054493
-40.010554590276456 -65.759913730096287 -186.305954905007809
-25.754447949940044 -66.957842423066168 -181.080547258672567
-147.914424168510720 -71.960848184101394 -184.845657186661697
15.439742492025367 -64.496100815576042 -190.693997076847040
-26.408198889607135 -69.960714448676711 -184.917239237900105
-116.537615963218400 -75.195624226961897 -193.193514667757000
14.686395568220178 -61.808224504362137 -190.304164335432205
-26.313274817681091 -71.740377100948407 -192.178068561977739
-123.839533194695321 -74.816432014746269 -195.684052953218725
-19.585568054600195 -64.224153013689332 -199.308553329620850
14.205036698608335 -68.537070078741380 -192.418829186809631
-18.162190029682527 -69.103352091877127 -200.359788281801258
-110.965620526264928 -77.868748943006779 -204.190587148247005
4.098218400996934 -64.836864776429934 -206.269141216811107
-157.413672818598229 -70.726857857726344 -205.751747580329067
-143.955849628983003 -79.644234580407087 -205.399970018213509
-18.954879484166398 -55.817630403718766 -210.474883143006195
-24.453024197870860 -68.979620450196194 -211.305560651657913
-142.582141623538746 -75.440931678969150 -207.391896956676334
-168.380160920694095 -83.468322153428858 -211.143354677692400
5.240225706541821 -68.497571819211117 -206.880277180103036
-15.396432466348884 -69.527172479681965 -217.343762621888828
-8.501241694664543 -67.741847112683161 -211.321048848481354
-165.715710578002813 -83.975238281716017 -215.828210527092068
-19.452610577469187 -62.095687256030864 -212.417726068427129
15.533492881060223 -58.726752827853943 -213.928300277565938
-4.097681221841142 -64.365067847420121 -217.376476270435290
7.193939722819728 -61.877498713256230 -214.913473281780085
-20.749082797926697 -73.146439005643657 -219.590490742464652
-102.247605562758110 -75.213656758022978 -216.711806438210317
-161.406461958284922 -75.036368285971491 -217.105432460957928
7.247565026738940 -62.556577120702848 -218.004834434580715
-99.152602337623676 -67.589967645367395 -214.395811840596082
76.115554522889255 -55.165057051108739 -222.979059493518719
-155.363815179976257 -77.035306648256849 -216.973496000766715
-131.737512870080536 -71.966698702542359 -223.786001523729226
5.559089994439638 -67.528271602674153 -223.622355562954567
-155.192244515671348 -74.963035218045945 -221.085513103696172
-137.103933110633335 -76.355239496613862 -228.404518133601186
-136.018695322336157 -71.543229170812694 -230.311109376494670
-119.093107140850719 -74.448243646095833 -226.266621085043766
-123.620607285836286 -72.383804646570326 -230.067464902089512
-7.853544768197295 -63.275992724757998 -226.935289739001917
0.828010191686211 -65.078743669000602 -232.567560502994837
-167.188211538400282 -82.640244542911745 -231.528365625470428
-10.267113706511097 -61.027791041317187 -228.637506035586171
-2.105437381314609 -67.023376274394892 -234.694409431357258
70.050070109044640 -54.764019929236525 -228.382947282875392
-12.930886364223831 -63.066741034353157 -234.527168931675050
69.607305463244103 -61.186565704017958 -230.346748055114659
-2.230960613651362 -64.059554606410074 -236.646122179162745
-0.537970243473310 -66.586529929850769 -238.216596627371104
-11.824043322602101 -68.458542991100586 -239.022575716294995
-159.596470636809926 -72.465393148295320 -237.065978126146490
-9.094060190079198 -65.337480366316441 -237.545912785311941
-170.247361087468732 -79.649232303784487 -241.016647209632993
57.642199726474558 -59.823142087959205 -246.159555436005064
-166.601565874678926 -73.737746496211514 -244.720143833906576
7.778052726132465 -62.141130502428091 -240.567771366651613
59.297222257351017 -58.762799262640563 -243.198856767047658
-168.122628405331142 -75.494281917387951 -242.248705296966619
-162.404748735303571 -78.191352257361544 -245.185405650583533
8.719798908581062 -57.389154695480919 -242.088921047917722
47.201619586148418 -57.327172006138071 -248.194534898310138
22.465502188668690 -57.990695578134776 -246.088439873128948
-22.456948017771992 -66.819600094971420 -250.587398423213273
46.217660038068637 -63.185092758511054 -243.645238524386059
-168.229154344772809 -76.758854902411315 -251.601137551156910
38.264808969656848 -60.449804090096478 -249.716583284346513
-154.566259328251675 -76.497428181292634 -254.648313106537074
-154.300699003808177 -68.834639514659827 -249.774857811622411
-142.217774712972982 -70.694855433117169 -249.581283008734232
-93.625244642576632 -74.575604638929605 -249.550105631933292
-130.344870905232256 -76.841602291489679 -256.662164235895091
-100.834274286061031 -79.601984695763363 -253.621442914331169
42.898336639544304 -59.292302772473917 -253.896174291465286
-18.992797679623344 -66.470928119660812 -256.055079437907239
-139.140922283571967 -70.537781768236528 -258.043777092310961
-135.783525854754032 -70.614407677160486 -251.772365053854429
-119.313628870303205 -63.985648536270403 -261.470398707602669
-117.344301463673730 -70.246866535281399 -260.681142552361507
30.013769503328355 -57.217739101767386 -255.179429726112176
-99.076169574671781 -68.845655428716341 -256.186998208790783
-162.594770601702947 -75.218705646309559 -255.220682975160486
-164.116859296132361 -76.553546764484281 -252.199225750440092
-158.546439084902005 -77.792733234214921 -259.352111296334442
-169.949524637982449 -67.752342465094614 -260.567881994658478
-158.660443362599921 -74.202840218532614 -263.048217012212717
27.481635844598983 -58.556510429827476 -263.063932458737895
21.102846631053822 -55.619677603539991 -266.558561554845994
-9.164075878335233 -66.008348154298488 -264.729252467157835
-158.143835632391699 -74.563852146672104 -277.346394424685968
-15.671300707438824 -54.246688218795100 -278.006250327171642
-135.165089777347561 -70.423938068207178 -282.791405125844847
-147.492994618293721 -69.714559821201007 -287.814173770238881
-119.558336983464301 -69.636083877189947 -284.357883251873545
9.517403564395721 -57.772070809461944 -295.253194126378958
-92.383628185068034 -66.223416845267863 -294.840581753628271
-156.514127583448101 -67.440077746069278 -292.817736064838186
-106.981145813798292 -63.852833777200708 -287.592891019272656
-14.908459472033599 -59.719025216159039 -291.230186253663760
-155.899545230768695 -67.847639128017477 -295.239931382183670
-113.148586730040421 -72.779368737079523 -297.895230551139719
-148.718614118208791 -72.551687505170037 -291.421659436805783
-7.336465464890679 -53.259308564452773 -295.757078794414952
-138.373514095542248 -65.683116582369664 -289.575818716941342
-122.366892171601194 -64.642238826699099 -287.520303646906143
-123.413899559486566 -64.056034564975988 -295.297220881893736
-158.227400692822130 -66.899004298637536 -294.943425180021791
-144.641838431017703 -65.363133193763375 -293.367452999596594
-145.972102989488064 -65.770633729364803 -312.042575743091220
40.023567133556291 -76.778353430866545 -32.523948709842905
-31.442955288790387 -72.524407425352010 -53.704199071482350
94.335187746663138 -63.958115566951840 -64.034532764638740
87.725981806554159 -63.979375406964365 -65.619853849854834
58.678884284265116 -64.380713079756660 -81.100701987145854
-94.797336947766439 -81.040529195207824 -92.311816632867021
47.681228246490100 -71.116560613759376 -78.532854231058238
44.331189490519087 -71.296182957389192 -85.372551189444920
-62.149410647972473 -85.314141707398079 -93.870825345366754
52.183650168647361 -63.436416173154761 -88.243448381657927
55.698935801277543 -67.002131438402699 -89.310964001263415
58.416268371619708 -62.309937805368136 -95.160735181236845
42.358060359085435 -69.831837109903617 -97.076992321512520
41.998274348423188 -64.175690759043732 -95.498303406089946
104.402853404312239 -63.021266282621426 -102.442636102977673
-70.003936585745066 -80.685165553321355 -96.633211776435530
-81.236076092409945 -78.095119466904805 -93.740698657247634
59.189214045265743 -64.650922547345061 -101.137104428319745
64.618873459722778 -64.357254802764047 -97.966127357255516
-77.621420695845984 -79.011889711910598 -103.124562470353169
-79.918691567861757 -70.009401025579024 -107.310581479907498
-76.518067241131803 -77.106932110146630 -101.376770588628560
85.611267978087227 -69.406300129760567 -106.514725190228361
110.666123390293237 -60.127833485644558 -102.266772133006143
36.472219992675186 -69.571686509801211 -107.154756144125798
40.128007198514560 -72.213856920762083 -108.453385377292250
-79.464509459796815 -79.101457213641325 -111.905579280731160
98.696285001187306 -59.964975924560413 -111.399280260049864
108.178023937581131 -66.547897255023940 -115.214934822343395
105.112112021849384 -63.416456188957490 -122.538230360889855
-86.326734790073175 -77.150930905030094 -119.436824805287827
-79.419140567288338 -72.705455848430333 -120.471191774647309
-61.234767294172457 -71.490753057824861 -128.590997343118062
112.604966510753485 -62.310032350662560 -123.312836054680915
-82.665599569822078 -80.556996001268871 -124.400906774411411
-56.349290548728021 -73.603157458403132 -133.262942199298465
-71.318860415959080 -76.883153606515080 -131.724045447608376
-91.865598232350607 -73.914313217570012 -123.657882540884899
-72.933075460197244 -72.756805183025406 -133.857732267428759
-75.727883294827592 -79.886855649541729 -135.206043323829903
-73.272768156601813 -74.105698602873204 -133.323158406738742
-59.757789911405226 -75.515892403285491 -141.747061900534675
-46.918914153926949 -74.164291798788668 -144.250860340989220
-75.107359532158512 -79.186119472815761 -142.044454768001970
13.630727897925016 -73.945396567705060 -144.831414277774400
-73.300751369777956 -74.843438521970953 -145.945223439114301
-54.584409166180279 -75.368680003994186 -148.601902552243672
-85.326080990999088 -77.280761389857673 -148.182193880290441
28.934592885298706 -61.420129782604747 -156.732756032279866
-53.146690916620713 -70.284242132474560 -148.068287732934522
-50.806827687498128 -66.170854572717687 -161.802532942299820
20.364560052221130 -66.876819185549223 -155.131281598796249
14.462314139447020 -60.969275146543055 -162.412755579943905
19.999436486198963 -63.905078079845552 -166.707313607589981
19.703369864145600 -66.388765847759771 -165.519159505052130
28.594046265681087 -69.129743409937348 -171.498196527468849
-151.839822057298420 -75.668207062142997 -175.746313370193519
-113.690633445113463 -76.206115792955941 -182.412732061803268
14.434138882376608 -68.698614303549363 -183.887167306113241
-107.320032895098137 -71.274308476663435 -184.874254367529176
-109.662269490741238 -74.290630618930479 -178.939897125004762
13.923267910051063 -60.791558806637497 -191.260114295307972
-102.163771729487081 -75.928047338772032 -192.789275043111928
-143.288538671615214 -74.871738492801626 -186.920962013624063
5.275934086799950 -64.316990011856575 -191.001565192822397
-120.998937405786648 -81.228557688686777 -194.484493072169386
-145.447717233925999 -74.720815360461458 -194.779412802417198
-134.416449777035581 -78.398163715742996 -200.227719354370123
-165.328245649854068 -76.448110598689581 -193.071045397033174
-132.110029337753531 -70.351512392055099 -197.544279887343436
13.834373270162143 -66.766066127051388 -198.090330815829930
-117.448287404905670 -68.878412595491284 -200.011809471024634
-113.005673261151856 -70.978876578167672 -200.246496166306599
-155.755645946789457 -82.546397041517949 -197.706974718318406
-168.079819025772139 -79.815930685576575 -199.260576805003069
8.668005126922488 -66.501495704756209 -198.663372283173459
-159.260872166551962 -79.436818356054516 -204.815986856062267
13.744096094892747 -63.576569285571814 -201.630755719896882
-28.441084502477054 -62.117841950863884 -205.682783017503795
-127.769946756176040 -70.952460265698008 -202.422820826426573
-167.671566953650199 -77.846371209525515 -208.593846435979998
-123.182985728541126 -75.693378114860906 -204.945580925308747
-14.461932775408997 -61.489520603211645 -206.801802160538415
-143.532728747741771 -74.550800050116607 -209.807473730890251
-151.639694530176229 -74.998328629830723 -214.269628467312288
-27.001379000256506 -67.337101352990771 -201.542243154452876
8.504338093076576 -63.259550691075390 -214.305243517869371
-161.251278433194017 -81.737710811717051 -216.783726892470582
-1.063088198329012 -60.086764864837797 -214.607369415283813
-166.152959512187664 -75.958855958769121 -218.384413002787852
-108.777253551636363 -74.302369078916129 -218.160247858160062
-105.225364271578201 -72.554743507842218 -222.251939568056457
-163.342331588688182 -68.372102344181940 -222.588851556611388
-142.343800600935708 -75.229592342753719 -224.056114731121369
-136.539381341612625 -72.309617745776421 -225.315137377465845
-164.477388771320307 -79.891695186927834 -227.309875194383750
-102.563045024925117 -72.187078258771052 -229.150937710192864
-158.030096701235635 -72.624916870604835 -218.344644883239113
-10.875708935660271 -63.517997982142532 -224.638250923199251
-153.542093210866369 -71.397800778388174 -229.712710769477411
-108.396119986535155 -72.919700425674733 -231.928144437451891
-144.700009239071306 -74.072806992710738 -228.992759355342855
-117.730856399794874 -70.330252348862487 -236.293127593979676
-149.704742289444994 -73.281548350665062 -231.343444637798939
-141.551322691389231 -76.521139338853274 -240.079481885628468
9.342402817122796 -58.505420478938369 -236.620950166790891
1.117747628400060 -50.630424362460083 -233.367418183078939
-161.282642487639549 -76.854379677899999 -228.559334028640080
-133.563463359171749 -68.694588729688746 -234.621211135746023
61.307122070252440 -65.344263822941485 -234.149872361415731
68.075561969715466 -53.921681208531801 -236.975472049767376
-167.462901253269791 -70.286667456464201 -234.424315844023283
65.446954541777856 -58.594776808214306 -230.730634980282900
-5.779235491079454 -62.002346137869623 -233.363208827148839
-4.193164122887566 -61.108881719369464 -237.635916166312114
1.495018352004195 -56.791477037451820 -237.482505398509346
-164.195462213561541 -71.033314281353285 -240.395433402614145
-18.866401357951595 -59.581388580616959 -236.322138821518564
9.975258230453043 -61.227778890097717 -242.069571215800607
59.012555744231015 -60.094594958406006 -247.305667419810362
-19.714701020194347 -62.946798626620229 -242.822427865037184
51.092939187399644 -60.208071477541651 -239.195678988962669
58.191147081520803 -56.171049379799584 -240.814199021810623
50.055246793500999 -50.340820263359099 -246.177895446236136
51.049764504451240 -56.640226010646593 -244.942762152858222
-161.324587573889175 -72.498148494209630 -244.785136378520235
44.392724379109787 -56.449328514106007 -247.865365254303583
44.449127785794204 -59.210979948193163 -252.523720502928910
49.134664384106124 -64.018056881079730 -252.580660332327966
48.319175639702557 -51.533965462679106 -252.499551208122284
-137.069825165866490 -72.742224814372634 -255.491489225953245
-100.768758091034044 -66.979153076498022 -249.295196503535493
-100.812919987314729 -67.237418403943735 -246.692676544139573
19.343158887665155 -63.690546540089116 -255.884244887606769
43.317406402332011 -54.039789819287115 -257.009797789424169
-136.351266207443359 -69.578941097528983 -259.994766149507655
-124.483824157144170 -72.564849739597975 -256.118673285217369
-151.422317125320433 -70.566640554364952 -257.565478835460169
-149.611641276150266 -76.522925190632293 -260.871175660207768
32.166863424023859 -57.014724446660090 -263.051841808473910
-104.821271714057474 -66.996603415317111 -260.096951203822528
16.965929717371143 -59.313253929147443 -265.973986789242815
-154.218609404484113 -75.611521924536177 -258.861933125593794
-110.373455551675050 -66.595272394134511 -258.722490880145756
18.960230214580868 -57.215596230465437 -260.842172163231623
-143.425315443753789 -67.671262139249265 -260.078060657789592
-114.135028945291850 -66.808342348418492 -259.132512563161015
-138.275065532883673 -68.709019630590774 -269.273345081328671
33.447335422509020 -59.675640007173129 -263.342164917093669
-11.273309897262351 -59.890982490891702 -267.857215706331885
-133.240471723687307 -70.868777508976279 -259.125163719922170
-126.814615112057425 -74.632179160722600 -265.770353109754808
-153.114627351371951 -68.930677420932213 -268.118863211496887
-5.773981626521433 -57.069760834725443 -264.724493776323527
-153.078517552990462 -69.336256176843676 -280.147180490923688
-12.066134050135119 -50.323764982104642 -277.692315521573278
-155.341297038536567 -77.450451888780606 -280.336007470084155
-135.047961724871300 -70.022889946498651 -282.585497111824566
-138.747339248715633 -68.435183306623230 -288.688092418946837
-127.354765982109313 -70.285749640055840 -288.368235313255923
-130.341391371326381 -59.720066632651573 -292.282288903287053
-118.705856399368685 -67.499382222369618 -288.442011421566860
-108.210373248252182 -62.977638669548824 -290.194394571349505
-138.740646417127181 -62.795932453461511 -285.893692359656256
-118.321211138280233 -69.605271910068211 -291.840596158408857
-123.543729491953229 -63.003468874509778 -293.867449512465271
-128.186197038715136 -62.948633928687052 -296.485499114247773
-155.458161410991693 -77.244380351024446 -292.207999254426568
-157.968640765985072 -67.242889449967365 -294.984569454170355
-157.520325196968798 -67.345949051640972 -291.651575139501801
-156.802102576644728 -73.217519673319075 -300.589864348432457
-149.427100137023473 -64.186954979580122 -298.767490888771306
-161.065358647898194 -65.454799653571186 -308.324671231600234
-150.072046789527406 -65.030429349455275 -317.170763378759318
-156.042145717607667 -68.600701591025043 -311.672452904604654
-17.826578292415384 -72.761322218544592 -54.773865754338814
-88.507479570274938 -73.701428733675627 -60.799296453807905
72.633061225133332 -65.985026407059166 -63.948472886685998
-15.678672947159505 -75.725999768218784 -65.715101606420518
-20.688526974298938 -74.252653033209015 -73.358969759302781
94.202955854587685 -68.273214689743554 -68.976211860903092
-23.810394476744065 -69.002936497060034 -71.107566933638438
-102.583658300370672 -79.131132184617655 -71.311893845248150
-39.549056088736663 -75.382047363800595 -79.527051972015585
-42.085667065300029 -73.084489613425447 -80.080883773501654
-33.248131902245092 -76.636878287895115 -80.710192123517444
65.641503223581395 -66.957391539105231 -82.840528991738310
47.039783778025928 -73.261553941128454 -94.067811716021566
97.887597391176541 -69.401710018696207 -83.146261664737338
-68.870482970994487 -78.201253463039563 -97.082419465462579
52.625764198001832 -74.893694272440868 -93.490565265580244
98.385687333121496 -62.555674646606356 -88.667088886377357
101.981175036365073 -66.087998305470848 -97.522141297254564
99.315127614285899 -65.233905951768307 -93.890617646101134
97.200216191023401 -65.169389056695380 -95.467137965189877
49.164722728655640 -66.637628037306015 -96.741233889815931
46.316598890044006 -69.783484910465688 -99.582697438337050
-80.210473684372332 -76.385056680130489 -96.665416390313183
46.855759678300132 -67.293627243985867 -96.964856964227479
-78.869284005219825 -69.484533631768414 -107.999291443749001
-83.650134664469405 -81.862159629306731 -104.975699808327860
42.895792998394519 -62.710719056246731 -93.880165373829257
104.520962020798777 -68.397088590592389 -105.355353568812305
37.317729318591354 -70.743606908365834 -111.477836925300011
100.502683080407991 -62.988828047272641 -110.717816485645116
-97.471395758834774 -84.804963360795455 -113.644093178995263
-90.853215400307619 -83.738267849214694 -122.199294193222627
-91.219802268571073 -72.700796313078882 -121.752339846887210
-71.407235875705439 -70.464945221688424 -124.505795416535435
-84.682845501678074 -77.104305029002973 -127.092221725770841
-92.606916296004101 -81.035177972356948 -133.981756976995996
-58.900967239835026 -71.694149827877169 -131.485520838905558
-82.882196430821807 -72.316679672515406 -129.836413391539793
-53.021112538432519 -73.920598246798491 -131.766242274741103
-84.093276368456614 -73.253919734963304 -134.897830419083505
-74.313353758162563 -65.940140839713848 -133.284035787400541
-79.556519561296341 -76.956313660833018 -133.315189520848065
-93.466325590966875 -75.087157583739980 -133.374628652672925
-61.951748284388003 -61.261687373436224 -149.274110670530547
-61.167331024800617 -75.232546733114546 -141.109540642415055
-97.033980565545505 -76.862731190264398 -145.297930661022718
7.920600334037360 -64.971150193157669 -150.501076013644138
8.362573263334937 -62.802242485652073 -156.856941022218052
8.382699358305459 -58.078846667708497 -155.583238570854348
-104.110886578675320 -75.909816518874933 -157.246041482120148
-97.758014231101043 -74.805939871565130 -157.909569727954533
-107.871800922655439 -75.191759986604055 -161.706131189065189
-101.926286591522739 -75.606988975149193 -163.516357386900097
16.722055634472778 -61.087360826735477 -174.428187426282648
24.953006420803469 -65.580618791707920 -169.714501874209020
-139.372167899607120 -77.967052237997365 -170.077922291311893
11.657241727523793 -64.782170278358990 -176.498187552153098
-106.015132154299749 -75.729309714057834 -181.775518505821651
14.646044769406533 -61.182965030351234 -181.398396417799148
-155.390083186110530 -74.848438776445519 -184.736729222885060
-142.398478830018234 -78.522838958576784 -190.144500298677968
10.529106925670586 -67.085193794751120 -188.386077227891633
-119.190281498694759 -82.474879320832045 -183.489391742133392
-157.076523529579731 -74.296971837691800 -195.188214470134682
-137.387438486865165 -70.167267325122509 -196.095384190086122
8.751332330627051 -62.223585379959871 -197.523078080493434
-157.185511521742853 -74.540239619980767 -198.418603981512689
7.962637124138830 -63.166406531129326 -193.332284864528162
-26.235802839613129 -63.262606842220194 -197.736428374751171
-160.962470479443226 -80.962934030149938 -197.889601059103398
-166.150441519607710 -79.175945927086943 -195.792925533646013
-165.625483367182113 -74.017833894337400 -193.414051407280539
-147.143906412100307 -66.636044926632280 -195.972803135731652
-117.806135151780893 -78.219660116306329 -198.633514706879481
-13.128955745481839 -63.707835637832162 -193.716899912510996
-137.713396536530496 -72.582350865808039 -200.634899684419111
-155.823011741505439 -75.339466342017587 -196.322015524109531
-17.505841486205561 -65.019548374891798 -203.905290711853695
-168.303218218274537 -77.112562760293301 -203.576995543122422
-24.010308020898236 -64.135944378880367 -204.716984966856415
-20.969323188324900 -63.959012855585343 -211.077469664525722
