# This PCD file was generated using the MATLAB® pcwrite function
# from Computer Vision Toolbox®.
# .PCD v.7 - Point Cloud Data file format
VERSION .7
FIELDS x y z
SIZE 4 4 4
TYPE F F F
COUNT 1 1 1
WIDTH 1459
HEIGHT 1
VIEWPOINT 0 0 0 1 0 0 0
POINTS 1459
DATA ascii
-137.250000 266.487610 -72.451172
-135.740997 267.287323 -72.833008
-11.540800 270.087311 -72.835236
-135.768005 270.487305 -72.835556
-138.203003 270.887878 -72.114876
-11.680700 275.687317 -72.839699
-9.673030 280.887299 -72.843834
-147.733994 281.687531 -72.550774
-149.641006 282.087463 -72.616600
-149.641006 285.487274 -72.847504
-147.895996 286.087280 -72.847977
-147.108002 286.487274 -72.848297
-150.593994 287.287292 -72.848930
-5.718750 287.287506 -72.606735
15.250000 287.687988 -71.987953
11.437500 290.087494 -72.615471
-147.246994 291.687286 -72.852440
-150.800995 292.087280 -72.852753
3.812500 294.487701 -72.314774
-142.113007 296.887299 -72.856575
-138.203003 298.087555 -72.508240
-18.109400 298.488007 -71.949059
-39.078098 298.888062 -71.905075
-21.921900 298.887726 -72.326973
-31.453100 299.287598 -72.478493
-25.734400 299.687622 -72.455612
-16.203100 299.687805 -72.234413
-12.390600 299.688049 -71.920113
-142.016006 300.087433 -72.679924
11.437500 300.487640 -72.412048
14.296900 300.487549 -72.523743
-142.968994 301.034271 -72.859879
14.296900 302.487671 -72.387344
-148.688004 305.221283 -72.863213
-151.546997 311.287659 -72.424744
-151.546997 315.687500 -72.621758
-148.688004 316.487335 -72.813087
-151.546997 320.087372 -72.768852
-146.781006 320.887817 -72.244797
-148.688004 321.687653 -72.425133
-57.187500 67.288658 -71.051147
-52.421902 67.688530 -71.217468
-43.843800 68.488869 -70.784203
-68.625000 69.688400 -71.377655
-48.609402 69.688194 -71.636452
-43.843800 69.688377 -71.412056
-40.240898 72.088127 -71.724472
-36.218800 72.088615 -71.113869
-76.250000 73.288399 -71.378120
-27.640600 77.288567 -71.168808
-27.294001 79.688126 -71.730522
-27.280199 87.288116 -71.736572
-31.220699 89.688118 -71.738487
81.968803 89.688530 -71.227180
83.875000 92.088272 -71.549194
85.781197 92.088821 -70.864891
88.640602 92.888420 -71.363533
77.203102 93.288506 -71.252350
82.921898 96.888184 -71.659210
84.828102 96.888687 -71.023514
78.156197 98.488350 -71.459190
88.640602 98.488159 -71.695290
-50.751999 99.688118 -71.746452
85.781197 99.688339 -71.465752
80.062500 100.888245 -71.583305
90.546898 100.888275 -71.547005
-54.328098 101.688850 -70.826637
81.968803 102.488441 -71.345573
-56.234402 103.006020 -71.749092
86.734398 102.888580 -71.162498
-61.953098 104.404221 -71.750206
52.421902 110.888390 -71.405365
41.937500 115.688156 -71.700394
-90.971603 116.888107 -71.760147
41.937500 118.888763 -70.940842
-84.428299 120.888107 -71.763329
48.986198 121.288109 -71.763649
-90.546898 123.288605 -71.143944
46.446301 127.288109 -71.768425
32.840500 130.488113 -71.770973
40.984402 133.950104 -71.773735
42.136700 137.288101 -71.776390
29.847900 138.088104 -71.777031
32.144001 138.888107 -71.777664
37.073898 143.288116 -71.781166
38.456200 145.288101 -71.782761
-51.468800 150.888596 -71.168617
25.260700 152.088089 -71.788177
-52.421902 153.288437 -71.380630
-45.750000 153.688400 -71.410545
-53.375000 155.688644 -71.097145
34.916500 155.688095 -71.791046
-48.609402 156.088654 -71.079956
-42.890598 156.488708 -71.023674
-44.796902 158.488708 -71.025574
113.421997 158.488708 -71.032173
-49.562500 159.688705 -71.030426
-45.750000 160.088120 -71.752747
-41.937500 162.088806 -70.904739
25.881800 162.088089 -71.796143
-48.609402 162.488678 -71.068954
-69.578102 164.488480 -71.312843
-65.765602 164.888382 -71.429169
113.421997 166.088577 -71.196121
112.469002 167.288498 -71.298073
-45.750000 168.488586 -71.179039
23.828100 170.888611 -71.147842
110.561996 172.088501 -71.276497
-33.136002 172.488098 -71.804420
-0.953125 172.488632 -71.129616
30.940399 172.488098 -71.804420
111.515999 172.888458 -71.342239
-59.369202 174.888092 -71.806335
-43.494301 176.088089 -71.807289
-61.953098 177.288483 -71.329643
112.469002 177.288635 -71.142342
-0.360535 178.888092 -71.809517
21.921900 178.888672 -71.083611
-60.046902 179.353088 -71.809891
-10.825300 180.488098 -71.810791
-61.000000 180.888626 -71.127007
108.655998 180.888474 -71.320808
-63.474098 182.088089 -71.812065
-54.733299 182.488098 -71.812386
-12.990000 182.488098 -71.812386
-4.360670 182.488098 -71.812386
-57.389900 182.888092 -71.812706
110.561996 182.888290 -71.566299
111.515999 182.888519 -71.278702
-29.684700 183.688095 -71.813339
25.734400 183.688675 -71.069939
107.703003 184.488449 -71.366379
-35.265598 185.288300 -71.563812
-15.250000 185.288437 -71.377510
-9.531250 185.688721 -71.019432
-25.353100 186.088089 -71.815254
24.781200 186.488754 -70.977066
-52.174500 186.888092 -71.815887
21.921900 186.888382 -71.446381
-54.651402 187.288101 -71.816208
-12.390600 187.288651 -71.126106
110.561996 187.288559 -71.236008
-16.203100 187.688599 -71.182922
105.796997 189.688461 -71.344414
-22.875000 191.113098 -71.819252
20.015600 190.888641 -71.128876
106.750000 191.288116 -71.791084
-52.421902 191.688843 -70.866608
108.655998 191.688263 -71.595703
-51.468800 192.088196 -71.668724
22.875000 192.088821 -70.895828
-53.913502 192.488083 -71.820351
-33.575298 192.488083 -71.820351
-21.747900 192.888077 -71.820663
-24.413200 194.088074 -71.821625
20.015600 194.488571 -71.217934
-20.444201 194.888077 -71.822258
-147.733994 196.037079 -71.823174
-50.515598 195.688828 -70.885094
-46.269001 195.688080 -71.822899
106.750000 195.688232 -71.635292
-54.736599 196.488083 -71.823532
-51.344101 196.488083 -71.823532
107.703003 196.488724 -71.031532
-29.546900 196.888809 -70.910149
18.109400 196.888733 -71.005447
-144.057007 198.888077 -71.825447
102.938004 199.288330 -71.531754
-46.364498 199.688080 -71.826080
20.015600 199.688766 -70.964279
-46.703098 203.274078 -71.828934
-45.750000 203.288651 -71.118645
-143.947998 203.688080 -71.829269
100.078003 204.088547 -71.241577
-43.843800 204.488647 -71.122200
15.250000 204.488785 -70.950897
-142.087006 204.888077 -71.830223
-152.197998 205.288086 -71.830544
-43.843800 205.288818 -70.916138
101.030998 205.688141 -71.764755
-141.061996 206.353073 -71.831390
-41.535900 206.088074 -71.831177
-139.156006 206.772079 -71.831726
-47.368000 206.888077 -71.831818
-18.560900 206.888077 -71.831818
-15.080400 206.888077 -71.831818
18.109400 206.888672 -71.080917
-134.429001 207.288086 -71.832130
-43.155201 207.688080 -71.832451
-37.178699 207.688080 -71.832451
16.203100 207.688492 -71.315147
-24.301600 208.488083 -71.833092
101.984001 208.888535 -71.257202
13.343800 209.288803 -70.931320
98.171898 209.288315 -71.540421
-20.968800 209.688614 -71.162842
-145.645996 210.088074 -71.834366
100.078003 210.088181 -71.693764
-146.781006 211.036087 -71.835121
-44.344299 210.888077 -71.834999
14.296900 210.888321 -71.528893
-136.296997 211.625076 -71.835587
15.250000 212.088165 -71.718651
-11.948300 212.488083 -71.836273
-152.199997 212.888077 -71.836594
-39.078098 213.014084 -71.836693
-35.525002 213.288086 -71.836914
-142.569000 213.688080 -71.837227
-143.981003 214.488083 -71.837868
9.472720 214.488083 -71.837868
-149.975998 214.888077 -71.838188
98.171898 215.288498 -71.320900
-144.459000 215.688080 -71.838821
11.437500 215.688522 -71.274620
94.359398 215.688431 -71.406418
96.265602 216.488281 -71.598358
-68.625000 218.488617 -71.171249
-144.442001 218.888077 -71.841370
-75.296898 218.922073 -71.841400
-30.740200 218.888077 -71.841370
-17.848900 218.888077 -71.841370
-10.484400 218.888672 -71.089165
-36.822800 219.688080 -71.842010
-149.936996 220.088074 -71.842323
-80.062500 220.164078 -71.842384
-67.671898 220.088501 -71.298424
-26.453300 220.088074 -71.842323
93.406197 220.088303 -71.556824
-7.093320 220.888077 -71.842964
94.359398 221.288696 -71.070084
-148.882004 221.688080 -71.843597
-71.484398 222.948074 -71.844604
-33.786098 222.888077 -71.844559
-27.640600 223.288300 -71.576065
7.349810 223.288086 -71.844872
-29.546900 223.688812 -70.916290
-23.265200 223.688080 -71.845192
89.593803 223.688553 -71.242592
-88.640602 224.088394 -71.443810
-11.437500 225.688080 -71.846786
90.546898 225.288574 -71.222763
-90.546898 225.688522 -71.281487
-80.062500 225.846085 -71.846909
15.067700 225.688080 -71.846786
17.729200 226.088074 -71.847107
-23.828100 226.488831 -70.900620
88.640602 226.488571 -71.231415
-150.132996 226.888077 -71.847740
-88.640602 226.888245 -71.632339
-83.875000 226.888687 -71.078835
-145.235992 227.288086 -71.848061
-2.579040 228.088074 -71.848694
-4.897450 228.888077 -71.849335
-150.451996 230.488083 -71.850609
-17.156200 230.488617 -71.174507
-8.578120 230.888321 -71.546722
15.382500 230.888077 -71.850929
17.717199 231.688080 -71.851563
-15.250000 233.288513 -71.318237
-8.724760 234.488083 -71.853790
2.461230 236.088074 -71.855064
-154.076996 236.488083 -71.855385
-138.203003 236.488480 -71.347084
-14.296900 236.488541 -71.281479
-135.248993 237.288086 -71.856026
-0.447678 238.088074 -71.856659
8.578120 239.288345 -71.516411
1.906250 239.688797 -70.947029
-4.856000 240.488083 -71.858574
-141.061996 240.888809 -70.933586
-137.250000 241.192062 -71.859131
6.671880 242.488525 -71.288261
0.953125 243.288330 -71.550896
5.718750 243.688644 -71.141022
-144.875000 244.455063 -71.861732
-150.503006 244.888062 -71.862076
0.000000 244.888687 -71.092270
7.190800 246.888062 -71.863670
5.311580 247.288071 -71.863983
-20.015600 248.088364 -71.487022
-32.406200 248.596069 -71.865028
6.671880 248.488602 -71.199638
10.070200 248.888062 -71.865257
-40.031200 249.900070 -71.866066
-18.109400 250.488342 -71.531631
-47.656200 251.478058 -71.867325
5.718750 251.288376 -71.494171
-148.699997 251.688065 -71.867493
-147.733994 251.872070 -71.867638
-20.015600 252.088577 -71.215706
4.765620 252.888550 -71.259346
-28.284000 253.288071 -71.868767
10.461300 253.288071 -71.868767
-59.093800 254.488495 -71.337318
-39.078098 255.217072 -71.870300
7.625000 254.888397 -71.460838
-148.688004 255.633072 -71.870628
-147.733994 255.706070 -71.870689
10.827200 256.088074 -71.870995
-146.304993 256.488068 -71.871315
-46.703098 256.576080 -71.871384
-65.765602 256.888275 -71.624825
20.507900 256.888062 -71.871628
14.296900 257.688293 -71.579964
23.123100 257.688080 -71.872269
21.921900 258.254059 -71.872719
-67.671898 258.488342 -71.533897
-60.046902 258.888672 -71.110718
-64.812500 259.288239 -71.651138
18.109400 262.088287 -71.606171
-146.151001 262.488068 -71.876091
-151.462997 262.888062 -71.876411
-142.016006 266.464050 -71.879257
-154.895004 266.488037 -71.879272
-12.321400 266.888062 -71.879593
-138.203003 267.288361 -71.511108
-12.639800 269.288055 -71.881508
20.181700 269.288055 -71.881508
-141.061996 270.088318 -71.558540
-12.230300 272.888062 -71.884369
-150.485992 274.888062 -71.885963
-146.455994 274.888062 -71.885963
-147.037994 277.288055 -71.887878
19.726999 278.888062 -71.889153
-150.371994 279.688049 -71.889786
19.062500 280.088226 -71.673500
-146.949997 280.888062 -71.890739
-7.465530 284.888062 -71.893929
-7.173230 286.488037 -71.895203
13.343800 290.488708 -71.080391
-2.859380 291.688171 -71.752739
9.531250 293.288513 -71.326714
1.906250 294.888519 -71.326187
-31.453100 296.888367 -71.525383
-28.593800 296.888550 -71.293983
-50.515598 297.288452 -71.409096
-40.031200 297.288239 -71.665497
-128.671997 297.688416 -71.451416
-15.250000 297.688232 -71.661118
-9.531250 297.688324 -71.548515
-133.438004 298.088501 -71.352341
-33.359402 298.114044 -71.904457
-27.640600 298.144043 -71.904488
-124.859001 298.488739 -71.042061
-52.421902 298.488312 -71.553658
-2.859380 298.488312 -71.577362
-125.811996 298.888275 -71.635475
6.671880 298.888336 -71.573273
13.343800 298.888580 -71.239975
-50.515598 299.288330 -71.551689
15.250000 299.288544 -71.302696
-126.765999 299.688324 -71.559509
-121.046997 299.688660 -71.158913
-35.265598 299.947052 -71.905922
3.812500 299.688171 -71.741409
11.437500 299.795044 -71.905800
-133.438004 300.488434 -71.397148
-42.890598 300.488678 -71.093048
-39.078098 300.488312 -71.550850
-32.406200 300.488129 -71.801247
-1.906250 300.488251 -71.660248
-27.640600 300.888397 -71.507164
-12.390600 300.888336 -71.572868
-6.671880 300.888367 -71.543365
-3.812500 301.288544 -71.287086
6.671880 301.288116 -71.817390
12.390600 303.288513 -71.338684
-152.500000 310.488281 -71.621910
-145.828003 310.888458 -71.425232
-145.828003 316.488251 -71.651688
-153.110001 316.888062 -71.919411
-146.248001 318.888062 -71.921005
-153.453003 321.688446 -71.431030
-151.546997 322.082062 -71.923546
-63.859402 66.089325 -70.216690
-57.187500 66.489021 -70.592407
-61.000000 67.162186 -70.767448
-45.750000 66.889214 -70.355026
-41.937500 67.289345 -70.187347
-67.671898 68.346985 -70.768387
-72.437500 69.289093 -70.502945
-36.218800 70.089188 -70.390877
-38.463902 70.488884 -70.770096
-78.156197 72.089256 -70.303566
-31.453100 72.089409 -70.111969
-33.212700 73.288879 -70.772324
-81.015602 74.489326 -70.216873
-24.781200 77.289124 -70.472710
-83.875000 78.089279 -70.282745
-21.921900 80.889145 -70.440269
-21.921900 82.889603 -69.874069
89.593803 87.689217 -70.358788
-28.771099 88.488884 -70.784431
85.781197 89.689125 -70.479683
-35.265598 90.488953 -70.698616
89.593803 90.489182 -70.407120
80.062500 91.344879 -70.786705
-89.593803 92.089249 -70.322594
-38.842400 92.088882 -70.787292
75.296898 92.089111 -70.498093
92.453102 92.089165 -70.429390
75.296898 94.089294 -70.263588
-90.546898 95.689354 -70.188461
-47.179699 95.688881 -70.790161
75.296898 95.689018 -70.614357
93.406197 97.289063 -70.552338
74.343803 99.689285 -70.282051
94.359398 100.489326 -70.228081
78.203102 101.288872 -70.794624
76.250000 102.489166 -70.428978
92.453102 102.889168 -70.423401
90.546898 103.288994 -70.646011
79.109398 104.089386 -70.155655
50.515598 105.689430 -70.095123
81.015602 106.089401 -70.135345
-64.812500 106.489601 -69.884956
87.687500 106.489182 -70.415962
54.328098 107.289116 -70.488297
55.281200 108.089432 -70.096634
45.750000 109.289497 -70.018890
-70.531197 111.059875 -70.802399
48.609402 110.889534 -69.968864
43.843800 111.689255 -70.322800
-81.015602 113.289505 -70.007973
50.515598 113.289337 -70.214378
47.656200 113.688919 -70.748398
44.796902 114.489288 -70.287827
50.515598 114.889488 -70.026649
38.505001 119.288872 -70.808952
46.836498 122.488869 -70.811501
-88.640602 124.489128 -70.486893
34.751999 125.688866 -70.814049
34.312500 131.289444 -70.093109
41.470798 134.088867 -70.820740
111.515999 138.489471 -70.056244
112.469002 140.889267 -70.323059
27.243500 144.088852 -70.828705
39.078098 145.289627 -69.876556
26.263201 146.888855 -70.830933
111.515999 146.889359 -70.208229
114.375000 146.889313 -70.251030
-48.609402 148.889481 -70.051224
113.421997 149.688995 -70.668358
-48.609402 153.289444 -70.105225
35.835400 154.088852 -70.836670
-46.703098 154.889328 -70.244400
115.328003 154.889313 -70.261703
111.515999 155.289215 -70.395523
26.305201 155.688858 -70.837944
112.469002 156.088898 -70.772255
-51.468800 156.489365 -70.196877
23.581301 156.888855 -70.838898
-69.578102 158.489365 -70.202774
114.375000 158.488922 -70.758873
-71.484398 159.689392 -70.177322
-40.397800 160.088852 -70.841446
31.861601 161.288864 -70.842400
110.561996 161.289612 -69.908096
111.515999 161.289032 -70.635201
-51.798401 162.088852 -70.843040
-71.484398 162.489426 -70.128456
-38.570999 163.288864 -70.843994
33.083000 164.888855 -70.845268
-49.102100 167.288864 -70.847176
21.407400 167.688858 -70.847496
-65.765602 168.089600 -69.901115
-62.382599 168.888855 -70.848450
2.859380 169.289490 -70.049973
114.375000 169.689148 -70.474487
3.812500 170.167862 -70.849472
-36.117500 171.288864 -70.850365
5.718750 171.289017 -70.654266
20.415300 172.088852 -70.850998
-63.859402 172.488937 -70.758118
-45.672199 173.288864 -70.851959
-67.428596 174.488861 -70.852913
28.490499 174.488861 -70.852913
-42.168400 174.888855 -70.853233
30.802401 174.888855 -70.853233
113.421997 174.889130 -70.497536
-63.072399 176.488861 -70.854507
-6.180330 176.488861 -70.854507
-60.070301 177.688858 -70.855461
-32.184399 177.688858 -70.855461
20.968800 178.089584 -69.931282
-39.078098 180.489243 -70.359390
-4.765620 182.089417 -70.147964
-57.204399 182.888840 -70.859604
28.275999 182.888840 -70.859604
-7.625000 183.289566 -69.976517
-39.527000 183.688843 -70.860237
-28.646200 183.688843 -70.860237
-26.140499 183.688843 -70.860237
-11.437500 183.689438 -70.115936
-53.824600 184.088837 -70.860558
-58.493000 185.288849 -70.861511
-61.712101 185.688843 -70.861832
20.311399 186.488846 -70.862465
17.074800 186.888840 -70.862785
27.200701 187.288849 -70.863106
-56.234402 187.689194 -70.433128
-54.752998 187.688843 -70.863426
-36.800499 188.088837 -70.863739
104.844002 188.489594 -69.933861
-33.588100 189.688843 -70.865013
-55.281200 190.569839 -70.865715
-49.887901 190.888840 -70.865974
-53.375000 191.689041 -70.624603
104.844002 192.021835 -70.866875
-31.903900 192.088837 -70.866928
18.109400 192.089432 -70.119728
-23.756001 192.888840 -70.867561
15.449800 193.688843 -70.868202
-144.378998 197.288849 -70.871071
-31.858999 197.288849 -70.871071
-20.968800 197.688919 -70.773880
-18.503799 198.088837 -70.871704
-51.920898 200.488846 -70.873619
15.250000 200.489563 -69.968117
20.968800 202.089478 -70.062492
-41.318401 202.888840 -70.875526
-25.666300 202.888840 -70.875526
-149.623001 203.288849 -70.875847
22.361300 203.288849 -70.875847
-151.445007 204.088837 -70.876480
-49.016998 204.488846 -70.876801
-27.140400 204.488846 -70.876801
-18.109400 204.489044 -70.626900
-39.364498 205.288849 -70.877441
-140.108994 206.771835 -70.878616
-38.125000 207.689590 -69.931648
-153.707001 208.088837 -70.879669
-133.774994 208.888840 -70.880302
-153.761993 209.688843 -70.880943
-45.085701 209.688843 -70.880943
20.614901 209.688843 -70.880943
-134.018997 210.488846 -70.881577
-140.108994 211.644836 -70.882500
-37.171902 212.030838 -70.882805
-13.926200 212.488846 -70.883171
-32.657101 213.288849 -70.883812
-38.176899 213.688843 -70.884125
-151.235001 214.088837 -70.884445
-36.218800 214.889145 -70.506683
-17.997200 215.288849 -70.885399
16.780800 215.288849 -70.885399
-40.378502 215.688843 -70.885719
-33.749802 215.688843 -70.885719
-8.983050 216.888840 -70.886673
-33.359402 218.089523 -70.019836
18.739401 218.088837 -70.887634
-34.312500 218.575836 -70.888023
97.218803 218.489166 -70.474945
-74.343803 219.201843 -70.888519
-75.296898 219.289276 -70.347588
-146.360001 221.688843 -70.890495
-84.828102 221.953842 -70.890709
-27.992399 221.688843 -70.890495
-147.733994 222.089020 -70.662613
-34.850800 222.088837 -70.890816
16.162399 222.088837 -70.890816
18.476000 222.088837 -70.890816
-73.390602 222.489441 -70.130737
88.640602 222.889053 -70.624252
9.300340 223.288849 -70.891769
-75.296898 223.689407 -70.165886
93.406197 224.089310 -70.283607
-15.885400 224.488846 -70.892731
-13.420000 224.488846 -70.892731
-147.733994 225.893845 -70.893845
-26.687500 226.228836 -70.894112
-20.284599 226.488846 -70.894318
-93.406197 226.889282 -70.325233
-26.687500 226.889557 -69.992241
-5.579940 226.888840 -70.894638
6.391160 226.888840 -70.894638
85.781197 226.889130 -70.516136
-88.640602 227.688980 -70.717178
-23.828100 228.035843 -70.895554
90.546898 227.689331 -70.275978
-92.453102 228.089066 -70.601593
-28.976400 228.088821 -70.895592
15.858100 229.688828 -70.896866
82.921898 230.489243 -70.381203
-12.004700 230.888824 -70.897827
86.734398 231.289124 -70.540237
18.109400 231.689590 -69.945358
-20.015600 232.089569 -69.959084
84.828102 232.489029 -70.649704
-144.875000 233.205826 -70.899673
-0.027237 234.888824 -70.901009
82.921898 235.289291 -70.335930
6.101960 235.688828 -70.901649
-19.062500 236.489288 -70.329185
-5.425480 236.488831 -70.902283
-141.061996 236.889053 -70.612900
79.109398 236.889267 -70.352699
-11.437500 237.289185 -70.461723
1.906250 237.289566 -69.982826
-136.296997 237.689301 -70.317345
-7.110310 238.088821 -70.903557
16.497200 238.088821 -70.903557
-154.533005 238.488831 -70.903877
-15.250000 238.489075 -70.593674
18.607401 239.288834 -70.904510
-137.250000 240.889038 -70.637383
8.528490 242.088821 -70.906746
3.812500 242.489578 -69.978363
-3.751010 243.288834 -70.907700
2.836940 243.288834 -70.907700
9.064620 244.488831 -70.908653
-149.718994 245.288834 -70.909294
-146.259995 246.088821 -70.909927
17.695200 246.888824 -70.910568
20.304199 247.688828 -70.911201
-30.500000 248.268829 -70.911667
-35.265598 249.289215 -70.427078
3.812500 249.689499 -70.073997
7.625000 250.088882 -70.842918
-149.481995 250.488831 -70.913429
-17.156200 251.689453 -70.128693
-146.492004 252.088821 -70.914703
19.361000 252.488831 -70.915024
-55.281200 253.246826 -70.915627
8.131090 252.888824 -70.915344
-31.663601 253.688828 -70.915977
2.859380 253.689468 -70.108986
-34.312500 254.347824 -70.916504
21.817801 254.488831 -70.916618
-63.859402 255.289139 -70.534256
-2.859380 256.597809 -70.918297
-4.765620 256.889191 -70.472130
-69.578102 257.289368 -70.247345
-51.468800 257.684814 -70.919167
-70.531197 258.088867 -70.873886
-72.437500 259.289001 -70.697243
-62.906200 260.089203 -70.428581
-75.296898 260.889252 -70.372017
-69.578102 260.889038 -70.636215
-150.001999 261.288818 -70.922035
-146.673996 261.688812 -70.922356
-141.567993 268.488800 -70.927765
-125.811996 268.489197 -70.445961
-133.438004 269.289429 -70.169006
-132.483994 270.489319 -70.286560
-125.811996 270.489258 -70.371460
-142.968994 272.388824 -70.930870
-13.343800 272.489441 -70.137856
-144.363998 274.088806 -70.932228
-150.593994 275.689331 -70.292000
21.194500 276.088806 -70.933823
-9.531250 283.097809 -70.939400
-151.039993 285.688812 -70.941467
-146.947998 286.488800 -70.942101
-4.765620 290.079803 -70.944962
-144.559998 293.688812 -70.947838
-2.859380 293.689026 -70.694038
-133.438004 295.689484 -70.089920
-126.765999 296.089050 -70.645744
4.765620 296.089203 -70.464546
7.625000 296.089172 -70.504341
-53.375000 296.488983 -70.707764
-44.796902 296.488922 -70.815567
-10.484400 296.889160 -70.535988
-64.812500 297.289032 -70.676300
-1.906250 297.688965 -70.745216
-135.343994 298.089447 -70.148338
-58.087700 298.088806 -70.951340
7.625000 298.089172 -70.511436
-117.234001 298.489349 -70.269760
-73.390602 298.489166 -70.475060
-79.109398 298.889557 -70.022072
-57.187500 299.231812 -70.952248
-117.234001 299.289001 -70.715096
-67.671898 299.689178 -70.504715
-156.059998 300.088806 -70.952934
-142.369995 300.088806 -70.952934
-124.859001 300.089233 -70.430031
-53.375000 300.489288 -70.353447
-11.437500 301.689087 -70.627609
-125.811996 302.089264 -70.377220
3.812500 302.088837 -70.905922
15.923500 302.088806 -70.954521
-150.593994 305.162811 -70.956970
-148.688004 305.688904 -70.847290
-150.593994 306.489014 -70.673126
-151.546997 309.289215 -70.458557
-147.733994 309.289093 -70.619156
-53.375000 64.489891 -69.504417
-59.093800 65.233543 -69.812805
-46.703098 64.889969 -69.408234
-51.468800 65.482246 -69.813004
-68.625000 65.689926 -69.464073
-41.937500 66.089836 -69.579994
-40.031200 66.090065 -69.289490
-75.296898 68.489944 -69.438797
-33.359402 68.490379 -68.893501
-32.406200 69.689995 -69.379951
-30.721001 72.089645 -69.818268
-24.781200 74.090057 -69.300362
-24.425400 76.089645 -69.821449
-20.015600 80.889954 -69.425873
81.968803 83.290215 -69.099388
79.109398 85.689667 -69.797897
81.015602 85.922234 -69.829285
91.500000 86.089897 -69.507019
87.687500 86.642540 -69.829857
76.250000 86.890038 -69.325958
92.453102 87.289993 -69.381271
-32.406200 88.490379 -68.906830
-29.546900 88.690834 -69.831490
73.390602 90.890068 -69.285439
-41.302101 92.889633 -69.834831
94.359398 94.489861 -69.561806
73.390602 96.889839 -69.580612
72.437500 98.490181 -69.158485
-52.421902 99.690102 -69.251747
-91.578201 100.489639 -69.840881
52.421902 103.290184 -69.152908
54.328098 103.290024 -69.349907
83.875000 104.489777 -69.669075
56.234402 104.889954 -69.435883
84.828102 106.089882 -69.538345
93.406197 106.490005 -69.377655
77.203102 106.890076 -69.288979
82.921898 107.690056 -69.313820
90.546898 107.690109 -69.248322
52.421902 108.090240 -69.089729
86.734398 108.089928 -69.475731
49.562500 108.490273 -69.043053
88.640602 108.890045 -69.320671
53.375000 109.690308 -69.002907
-79.109398 110.889816 -69.617271
-75.296898 111.588631 -69.849724
45.750000 111.690292 -69.017899
54.410599 112.089630 -69.850121
52.421902 112.890358 -68.931152
-83.275200 118.889626 -69.855537
39.962299 120.089630 -69.856491
-84.403297 120.889626 -69.857124
49.509602 122.489632 -69.858398
108.655998 122.490387 -68.905197
-86.085701 122.889626 -69.858719
-91.500000 125.689896 -69.527351
36.055901 126.889626 -69.861908
47.209301 127.289627 -69.862221
44.654598 128.089630 -69.862862
110.561996 128.489899 -69.532387
31.918600 130.489624 -69.864769
111.515999 130.889847 -69.585190
45.292301 131.289627 -69.865410
112.469002 131.290054 -69.317314
110.561996 134.489746 -69.712059
40.984402 135.816620 -69.869011
113.421997 137.289764 -69.681686
31.330900 138.089615 -69.870827
114.375000 139.689911 -69.502205
39.021099 140.489624 -69.872734
37.464699 144.889618 -69.876236
-55.281200 147.290085 -69.303856
115.328003 147.289795 -69.674454
27.464001 149.289627 -69.879745
-50.515598 150.090286 -69.032379
-52.421902 150.890182 -69.166122
24.623600 151.689621 -69.881653
34.840801 151.689621 -69.881653
-71.484398 155.289948 -69.479622
-72.437500 155.690018 -69.372643
-54.714298 156.089615 -69.885155
-68.625000 158.089874 -69.563049
-52.421902 158.490341 -68.986870
-39.588902 160.889618 -69.888977
-41.643398 161.289627 -69.889297
115.778000 161.689621 -69.889618
34.050701 162.089615 -69.889938
-65.428497 162.889618 -69.890572
-67.671898 163.690353 -68.964012
-39.905800 164.089615 -69.891525
-68.625000 164.490372 -68.947350
21.507500 164.489624 -69.891846
31.581900 164.889618 -69.892166
23.599600 165.689621 -69.892799
-36.063999 166.489624 -69.893440
8.578120 167.289963 -69.460777
109.760002 167.689606 -69.894394
30.648001 168.889603 -69.895348
-69.762100 169.689606 -69.895988
8.578120 169.690109 -69.271492
-65.698700 171.689606 -69.897583
-0.706818 171.689606 -69.897583
-63.238998 172.089600 -69.897896
31.756901 172.489609 -69.898216
-43.843800 173.249603 -69.898827
-32.034901 172.889603 -69.898537
5.263320 173.689606 -69.899170
29.062401 174.089600 -69.899490
108.135002 175.289612 -69.900444
-62.906200 176.490356 -68.973503
-32.525398 176.489609 -69.901405
113.898003 176.889603 -69.901718
-62.906200 177.689606 -69.902359
-57.564701 177.689606 -69.902359
-29.229200 177.689606 -69.902359
-61.000000 178.489990 -69.420090
-60.005600 178.489609 -69.902992
-7.625000 178.889786 -69.670815
-65.313904 179.289612 -69.903633
110.561996 179.290298 -69.052032
-42.468601 179.689606 -69.903954
-29.546900 181.246613 -69.905190
-3.812500 180.890076 -69.324310
-5.718750 181.290253 -69.095932
-59.175900 183.289612 -69.906815
19.840099 183.289612 -69.906815
-58.140598 183.689636 -69.868134
19.062500 184.490341 -68.998573
105.976997 184.889603 -69.908089
25.888500 186.089600 -69.909050
109.609001 186.090317 -69.017151
-60.593700 187.289612 -69.910004
-23.552601 187.689606 -69.910324
107.703003 187.690353 -68.976128
-51.335800 189.289612 -69.911598
24.748400 189.689606 -69.911911
111.114998 189.689606 -69.911911
107.703003 190.890091 -69.300972
-57.691002 191.689606 -69.913506
-34.660301 192.489609 -69.914146
-20.613100 192.489609 -69.914146
-48.234100 194.089600 -69.915421
106.750000 195.290344 -68.996979
-54.328098 195.689941 -69.484695
13.979200 195.689606 -69.916695
-145.828003 196.489777 -69.709526
-18.765100 196.489609 -69.917328
-147.733994 196.890244 -69.104851
-149.210999 197.289612 -69.917969
101.897003 197.289612 -69.917969
108.453003 197.289612 -69.917969
-29.347700 198.089600 -69.918602
-145.828003 198.490173 -69.207726
-45.750000 198.489929 -69.505623
24.388100 198.489609 -69.918922
103.890999 198.890305 -69.030846
12.770800 200.089600 -69.920197
-29.958500 200.889603 -69.920830
-18.995199 201.289612 -69.921150
-16.578400 201.289612 -69.921150
-147.733994 202.090134 -69.244392
-149.302994 202.489609 -69.922104
-42.890598 202.489944 -69.488808
103.890999 202.490341 -68.999115
106.384003 202.489609 -69.922104
-144.686996 202.889603 -69.922424
-48.609402 203.689865 -69.589470
98.424698 204.889603 -69.924019
22.269600 206.089600 -69.924973
-24.034599 206.489609 -69.925293
-13.904800 206.889603 -69.925613
100.078003 206.890305 -69.035118
19.500099 207.289612 -69.925926
-135.343994 207.690170 -69.211349
96.856300 207.689606 -69.926247
10.129400 208.089600 -69.926567
101.030998 208.490341 -68.999588
12.266300 209.289612 -69.927521
-148.716995 209.689606 -69.927841
-43.843800 209.690170 -69.208145
-24.673401 209.689606 -69.927841
99.125000 209.690186 -69.198044
-21.921900 210.089828 -69.636566
-136.296997 210.890167 -69.220894
-34.360199 212.089600 -69.929749
-41.795502 213.289612 -69.930710
-10.725300 213.289612 -69.930710
100.875999 213.289612 -69.930710
93.687500 213.689606 -69.931023
8.206340 214.889603 -69.931984
-149.035004 215.689590 -69.932617
-21.181499 215.689590 -69.932617
-145.554993 216.089584 -69.932938
-30.014601 216.489594 -69.933258
96.265602 216.490311 -69.044060
-10.408700 217.689590 -69.934212
93.406197 218.890335 -69.006165
7.168410 219.289597 -69.935486
9.415880 219.289597 -69.935486
-36.722698 219.689590 -69.935806
-77.203102 220.090317 -69.028328
-74.026001 220.089584 -69.936119
-26.530100 220.089584 -69.936119
-29.546900 220.650589 -69.936569
-145.654007 220.889587 -69.936760
-81.968803 220.932587 -69.936790
-74.343803 220.890152 -69.239563
-148.925995 221.289597 -69.937080
96.265602 221.290359 -68.994385
92.453102 221.690338 -69.013702
-23.337799 223.289597 -69.938675
-28.593800 223.689972 -69.458092
-29.082800 224.089584 -69.939308
-26.687500 224.490173 -69.224731
-32.175701 224.889587 -69.939949
-24.789600 224.889587 -69.939949
-3.478560 224.889587 -69.939949
-93.406197 225.290054 -69.368362
-13.520100 225.289597 -69.940262
-81.198601 226.089584 -69.940903
-149.199997 226.889587 -69.941536
-95.312500 226.890015 -69.417534
8.225280 228.089584 -69.942497
18.359501 228.489594 -69.942810
-91.500000 229.289932 -69.522255
-23.828100 229.690323 -69.024673
-19.913799 230.089584 -69.944084
-16.467899 230.089584 -69.944084
81.968803 230.489822 -69.663506
-145.953995 231.289597 -69.945045
-149.498001 232.489594 -69.945999
-20.015600 233.290314 -69.053635
-8.251890 233.289597 -69.946632
2.428070 233.689590 -69.946953
-22.229099 234.489594 -69.947594
77.203102 236.090027 -69.397865
82.921898 236.890030 -69.388100
-146.781006 237.599594 -69.950066
-16.203100 239.290024 -69.417320
75.296898 239.289780 -69.717918
-127.719002 239.690201 -69.183533
5.718750 239.689789 -69.695427
79.109398 240.089996 -69.433853
-10.484400 240.489655 -69.869469
-10.484400 241.689926 -69.529228
-2.692030 241.689590 -69.953323
75.296898 242.089828 -69.637047
17.044600 243.289597 -69.954597
72.437500 243.689926 -69.536819
-0.392197 245.289597 -69.956192
4.220050 245.289597 -69.956192
19.758699 245.289597 -69.956192
-14.296900 248.089890 -69.580421
-31.453100 248.751587 -69.958946
-1.329670 248.489594 -69.958740
-13.343800 248.889938 -69.513664
-36.218800 250.090118 -69.277618
-40.031200 250.489716 -69.796936
-13.343800 250.490112 -69.298737
-150.169006 251.289597 -69.960968
-47.656200 251.689697 -69.828491
-20.968800 252.836594 -69.962204
3.812500 252.490311 -69.048225
-26.687500 253.217590 -69.962502
6.671880 252.890274 -69.086540
-59.093800 253.845596 -69.963005
-35.265598 253.690079 -69.351082
6.273300 253.689590 -69.962883
-40.031200 254.490173 -69.221718
11.262600 254.489594 -69.963516
2.668750 254.889587 -69.963837
-44.796902 255.690247 -69.139473
-42.890598 255.689590 -69.964470
-150.186005 256.089569 -69.964790
-146.181000 256.489594 -69.965111
-47.656200 256.858582 -69.965401
22.427401 256.489594 -69.965111
21.921900 257.400574 -69.965836
15.194900 257.689575 -69.966064
-75.296898 258.490173 -69.218605
-57.187500 258.952576 -69.967072
17.301600 258.889587 -69.967018
-77.203102 259.289734 -69.803238
-81.015602 260.489838 -69.658791
-63.859402 260.490326 -69.024597
-77.888199 260.889587 -69.968613
-11.053000 261.689575 -69.969254
-73.390602 262.490112 -69.312485
-82.921898 262.889923 -69.536911
-80.062500 263.290039 -69.418228
-125.811996 266.090057 -69.355560
21.553801 266.089569 -69.972755
-13.343800 266.890167 -69.262787
-133.438004 267.289825 -69.663811
-141.061996 268.890167 -69.266685
-142.016006 270.285583 -69.976097
-155.141998 270.889587 -69.976578
-125.811996 272.089874 -69.589333
22.065901 273.689575 -69.978806
21.392401 278.089569 -69.982307
-12.446700 279.289581 -69.983269
16.525000 289.289581 -69.991226
-164.891006 290.490265 -69.098091
-6.671880 291.690094 -69.324142
-151.311996 292.089569 -69.993462
-147.011002 292.089569 -69.993462
12.390600 293.289917 -69.558914
-153.968002 293.689575 -69.994736
-165.843994 294.890106 -69.340889
-125.349998 296.089569 -69.996643
-38.125000 296.233582 -69.996758
-33.359402 296.449585 -69.996933
-149.641006 296.884583 -69.997276
-67.671898 296.489960 -69.488564
-25.734400 296.555573 -69.997017
-156.039001 296.889587 -69.997284
-148.688004 296.951569 -69.997330
-68.625000 296.889648 -69.932884
-164.891006 297.290100 -69.349396
-142.119995 297.289581 -69.997597
-136.296997 297.289795 -69.743401
-78.156197 297.289764 -69.763397
-147.910004 297.689575 -69.997917
3.812500 297.689850 -69.642517
-85.781197 298.089783 -69.741142
-147.684006 298.489563 -69.998558
-115.328003 298.490326 -69.045357
14.296900 298.670563 -69.998695
-136.244995 298.889587 -69.998871
-95.312500 298.889923 -69.576469
-88.640602 299.689850 -69.659309
-73.390602 299.759583 -69.999565
-162.031006 300.090057 -69.376633
-149.641006 300.457581 -70.000122
-148.688004 300.263580 -69.999969
-135.287003 300.489563 -70.000145
-82.921898 300.489960 -69.488350
-61.000000 300.489655 -69.880043
-41.937500 300.878571 -70.000458
-142.016006 300.889771 -69.763168
15.419400 300.889587 -70.000465
-25.734400 301.595581 -70.001030
-19.062500 301.676575 -70.001091
-4.765620 302.067566 -70.001404
-154.955002 302.489563 -70.001740
3.918400 302.489563 -70.001740
-134.391006 302.889923 -69.577759
-126.765999 303.690125 -69.291397
14.296900 303.913574 -70.002876
-154.740997 313.689575 -70.010658
-154.990005 317.689575 -70.013847
-154.848007 321.689575 -70.017029
-154.177002 322.089569 -70.017349
-59.093800 63.290539 -68.689156
-47.656200 63.290707 -68.479256
-42.890598 64.490555 -68.673515
-74.343803 66.090790 -68.381393
-81.968803 71.291031 -68.071228
-24.781200 72.090752 -68.432968
-20.015600 76.090675 -68.522354
-18.109400 78.490784 -68.393669
82.921898 81.291115 -67.976791
87.687500 82.090736 -68.455338
-89.593803 83.290909 -68.233185
85.781197 83.290794 -68.375687
92.453102 84.490677 -68.525841
-24.118999 86.090401 -68.876213
74.343803 86.090866 -68.292816
84.828102 86.090553 -68.681618
74.440399 89.290398 -68.878761
-45.650700 94.890396 -68.883224
71.484398 95.290703 -68.499443
97.218803 97.290855 -68.306137
97.218803 99.690720 -68.476250
73.699097 102.090393 -68.888954
96.265602 102.490875 -68.288780
50.515598 103.290878 -68.279907
-93.000900 104.490395 -68.890869
73.390602 104.890686 -68.522987
-64.812500 105.290634 -68.584106
53.375000 105.291031 -68.088402
93.406197 108.091095 -68.009232
-66.718803 108.779793 -68.894279
84.828102 108.490875 -68.288055
91.500000 108.891144 -67.941277
-80.062500 110.891106 -67.989166
105.796997 112.490997 -68.141541
107.703003 116.090691 -68.527206
52.817501 116.890388 -68.900742
49.803200 118.490395 -68.902016
106.750000 118.490623 -68.612221
36.893600 120.490387 -68.903610
48.609402 120.666382 -68.903748
106.750000 121.690857 -68.312065
37.899101 122.890381 -68.905518
-92.936302 123.290382 -68.905838
111.515999 123.690887 -68.277161
-88.289902 125.290382 -68.907433
45.111401 127.290382 -68.909019
35.265598 128.091141 -67.956566
108.703003 128.890381 -68.910294
42.010101 133.690384 -68.914116
43.216099 136.090378 -68.916031
109.663002 139.290390 -68.918579
41.421398 140.090378 -68.919212
29.387199 142.890381 -68.921448
-53.375000 143.690964 -68.195282
-57.187500 148.490738 -68.469307
-47.042000 148.890381 -68.926224
110.070999 149.290390 -68.926544
37.674301 150.090378 -68.927177
-74.343803 150.890823 -68.369820
-45.104099 151.290390 -68.928131
113.421997 151.290985 -68.163437
-47.719799 151.690384 -68.928452
-54.328098 152.090775 -68.430771
-74.343803 153.290680 -68.564629
25.825100 154.490387 -68.930679
116.541000 154.890381 -68.931000
-68.625000 155.690964 -68.201241
109.986000 155.690369 -68.931641
33.087101 158.090363 -68.933548
-54.627899 158.490372 -68.933868
22.375000 159.290375 -68.934502
113.421997 159.290817 -68.383804
109.712997 162.090363 -68.936737
-52.693199 162.490372 -68.937050
-64.278198 164.090363 -68.938324
113.421997 164.090775 -68.426926
-72.012299 164.890366 -68.938965
-65.790497 166.490372 -68.940239
5.718750 166.490631 -68.622543
-49.562500 167.684372 -68.941193
-47.826099 167.290375 -68.940872
111.515999 168.091034 -68.096817
113.421997 168.491119 -67.998734
112.469002 169.290634 -68.615570
-36.667900 169.690369 -68.942787
-61.486000 170.090363 -68.943108
22.477100 170.090363 -68.943108
108.744003 170.090363 -68.943108
-64.812500 170.491043 -68.106728
111.515999 170.890671 -68.564941
115.251999 171.290375 -68.944061
-69.037003 172.090363 -68.944695
-64.812500 173.833374 -68.946083
112.469002 173.691071 -68.060280
-62.906200 174.090485 -68.804588
-59.631802 174.090363 -68.946289
111.515999 174.890564 -68.708633
-67.192398 175.690369 -68.947563
-45.062401 175.690369 -68.947563
30.952900 176.090363 -68.947884
-4.765620 176.890686 -68.539330
1.798160 176.890366 -68.948517
18.432199 176.890366 -68.948517
-43.443199 178.490372 -68.949791
-0.953125 178.490707 -68.523705
-40.538200 178.890366 -68.950111
106.945000 178.890366 -68.950111
114.082001 179.690369 -68.950752
29.546900 180.491135 -67.998291
19.810301 180.890366 -68.951706
-56.128502 181.690369 -68.952339
-63.459702 182.090363 -68.952660
-38.285500 183.290375 -68.953613
-39.504398 184.890366 -68.954887
112.949997 184.890366 -68.954887
16.485901 185.290375 -68.955208
25.875200 187.290375 -68.956802
-59.093800 188.090668 -68.576248
-52.421902 189.690628 -68.633820
-24.563101 190.090363 -68.959030
14.825700 190.490372 -68.959351
-56.234402 191.690781 -68.430809
-53.375000 191.691116 -68.012505
-147.733994 192.090897 -68.277824
17.049801 192.090363 -68.960625
103.263000 192.090363 -68.960625
-51.468800 192.490860 -68.344246
-22.875000 192.686371 -68.961098
-32.337601 193.290375 -68.961578
23.993900 194.490372 -68.962540
25.979500 194.890366 -68.962852
13.687900 195.290375 -68.963173
-52.421902 195.690887 -68.314194
-144.875000 196.490829 -68.386032
-147.733994 196.890549 -68.735748
-49.562500 198.090927 -68.251404
-31.786301 198.490372 -68.965721
-50.515598 199.290710 -68.542168
108.027000 199.690369 -68.966675
-45.750000 201.290756 -68.483154
-148.688004 202.717361 -68.969086
-46.703098 203.690781 -68.439865
23.333900 203.690353 -68.969864
20.634600 205.690353 -68.971458
-44.796902 206.890762 -68.466118
-40.984402 206.890717 -68.520714
12.390600 206.890579 -68.694412
-140.263000 208.090347 -68.973366
-12.057000 210.090347 -68.974960
95.083702 210.090347 -68.974960
-41.937500 210.490875 -68.332382
21.269400 210.890350 -68.975594
-141.039993 211.690353 -68.976234
-35.265598 213.290863 -68.346710
101.415001 213.290359 -68.977509
18.185200 214.890350 -68.978783
-38.125000 215.690964 -68.226822
-19.307199 215.690353 -68.979416
10.002700 215.690353 -68.979416
-31.453100 216.490738 -68.508858
19.640499 217.290359 -68.980690
-7.242310 218.490356 -68.981651
-36.044601 219.690353 -68.982605
-78.156197 220.490738 -68.506744
-78.156197 221.014359 -68.983658
-16.421000 220.890350 -68.983559
-76.386200 221.290359 -68.983879
-149.302994 221.690353 -68.984200
-82.921898 221.690552 -68.737701
-78.156197 221.691025 -68.147598
-7.625000 222.049347 -68.984482
90.546898 221.691086 -68.074699
-87.687500 222.678360 -68.984985
92.453102 222.490646 -68.618233
6.270250 222.890350 -68.985153
16.710400 222.890350 -68.985153
8.494160 223.290359 -68.985474
86.848801 223.290359 -68.985474
-90.652802 223.690353 -68.985786
-31.453100 224.491089 -68.061333
-80.062500 224.890884 -68.318550
89.593803 225.690598 -68.688484
-145.712997 226.090347 -68.987701
89.593803 226.891098 -68.049438
-21.921900 228.002350 -68.989220
-14.735300 228.090347 -68.989296
-1.535190 228.090347 -68.989296
-18.140200 228.490356 -68.989609
16.203100 228.491058 -68.100014
85.781197 228.491089 -68.076408
-22.875000 228.890854 -68.361328
-99.125000 229.290695 -68.568451
-97.181000 229.290359 -68.990250
-93.406197 230.090485 -68.818382
-2.646120 230.090347 -68.990883
5.810840 230.490356 -68.991203
-26.381001 230.890350 -68.991524
-18.169399 231.290359 -68.991844
-99.125000 231.690811 -68.421661
88.003098 232.090347 -68.992477
15.968000 232.890350 -68.993118
-143.623993 233.690353 -68.993752
-16.050400 233.690353 -68.993752
18.215300 233.690353 -68.993752
82.921898 234.091049 -68.114876
-142.335999 234.890350 -68.994705
1.073430 234.890350 -68.994705
81.015602 235.691086 -68.068047
-15.250000 236.090515 -68.774773
-10.305000 236.090347 -68.995667
8.073530 236.890350 -68.996300
-132.483994 237.290680 -68.595619
-125.811996 237.290604 -68.678925
16.433701 238.090347 -68.997253
-13.343800 238.491104 -68.052574
5.718750 238.490646 -68.619980
-141.074005 238.890350 -68.997894
-7.464940 238.890350 -68.997894
-4.886510 238.890350 -68.997894
-132.483994 240.490387 -68.960770
-124.859001 240.490417 -68.908974
-6.255970 240.890350 -68.999489
4.765620 241.291107 -68.055405
18.800900 241.290359 -68.999802
-127.719002 241.690582 -68.703827
8.505510 241.690353 -69.000122
-7.625000 242.377350 -69.000671
-3.812500 244.090790 -68.430237
-0.997665 244.490356 -69.002350
75.296898 244.490906 -68.304451
68.625000 246.090408 -68.916023
-18.109400 247.125351 -69.004448
71.484398 246.890686 -68.576370
-21.921900 247.373352 -69.004646
-24.781200 247.822357 -69.005005
-161.078003 248.091003 -68.171219
64.812500 248.090790 -68.449219
10.427300 249.290359 -69.006172
6.286420 249.690353 -69.006493
1.773010 250.090347 -69.006813
64.812500 250.090759 -68.480118
-40.031200 251.290512 -68.800972
-35.265598 251.690826 -68.397987
-26.687500 251.691101 -68.068489
-23.828100 252.091095 -68.058311
-48.609402 252.490753 -68.499519
-44.796902 252.490936 -68.273926
-34.312500 252.490616 -68.681320
-55.281200 253.161331 -69.009254
-40.031200 252.890854 -68.370743
8.578120 253.035339 -69.009155
21.095301 253.690338 -69.009682
12.480200 255.290344 -69.010956
19.062500 256.090454 -68.846893
20.968800 256.091034 -68.141693
20.015600 256.749359 -69.012115
-150.593994 256.891083 -68.074036
-52.421902 257.290985 -68.215546
-53.375000 258.060333 -69.013161
-7.572680 258.490356 -69.013504
-79.109398 259.290436 -68.895042
-9.190480 259.290344 -69.014137
-161.078003 260.090637 -68.653679
-146.401993 260.490356 -69.015091
-83.875000 261.290497 -68.814034
-86.734398 261.690521 -68.776451
-70.531197 261.834351 -69.016167
-150.593994 262.313354 -69.016548
-89.593803 263.290497 -68.811630
-78.156197 263.690643 -68.651939
-164.891006 264.091064 -68.094063
-92.453102 264.490753 -68.499481
-89.593803 264.490601 -68.684586
-83.875000 264.490509 -68.810883
-90.546898 265.690857 -68.354034
-117.234001 266.490753 -68.468079
-148.688004 266.990326 -69.020271
-147.733994 267.224335 -69.020454
-141.061996 267.290497 -68.837708
-135.343994 267.290710 -68.546112
-155.485992 268.090332 -69.021149
-147.143005 268.890350 -69.021782
-163.938004 269.290863 -68.354301
-123.905998 269.690887 -68.324028
22.489700 269.690338 -69.022423
-162.031006 270.090576 -68.712440
-147.733994 270.235352 -69.022850
-148.688004 270.657349 -69.023193
-135.343994 270.490479 -68.831261
-165.843994 271.290863 -68.385498
-162.983994 272.090454 -68.881935
-14.694900 272.090332 -69.024330
-154.102005 272.890350 -69.024971
-132.483994 273.290894 -68.353287
-162.031006 273.690704 -68.553703
-153.453003 273.690887 -68.347107
-126.765999 273.690826 -68.397003
-151.546997 275.290833 -68.418381
-146.740997 276.090332 -69.027519
-161.078003 276.490753 -68.471832
-164.891006 276.890564 -68.760254
-152.500000 278.090912 -68.299911
-159.171997 278.490753 -68.505028
-13.343800 278.891052 -68.158653
-146.781006 282.817352 -69.032875
-165.843994 284.090454 -68.874390
19.397900 284.490326 -69.034203
-162.983994 286.890442 -68.923317
-151.546997 286.890411 -68.941116
-152.500000 287.690643 -68.664757
-151.494995 288.090332 -69.037071
-152.500000 292.090485 -68.851959
-166.796997 293.690460 -68.879440
-125.811996 294.490601 -68.702469
-5.718750 294.490784 -68.445770
-162.643997 295.290344 -69.042809
-28.593800 295.469330 -69.042946
-142.968994 296.032349 -69.043396
-135.343994 295.690796 -68.471321
-59.093800 295.831329 -69.043236
-53.375000 295.718353 -69.043144
-43.843800 295.792328 -69.043205
-4.765620 295.690704 -68.569023
-156.311996 296.090424 -68.903641
10.484400 296.090515 -68.812141
-25.932199 296.490326 -69.043762
-10.484400 296.623352 -69.043869
-88.640602 296.890686 -68.631989
-7.625000 296.901337 -69.044090
-98.171898 297.290833 -68.406799
-150.593994 297.690399 -68.943222
-123.954002 297.690338 -69.044716
-115.328003 297.690643 -68.669022
-113.421997 297.691040 -68.153816
-98.444199 298.090332 -69.045036
-111.515999 298.490662 -68.608559
-100.316002 298.890350 -69.045670
-150.593994 299.290527 -68.824890
-148.688004 299.690460 -68.883110
-94.359398 300.031342 -69.046577
16.812201 299.690338 -69.046310
-118.188004 300.817352 -69.047211
-116.028000 300.490326 -69.046944
-111.515999 300.490723 -68.536842
-71.484398 300.808350 -69.047203
-60.046902 300.791351 -69.047188
-101.030998 300.890594 -68.732567
-88.640602 300.890472 -68.881966
-156.240997 301.690338 -69.047905
-24.781200 301.764343 -69.047958
-15.250000 301.985352 -69.048134
-142.968994 302.090515 -68.803719
-135.343994 302.090607 -68.694817
-124.859001 302.090759 -68.513123
-159.171997 302.490417 -68.921440
-143.921997 302.891083 -68.131058
-153.453003 304.431335 -69.050087
-155.358994 304.890533 -68.791252
-145.964996 304.890350 -69.050453
-152.908005 306.890350 -69.052040
-146.139999 309.290344 -69.053955
-144.177002 310.890350 -69.055229
-144.156998 315.290344 -69.058731
-144.192993 320.090332 -69.062553
-145.828003 322.428345 -69.064415
-60.046902 61.291660 -67.279671
-52.421902 61.291679 -67.254570
-66.718803 62.091496 -67.492500
-69.578102 63.291252 -67.791458
-38.125000 63.691586 -67.377975
-31.999599 67.291161 -67.908150
-84.828102 73.291397 -67.613724
-20.015600 73.691498 -67.490044
90.546898 80.891510 -67.478775
76.250000 81.691612 -67.352112
76.250000 82.891335 -67.690666
-21.357901 84.091156 -67.921524
76.262497 84.891151 -67.922165
95.312500 85.691444 -67.566292
72.437500 86.891357 -67.668358
-37.171902 87.477257 -67.924225
96.265602 87.291382 -67.639069
-40.031200 88.491905 -66.991829
94.341202 89.291153 -67.925667
98.171898 90.891518 -67.464035
70.531197 92.091431 -67.584389
98.171898 92.891495 -67.498734
-92.843002 96.491158 -67.931404
58.140598 99.691673 -67.276649
59.093800 100.891518 -67.468506
71.484398 102.091629 -67.337059
60.046902 102.891754 -67.176796
-62.906200 103.398857 -67.936905
56.234402 103.291878 -67.019211
-64.812500 103.691154 -67.937134
48.615601 104.491158 -67.937775
56.234402 105.291634 -67.335304
97.218803 106.091766 -67.172546
73.390602 106.491478 -67.535759
76.250000 108.035446 -67.940598
104.844002 107.691498 -67.508720
80.062500 108.391144 -67.940880
44.037601 109.291145 -67.941597
76.250000 109.691460 -67.548004
78.156197 110.091454 -67.559425
45.802898 110.491150 -67.942551
56.092499 111.291145 -67.943184
87.687500 111.291382 -67.651680
107.703003 111.291664 -67.292084
89.593803 112.091682 -67.272324
103.890999 112.091461 -67.556320
-93.978104 115.691147 -67.946693
-82.921898 115.691147 -67.946693
39.577702 115.691147 -67.946693
109.609001 116.091545 -67.448502
49.356800 119.291145 -67.949554
-87.077904 124.091148 -67.953377
35.988201 126.491150 -67.955292
