-151.833450317383 -73.008781433105 -206.110626220703 0.772035956383
-21.880077362061 -71.445228576660 -203.606323242188 0.753044068813
-151.149871826172 -71.874221801758 -206.230636596680 0.848685860634
-158.654312133789 -73.129531860352 -204.091934204102 3.274493217468
-148.265228271484 -73.335586547852 -204.753692626953 2.100612640381
7.120317935944 -73.055824279785 -205.633026123047 1.912834882736
21.700950622559 -72.042053222656 -202.378356933594 1.940556168556
101.164001464844 -71.600898742676 -203.252090454102 0.779384493828
-148.180923461914 -76.243827819824 -209.472961425781 1.989089488983
-160.960830688477 -70.667877197266 -214.896270751953 2.603924751282
86.495681762695 -72.785118103027 -209.009033203125 2.700746774673
-143.362228393555 -74.222618103027 -215.992538452148 2.630652666092
-2.361665964127 -69.298477172852 -213.103363037109 3.454304218292
9.672777175903 -71.556930541992 -210.582687377930 1.495836853981
19.487304687500 -67.711433410645 -212.189788818359 2.537550926208
18.013170242310 -69.399330139160 -216.914474487305 3.197223424911
-141.232055664063 -73.794059753418 -219.996414184570 4.066626071930
-14.108622550964 -71.912605285645 -219.422988891602 1.622320652008
-19.272693634033 -71.418121337891 -217.520568847656 2.586374521255
-95.856384277344 -72.229537963867 -218.440216064453 2.042111158371
1.951804041862 -69.515625000000 -221.219848632813 2.953433275223
84.389129638672 -69.792816162109 -221.324111938477 1.392979741096
80.183517456055 -71.245979309082 -216.008377075195 2.160705804825
-96.405044555664 -70.375205993652 -222.093444824219 2.073403120041
14.419939041138 -70.326591491699 -225.585601806641 1.414338707924
89.483291625977 -71.965995788574 -217.264968872070 1.345607519150
-104.063789367676 -74.221496582031 -224.796020507813 2.582500934601
76.183822631836 -73.751945495605 -217.130950927734 6.144851684570
-0.629316985607 -74.021148681641 -223.532897949219 1.888452291489
-16.695981979370 -70.899215698242 -225.887161254883 1.865429639816
-5.872940063477 -70.915504455566 -227.905334472656 0.858984529972
74.768104553223 -71.479949951172 -227.855255126953 1.184624195099
10.959495544434 -70.739982604980 -231.567504882813 1.411517262459
-121.493392944336 -68.499565124512 -231.696975708008 3.281715154648
-160.369857788086 -73.057411193848 -230.288040161133 1.602144360542
77.851745605469 -71.016479492188 -228.280075073242 1.341041564941
-120.786216735840 -71.385902404785 -236.324234008789 3.938001871109
-4.235431194305 -70.525978088379 -232.477691650391 1.832081079483
76.982757568359 -69.958946228027 -230.936157226563 2.150812625885
13.724018096924 -70.217010498047 -233.610748291016 1.484895110130
0.114131003618 -72.450111389160 -234.593627929688 0.342919260263
-6.449050903320 -70.361129760742 -237.438201904297 1.934879302979
73.559906005859 -71.457801818848 -234.541091918945 1.105138778687
17.747262954712 -70.569305419922 -233.050231933594 1.468209743500
-142.221191406250 -73.760284423828 -245.187469482422 2.935853004456
55.596206665039 -69.530662536621 -240.465621948242 1.727754592896
-8.722341537476 -70.801200866699 -240.835510253906 1.436473727226
-65.381805419922 -71.669319152832 -245.579666137695 1.391415476799
59.953990936279 -68.784385681152 -241.947372436523 1.311661839485
-63.672473907471 -73.555717468262 -248.771881103516 1.886033535004
53.585144042969 -71.039665222168 -245.249053955078 2.002439498901
-87.603698730469 -71.426605224609 -251.419647216797 1.857232689857
23.709667205811 -70.919456481934 -248.508239746094 2.023583412170
48.946342468262 -71.769195556641 -248.854629516602 1.086624741554
-132.742736816406 -72.217391967773 -254.612411499023 0.884471833706
-164.284683227539 -74.493843078613 -258.871948242188 1.821436882019
-105.320228576660 -74.588485717773 -261.014251708984 2.670463800430
-140.686264038086 -73.880210876465 -261.323516845703 1.585547924042
-140.877304077148 -72.688377380371 -263.621795654297 1.299184560776
-11.117513656616 -69.746902465820 -259.377624511719 3.087126493454
25.859210968018 -69.000747680664 -267.363464355469 2.644168138504
-5.682936191559 -71.331443786621 -275.190856933594 4.026453018188
-153.208328247070 -72.831161499023 -279.258178710938 2.222496509552
-125.822090148926 -73.421737670898 -281.139221191406 3.679701089859
-151.502853393555 -71.648452758789 -286.887298583984 2.776544332504
-86.322708129883 -73.454872131348 -284.295684814453 2.796578168869
-81.056503295898 -71.257659912109 -283.081634521484 5.022623062134
-42.809741973877 -72.206016540527 -283.304016113281 3.839605808258
-10.000372886658 -70.497169494629 -281.169891357422 0.989876568317
-33.125122070313 -71.748649597168 -285.765777587891 2.993474245071
-9.120379447937 -71.441162109375 -284.596496582031 1.720641970634
-28.261720657349 -71.973327636719 -282.761749267578 3.204028844833
-9.286899566650 -68.937301635742 -286.495941162109 2.315846204758
-43.529747009277 -70.341011047363 -289.652954101563 1.901061296463
-2.116327047348 -69.104362487793 -284.630157470703 3.959002494812
-68.679069519043 -71.960273742676 -289.554168701172 1.213015198708
-82.980834960938 -72.338630676270 -290.263061523438 2.061534404755
-97.950164794922 -73.455528259277 -291.083984375000 2.783756971359
-113.613906860352 -73.353317260742 -290.820678710938 0.394188970327
-129.299545288086 -70.199539184570 -294.808746337891 2.479709148407
-145.972930908203 -72.199012756348 -296.384948730469 0.414064437151
-151.735122680664 -71.807060241699 -306.163513183594 3.443761110306
-143.595886230469 -71.455650329590 -311.195037841797 0.370265156031
41.176639556885 -71.039291381836 -8.649514198303 4.637834072113
20.617916107178 -67.709777832031 -13.881706237793 5.264834880829
41.698795318604 -72.386116027832 -14.890788078308 1.875180244446
21.659019470215 -68.829994201660 -17.340003967285 2.894098520279
39.137546539307 -73.020767211914 -28.533571243286 4.609090328217
22.958143234253 -70.105514526367 -31.690473556519 1.912754535675
33.273742675781 -72.115745544434 -34.306842803955 3.323171854019
-62.861602783203 -70.655212402344 -47.139678955078 2.259039640427
-46.420516967773 -69.970771789551 -45.505142211914 2.415803670883
-45.458503723145 -68.476394653320 -50.119171142578 3.187094688416
-44.056556701660 -69.582313537598 -42.953456878662 4.239603519440
-35.993904113770 -72.007804870605 -49.118919372559 1.721000075340
-28.978813171387 -70.238319396973 -51.048976898193 1.798102259636
-19.224607467651 -70.281929016113 -62.994396209717 3.917713642120
76.217086791992 -72.123001098633 -64.294387817383 4.333925247192
96.436080932617 -71.228797912598 -65.986366271973 3.642307519913
-19.414663314819 -70.264274597168 -71.290779113770 1.887750506401
72.115516662598 -70.064521789551 -67.637878417969 1.433925747871
-45.398105621338 -71.080680847168 -78.058753967285 4.303198814392
65.159996032715 -67.740219116211 -76.182899475098 2.276308059692
58.252319335938 -72.859291076660 -81.270149230957 4.266691207886
60.208911895752 -69.404106140137 -83.157325744629 1.579874992371
53.330402374268 -74.290893554688 -86.455444335938 1.901451587677
-62.383079528809 -70.721092224121 -87.648422241211 3.881815671921
-99.240966796875 -71.821517944336 -92.223976135254 4.453269481659
48.676471710205 -71.461364746094 -89.164840698242 1.041662931442
103.455787658691 -72.265022277832 -89.714118957520 3.584493398666
62.091388702393 -69.829261779785 -90.744682312012 1.642047047615
73.324844360352 -70.193344116211 -93.875801086426 2.396643877029
-73.750572204590 -67.825157165527 -97.601531982422 2.528506040573
54.363628387451 -69.128158569336 -100.158325195313 1.134273409843
107.003646850586 -70.605888366699 -98.349433898926 1.246874928474
75.661506652832 -68.881042480469 -97.365104675293 3.423043251038
102.475845336914 -72.691825866699 -95.377845764160 2.124118328094
90.221412658691 -68.262466430664 -97.154975891113 6.082158565521
105.728813171387 -69.373512268066 -99.781089782715 0.214920312166
50.081520080566 -72.806121826172 -98.052795410156 1.920229315758
-88.424720764160 -71.755966186523 -110.431076049805 2.535532712936
42.373188018799 -69.510734558105 -110.022575378418 0.691220700741
-94.551147460938 -71.196739196777 -112.832733154297 2.757939815521
43.840549468994 -69.244590759277 -111.711891174316 0.940561592579
-78.212730407715 -71.710449218750 -116.551651000977 2.128811120987
45.403919219971 -68.313560485840 -108.872467041016 1.845214724541
112.906761169434 -69.998313903809 -108.090545654297 1.147979259491
37.461818695068 -71.217529296875 -118.209564208984 0.661171078682
-81.524169921875 -70.472946166992 -116.207206726074 1.781063437462
-84.744941711426 -72.612007141113 -119.549522399902 2.651644706726
36.478649139404 -71.436576843262 -121.144538879395 2.160649538040
-85.304191589355 -71.906906127930 -126.111190795898 1.955229759216
38.086853027344 -71.979217529297 -117.802932739258 1.622626423836
-78.013633728027 -70.861495971680 -123.719764709473 2.500650405884
-48.626167297363 -69.494316101074 -128.056518554688 4.347924709320
-55.184726715088 -72.600059509277 -126.402297973633 2.398954391479
-47.976982116699 -71.661956787109 -129.364547729492 3.480078220367
32.042644500732 -69.088951110840 -128.944183349609 1.839938759804
-58.789890289307 -71.070472717285 -133.668029785156 1.550962090492
34.430141448975 -71.111175537109 -133.277038574219 2.504588365555
-69.143875122070 -70.083557128906 -134.650131225586 3.726006984711
116.678924560547 -71.714553833008 -137.565185546875 1.695891976357
27.882390975952 -69.541511535645 -135.981292724609 1.986908316612
27.081975936890 -71.915161132813 -136.549987792969 0.592898130417
-69.278083801270 -68.824378967285 -140.891326904297 1.764639496803
-53.759204864502 -71.250350952148 -146.074325561523 2.628464460373
30.730463027954 -71.809997558594 -137.599273681641 1.056546211243
-51.136016845703 -70.030845642090 -145.056503295898 2.357807636261
26.910968780518 -70.208778381348 -148.292327880859 0.749525368214
-71.987274169922 -71.174888610840 -149.631820678711 0.578666448593
-54.636177062988 -70.382827758789 -149.470306396484 2.371550083160
-45.253673553467 -68.693603515625 -148.387039184570 1.149113297462
9.630453109741 -70.637084960938 -144.967590332031 4.665978431702
116.351127624512 -69.846443176270 -145.781631469727 1.697733879089
-50.046180725098 -70.336738586426 -151.551483154297 1.219466447830
31.161380767822 -68.925941467285 -154.623123168945 1.254652619362
-35.031005859375 -72.017143249512 -151.908950805664 3.401464223862
31.485609054565 -72.060791015625 -153.511505126953 1.757481694221
-37.927265167236 -72.391014099121 -154.950561523438 1.306528687477
-34.200740814209 -66.932533264160 -156.614074707031 5.763567924500
-43.634658813477 -70.882293701172 -157.878936767578 2.847203254700
-43.003768920898 -72.091232299805 -154.761398315430 1.486858606339
7.703101158142 -70.482635498047 -156.173736572266 1.465694069862
-44.133697509766 -69.756134033203 -160.458877563477 1.472894430161
25.425708770752 -68.532440185547 -154.617141723633 1.950523376465
-35.593570709229 -72.614036560059 -159.383987426758 1.434145808220
-31.485132217407 -69.008384704590 -162.323867797852 3.367302656174
28.409362792969 -71.695541381836 -163.057312011719 1.861214518547
-31.159210205078 -68.136489868164 -166.278274536133 3.776990890503
-30.293729782104 -70.559906005859 -173.344528198242 1.390636801720
116.101516723633 -69.355041503906 -162.581741333008 2.508948326111
18.497505187988 -72.411247253418 -170.905624389648 2.134252548218
-33.315677642822 -69.937011718750 -168.404647827148 2.677220106125
-27.126443862915 -70.307083129883 -166.597961425781 3.499070405960
-36.874137878418 -68.681396484375 -170.496231079102 1.497447967529
-138.488235473633 -72.252464294434 -176.392410278320 4.443435668945
-21.915649414063 -69.245506286621 -178.732925415039 3.371364355087
18.368379592896 -67.851150512695 -170.276550292969 2.459062099457
110.170783996582 -69.150352478027 -174.453613281250 1.249157786369
110.772079467773 -70.009490966797 -174.169860839844 1.273940682411
-20.576509475708 -72.156517028809 -175.176864624023 4.016834259033
16.088956832886 -71.479179382324 -179.055297851563 1.931179404259
-140.621582031250 -69.572494506836 -182.528396606445 0.983018279076
-25.330131530762 -70.340629577637 -181.558853149414 0.639850139618
-25.385557174683 -68.819511413574 -182.712814331055 1.565912842751
25.863742828369 -72.315582275391 -180.907348632813 1.408019900322
24.267442703247 -75.104736328125 -186.807373046875 1.531377553940
-110.811569213867 -68.128311157227 -186.540649414063 1.935767531395
16.013986587524 -69.253822326660 -186.422851562500 0.988164246082
24.440277099609 -71.179656982422 -186.066055297852 2.472093343735
-18.802482604980 -69.783996582031 -186.390274047852 2.459577798843
-111.610565185547 -69.073669433594 -195.879867553711 2.519253492355
104.504257202148 -65.951019287109 -186.045883178711 4.203125476837
-118.512672424316 -68.253723144531 -193.247817993164 3.427252054214
-135.584457397461 -70.936950683594 -195.399856567383 3.115656614304
-112.970764160156 -71.239334106445 -198.819046020508 0.343137115240
-110.622177124023 -71.304550170898 -200.602203369141 1.789165258408
102.497856140137 -72.444892883301 -195.688186645508 1.946755051613
-9.264587402344 -67.917030334473 -200.052490234375 3.815311431885
-16.100494384766 -70.629287719727 -202.423049926758 1.863181591034
101.338920593262 -68.273002624512 -197.285125732422 2.987821340561
-126.669326782227 -69.318382263184 -204.171417236328 0.835166692734
-18.014682769775 -69.715461730957 -200.675994873047 1.424826502800
10.881549835205 -72.599815368652 -205.217880249023 2.884518384933
-142.388839721680 -71.296020507813 -205.242462158203 1.885989546776
-5.966028213501 -72.705665588379 -207.299316406250 3.166825056076
16.965518951416 -68.974227905273 -204.384201049805 0.681845784187
96.563140869141 -70.906944274902 -205.589553833008 1.415125966072
100.628227233887 -70.019294738770 -204.868499755859 1.825933337212
22.155361175537 -69.388435363770 -204.792984008789 3.553044319153
16.188095092773 -71.125350952148 -208.155410766602 0.876022458076
-90.561332702637 -72.347534179688 -211.208892822266 2.896466970444
-87.894073486328 -70.038269042969 -214.744903564453 1.394858598709
88.016868591309 -70.083862304688 -214.441085815430 1.784383893013
13.128430366516 -73.742843627930 -219.185684204102 3.309900283813
-99.314765930176 -72.960258483887 -217.050949096680 1.310209751129
-11.201306343079 -69.843620300293 -214.611862182617 2.785655021667
-15.577424049377 -70.608245849609 -219.660171508789 2.339328050613
12.076819419861 -69.300437927246 -219.789230346680 1.499697804451
-4.323212146759 -70.137207031250 -220.980300903320 1.792178153992
-121.578689575195 -66.696449279785 -222.843429565430 3.580048799515
-5.277010917664 -69.399978637695 -222.592193603516 2.153137683868
-101.591903686523 -70.102272033691 -224.676254272461 2.087628841400
-136.933471679688 -72.968582153320 -222.465652465820 4.072772979736
-112.225425720215 -70.580741882324 -225.201904296875 1.178843021393
82.869003295898 -67.040321350098 -221.530715942383 3.087112665176
19.019472122192 -69.777702331543 -225.089172363281 3.097940921783
-164.781188964844 -73.253417968750 -225.666854858398 1.153730511665
-105.685935974121 -69.762451171875 -231.286621093750 3.015497922897
-113.617980957031 -71.587425231934 -231.941040039063 0.982221782207
79.160324096680 -69.988594055176 -227.461380004883 1.720510244370
15.205673217773 -70.976913452148 -231.835021972656 1.132524371147
1.150517940521 -73.063972473145 -228.769180297852 2.520726203918
18.778875350952 -71.065017700195 -233.178604125977 1.766404271126
2.228121042252 -69.635467529297 -234.719757080078 1.380342125893
75.123023986816 -69.079811096191 -229.972656250000 1.904997587204
-1.158571004868 -70.540138244629 -234.671966552734 0.265257626772
12.522541999817 -70.111915588379 -231.769668579102 1.132120609283
0.037372000515 -73.413825988770 -231.674179077148 2.751114368439
4.250245094299 -72.491264343262 -235.386398315430 2.526426553726
7.138827800751 -72.396278381348 -238.453063964844 3.071601152420
67.118026733398 -69.386436462402 -237.107162475586 1.808508753777
12.054733276367 -67.529624938965 -239.949279785156 1.836157321930
56.423061370850 -69.960960388184 -242.785232543945 1.032374858856
-10.138995170593 -71.620208740234 -243.202407836914 1.647764205933
-10.478671073914 -71.604118347168 -244.059844970703 1.381781458855
-70.346939086914 -68.389282226563 -251.714538574219 2.089055061340
38.861408233643 -70.291824340820 -249.196868896484 3.466072797775
-75.772331237793 -70.590255737305 -251.728225708008 0.794772803783
-151.637405395508 -70.423286437988 -254.474533081055 0.880479574203
-79.765258789063 -69.893249511719 -254.576858520508 0.596162319183
-133.429412841797 -70.063186645508 -253.260177612305 2.209975719452
42.030952453613 -72.095420837402 -249.060791015625 1.137217879295
-107.215217590332 -71.761795043945 -255.977203369141 1.947529673576
-88.284492492676 -68.971412658691 -254.270401000977 1.769933342934
-150.077682495117 -68.700256347656 -257.971893310547 0.745491564274
-106.677635192871 -69.888725280762 -260.201782226563 1.079281687737
-162.259124755859 -72.974189758301 -261.397277832031 1.893770575523
-150.151489257813 -71.938766479492 -263.530548095703 2.478795766830
-146.508178710938 -68.593811035156 -266.176391601563 1.574307918549
-12.341032981873 -69.679214477539 -260.109252929688 2.903563737869
28.375213623047 -69.459053039551 -261.819458007813 1.238194346428
-151.613082885742 -72.345695495605 -267.622894287109 1.438450217247
-9.663601875305 -68.668182373047 -262.616302490234 2.520422220230
-157.084457397461 -72.663665771484 -269.042327880859 2.376044511795
-11.935607910156 -66.887557983398 -269.264526367188 2.340179204941
24.622014999390 -71.768348693848 -271.137725830078 2.229831933975
-156.807662963867 -69.360801696777 -281.614379882813 2.825200080872
-158.595596313477 -70.697448730469 -278.228149414063 3.374662399292
-153.111984252930 -68.589347839355 -281.038177490234 1.962950825691
-120.702293395996 -68.476165771484 -281.663970947266 6.075932502747
18.620878219604 -68.665557861328 -279.681274414063 0.634111225605
-132.729278564453 -66.681770324707 -285.131988525391 1.240830063820
-86.853248596191 -69.102500915527 -283.852813720703 3.755781888962
-74.163185119629 -70.947891235352 -281.636627197266 4.052831649780
-69.518035888672 -68.506637573242 -284.390075683594 4.900535106659
-65.828002929688 -71.193496704102 -283.716857910156 2.642595291138
-50.568321228027 -71.271217346191 -284.988159179688 2.931528329849
-154.473419189453 -69.709289550781 -284.338195800781 0.890430271626
-65.032714843750 -68.395835876465 -283.996307373047 4.174808025360
-56.497638702393 -72.290802001953 -286.506408691406 1.902072668076
8.823175430298 -69.764251708984 -286.879089355469 3.228491067886
-74.719207763672 -73.952507019043 -290.396484375000 3.417850494385
-99.631828308105 -69.734161376953 -289.169677734375 1.470579147339
-118.095436096191 -73.471748352051 -288.357574462891 1.523087620735
-149.941757202148 -70.734451293945 -293.256439208984 2.534850358963
-123.815406799316 -68.004127502441 -294.043518066406 1.836459875107
-141.004989624023 -71.194244384766 -307.454071044922 4.777382373810
-147.615081787109 -69.272209167480 -311.565124511719 2.040782690048
39.218044281006 -65.941017150879 -17.788000106812 1.055927157402
48.897163391113 -68.084487915039 -19.785276412964 2.251871585846
45.160755157471 -68.023452758789 -28.014087677002 3.025213003159
-51.848709106445 -67.859924316406 -47.060157775879 1.749213576317
-73.948921203613 -69.785148620605 -44.062152862549 3.242350339890
-34.168300628662 -71.969589233398 -46.367645263672 4.082352161407
-88.855361938477 -71.756233215332 -61.763149261475 2.487061023712
80.921051025391 -67.096733093262 -56.685092926025 4.124492168427
85.959510803223 -71.656341552734 -60.414398193359 5.064255237579
-14.689456939697 -68.508666992188 -65.520309448242 3.039265871048
94.451484680176 -67.131164550781 -66.778022766113 1.264225125313
66.722122192383 -71.877738952637 -65.009529113770 6.690146923065
-40.123157501221 -66.022415161133 -75.256553649902 1.871722340584
-44.582817077637 -70.887084960938 -76.322723388672 4.402457714081
61.014274597168 -68.969131469727 -79.199668884277 4.199063301086
63.060596466064 -70.470672607422 -84.588638305664 2.249356746674
101.897438049316 -71.040458679199 -83.189483642578 1.862462878227
-59.865127563477 -70.023155212402 -84.712333679199 5.417906284332
-96.650428771973 -69.821113586426 -89.986045837402 1.691747307777
46.961887359619 -72.864952087402 -92.205940246582 2.372834205627
102.431938171387 -70.069717407227 -87.289817810059 0.908250033855
106.681076049805 -69.888740539551 -93.214149475098 2.964381456375
73.127159118652 -68.161987304688 -94.265686035156 3.775873661041
51.139675140381 -65.046089172363 -97.388435363770 1.505843758583
-96.599967956543 -69.596595764160 -101.838165283203 2.269312620163
48.195041656494 -66.905593872070 -96.945457458496 1.073324203491
53.175415039063 -67.743492126465 -97.913520812988 2.638255357742
81.111297607422 -67.355842590332 -96.884338378906 5.040391445160
85.080741882324 -68.488563537598 -100.097747802734 2.640313863754
-96.927703857422 -70.976516723633 -102.292167663574 3.446357011795
38.692405700684 -73.582290649414 -101.946685791016 3.524636745453
47.929977416992 -68.679954528809 -104.627365112305 1.996145963669
103.788536071777 -69.200241088867 -99.166969299316 1.202242970467
39.690692901611 -71.895858764648 -106.934646606445 1.685963273048
37.838939666748 -71.263145446777 -103.655052185059 2.698991775513
112.940322875977 -70.244430541992 -103.644981384277 2.464076280594
35.146854400635 -73.715927124023 -108.859558105469 1.896840572357
108.369346618652 -71.826705932617 -109.838104248047 1.827438473701
-76.844406127930 -68.196929931641 -110.961975097656 2.186654329300
-84.830581665039 -70.954071044922 -119.034896850586 1.592265725136
109.200736999512 -70.283210754395 -117.645698547363 2.179187774658
36.953094482422 -72.185127258301 -124.202941894531 2.271558523178
-61.134475708008 -69.538612365723 -124.716812133789 2.335668325424
-87.381805419922 -66.642333984375 -123.231040954590 1.062659025192
-58.059219360352 -73.759101867676 -129.192565917969 1.915676593781
-86.246147155762 -68.681968688965 -125.891571044922 2.148736476898
-71.718490600586 -69.341674804688 -128.680084228516 3.444778203964
-48.294124603271 -72.357444763184 -135.077484130859 1.333973050117
-87.715766906738 -69.812568664551 -132.690689086914 2.007346153259
-75.131057739258 -69.286048889160 -133.131561279297 1.677031278610
-76.351585388184 -66.121276855469 -132.183288574219 1.575269937515
-44.856773376465 -72.571487426758 -130.903930664063 4.617092132568
-76.309669494629 -70.558563232422 -136.737899780273 1.475392699242
-76.835563659668 -67.927459716797 -134.595565795898 0.688254117966
110.722122192383 -70.937187194824 -136.453857421875 0.405342787504
28.224098205566 -71.538024902344 -138.914505004883 1.220638990402
-42.163806915283 -68.748687744141 -144.250000000000 3.105407953262
115.185371398926 -68.447486877441 -136.697799682617 1.507422327995
-54.643653869629 -70.201354980469 -143.394271850586 0.528149664402
-52.247982025146 -65.650001525879 -141.158843994141 1.641760110855
32.822540283203 -70.461730957031 -145.489898681641 1.961651921272
27.829450607300 -69.354637145996 -145.425170898438 1.177279353142
117.846893310547 -73.242385864258 -143.704101562500 1.339871525764
-45.520591735840 -68.401725769043 -147.168945312500 2.032964706421
10.967539787292 -65.702407836914 -149.773696899414 2.485620498657
-47.239635467529 -69.246780395508 -154.603271484375 2.671245336533
30.952545166016 -70.104522705078 -148.405548095703 1.486657619476
111.096382141113 -67.427070617676 -145.871505737305 2.354304075241
115.691726684570 -69.139839172363 -151.083938598633 1.067548513412
33.058105468750 -67.190544128418 -151.837966918945 4.003545761108
113.085372924805 -70.569114685059 -150.262908935547 2.196164608002
25.709787368774 -71.543197631836 -158.974258422852 1.260916233063
112.697433471680 -71.903320312500 -152.242797851563 1.377564787865
27.270029067993 -69.540313720703 -157.223785400391 2.548498392105
26.821277618408 -69.283935546875 -160.145843505859 1.724201917648
112.359405517578 -68.544364929199 -159.366912841797 1.258533596992
-27.933052062988 -69.423881530762 -164.620483398438 4.756104469299
-38.901229858398 -68.154113769531 -166.810150146484 2.023044824600
28.433380126953 -70.713218688965 -169.426422119141 0.470382094383
-139.362731933594 -68.959793090820 -174.559387207031 2.583853483200
-34.285079956055 -69.092529296875 -174.158203125000 1.792882561684
-107.023551940918 -70.382667541504 -180.259307861328 1.563627362251
28.078250885010 -67.824447631836 -174.352645874023 1.467044711113
-150.585083007813 -70.360694885254 -180.073059082031 2.489005565643
-22.830629348755 -69.329521179199 -174.511886596680 2.074408292770
-31.911382675171 -76.048858642578 -180.297485351563 2.812155961990
-143.573150634766 -72.417861938477 -183.033126831055 1.298254489899
-110.183212280273 -69.720153808594 -183.344390869141 1.409091114998
-31.215295791626 -69.087409973145 -183.210250854492 1.543454289436
-106.806877136230 -69.052932739258 -185.987518310547 1.135275363922
108.744087219238 -68.201828002930 -182.468948364258 1.687502980232
20.981361389160 -69.317787170410 -181.444488525391 3.374677419662
-24.946594238281 -67.616401672363 -186.724929809570 1.397035479546
16.970182418823 -67.482269287109 -181.115203857422 2.800510644913
-18.637346267700 -69.708389282227 -191.208709716797 1.093575835228
-23.933755874634 -68.326087951660 -188.478195190430 1.727239489555
16.955987930298 -69.189064025879 -189.278640747070 1.890596151352
22.966264724731 -71.665519714355 -187.929550170898 1.444098472595
-19.598478317261 -70.734443664551 -192.687316894531 1.793052077293
-106.716796875000 -71.570350646973 -195.032089233398 3.158202171326
-159.230468750000 -69.529983520508 -199.321792602539 2.870968103409
-11.146368980408 -70.662071228027 -192.692260742188 4.733793735504
-11.785842895508 -73.847984313965 -194.739486694336 3.131523847580
22.115581512451 -68.775627136230 -195.041351318359 1.865900158882
-12.562978744507 -68.685028076172 -197.507827758789 2.454529762268
16.656141281128 -69.132278442383 -196.442504882813 1.801473021507
-111.895980834961 -71.396034240723 -198.990844726563 1.073809742928
-117.727882385254 -67.402618408203 -201.751342773438 2.251762151718
-21.119646072388 -70.532226562500 -202.529907226563 1.670361757278
20.432676315308 -70.780479431152 -200.215911865234 0.903875470161
-126.444099426270 -70.584465026855 -203.183120727539 2.072072505951
-141.580322265625 -69.784080505371 -203.769378662109 2.045277595520
15.806251525879 -70.054626464844 -203.921310424805 1.616799235344
18.965948104858 -66.593055725098 -205.124710083008 2.603431701660
-14.149350166321 -67.520294189453 -203.147445678711 1.794954776764
-6.325767993927 -70.981132507324 -208.602645874023 2.065312385559
9.925142288208 -66.440582275391 -207.312500000000 2.454366922379
95.829460144043 -67.390182495117 -202.427185058594 2.759141683578
-11.202261924744 -69.148460388184 -209.971405029297 1.729791283607
16.161233901978 -67.904373168945 -206.846603393555 2.762192249298
18.317750930786 -66.172149658203 -207.773605346680 3.445156335831
-10.373370170593 -64.902999877930 -212.831314086914 3.118872165680
-98.893516540527 -68.782386779785 -217.516159057617 1.477991223335
-0.938575029373 -71.065155029297 -216.487823486328 2.568554401398
-101.298728942871 -72.274841308594 -221.264190673828 1.389502882957
16.883234024048 -69.566230773926 -219.072509765625 2.345908403397
1.536162018776 -69.809051513672 -219.939620971680 2.304658651352
85.294860839844 -67.623390197754 -219.117828369141 1.137623548508
-106.593055725098 -70.890609741211 -222.968856811523 1.012519955635
-130.541351318359 -71.791984558105 -223.573898315430 2.755014419556
-12.787044525146 -69.346450805664 -222.133483886719 2.886766195297
8.238394737244 -71.630302429199 -224.890243530273 2.190873384476
10.161760330200 -72.411758422852 -227.662857055664 1.802160620689
12.740505218506 -67.681755065918 -226.840011596680 3.475160598755
0.183693006635 -68.991645812988 -229.219665527344 1.799055576324
-122.299568176270 -68.899589538574 -232.192108154297 2.405182123184
-136.902221679688 -70.110389709473 -228.356033325195 4.020752429962
20.065792083740 -70.194885253906 -232.425415039063 3.388417243958
-10.001670837402 -69.257743835449 -226.940475463867 1.385113596916
-153.348724365234 -69.954887390137 -233.978820800781 1.768449783325
-147.958175659180 -70.975051879883 -245.376098632813 3.279415845871
-146.730987548828 -68.612487792969 -245.594299316406 2.013032436371
4.353837966919 -70.612586975098 -230.138275146484 1.973044276237
-150.155670166016 -70.751991271973 -240.870285034180 3.845044136047
59.998580932617 -68.036735534668 -233.577407836914 3.713710069656
8.070757865906 -70.651268005371 -237.192855834961 1.758149862289
66.259155273438 -65.885055541992 -237.280212402344 2.003491401672
56.154155731201 -69.571243286133 -238.483520507813 2.463980436325
60.105342864990 -68.491096496582 -239.130920410156 3.290474414825
59.403362274170 -69.248085021973 -241.293472290039 1.205261707306
-8.987936973572 -67.216583251953 -241.248611450195 0.939306139946
-149.654678344727 -69.815551757813 -247.854568481445 2.571430683136
-152.226287841797 -68.391441345215 -248.272323608398 0.629660546780
-73.693107604980 -68.209846496582 -248.027145385742 2.148598194122
-85.544715881348 -74.093215942383 -250.970672607422 2.094511032104
-84.505088806152 -70.490753173828 -249.976272583008 2.150792837143
-84.470481872559 -67.612213134766 -251.530456542969 2.173191308975
-158.118347167969 -65.669662475586 -255.570480346680 3.218412876129
-122.276138305664 -71.050102233887 -254.419647216797 1.494619250298
49.201461791992 -68.056373596191 -249.569030761719 1.155881404877
-101.944519042969 -67.063194274902 -254.009826660156 2.475203752518
-121.099479675293 -68.698547363281 -253.759292602539 3.427132129669
-151.188796997070 -70.166946411133 -256.890594482422 2.686295032501
-165.859985351563 -69.313591003418 -260.626251220703 1.814735531807
40.075599670410 -68.891639709473 -253.922393798828 0.950099110603
36.728092193604 -71.277214050293 -255.026245117188 1.141628026962
-156.981735229492 -71.796089172363 -262.522216796875 2.098740339279
-132.556716918945 -69.665977478027 -259.820434570313 3.450555801392
-154.519577026367 -66.273818969727 -265.884307861328 2.568928718567
-163.143646240234 -70.191108703613 -275.603424072266 2.157359838486
26.377796173096 -66.551803588867 -264.143157958984 0.841378152370
-159.612823486328 -68.533111572266 -271.906616210938 1.568395853043
-157.280151367188 -69.669036865234 -269.714599609375 3.021895647049
-159.951354980469 -69.831298828125 -276.588989257813 1.587306261063
-5.153523921967 -68.056526184082 -273.352386474609 0.679490566254
-141.550857543945 -69.075912475586 -279.317840576172 4.430193424225
-158.124084472656 -70.352287292480 -284.490478515625 3.010052919388
-128.989624023438 -71.360671997070 -282.432525634766 3.872715950012
-130.609878540039 -68.499191284180 -283.401123046875 3.282659292221
-158.831329345703 -67.830421447754 -283.840484619141 3.142953157425
-90.525527954102 -68.684387207031 -281.474517822266 7.670230865479
-69.155494689941 -69.176376342773 -287.011077880859 2.418200254440
-79.656669616699 -66.197937011719 -287.671020507813 3.801926612854
-67.241531372070 -71.037696838379 -287.988861083984 2.285032987595
-145.248245239258 -68.441749572754 -290.933959960938 2.283203601837
-72.017578125000 -68.742126464844 -286.599334716797 3.105137586594
-121.854293823242 -70.763664245605 -292.636352539063 2.469491720200
-133.858978271484 -68.658630371094 -289.815246582031 1.542250514030
-140.810974121094 -67.670982360840 -294.998229980469 3.985399961472
-139.883468627930 -71.268440246582 -305.122314453125 4.419301986694
32.169895172119 -68.558509826660 -7.866718769073 4.985477447510
22.906888961792 -71.711402893066 -10.799877166748 5.811773300171
45.759311676025 -69.346557617188 -23.179771423340 2.520180702209
44.451911926270 -68.188117980957 -27.467388153076 2.326677560806
32.626686096191 -66.090507507324 -30.849800109863 4.181030273438
30.144081115723 -68.946174621582 -37.091888427734 2.788658380508
-60.711750030518 -65.507514953613 -44.977863311768 3.670572280884
-37.360958099365 -68.862724304199 -46.174476623535 3.351025819778
-83.532569885254 -67.959068298340 -53.996936798096 0.725600183010
-90.993728637695 -74.634513854980 -63.234546661377 5.084029197693
81.638481140137 -66.269447326660 -57.675827026367 2.861445665359
-14.854389190674 -67.685241699219 -64.104393005371 1.959799647331
-24.608158111572 -68.521560668945 -68.785217285156 3.985849142075
-25.946693420410 -67.451354980469 -70.538383483887 3.215386629105
-36.294841766357 -69.113685607910 -71.254119873047 4.604646682739
69.385986328125 -69.542396545410 -72.553688049316 2.404359340668
100.884338378906 -68.070007324219 -77.830062866211 2.349896669388
65.459823608398 -68.804466247559 -78.555938720703 1.216461300850
60.188175201416 -69.250686645508 -82.666259765625 1.701203227043
62.608734130859 -69.206039428711 -82.659706115723 1.107622981071
54.955093383789 -68.405715942383 -81.843704223633 3.964578628540
100.878051757813 -66.122825622559 -89.316909790039 3.351504564285
50.037094116211 -68.846206665039 -89.007026672363 2.092720270157
62.463630676270 -71.547744750977 -85.471313476563 1.747653245926
-97.659713745117 -68.744918823242 -93.121520996094 3.139810323715
44.123977661133 -69.383842468262 -93.285324096680 2.656914710999
100.263442993164 -64.333374023438 -92.361259460449 4.166058063507
-75.059097290039 -68.657737731934 -95.788604736328 3.633000850677
43.826213836670 -66.177711486816 -94.086074829102 3.053584098816
75.420356750488 -65.888786315918 -99.168403625488 5.199851989746
-79.425239562988 -73.317123413086 -100.936134338379 1.272336840630
42.545608520508 -70.442565917969 -100.844337463379 1.119910955429
51.679256439209 -67.602668762207 -101.525360107422 1.357894182205
-83.667449951172 -67.954956054688 -108.341339111328 2.038219451904
107.829826354980 -67.633796691895 -110.685943603516 1.689984798431
35.733020782471 -70.948333740234 -111.968917846680 1.781628489494
39.599510192871 -67.471397399902 -110.828598022461 2.390389919281
-91.572204589844 -69.254280090332 -119.306541442871 1.950262546539
37.322708129883 -71.127983093262 -115.044876098633 0.532223284245
37.504539489746 -71.570579528809 -113.802192687988 1.632538676262
111.174926757813 -68.501991271973 -113.853157043457 1.271725893021
-77.377296447754 -67.031448364258 -126.485649108887 1.818161845207
-56.187007904053 -68.412231445313 -124.491691589355 1.976133346558
-57.357032775879 -66.164802551270 -123.307525634766 1.488569855690
111.085083007813 -67.542442321777 -119.052330017090 2.391200304031
-77.794296264648 -68.198722839355 -125.771865844727 1.932075738907
110.119171142578 -68.592193603516 -129.347625732422 0.999511420727
-73.089836120605 -70.287513732910 -130.492813110352 1.671556830406
115.610267639160 -68.585281372070 -124.172912597656 3.082735300064
29.874977111816 -72.843704223633 -120.980567932129 3.073317050934
113.161254882813 -70.673744201660 -128.298339843750 2.149534940720
-77.444313049316 -67.029754638672 -130.500732421875 1.533420681953
-51.036781311035 -67.147766113281 -131.594223022461 0.503592908382
33.913265228271 -69.515167236328 -129.293777465820 1.089796304703
-59.597267150879 -70.035224914551 -133.233398437500 2.255994796753
-56.807262420654 -70.827774047852 -137.972656250000 0.862611770630
28.029237747192 -67.708877563477 -139.030044555664 1.840756773949
29.528099060059 -69.749816894531 -135.354751586914 2.059033155441
113.293525695801 -70.762611389160 -134.267822265625 1.842004060745
31.786102294922 -68.661735534668 -137.738815307617 2.233495235443
-78.451538085938 -69.964622497559 -135.301010131836 1.160916566849
-90.509963989258 -68.585731506348 -137.663253784180 2.138043403625
-56.812583923340 -68.534790039063 -139.185684204102 2.154651403427
-58.463752746582 -65.919776916504 -141.657791137695 2.986572980881
20.612005233765 -68.764015197754 -140.418319702148 2.662400960922
32.083641052246 -66.190544128418 -142.954238891602 1.587124347687
-41.943412780762 -69.375335693359 -144.104476928711 2.989478349686
-71.660507202148 -70.122505187988 -144.641616821289 1.127015233040
20.448768615723 -70.791465759277 -144.288955688477 3.080843210220
28.708374023438 -67.029876708984 -150.354080200195 2.078917503357
-43.655586242676 -68.843338012695 -151.077758789063 1.838996410370
29.890956878662 -67.978019714355 -146.757247924805 1.611352920532
-39.974483489990 -67.691574096680 -150.333755493164 4.396259784698
-96.234779357910 -66.789649963379 -153.139999389648 2.401064872742
-100.108161926270 -69.170013427734 -158.732986450195 1.400755882263
20.774726867676 -72.058311462402 -157.204254150391 2.025202035904
-44.083595275879 -70.761291503906 -157.956832885742 2.862839460373
-101.363464355469 -69.681518554688 -160.688949584961 2.246352910995
-98.903861999512 -69.025260925293 -164.064849853516 2.983202934265
-98.052925109863 -68.819473266602 -164.626159667969 3.329600811005
-32.581947326660 -67.671890258789 -159.718124389648 5.108991622925
-102.574768066406 -67.315666198730 -162.238403320313 2.079279184341
-31.970521926880 -67.948234558105 -166.720443725586 3.707905530930
-103.668647766113 -69.614608764648 -171.334869384766 1.202562093735
-30.831575393677 -70.254104614258 -169.651580810547 1.359679698944
-28.983236312866 -68.283874511719 -166.545349121094 3.204922676086
-106.028259277344 -70.973365783691 -175.284255981445 2.529247283936
20.253334045410 -67.621887207031 -167.995742797852 0.696972072124
-34.770420074463 -67.828163146973 -172.535308837891 2.593519449234
24.593812942505 -68.213874816895 -172.914047241211 1.547819733620
-32.768211364746 -68.174217224121 -170.347366333008 2.262826919556
-27.523237228394 -69.009086608887 -171.215393066406 3.219516038895
-30.556047439575 -68.995674133301 -172.957061767578 1.841473460197
-104.552406311035 -68.734504699707 -177.379989624023 1.102595925331
-25.265481948853 -67.000572204590 -177.626556396484 4.214974880219
-28.354162216187 -68.502616882324 -177.264450073242 1.187840580940
-138.580581665039 -68.215782165527 -177.291839599609 2.984226703644
-110.795417785645 -68.903785705566 -187.062133789063 1.403790116310
-104.221778869629 -69.148017883301 -184.305358886719 2.234404802322
-108.498870849609 -68.436073303223 -187.799133300781 0.684098303318
16.502332687378 -67.122634887695 -184.014144897461 1.569136738777
-22.414228439331 -66.596984863281 -184.799026489258 3.429704427719
17.644025802612 -69.783531188965 -187.151153564453 2.251338958740
-151.109191894531 -66.910530090332 -192.653930664063 1.272260069847
23.701929092407 -69.180130004883 -188.793304443359 0.519953131676
17.654071807861 -66.329147338867 -190.687042236328 1.635903596878
-117.751235961914 -67.337127685547 -191.831298828125 3.655408382416
-107.901237487793 -72.219680786133 -195.366668701172 3.372102975845
-17.573760986328 -69.448783874512 -193.071014404297 0.694525003433
-167.175659179688 -68.248085021973 -198.743270874023 3.433617353439
-162.928085327148 -69.513198852539 -205.740936279297 2.400409460068
-109.405838012695 -67.985588073730 -202.148513793945 0.793944001198
-10.078314781189 -71.129882812500 -202.889022827148 1.910636425018
-134.589523315430 -69.308746337891 -202.106918334961 2.142475366592
-6.012477874756 -66.943679809570 -206.596450805664 4.770934104919
19.086284637451 -66.424186706543 -203.552108764648 2.510211229324
-155.610748291016 -67.681587219238 -209.942596435547 3.873387336731
14.282748222351 -70.552131652832 -210.332336425781 2.442821979523
-156.778884887695 -68.266754150391 -214.908966064453 2.135868310928
-3.197525024414 -68.959281921387 -206.800582885742 5.638146400452
15.487225532532 -67.080268859863 -215.726867675781 1.557066559792
13.732940673828 -70.007324218750 -215.429809570313 1.593951344490
0.688064992428 -68.698425292969 -213.738922119141 4.913700580597
-140.813873291016 -71.253013610840 -219.763595581055 3.479861497879
-154.248657226563 -69.566291809082 -218.695770263672 2.505504608154
-156.783996582031 -65.752288818359 -220.869384765625 2.595869302750
89.081451416016 -70.734786987305 -211.469589233398 1.782292485237
-1.184314966202 -68.699165344238 -219.972656250000 2.247926712036
-148.120925903320 -70.358856201172 -224.637588500977 3.170252561569
-130.489242553711 -65.379837036133 -221.577041625977 4.617817878723
83.567214965820 -66.970092773438 -221.062408447266 2.698095560074
76.729896545410 -71.001686096191 -222.846832275391 2.734743595123
79.641601562500 -64.977302551270 -220.163925170898 5.658782958984
-10.992499351501 -70.459922790527 -223.273941040039 2.008895874023
-151.330566406250 -71.072494506836 -229.012390136719 2.198679208755
-10.730529785156 -67.580802917480 -222.870788574219 3.373600721359
85.006011962891 -66.253448486328 -221.036331176758 2.745772123337
-105.623497009277 -68.220230102539 -228.439270019531 1.306659579277
3.214721918106 -71.944381713867 -228.435012817383 1.928187966347
-163.604202270508 -70.334640502930 -226.327484130859 2.884722948074
-7.831550121307 -68.998176574707 -233.033843994141 2.042861461639
2.743319988251 -70.179473876953 -230.944610595703 1.945106506348
-156.218795776367 -65.869338989258 -236.753448486328 1.741601347923
67.752151489258 -66.274810791016 -233.119171142578 1.881934046745
13.138812065125 -70.008224487305 -235.696456909180 1.250162720680
9.150849342346 -69.893753051758 -237.336029052734 0.661085069180
-154.626037597656 -73.573646545410 -236.372070312500 3.182955741882
-7.612564086914 -69.567192077637 -237.663253784180 1.444089531898
-157.349487304688 -67.774307250977 -243.797439575195 3.036659002304
-157.649505615234 -67.165786743164 -241.727157592773 1.326194524765
-158.806747436523 -72.805984497070 -243.618133544922 3.238656044006
53.364742279053 -67.894393920898 -241.027267456055 3.521377325058
56.963012695313 -70.315635681152 -241.569442749023 0.530160248280
-155.399002075195 -70.808219909668 -245.863998413086 1.343239903450
-159.368530273438 -66.928924560547 -249.032531738281 0.951852679253
-161.171813964844 -67.233642578125 -247.508346557617 1.951308369637
49.316310882568 -69.407890319824 -243.333404541016 0.792605578899
46.708312988281 -66.389114379883 -246.670349121094 1.794511795044
-156.444473266602 -68.402336120605 -251.751464843750 1.196153283119
40.056201934814 -69.066390991211 -249.223266601563 2.639841794968
-94.064086914063 -66.320632934570 -251.744705200195 3.619593620300
-77.945930480957 -70.228874206543 -252.162658691406 2.173324584961
-157.506759643555 -68.862037658691 -254.170227050781 2.881319522858
-133.392669677734 -66.745704650879 -255.760314941406 2.049812555313
-102.968521118164 -67.163116455078 -253.862869262695 3.093993902206
40.715690612793 -67.507141113281 -249.718597412109 1.372280120850
-135.679336547852 -67.854782104492 -252.914123535156 2.178237438202
30.194862365723 -69.852287292480 -253.335876464844 2.725670337677
50.030487060547 -70.210632324219 -250.818847656250 1.851493000984
-93.729324340820 -67.087867736816 -255.401000976563 0.490476697683
-96.080795288086 -68.557151794434 -256.999237060547 1.934361219406
-157.467056274414 -71.031768798828 -262.446807861328 1.385135412216
-108.113769531250 -67.364494323730 -260.780364990234 1.132138013840
-136.806243896484 -69.972053527832 -260.415191650391 3.063467264175
-160.878234863281 -66.662460327148 -261.369079589844 2.660538196564
33.863590240479 -67.625205993652 -258.035858154297 1.670261144638
-123.098426818848 -70.829849243164 -260.903594970703 2.125386714935
-6.394380092621 -66.822982788086 -260.106353759766 0.815345466137
-145.978683471680 -70.068031311035 -275.055053710938 1.394385218620
-7.753303050995 -70.304809570313 -262.784729003906 3.083883285522
-3.931035995483 -71.381385803223 -268.472320556641 4.603336811066
-10.787912368774 -66.185615539551 -270.040740966797 2.805437088013
-5.951630115509 -67.610755920410 -272.503723144531 0.664508223534
-149.204254150391 -71.275512695313 -281.426666259766 3.285656690598
-122.530303955078 -69.780342102051 -283.692108154297 3.370627641678
-3.321451902390 -67.309936523438 -283.180236816406 2.198846578598
-3.304398059845 -71.572395324707 -283.501983642578 3.080013275146
-109.106307983398 -66.441909790039 -286.883819580078 2.240719556808
-94.329917907715 -63.310413360596 -286.869598388672 6.459689140320
-104.835372924805 -67.220642089844 -285.868255615234 1.909928441048
-152.394607543945 -66.458259582520 -289.348327636719 1.592384457588
-94.115707397461 -70.193748474121 -289.058807373047 0.840290665627
-134.203674316406 -66.791839599609 -291.096679687500 1.453852176666
-114.218635559082 -65.652236938477 -290.906555175781 1.046478390694
7.968739032745 -68.055824279785 -286.436767578125 4.015509128571
-148.567382812500 -68.034851074219 -296.073425292969 1.266467809677
-149.559936523438 -65.784934997559 -307.616516113281 2.742135047913
-144.352844238281 -70.627784729004 -310.959045410156 1.436008214951
32.515041351318 -64.563163757324 -6.117164134979 6.488128185272
30.745504379272 -67.356544494629 -12.053457260132 1.751462459564
40.467472076416 -64.944030761719 -18.244686126709 0.684059917927
21.606531143188 -68.235137939453 -24.594556808472 2.482489347458
19.825344085693 -67.180664062500 -27.464561462402 2.707242965698
39.960121154785 -71.073638916016 -29.535766601563 3.150944232941
-54.575107574463 -70.063270568848 -40.978916168213 6.074922561646
-41.824169158936 -70.243827819824 -45.252193450928 3.362772703171
-35.952415466309 -70.744949340820 -48.551624298096 1.052044510841
-82.803680419922 -69.254783630371 -51.311927795410 2.164165496826
-18.221490859985 -69.784683227539 -53.501495361328 3.664104461670
-19.846330642700 -65.836502075195 -56.848091125488 2.967929840088
86.463264465332 -65.759872436523 -55.406204223633 6.399144172668
-14.832882881165 -73.246299743652 -66.108818054199 2.037849426270
-96.533828735352 -69.569557189941 -71.554328918457 1.971940159798
99.387680053711 -69.640846252441 -66.366477966309 3.568526983261
-26.945304870605 -70.648918151855 -72.933609008789 3.271606922150
-46.148143768311 -68.450386047363 -79.691085815430 3.917761325836
105.507354736328 -66.099067687988 -75.369361877441 2.752582311630
102.771682739258 -68.304313659668 -80.353752136230 2.762647390366
65.419761657715 -69.357536315918 -82.042984008789 1.467606425285
103.198547363281 -65.820129394531 -87.478149414063 1.728821635246
64.290206909180 -64.521293640137 -91.943618774414 1.074472308159
-66.578308105469 -73.018554687500 -93.686157226563 2.038315057755
107.891746520996 -67.176216125488 -92.348098754883 2.896809101105
47.504699707031 -67.124961853027 -96.964126586914 1.111853837967
71.193351745605 -65.148132324219 -94.903602600098 4.665350914001
-75.107345581055 -67.105598449707 -102.209152221680 2.105546236038
75.081138610840 -68.067527770996 -100.407791137695 2.817453145981
84.284980773926 -63.841823577881 -99.820434570313 5.547772884369
40.883659362793 -66.771575927734 -99.976951599121 3.545964241028
-73.438476562500 -68.152687072754 -105.306686401367 2.174949884415
105.945846557617 -64.754943847656 -102.292915344238 2.650403738022
112.953498840332 -66.261558532715 -107.466156005859 3.897583723068
45.263912200928 -68.514549255371 -105.774559020996 1.272881507874
-90.355781555176 -71.125907897949 -111.640884399414 3.290217638016
109.466674804688 -66.514389038086 -116.226333618164 2.267743349075
-78.867599487305 -68.453323364258 -112.180526733398 1.278129220009
-90.748809814453 -70.889198303223 -116.121673583984 1.534703135490
-78.121475219727 -71.997016906738 -121.134147644043 2.585090160370
-63.642196655273 -66.441734313965 -118.333190917969 1.104241609573
-53.099075317383 -67.668174743652 -124.988121032715 2.081844329834
-73.412345886230 -70.091270446777 -129.287506103516 2.388229608536
