22.357004165649 -77.529380798340 -170.889343261719 0.884217560291
-59.031784057617 -75.759284973145 -168.411941528320 1.843650937080
28.038822174072 -77.054954528809 -170.497924804688 1.252820849419
20.567190170288 -79.728805541992 -168.912521362305 2.775679111481
-7.937878131866 -78.859199523926 -172.208862304688 2.857146978378
-13.652591705322 -77.646141052246 -174.850448608398 1.268671154976
-61.163951873779 -76.437812805176 -176.381515502930 1.854038476944
110.079933166504 -78.904296875000 -176.538085937500 1.100331902504
-28.933191299438 -77.235679626465 -178.344711303711 1.538146257401
107.614974975586 -75.540565490723 -179.563293457031 1.767910838127
20.310762405396 -77.644966125488 -177.144821166992 1.459094643593
-24.203052520752 -77.438186645508 -180.228149414063 0.720899879932
15.772730827332 -77.921043395996 -181.876586914063 2.981006860733
-29.039524078369 -75.142662048340 -182.634231567383 3.337103843689
102.792938232422 -75.084220886230 -186.432388305664 1.984169840813
-54.681735992432 -76.617683410645 -181.445281982422 2.136059045792
104.398834228516 -79.709037780762 -186.423568725586 3.185402154922
-48.468566894531 -76.053932189941 -188.083389282227 2.163684368134
23.299190521240 -74.823791503906 -187.288635253906 1.491433501244
18.568960189819 -78.467887878418 -187.587860107422 1.151862859726
-26.342016220093 -80.037162780762 -189.638092041016 1.565786361694
104.014236450195 -77.363685607910 -188.841293334961 0.866087079048
-45.909877777100 -77.228065490723 -183.791519165039 2.100347995758
99.168350219727 -76.891998291016 -197.976852416992 1.892111182213
-18.182870864868 -78.770843505859 -193.065490722656 0.457514584064
-23.836580276489 -76.632743835449 -193.284530639648 1.769402742386
-17.621128082275 -75.790061950684 -189.827346801758 0.781814396381
-27.710340499878 -77.726570129395 -195.425552368164 2.168665885925
-25.843317031860 -74.362998962402 -195.185302734375 1.902068614960
98.346298217773 -72.396514892578 -194.862014770508 1.352965950966
-134.295196533203 -74.869499206543 -193.760040283203 3.253919839859
-43.226688385010 -75.497657775879 -199.126464843750 0.980060219765
-42.247234344482 -77.238647460938 -196.992233276367 2.114858865738
-149.530929565430 -79.203132629395 -197.082183837891 2.050482988358
-42.074565887451 -80.150466918945 -192.861724853516 0.699230194092
15.027377128601 -77.539001464844 -196.945007324219 0.869078636169
93.506416320801 -76.578659057617 -203.559906005859 1.046739220619
99.509498596191 -77.895271301270 -202.807815551758 2.415507555008
12.647385597229 -77.357116699219 -197.620208740234 1.138007640839
-38.158977508545 -77.278724670410 -204.078582763672 1.659996628761
13.619101524353 -78.058021545410 -201.654556274414 2.090331554413
16.751131057739 -75.787460327148 -204.022949218750 1.634113311768
97.299087524414 -81.779991149902 -202.249099731445 4.945890426636
14.735438346863 -75.229843139648 -207.761505126953 3.143981933594
-35.261203765869 -74.523887634277 -205.168228149414 1.249648690224
10.499786376953 -78.112052917480 -205.103576660156 1.883604407310
95.830383300781 -75.523567199707 -207.558654785156 1.089768767357
-145.667846679688 -76.837509155273 -206.059036254883 0.750146329403
-18.246881484985 -77.531433105469 -205.082351684570 1.754192709923
5.711874008179 -79.250694274902 -209.695938110352 2.894741296768
-5.385025978088 -77.718482971191 -212.394271850586 2.706104040146
-8.554011344910 -80.000701904297 -213.995849609375 1.941486239433
15.127710342407 -76.725494384766 -209.166336059570 2.227084398270
-25.495067596436 -73.233276367188 -210.535308837891 1.823783397675
-92.010375976563 -77.105911254883 -209.773193359375 4.703951358795
-152.558792114258 -77.120277404785 -213.102798461914 3.835363626480
7.783411979675 -74.465950012207 -213.763168334961 1.344482779503
-28.577375411987 -75.222137451172 -217.724197387695 1.935645580292
-12.573751449585 -77.096603393555 -218.265441894531 1.108876943588
-144.904037475586 -78.309722900391 -220.497192382813 2.912040948868
-9.805967330933 -74.872291564941 -220.458709716797 2.427673339844
9.549016952515 -76.488960266113 -214.637069702148 2.180951595306
5.374652862549 -77.989974975586 -227.574005126953 0.681853175163
-3.060070037842 -74.857170104980 -220.889678955078 0.321984738111
-7.286909103394 -76.385147094727 -225.983581542969 1.172379732132
-0.394331008196 -75.876564025879 -231.346221923828 3.393846273422
17.233802795410 -76.172164916992 -231.918212890625 1.206504583359
-152.335784912109 -77.485969543457 -229.803894042969 1.268942236900
4.389619827271 -76.903762817383 -232.024963378906 1.174218773842
-30.090950012207 -76.271148681641 -234.636154174805 3.831830739975
12.219827651978 -76.869270324707 -234.359161376953 2.638226032257
7.241900920868 -77.701873779297 -237.581649780273 0.966695547104
-52.940086364746 -76.731986999512 -238.929702758789 4.153825759888
-24.610898971558 -76.612739562988 -236.208084106445 0.464218765497
-152.327178955078 -76.287597656250 -240.920761108398 2.178917884827
21.754709243774 -74.997978210449 -241.790588378906 1.409722805023
-46.549468994141 -78.482543945313 -243.252212524414 0.883897602558
-53.815521240234 -77.997001647949 -242.299194335938 0.692564010620
-60.097824096680 -77.645080566406 -244.746063232422 1.044127702713
-148.706329345703 -76.701141357422 -246.556594848633 1.582830309868
-11.809884071350 -76.210289001465 -249.755401611328 1.050476908684
-154.800903320313 -76.889350891113 -247.125488281250 3.325819253922
-155.577575683594 -74.390060424805 -248.305145263672 1.690161466599
-135.707138061523 -77.618469238281 -254.151870727539 2.190063953400
-155.327941894531 -79.746505737305 -258.330810546875 1.854053139687
-14.955536842346 -74.468887329102 -263.694061279297 0.815409839153
16.566263198853 -77.196929931641 -273.452545166016 2.697743177414
16.493108749390 -78.176765441895 -269.420501708984 2.584543228149
8.902050971985 -76.834045410156 -280.250762939453 1.881832480431
5.955308914185 -74.985977172852 -282.756072998047 3.637494802475
-33.607295989990 -76.541000366211 -281.297882080078 5.095538139343
-42.364669799805 -77.399833679199 -282.210174560547 4.123200893402
-42.818523406982 -78.158897399902 -284.969665527344 1.454382419586
-17.615776062012 -75.581275939941 -287.434539794922 3.341004848480
-39.911487579346 -79.296470642090 -282.515899658203 5.110288619995
-55.124687194824 -76.110168457031 -284.735443115234 2.350452661514
-3.269345998764 -79.993141174316 -287.941101074219 3.195300579071
-133.853408813477 -76.275871276855 -286.915161132813 1.363999962807
0.236816003919 -78.427101135254 -285.880676269531 2.893900156021
5.906655788422 -74.297683715820 -286.519866943359 1.328752875328
-48.512088775635 -77.090270996094 -289.205566406250 2.067880392075
13.609741210938 -77.106407165527 -287.194824218750 2.112152576447
-23.664922714233 -77.626701354980 -288.464721679688 2.198758125305
-128.946990966797 -77.045578002930 -286.321502685547 2.297769308090
-32.708713531494 -78.483589172363 -287.481201171875 1.904860377312
-21.651136398315 -77.049705505371 -288.663604736328 2.093762159348
3.670852899551 -75.081062316895 -290.001281738281 1.959950685501
-148.097152709961 -77.349609375000 -287.746673583984 2.344667196274
-158.998229980469 -76.284912109375 -300.504028320313 4.441890239716
-147.721374511719 -75.735618591309 -305.420074462891 2.794248580933
-55.862098693848 -74.802238464355 -51.854518890381 3.121511697769
-66.255264282227 -76.231811523438 -52.444644927979 2.599827528000
-71.083572387695 -75.786193847656 -57.029434204102 2.078640460968
-32.744487762451 -75.723510742188 -56.412727355957 2.390892982483
-30.729280471802 -75.797401428223 -59.697097778320 2.353884696960
-87.407455444336 -74.414566040039 -68.976211547852 2.888841867447
-88.184738159180 -77.282730102539 -73.307273864746 1.824323058128
82.598213195801 -74.515716552734 -73.671791076660 1.345537662506
84.717491149902 -75.466163635254 -77.359199523926 2.160135269165
-32.261997222900 -79.084922790527 -74.753768920898 2.013686656952
78.435699462891 -74.411933898926 -81.769927978516 2.137006282806
88.968101501465 -75.795555114746 -81.990913391113 1.995696783066
-85.701995849609 -77.517837524414 -80.178924560547 2.592324733734
-85.704742431641 -80.075920104980 -81.330924987793 2.891548156738
94.014137268066 -76.506187438965 -86.632614135742 1.940098881721
-52.803134918213 -74.480323791504 -88.164306640625 1.045688509941
87.161994934082 -79.008506774902 -92.321929931641 2.249386548996
88.742683410645 -78.477462768555 -95.949974060059 2.990286827087
90.913330078125 -75.213363647461 -93.738960266113 0.827036678791
55.559673309326 -77.574127197266 -99.889381408691 0.557470440865
-76.612823486328 -72.428237915039 -100.065139770508 0.834215879440
52.358093261719 -76.520782470703 -106.686981201172 2.837244749069
48.905319213867 -74.117294311523 -112.505020141602 0.949879765511
49.836238861084 -78.394699096680 -115.648757934570 3.350744009018
42.858119964600 -77.130172729492 -118.185737609863 1.151448369026
28.722642898560 -74.927688598633 -120.042457580566 3.399877786636
31.396982192993 -75.171813964844 -126.562950134277 2.803377151489
30.079145431519 -74.580291748047 -130.836425781250 1.212515592575
26.822591781616 -75.921142578125 -138.791351318359 1.084274411201
36.016036987305 -76.115272521973 -140.088516235352 2.650071859360
116.220672607422 -71.339675903320 -139.050689697266 2.178380012512
26.245431900024 -77.226531982422 -138.248550415039 1.333734750748
116.404861450195 -76.662445068359 -141.496322631836 1.400307297707
-51.301151275635 -74.392166137695 -134.621810913086 1.700058817863
-52.271686553955 -75.850051879883 -138.451644897461 1.751812338829
115.462196350098 -76.023597717285 -146.651367187500 2.316337585449
112.422050476074 -74.116783142090 -149.137695312500 1.682997226715
24.984106063843 -74.221725463867 -149.347854614258 2.674818038940
-53.207271575928 -76.260871887207 -146.760894775391 1.604575514793
-49.205909729004 -75.956436157227 -145.154678344727 1.912154912949
35.062492370605 -75.609580993652 -149.118499755859 1.242205619812
32.862289428711 -73.387931823730 -153.366943359375 2.053164005280
30.208229064941 -74.406501770020 -155.236679077148 1.636409282684
26.200347900391 -75.215827941895 -151.272140502930 2.899475336075
-45.428977966309 -72.142272949219 -155.317413330078 2.129691600800
22.445663452148 -77.742813110352 -152.795074462891 1.648698091507
0.168043002486 -74.166076660156 -152.633361816406 7.234326362610
-3.211002111435 -76.380493164063 -160.320053100586 3.363695383072
6.619080066681 -74.606643676758 -158.991119384766 1.592437028885
23.290048599243 -75.902122497559 -164.546203613281 1.814716815948
-31.786199569702 -75.686996459961 -164.048858642578 2.762435913086
27.606540679932 -76.705291748047 -166.896118164063 2.608449935913
109.892364501953 -74.564971923828 -164.848052978516 1.484854102135
19.789749145508 -75.993316650391 -170.528305053711 2.097286701202
-8.801001548767 -76.110076904297 -167.836547851563 2.094658374786
-30.073499679565 -76.058235168457 -169.330337524414 1.666080355644
-9.119013786316 -73.370559692383 -173.071121215820 2.484819889069
20.598588943481 -77.882781982422 -170.401260375977 1.651646375656
-58.116127014160 -73.985923767090 -171.555419921875 1.257580518723
-55.836929321289 -77.728256225586 -172.878814697266 1.589774250984
17.937458038330 -77.293670654297 -176.930328369141 0.665450155735
111.249717712402 -77.442153930664 -180.011322021484 2.391733169556
14.156913757324 -76.584053039551 -178.005493164063 3.532478809357
18.523370742798 -76.767112731934 -177.894363403320 1.740984916687
105.927597045898 -73.535270690918 -180.342864990234 1.700202822685
-57.114105224609 -77.921844482422 -179.269287109375 0.213207602501
29.952384948730 -76.006355285645 -185.918457031250 4.353217601776
-19.657613754272 -76.560157775879 -178.751113891602 0.436368018389
-46.700881958008 -75.544311523438 -184.616973876953 1.405475139618
-145.067138671875 -81.509910583496 -181.290557861328 4.648492336273
102.569969177246 -75.584403991699 -185.994873046875 2.604155063629
-150.092605590820 -77.934593200684 -189.130447387695 1.702062010765
22.939390182495 -78.018554687500 -193.044845581055 2.551475763321
-32.585731506348 -75.800376892090 -186.541503906250 1.969660043716
-49.769294738770 -76.053062438965 -190.777694702148 0.688834369183
-25.289461135864 -76.789070129395 -193.412384033203 2.321037292480
95.883819580078 -74.998458862305 -195.706451416016 3.070317268372
-37.771263122559 -75.125709533691 -196.696105957031 2.103917360306
7.150519847870 -76.885543823242 -200.655502319336 1.884346246719
96.238151550293 -75.176689147949 -198.696975708008 2.054955720901
10.577184677124 -76.859107971191 -202.245468139648 1.431381702423
20.357612609863 -76.007545471191 -199.862930297852 1.016413211823
-11.672179222107 -76.826667785645 -203.108444213867 1.823622822762
16.896335601807 -78.192550659180 -197.673797607422 1.151697039604
-38.780620574951 -75.483627319336 -206.868118286133 1.701414346695
-10.587503433228 -77.902473449707 -201.571289062500 2.601845979691
-20.579458236694 -75.135269165039 -204.202407836914 2.361438512802
-76.177688598633 -75.779273986816 -204.973358154297 3.958188772202
-34.034263610840 -74.650482177734 -206.814453125000 1.091130495071
8.623298645020 -78.618934631348 -203.936981201172 2.737131118774
-11.675307273865 -76.710159301758 -205.629257202148 1.001789569855
93.353492736816 -74.646308898926 -217.534240722656 2.282781600952
-12.721566200256 -73.780151367188 -212.916305541992 3.609421253204
-20.283899307251 -77.419685363770 -213.151824951172 3.041383504868
-81.185119628906 -74.956642150879 -213.910858154297 1.694585323334
-149.167465209961 -74.610084533691 -211.977828979492 1.480620384216
16.270082473755 -74.171440124512 -213.509231567383 1.212118864059
-4.547193050385 -73.931236267090 -213.319549560547 2.457111597061
-20.190118789673 -76.728332519531 -214.827621459961 1.327721357346
-13.117833137512 -76.479400634766 -214.596694946289 2.232794523239
-21.288600921631 -76.334693908691 -218.843109130859 1.095426082611
2.103188991547 -74.369346618652 -216.623535156250 4.055970191956
-149.661911010742 -77.875846862793 -212.509246826172 2.254436254501
-20.174459457397 -77.091789245605 -222.276687622070 1.029959917068
81.524284362793 -76.761940002441 -222.779159545898 1.301719307899
-13.049965858459 -73.945892333984 -221.636505126953 1.432482242584
-6.107184886932 -77.999099731445 -224.752929687500 2.152117252350
-25.465723037720 -77.256851196289 -224.783767700195 2.816640615463
-156.845031738281 -76.682846069336 -223.253814697266 3.880900859833
77.458686828613 -76.946609497070 -230.578048706055 2.251734495163
-11.512701988220 -78.287139892578 -224.755020141602 1.817743539810
-139.201873779297 -72.502624511719 -224.799972534180 1.292960643768
-148.410751342773 -75.008522033691 -227.265457153320 2.728686332703
-139.304229736328 -79.517547607422 -224.936553955078 2.154958009720
-1.124920010567 -76.064201354980 -230.344406127930 3.049115657806
-147.608016967773 -75.922370910645 -228.263595581055 2.172665596008
2.861270904541 -73.916549682617 -231.522094726563 1.743670463562
18.493034362793 -75.509346008301 -238.662658691406 1.497781276703
-3.993662118912 -73.536743164063 -239.369171142578 1.504173159599
-48.726646423340 -71.224723815918 -238.030364990234 4.096993923187
-49.711933135986 -76.195678710938 -236.604049682617 4.637326240540
-27.676675796509 -76.898025512695 -239.595962524414 2.923995971680
-147.606964111328 -73.025382995605 -236.537841796875 1.830019116402
-40.131404876709 -76.248825073242 -239.743637084961 2.510974645615
-69.302757263184 -78.655769348145 -245.189712524414 3.362376451492
-52.701610565186 -72.787017822266 -243.676940917969 2.465066432953
-62.378849029541 -74.312263488770 -246.833755493164 1.831743478775
-74.569763183594 -76.475646972656 -245.735122680664 2.754448652267
-143.842559814453 -72.228149414063 -250.746124267578 1.493883609772
17.701322555542 -77.695732116699 -257.755157470703 2.738668441772
-130.409164428711 -75.426872253418 -255.955184936523 3.376280784607
-11.547226905823 -80.643737792969 -265.952758789063 2.163778305054
-16.083549499512 -72.695205688477 -267.224517822266 3.537060499191
17.026031494141 -75.005485534668 -273.238281250000 4.028439044952
-150.187698364258 -74.050643920898 -274.325164794922 2.071087121964
-5.174531936646 -74.414855957031 -280.014556884766 2.747675180435
-157.745788574219 -75.969795227051 -277.396209716797 3.062651634216
-134.820953369141 -77.401741027832 -284.464263916016 3.020920753479
-30.048839569092 -74.472679138184 -283.179138183594 1.916368365288
-137.657501220703 -77.567703247070 -283.359252929688 4.037419319153
-68.217979431152 -77.125640869141 -282.891479492188 3.504656553268
-140.806869506836 -74.889991760254 -281.461273193359 4.642880439758
6.562938213348 -75.303779602051 -287.382781982422 0.703534901142
-122.889068603516 -77.139938354492 -287.035156250000 1.603960633278
-68.231620788574 -76.872634887695 -284.132080078125 2.267121076584
-144.358337402344 -76.335227966309 -285.536163330078 2.465521574020
-58.900485992432 -75.079460144043 -285.834747314453 2.240608930588
-34.629009246826 -75.112884521484 -284.324676513672 2.122371196747
-7.478045940399 -76.038345336914 -287.895965576172 2.616098880768
-145.488922119141 -74.444961547852 -291.766021728516 0.700657427311
-159.775024414063 -73.746597290039 -288.451629638672 2.137557983398
-154.699859619141 -76.262420654297 -288.639068603516 2.086879968643
-148.287719726563 -76.969383239746 -294.055938720703 1.669464588165
-145.751358032227 -74.229255676270 -297.446746826172 1.633067131042
-42.466819763184 -73.189033508301 -52.713645935059 1.410335063934
-59.254692077637 -72.213668823242 -51.396514892578 3.713130474091
-58.918579101563 -75.748039245605 -52.804508209229 1.361008286476
-41.141292572021 -76.659278869629 -55.768711090088 3.511918067932
-33.709323883057 -76.005584716797 -57.223884582520 2.578521013260
-31.600261688232 -73.921089172363 -55.575057983398 1.472441911697
-24.543272018433 -74.398353576660 -60.266124725342 0.641963899136
-25.786340713501 -73.762016296387 -61.874225616455 1.560971021652
-21.346166610718 -76.446365356445 -70.054862976074 2.016278743744
93.711265563965 -74.316856384277 -75.712265014648 0.368698686361
77.394279479980 -75.423301696777 -75.078300476074 1.555488109589
74.353195190430 -72.906448364258 -72.264953613281 1.655721545219
-35.072860717773 -76.905761718750 -76.785133361816 2.493792057037
-42.519496917725 -70.944023132324 -80.379730224609 2.097304821014
-47.869445800781 -72.568260192871 -84.295845031738 1.954873800278
-48.886852264404 -76.068183898926 -84.319084167480 1.936405539513
-88.191726684570 -80.293754577637 -90.863395690918 2.956095695496
73.122764587402 -74.776794433594 -95.966056823730 1.042888164520
96.613151550293 -74.842269897461 -95.282981872559 2.113735437393
78.378242492676 -75.875213623047 -94.711479187012 1.302068114281
-90.383117675781 -75.113021850586 -97.538948059082 1.988218903542
80.578048706055 -73.828506469727 -94.351409912109 1.658742189407
51.770851135254 -75.573326110840 -96.484458923340 1.388312935829
55.935249328613 -74.986610412598 -98.765922546387 2.140213727951
43.990245819092 -73.814468383789 -102.586738586426 1.272081136703
46.124267578125 -72.431312561035 -97.740898132324 1.333531141281
46.516803741455 -73.629714965820 -101.705841064453 2.464556217194
-89.465187072754 -74.273689270020 -101.145767211914 4.282601356506
47.878257751465 -78.119674682617 -110.930625915527 1.790941715240
36.257713317871 -77.840736389160 -113.905296325684 2.148112773895
32.374496459961 -73.293685913086 -124.529708862305 1.185333013535
111.091865539551 -73.786582946777 -123.316917419434 2.427587509155
111.055099487305 -74.544326782227 -123.857093811035 2.736525058746
109.233909606934 -74.202384948730 -124.598907470703 2.365591526031
113.001045227051 -76.143112182617 -129.082443237305 1.306042909622
40.528171539307 -75.226943969727 -131.863052368164 1.837420582771
41.371803283691 -73.773368835449 -136.801666259766 3.474974632263
29.550413131714 -74.133872985840 -134.046401977539 1.703640580177
23.680521011353 -74.274757385254 -140.843902587891 1.489155173302
110.553764343262 -75.615257263184 -143.324432373047 1.221284866333
111.791160583496 -75.438629150391 -148.471878051758 2.139236927032
-47.184642791748 -71.625770568848 -145.506286621094 0.942004561424
23.166606903076 -73.643249511719 -144.171279907227 0.678652942181
-67.062622070313 -75.371635437012 -149.256103515625 1.622865676880
-71.886924743652 -71.848869323730 -147.712722778320 1.486251950264
109.543647766113 -76.979850769043 -154.831024169922 3.069557666779
115.319839477539 -75.471397399902 -155.908874511719 2.180185794830
31.861919403076 -74.597587585449 -154.218566894531 1.524000525475
-69.968139648438 -74.574310302734 -151.025558471680 1.203066349030
3.673346996307 -72.706939697266 -156.407241821289 1.967461228371
3.570139884949 -73.126136779785 -156.120559692383 2.454462051392
-65.133964538574 -71.730392456055 -158.248031616211 1.656362414360
-44.053337097168 -75.317024230957 -161.219619750977 2.153643608093
22.542156219482 -76.813667297363 -165.556854248047 2.666426897049
108.004264831543 -79.077896118164 -158.854827880859 3.153639793396
31.802818298340 -73.421798706055 -161.129562377930 0.616722881794
0.913514971733 -73.946266174316 -163.604843139648 1.650202751160
18.633066177368 -78.101371765137 -164.179031372070 3.701174736023
-63.274627685547 -75.425407409668 -163.115676879883 2.822083234787
-61.637062072754 -74.811462402344 -165.211395263672 2.118055820465
-43.197456359863 -74.323089599609 -166.290847778320 1.288353562355
26.537075042725 -74.663757324219 -169.249908447266 1.345436692238
19.655811309814 -76.633949279785 -168.491851806641 2.346385240555
27.836517333984 -75.759887695313 -166.617080688477 2.487635135651
21.455516815186 -71.882965087891 -170.890457153320 3.443546295166
-28.554092407227 -72.609527587891 -171.263320922852 1.447197914124
16.284397125244 -75.088760375977 -173.747955322266 3.064636230469
17.068464279175 -73.116516113281 -176.703933715820 1.277321219444
-59.299770355225 -75.503227233887 -172.773040771484 1.947322010994
106.863304138184 -74.753196716309 -180.541915893555 1.621866583824
14.265913009644 -74.752037048340 -177.951217651367 2.786702156067
27.536577224731 -72.908920288086 -175.922592163086 1.706523776054
-30.962438583374 -74.454620361328 -183.600906372070 2.139528274536
-47.088794708252 -73.618858337402 -184.849075317383 3.063539505005
14.590405464172 -77.605331420898 -186.481918334961 1.349697232246
-53.006477355957 -75.329002380371 -183.791564941406 0.897764086723
102.494506835938 -75.440238952637 -187.038467407227 2.216342687607
-50.697990417480 -71.739616394043 -188.924163818359 3.120909690857
-147.704010009766 -73.979324340820 -184.940582275391 1.718644261360
14.220060348511 -73.699501037598 -190.486633300781 2.551002979279
-41.959777832031 -74.735023498535 -196.435623168945 2.459248781204
15.648496627808 -74.958595275879 -193.178298950195 1.899164676666
-16.570339202881 -73.163398742676 -192.922393798828 1.463384509087
14.801333427429 -73.592727661133 -194.688659667969 2.210763216019
-136.702163696289 -73.270095825195 -190.090682983398 6.108470439911
16.801557540894 -75.987815856934 -194.851135253906 2.647673368454
-136.252304077148 -73.116821289063 -195.585540771484 2.347645759583
-141.509155273438 -75.756645202637 -197.006668090820 0.803330481052
-35.562530517578 -77.045173645020 -200.130325317383 1.654917478561
97.543579101563 -74.978790283203 -202.198852539063 2.008933067322
-156.303955078125 -73.573844909668 -196.483276367188 2.819744586945
-13.983101844788 -77.275573730469 -203.075149536133 1.242330431938
-33.335186004639 -77.215713500977 -199.899856567383 1.257980346680
-39.799564361572 -79.189071655273 -202.182144165039 0.589651107788
7.848491191864 -75.939514160156 -206.301818847656 1.991832733154
92.577522277832 -73.717964172363 -206.131286621094 1.693283557892
-75.115524291992 -75.837532043457 -205.688034057617 3.681901693344
-34.446804046631 -75.554130554199 -205.030212402344 0.990174174309
-9.342928886414 -73.980468750000 -212.454727172852 2.131622791290
-71.791198730469 -76.278373718262 -208.723449707031 1.191319823265
-36.916595458984 -75.287170410156 -209.153762817383 2.468168258667
-19.699550628662 -78.125640869141 -211.934448242188 2.568337440491
-27.018693923950 -73.232582092285 -210.834274291992 2.372041463852
93.981117248535 -76.686523437500 -214.828201293945 2.273276567459
-76.174171447754 -74.902114868164 -208.309860229492 1.677785396576
16.147962570190 -76.050559997559 -218.327362060547 2.006759166718
4.799338817596 -75.026275634766 -212.414428710938 2.041425228119
-6.190906047821 -73.063117980957 -217.036239624023 2.442063093185
-93.933601379395 -77.376739501953 -214.342788696289 1.664239406586
3.144053936005 -73.001068115234 -222.555099487305 1.245795845985
-18.639568328857 -75.790557861328 -217.677642822266 0.803252935410
18.169168472290 -74.880760192871 -218.763442993164 1.508627414703
79.846557617188 -76.616409301758 -221.304336547852 2.052818298340
-154.217880249023 -77.370056152344 -218.717208862305 4.413889408112
-14.908052444458 -76.280281066895 -219.723251342773 1.972777843475
82.337898254395 -74.854270935059 -224.333633422852 1.482137560844
-143.315261840820 -74.904518127441 -222.534408569336 1.458124041557
15.638574600220 -70.562271118164 -224.254791259766 2.204059839249
-7.452363014221 -75.075111389160 -221.545883178711 2.639885663986
5.678232192993 -76.899406433105 -221.933013916016 2.070592403412
20.188337326050 -75.980216979980 -227.749053955078 2.992906093597
68.105278015137 -74.045898437500 -233.795242309570 2.109891176224
76.609916687012 -75.140068054199 -234.029235839844 3.252731084824
6.454349994659 -76.471702575684 -233.896484375000 0.659171223640
0.791887998581 -72.197601318359 -234.473693847656 0.847599446774
-1.494732022285 -74.123207092285 -236.012756347656 1.582441091537
1.347146987915 -76.258773803711 -236.162200927734 0.683436632156
-45.856277465820 -78.359786987305 -233.856231689453 7.220149993896
3.744112014771 -75.225502014160 -236.574340820313 2.144190788269
-37.807430267334 -72.184768676758 -242.736083984375 2.467274427414
6.596940040588 -72.299697875977 -242.276031494141 1.559471964836
7.545692920685 -76.314247131348 -245.028213500977 0.875491261482
16.779071807861 -74.913604736328 -247.860107421875 2.215704679489
17.177110671997 -71.262054443359 -247.511581420898 1.078230738640
-81.009536743164 -77.240364074707 -245.462844848633 5.122379302979
17.716518402100 -75.547721862793 -247.777633666992 1.948088288307
-76.046760559082 -75.248115539551 -250.564987182617 1.655525803566
-145.100418090820 -73.198204040527 -252.650924682617 0.583873450756
-130.645492553711 -73.806106567383 -255.218887329102 3.101077556610
-138.345352172852 -73.713691711426 -257.077362060547 2.820982933044
-134.920272827148 -75.723274230957 -256.184722900391 1.644925355911
-154.017868041992 -79.123764038086 -261.359924316406 1.884075164795
-148.885192871094 -78.018821716309 -268.736267089844 2.090449810028
-150.372451782227 -77.057723999023 -261.665771484375 2.392712354660
-153.788070678711 -74.696098327637 -274.934570312500 2.651455640793
-166.085220336914 -71.655128479004 -279.275909423828 2.511312723160
-132.434112548828 -74.306732177734 -279.802276611328 4.346855163574
-51.494232177734 -76.681617736816 -282.158691406250 4.180253028870
-64.056350708008 -74.532257080078 -278.565155029297 7.724878787994
-75.520263671875 -73.275115966797 -283.262817382813 2.685876607895
-2.331625938416 -77.244773864746 -281.840332031250 1.180963516235
-127.880187988281 -73.816421508789 -281.063720703125 3.832977771759
0.218655005097 -76.697357177734 -284.876831054688 2.103968620300
-137.676315307617 -75.810844421387 -282.466430664063 4.697546005249
-95.572761535645 -76.754966735840 -283.629577636719 5.092353343964
-83.537384033203 -74.019577026367 -286.203552246094 2.022549867630
-161.410659790039 -75.328544616699 -284.364135742188 2.286012172699
-141.970031738281 -75.973335266113 -286.795013427734 0.538860023022
-118.472747802734 -75.479606628418 -285.379089355469 2.075083017349
-70.700942993164 -77.035163879395 -283.911590576172 3.237703561783
13.762023925781 -73.708267211914 -289.600311279297 1.372046947479
-34.937652587891 -77.425346374512 -288.633636474609 1.501386642456
-20.667037963867 -75.014038085938 -289.427246093750 2.210125446320
-135.399261474609 -74.675140380859 -287.442687988281 1.323433399200
-134.126388549805 -73.851638793945 -290.105407714844 1.258596062660
-146.602569580078 -73.132057189941 -290.746734619141 2.505247354507
-149.586685180664 -74.651458740234 -296.744934082031 1.744230151176
-149.908111572266 -72.937675476074 -304.773345947266 5.552387237549
-55.710205078125 -74.226509094238 -51.163593292236 3.879842996597
-74.861839294434 -71.770530700684 -51.950019836426 1.080481410027
-76.229194641113 -72.911323547363 -51.952392578125 2.295221567154
-23.983325958252 -74.237976074219 -57.119739532471 2.154880523682
-18.668975830078 -72.890907287598 -57.889312744141 4.396697521210
-79.189216613770 -73.541175842285 -62.700237274170 2.414282083511
-85.357032775879 -74.687675476074 -65.276588439941 2.666076898575
86.853416442871 -73.162017822266 -72.140083312988 1.177664875984
92.947631835938 -76.471908569336 -73.518951416016 3.066255569458
-91.170272827148 -72.605651855469 -72.032142639160 1.034881830215
-27.798797607422 -76.452804565430 -72.266487121582 1.914200067520
95.795486450195 -73.536094665527 -78.705108642578 1.284184336662
94.168937683105 -72.928909301758 -85.114761352539 2.818387508392
-91.183158874512 -69.676597595215 -72.325660705566 2.373763799667
-47.534370422363 -72.304672241211 -81.158782958984 4.188424110413
100.402954101563 -72.569648742676 -88.310646057129 0.820699214935
-54.692043304443 -76.261299133301 -85.479270935059 4.543376922607
55.964973449707 -76.271255493164 -92.019866943359 3.711723566055
-57.518795013428 -74.645317077637 -86.515090942383 5.276895999908
51.580562591553 -72.877052307129 -91.316482543945 1.148261070251
46.859569549561 -76.597625732422 -96.465911865234 3.017014026642
55.037277221680 -74.212036132813 -93.070129394531 1.924698114395
54.056377410889 -74.030639648438 -97.001022338867 1.267913103104
44.372154235840 -73.426826477051 -103.898986816406 1.949247002602
109.825218200684 -75.296440124512 -103.753410339355 2.390393495560
-80.098602294922 -72.527854919434 -105.439605712891 3.967491149902
-83.538414001465 -72.796249389648 -104.135864257813 3.075312137604
110.347068786621 -73.946586608887 -111.163040161133 1.035403847694
46.964397430420 -74.879791259766 -113.379425048828 1.446055293083
48.060634613037 -73.206245422363 -118.689712524414 1.269239068031
-87.474037170410 -75.113655090332 -111.105850219727 1.856853485107
111.378974914551 -75.548492431641 -113.396820068359 3.254590272903
113.706130981445 -70.417366027832 -117.507942199707 0.622543573380
44.011760711670 -76.031471252441 -121.255943298340 1.291093468666
111.825874328613 -75.758171081543 -125.207275390625 1.822256207466
108.717849731445 -73.755264282227 -129.862823486328 1.484181046486
28.494535446167 -72.382362365723 -132.226333618164 2.026993989944
114.891357421875 -74.726554870605 -137.409317016602 2.373716115952
109.910270690918 -75.330139160156 -131.088821411133 1.667102098465
-60.454204559326 -72.777946472168 -132.207275390625 2.136046886444
-55.304710388184 -74.311279296875 -134.431930541992 2.088982105255
27.173036575317 -72.427383422852 -140.196487426758 1.311399936676
-53.070495605469 -69.254608154297 -130.554550170898 0.682722389698
-74.107452392578 -71.240356445313 -135.459655761719 2.104705572128
-71.280540466309 -72.612411499023 -140.016311645508 1.875839948654
105.823089599609 -76.098632812500 -139.739273071289 2.983459234238
-55.057907104492 -74.339408874512 -142.512008666992 2.301411151886
-73.006530761719 -72.890174865723 -141.145095825195 0.214823931456
-41.925285339355 -74.055458068848 -141.949600219727 2.475445508957
112.758926391602 -72.072235107422 -152.784759521484 1.503756761551
24.798414230347 -73.327568054199 -151.467941284180 2.169377803802
-75.013664245605 -74.669181823730 -151.969024658203 2.572607755661
-51.714233398438 -74.779220581055 -153.188110351563 2.404249191284
-35.946704864502 -76.948860168457 -151.003646850586 3.128305912018
-39.057601928711 -77.856063842773 -150.804672241211 2.547448396683
-70.896278381348 -75.900032043457 -154.082733154297 2.357674598694
10.572532653809 -74.199653625488 -157.492034912109 0.759440302849
-50.039089202881 -73.122589111328 -154.831527709961 1.558269262314
-46.166236877441 -73.760826110840 -154.588714599609 2.509135723114
30.059402465820 -74.321731567383 -159.806472778320 2.850474119186
-34.109859466553 -74.972373962402 -162.431777954102 2.549761533737
-69.507522583008 -76.100570678711 -161.092422485352 1.758185625076
107.541694641113 -74.081558227539 -160.443603515625 1.554144978523
109.027137756348 -70.830184936523 -164.526397705078 0.981273949146
30.021457672119 -73.812820434570 -163.659805297852 1.710014939308
112.235443115234 -71.757720947266 -166.287124633789 2.082058429718
107.574203491211 -75.531929016113 -167.173538208008 1.583800196648
17.925012588501 -76.657402038574 -173.237792968750 1.414888262749
-28.003557205200 -70.630706787109 -169.744384765625 1.807198762894
-53.298030853271 -75.664131164551 -173.693756103516 1.145450830460
109.899681091309 -74.563987731934 -177.772598266602 1.619833588600
-37.193496704102 -74.795211791992 -174.944702148438 3.061968564987
14.059552192688 -73.391967773438 -175.337188720703 3.732834339142
-34.707088470459 -71.579147338867 -173.516845703125 0.764020323753
-55.016193389893 -73.083999633789 -179.019271850586 2.487276077271
-148.467788696289 -72.916564941406 -177.884597778320 2.625633478165
-149.706634521484 -71.695175170898 -178.194824218750 2.633833169937
106.589485168457 -75.782234191895 -179.826416015625 0.953473031521
19.975530624390 -72.398361206055 -181.837097167969 3.029316186905
-56.355304718018 -72.815292358398 -180.230911254883 2.063349246979
-50.023475646973 -76.164321899414 -189.119308471680 1.856793284416
-48.208168029785 -72.241226196289 -186.983825683594 3.070240974426
-49.032711029053 -75.988090515137 -190.210235595703 0.505645751953
14.995578765869 -74.135368347168 -185.948577880859 1.348410964012
14.807628631592 -74.450813293457 -185.557708740234 0.910364508629
105.154212951660 -73.223167419434 -192.978942871094 1.678308606148
-24.822538375854 -72.946754455566 -192.835525512695 1.333199501038
-45.178298950195 -74.678161621094 -193.582763671875 1.034041404724
21.860298156738 -73.174217224121 -194.996719360352 2.114014148712
-43.395309448242 -72.857704162598 -193.653549194336 2.952937602997
97.849594116211 -75.690338134766 -198.926879882813 1.534488677979
-37.856639862061 -71.949874877930 -199.123733520508 2.610771179199
93.565063476563 -77.280960083008 -200.333801269531 3.829731702805
18.622386932373 -72.861633300781 -200.813491821289 1.305396676064
-39.150016784668 -72.338996887207 -202.554946899414 1.204099178314
16.507604598999 -71.474609375000 -198.560974121094 2.429359674454
-22.689186096191 -75.224754333496 -204.919555664063 2.132738590240
-40.657077789307 -74.349243164063 -201.349975585938 1.648212552071
92.201728820801 -75.454017639160 -207.108963012695 1.308902859688
8.245424270630 -73.803054809570 -204.705062866211 2.841432571411
88.763206481934 -70.921424865723 -216.084671020508 2.174267530441
-8.410056114197 -75.562965393066 -209.163330078125 2.166339635849
-25.332124710083 -74.123085021973 -206.675430297852 4.030010223389
-80.584266662598 -74.102867126465 -208.817199707031 1.486310005188
83.861251831055 -74.564529418945 -217.118835449219 1.037835001945
-20.569463729858 -74.300712585449 -214.787017822266 2.185647964478
17.225765228271 -72.511634826660 -215.384475708008 2.452819824219
-27.052742004395 -76.423789978027 -215.233245849609 0.875277817249
-30.899913787842 -73.720710754395 -212.842880249023 1.298383116722
-100.116302490234 -74.970161437988 -215.102233886719 3.583681821823
-10.744421005249 -72.485702514648 -218.249191284180 1.647487640381
-22.270507812500 -73.851226806641 -218.561492919922 1.400570392609
-0.525924980640 -73.856979370117 -221.932723999023 2.554893970490
13.523964881897 -76.366081237793 -219.876785278320 2.163487434387
-15.538331985474 -73.235725402832 -219.956451416016 0.915579617023
-14.969271659851 -78.800308227539 -222.342254638672 1.656033873558
16.585563659668 -75.084152221680 -221.364242553711 2.039901494980
7.149404048920 -74.772155761719 -219.535476684570 1.473756790161
5.597966194153 -75.935470581055 -218.457977294922 2.627385616302
-130.280288696289 -75.088928222656 -224.962142944336 2.315336227417
-13.863003730774 -73.350341796875 -224.603347778320 1.621586322784
77.224906921387 -74.298622131348 -227.629470825195 1.475896954536
-17.407415390015 -75.104393005371 -225.113967895508 1.663616299629
-153.350891113281 -76.841835021973 -224.592636108398 1.599810957909
-130.451507568359 -74.834503173828 -228.434463500977 2.458216190338
-12.030432701111 -72.669013977051 -233.038269042969 1.568091750145
75.656219482422 -75.925132751465 -227.213699340820 2.325352191925
-8.671416282654 -74.974220275879 -227.642837524414 0.928853690624
-3.739139080048 -74.578506469727 -232.087417602539 1.869248986244
65.475341796875 -75.405197143555 -236.230224609375 1.874732494354
0.042730998248 -74.825439453125 -238.733123779297 1.568338632584
66.057769775391 -78.068931579590 -236.433181762695 3.910959959030
-155.424026489258 -72.813697814941 -239.806167602539 2.782733917236
61.739612579346 -71.791412353516 -237.357925415039 1.046655416489
-37.160243988037 -73.541999816895 -237.412429809570 3.186801195145
-39.312679290771 -72.478263854980 -238.856292724609 4.364231109619
11.929849624634 -74.911041259766 -236.948120117188 1.728270053864
-47.047298431396 -76.682464599609 -240.971679687500 1.105599045753
-27.089754104614 -74.755256652832 -239.872833251953 0.893525779247
5.177216053009 -72.024421691895 -240.475723266602 1.910914301872
-47.690334320068 -75.116203308105 -241.646148681641 1.435270786285
-146.279556274414 -71.118316650391 -241.289825439453 1.627632498741
14.635071754456 -73.490135192871 -237.806457519531 1.023605823517
-151.502029418945 -77.123779296875 -236.710601806641 1.535611987114
-72.803817749023 -75.227096557617 -243.554992675781 3.994675397873
-6.443457126617 -76.747535705566 -245.507659912109 1.940255165100
-10.240876197815 -72.834381103516 -246.779968261719 1.631728172302
-83.426254272461 -74.185783386230 -244.212356567383 5.596971511841
-152.611450195313 -72.888542175293 -248.631607055664 1.943903088570
-149.381454467773 -78.917739868164 -247.495590209961 1.393443584442
-89.148628234863 -74.581962585449 -253.970748901367 2.072294950485
-163.991287231445 -74.409561157227 -254.323272705078 1.716239333153
-127.221183776855 -76.763992309570 -251.209823608398 4.034315586090
23.338897705078 -72.952049255371 -256.498474121094 0.645654201508
-156.905349731445 -72.830619812012 -252.281341552734 3.805475473404
-147.098541259766 -71.247528076172 -253.602081298828 2.560334920883
-165.623733520508 -73.381591796875 -254.699172973633 0.489320576191
-137.515930175781 -70.128471374512 -256.139923095703 2.432183265686
-124.768936157227 -74.823135375977 -258.205413818359 1.477651596069
-162.974060058594 -76.669609069824 -261.058135986328 2.072660923004
-146.243179321289 -74.405525207520 -256.213623046875 2.396878957748
-168.269485473633 -73.585754394531 -260.183441162109 2.413892030716
-155.907775878906 -72.827095031738 -256.759918212891 1.787624597549
-162.561050415039 -72.027931213379 -261.906982421875 2.614424705505
-169.828659057617 -73.081825256348 -257.289916992188 4.374877929688
16.540788650513 -79.531631469727 -270.898406982422 2.375490188599
12.131791114807 -75.522140502930 -270.846221923828 6.005275726318
-161.216033935547 -72.974830627441 -270.160095214844 2.919072389603
-159.999633789063 -73.830169677734 -267.829223632813 3.098719358444
-169.220733642578 -70.457176208496 -274.612731933594 1.757681846619
-157.311462402344 -73.593894958496 -266.994628906250 1.518295049667
-154.192550659180 -70.987602233887 -267.476623535156 2.322868347168
-152.578445434570 -72.903930664063 -268.865478515625 2.001278638840
-143.085540771484 -73.134864807129 -275.411041259766 2.073153257370
-163.964050292969 -74.026672363281 -273.387695312500 2.502460002899
-155.918701171875 -71.941169738770 -278.410736083984 3.446876049042
16.521141052246 -73.684043884277 -279.307281494141 2.028688907623
-155.133483886719 -76.423576354980 -277.101226806641 4.360141277313
-162.190444946289 -75.671531677246 -278.330932617188 3.997400045395
-163.991088867188 -73.420631408691 -276.813873291016 2.785824537277
-129.642059326172 -73.547874450684 -282.268676757813 2.117146968842
-32.945652008057 -75.073013305664 -282.827667236328 3.354437828064
-45.522693634033 -73.242019653320 -281.038269042969 5.557607650757
-70.014846801758 -72.180557250977 -285.432556152344 1.205292820930
-17.008762359619 -71.708602905273 -284.111755371094 4.954961776733
9.462367057800 -75.463546752930 -283.231933593750 1.489939689636
-4.367507934570 -76.109222412109 -286.688934326172 1.121260523796
-113.545989990234 -75.334754943848 -285.396240234375 2.490857362747
-98.359695434570 -73.130607604980 -282.889221191406 3.756532430649
-115.676132202148 -74.232490539551 -287.432403564453 0.641204118729
-105.239120483398 -74.472724914551 -284.525177001953 2.896150588989
-94.802078247070 -76.033187866211 -286.697967529297 2.824317216873
-50.357784271240 -73.804565429688 -284.847534179688 2.156968832016
-120.675643920898 -74.748329162598 -285.276092529297 2.914164781570
-88.758323669434 -73.079551696777 -287.839019775391 1.260803699493
-118.354507446289 -73.780906677246 -288.730163574219 1.695991396904
-137.370559692383 -74.964752197266 -286.598236083984 1.785134315491
-13.294554710388 -72.616706848145 -290.700958251953 1.051815509796
9.412815093994 -74.838104248047 -291.322113037109 1.973748922348
-155.402633666992 -74.123741149902 -290.183685302734 1.539131045341
-160.397079467773 -76.562606811523 -305.486083984375 5.498923301697
-64.148254394531 -70.986335754395 -50.695957183838 2.035412073135
-58.621334075928 -72.230842590332 -49.583259582520 2.873454332352
-53.190383911133 -76.317665100098 -53.800304412842 3.592736721039
-72.285629272461 -73.154235839844 -51.235092163086 2.015984773636
-40.579387664795 -76.750320434570 -54.123416900635 3.697602510452
-76.835807800293 -73.254257202148 -54.357044219971 4.354465484619
-80.186508178711 -72.910629272461 -58.728336334229 1.349792480469
-17.338073730469 -75.283416748047 -68.916732788086 1.243681907654
-16.436603546143 -75.114738464355 -69.400444030762 1.584073066711
76.118919372559 -73.966018676758 -73.563255310059 0.823176801205
-35.792846679688 -72.808189392090 -77.046340942383 1.608192563057
-34.225929260254 -74.295936584473 -72.922576904297 3.581559896469
69.820777893066 -70.426666259766 -79.171203613281 1.285339832306
98.998878479004 -76.182823181152 -85.663810729980 2.128984451294
-54.445796966553 -72.867172241211 -88.758247375488 2.947073459625
60.883781433105 -74.108268737793 -94.629005432129 2.530765295029
48.817996978760 -71.796119689941 -93.898345947266 2.187455654144
50.298583984375 -73.055160522461 -96.874420166016 1.804975271225
40.981250762939 -71.907539367676 -99.289764404297 3.138689756393
109.901817321777 -74.084442138672 -97.422958374023 3.860915422440
60.512424468994 -70.777610778809 -91.258941650391 1.192999124527
-95.198173522949 -74.326042175293 -97.803207397461 3.265479087830
-74.248855590820 -70.130462646484 -97.867630004883 1.782701969147
57.242271423340 -72.061195373535 -97.827957153320 1.787834525108
44.390625000000 -69.641807556152 -100.999732971191 1.909865498543
43.541011810303 -71.556137084961 -103.375755310059 1.041475057602
-93.115875244141 -72.411132812500 -108.601913452148 2.267894506454
37.285343170166 -72.354965209961 -107.679466247559 2.424296140671
52.398010253906 -71.822959899902 -110.760383605957 3.386760234833
43.917598724365 -73.595504760742 -116.391006469727 1.221906542778
46.427169799805 -71.790962219238 -120.812950134277 2.014077901840
115.539833068848 -72.224479675293 -127.883544921875 2.088576555252
-55.716758728027 -72.218025207520 -127.728813171387 1.588402271271
38.464206695557 -74.614730834961 -134.102996826172 3.244645595551
37.813308715820 -73.367156982422 -133.069259643555 1.974699497223
114.250091552734 -74.742095947266 -137.743835449219 1.711992025375
-73.725189208984 -71.587768554688 -129.653213500977 1.868868708611
-55.334686279297 -73.080146789551 -135.753845214844 2.418084383011
119.862655639648 -71.880279541016 -136.212951660156 2.374671936035
-73.118705749512 -72.794540405273 -136.687438964844 2.417093276978
-48.473552703857 -71.721008300781 -141.789428710938 2.911346435547
-60.705326080322 -69.821014404297 -140.408584594727 1.335880041122
109.126068115234 -72.954498291016 -138.842849731445 0.527035415173
21.724006652832 -76.184143066406 -147.713363647461 0.708053708076
31.265708923340 -72.537689208984 -144.139678955078 3.178344011307
-43.617115020752 -72.270477294922 -148.527038574219 1.919842720032
-65.798049926758 -72.454742431641 -148.865310668945 2.195177316666
24.944263458252 -76.364776611328 -148.813354492188 2.751123428345
-72.654891967773 -72.305580139160 -148.194366455078 1.460855126381
31.324668884277 -73.893562316895 -147.341735839844 1.930947780609
-36.683559417725 -73.131278991699 -152.650726318359 1.703716278076
23.641452789307 -73.303344726563 -150.849380493164 1.371180534363
10.219342231750 -74.272819519043 -152.984909057617 1.603462934494
-71.203445434570 -72.741065979004 -157.575378417969 1.590011954308
-48.945159912109 -76.209716796875 -154.411148071289 0.813802123070
-60.813705444336 -74.881546020508 -155.277557373047 3.307130813599
-49.743152618408 -74.230163574219 -155.359252929688 1.947940707207
5.233188152313 -73.657302856445 -158.842163085938 1.061068415642
-34.417289733887 -74.254310607910 -164.284713745117 1.619800806046
-42.258758544922 -75.053741455078 -162.507247924805 2.160050630569
20.405353546143 -72.687400817871 -164.585037231445 1.123721003532
-41.849411010742 -75.426918029785 -164.410751342773 1.699154734612
26.143894195557 -71.938552856445 -164.484542846680 2.527726411819
115.880241394043 -71.017250061035 -165.530868530273 1.348234891891
-32.109935760498 -73.895599365234 -168.594207763672 2.559634685516
27.550426483154 -75.829444885254 -169.730621337891 1.401674628258
-66.657218933105 -73.632896423340 -166.757522583008 1.533777594566
-59.153179168701 -71.979904174805 -167.204208374023 2.173326730728
-43.027065277100 -70.247077941895 -167.676696777344 1.585469365120
-61.430221557617 -74.189239501953 -171.558135986328 1.774963021278
108.222694396973 -73.980773925781 -174.347946166992 2.158377170563
-147.984863281250 -71.874786376953 -170.749664306641 4.753574848175
-144.591339111328 -73.964393615723 -172.386291503906 3.353791475296
-57.604278564453 -72.742149353027 -173.863327026367 2.634665250778
104.401092529297 -73.948890686035 -175.899322509766 1.290644049644
108.792472839355 -72.534103393555 -176.916183471680 2.348911762238
106.642982482910 -72.298683166504 -180.013565063477 1.743778109550
23.397651672363 -74.959266662598 -185.128631591797 2.697255849838
-35.846588134766 -74.572540283203 -177.595718383789 2.467306613922
-138.716735839844 -72.458023071289 -179.945236206055 3.460888385773
106.488327026367 -71.733497619629 -182.899429321289 1.088591456413
20.691429138184 -72.826148986816 -191.761322021484 2.820221424103
105.205131530762 -71.929573059082 -192.247146606445 1.979302525520
103.012344360352 -69.093727111816 -192.416885375977 3.523938655853
9.018301010132 -80.058494567871 -194.348373413086 5.093434810638
-131.881042480469 -73.084846496582 -192.676620483398 3.137489795685
-124.378829956055 -70.530044555664 -192.641021728516 2.378715753555
