-10.477467536926 -77.168220520020 -209.134719848633 1.295770049095
94.681091308594 -75.316528320313 -219.872222900391 4.423243999481
-11.436362266541 -74.217491149902 -216.425430297852 2.632298946381
-19.003896713257 -77.838989257813 -216.753814697266 2.288462162018
-79.887245178223 -75.233665466309 -218.180007934570 2.380590438843
-147.885879516602 -74.735275268555 -216.998016357422 1.167347908020
17.559116363525 -74.674110412598 -216.698699951172 2.180032730103
-3.258389949799 -74.386405944824 -216.738632202148 1.686398029327
-18.890007019043 -77.143638610840 -218.426696777344 1.309308052063
-11.820158004761 -76.911590576172 -218.116943359375 1.605690002441
-19.943094253540 -76.737373352051 -222.453063964844 0.587267875671
3.427129030228 -74.831535339355 -219.969970703125 2.714443922043
-148.381851196289 -77.998542785645 -217.543167114258 1.767308831215
-18.792757034302 -77.488395690918 -225.876037597656 1.142669320107
82.905845642090 -77.391700744629 -225.252990722656 2.948817968369
-11.668635368347 -74.360549926758 -225.149124145508 1.180800437927
-4.701043128967 -78.421897888184 -228.198852539063 0.944610595703
-24.056322097778 -77.634963989258 -228.441894531250 4.283146381378
-155.442916870117 -76.761978149414 -228.363449096680 3.085175991058
78.926376342773 -77.547393798828 -233.096801757813 1.531518340111
-10.106849670410 -78.697471618652 -228.261459350586 0.701846301556
-137.774246215820 -72.618568420410 -229.703781127930 1.808684229851
-146.960968017578 -75.097023010254 -232.277297973633 2.423187732697
-137.891067504883 -79.632865905762 -229.859283447266 2.288326025009
0.347178012133 -76.484443664551 -233.729965209961 2.539880037308
-146.149322509766 -76.010200500488 -233.268829345703 1.333844423294
4.351037025452 -74.343032836914 -234.858047485352 1.934388756752
20.057188034058 -75.953895568848 -241.829330444336 1.453321933746
-2.415774106979 -73.927696228027 -242.779449462891 1.901425361633
-47.155467987061 -71.515953063965 -241.929550170898 2.483554601669
-48.167793273926 -76.488189697266 -240.526840209961 1.566820502281
-26.102430343628 -77.233802795410 -243.276672363281 1.051476240158
-146.050125122070 -73.092430114746 -241.535156250000 1.618225932121
-38.553256988525 -76.555526733398 -243.560409545898 2.110182046890
-67.667976379395 -78.881523132324 -249.334838867188 2.119539022446
-51.071258544922 -73.054870605469 -247.623672485352 1.854534387589
-60.716430664063 -74.549865722656 -250.891174316406 2.384888172150
-72.923652648926 -76.687904357910 -249.932937622070 1.627538561821
-142.126937866211 -72.268157958984 -255.698883056641 1.560187220573
19.471794128418 -78.090438842773 -260.934906005859 1.476196765900
-128.644042968750 -75.484725952148 -260.767150878906 1.212268590927
-9.690912246704 -80.950401306152 -269.462890625000 2.968404054642
-14.194775581360 -72.988258361816 -270.764556884766 0.738384068012
18.973981857300 -75.359718322754 -276.417663574219 2.999051094055
-148.214935302734 -74.016731262207 -279.351196289063 1.900106072426
-3.148853063583 -74.700889587402 -283.437500000000 3.128116369247
-155.742950439453 -75.910728454590 -282.510498046875 2.200936794281
-132.744613647461 -77.377738952637 -289.328216552734 0.391353547573
-27.986700057983 -74.693420410156 -286.877075195313 0.869382083416
-135.593582153320 -77.539932250977 -288.255065917969 1.943450212479
-66.162643432617 -77.259109497070 -287.018310546875 1.765374183655
-138.757659912109 -74.859756469727 -286.385253906250 2.713413238525
8.667372703552 -75.598335266113 -290.677703857422 1.961993455887
-120.784446716309 -77.136978149414 -291.766326904297 2.878973484039
-66.161979675293 -77.002952575684 -288.258300781250 1.971304297447
-142.267105102539 -76.286544799805 -290.502807617188 0.715186536312
-56.808513641357 -75.227012634277 -289.853149414063 1.844085574150
-32.555362701416 -75.320182800293 -288.074829101563 1.887475490570
-5.368714809418 -76.299240112305 -291.347991943359 2.612144470215
-143.324386596680 -74.378028869629 -296.739959716797 3.301326990128
-157.644653320313 -73.655067443848 -293.581970214844 1.086229801178
-152.573471069336 -76.182106018066 -293.719696044922 1.125652432442
-146.103408813477 -76.890220642090 -299.067077636719 2.007134437561
-143.523452758789 -74.147438049316 -302.422668457031 2.370680809021
-42.950923919678 -73.960609436035 -56.560554504395 2.834758996964
-59.750083923340 -72.949867248535 -55.426677703857 4.001911163330
-59.406459808350 -76.481452941895 -56.839839935303 1.000641345978
-41.599578857422 -77.426208496094 -59.609573364258 1.560411334038
-34.150493621826 -76.785987854004 -60.980808258057 2.644809484482
-32.055061340332 -74.710517883301 -59.303466796875 0.929233312607
-24.947704315186 -75.192253112793 -63.917404174805 1.640457391739
-26.171451568604 -74.549011230469 -65.537536621094 1.903081536293
-21.647157669067 -77.223007202148 -73.675361633301 1.922453522682
93.470420837402 -75.344490051270 -78.054611206055 1.821431756020
77.144935607910 -76.414916992188 -77.603942871094 2.710836172104
74.078643798828 -73.898139953613 -74.818016052246 1.858557820320
-35.299560546875 -77.633842468262 -80.558158874512 0.874466896057
-42.692378997803 -71.645935058594 -84.219726562500 1.569186210632
-48.002353668213 -73.247978210449 -88.198883056641 2.944440841675
-49.027408599854 -76.745483398438 -88.242256164551 0.754340410233
-88.267005920410 -80.863983154297 -95.231529235840 2.856844663620
73.106277465820 -75.706047058105 -98.535949707031 2.201055765152
96.587463378906 -75.827384948730 -97.593315124512 2.460546731949
78.345031738281 -76.819725036621 -97.226119995117 2.230994462967
-90.372596740723 -75.661437988281 -101.917732238770 4.160098075867
80.545379638672 -74.778999328613 -96.836547851563 1.922386765480
51.759635925293 -76.452049255371 -99.292457580566 0.986795127392
55.950347900391 -75.869201660156 -101.526237487793 2.130895137787
44.051048278809 -74.659927368164 -105.475914001465 2.309109210968
46.134468078613 -73.293876647949 -100.603286743164 1.974159717560
46.568119049072 -74.483215332031 -104.566665649414 2.747220277786
-89.412910461426 -74.815162658691 -105.512031555176 2.878813982010
48.021331787109 -78.953086853027 -113.787208557129 2.893773794174
36.435070037842 -78.639892578125 -116.889488220215 1.741992712021
32.680004119873 -74.057205200195 -127.544601440430 2.840001821518
111.377838134766 -74.734588623047 -125.462638854980 2.165250301361
111.345329284668 -75.490882873535 -126.005111694336 1.284778833389
109.533241271973 -75.142883300781 -126.766143798828 1.033561229706
113.345329284668 -77.081001281738 -131.212661743164 1.365059971809
40.909896850586 -75.990806579590 -134.792221069336 3.257827043533
41.811428070068 -74.526763916016 -139.717483520508 2.670886278152
29.959484100342 -74.866950988770 -137.094039916992 2.982445240021
24.164854049683 -74.977210998535 -143.956375122070 1.283132791519
111.056976318359 -76.511711120605 -145.479446411133 2.011136531830
112.351646423340 -76.324989318848 -150.612442016602 2.456963300705
-46.638198852539 -72.153175354004 -149.395401000977 2.625825881958
23.689224243164 -74.336158752441 -147.287628173828 1.722141981125
-66.481956481934 -75.843772888184 -153.374313354492 0.937146365643
-71.315002441406 -72.313789367676 -151.875427246094 2.266438961029
110.171127319336 -77.845031738281 -156.999938964844 1.528511166573
115.962318420410 -76.347190856934 -158.010025024414 1.824013710022
32.492980957031 -75.285270690918 -157.240524291992 2.041396856308
-69.365890502930 -75.035308837891 -155.173767089844 1.860002517700
4.334716796875 -73.324157714844 -159.735992431641 0.645240128040
4.227389812469 -73.743835449219 -159.451522827148 0.608171939850
-64.445632934570 -72.184387207031 -162.335083007813 0.365223109722
-43.341636657715 -75.812118530273 -165.082473754883 1.022490620613
23.294212341309 -77.451347351074 -168.686767578125 0.975267350674
108.671592712402 -79.929397583008 -161.045837402344 4.119410991669
32.513027191162 -74.091972351074 -164.148742675781 0.672453463078
1.651875019073 -74.539016723633 -166.966796875000 1.843286037445
19.367193222046 -78.733497619629 -167.355529785156 3.484855651855
-62.540977478027 -75.871429443359 -167.191238403320 0.630907595158
-60.878929138184 -75.255989074707 -169.267150878906 1.493066430092
-42.427436828613 -74.807411193848 -170.141387939453 2.285424947739
27.334634780884 -75.301368713379 -172.329956054688 1.611352443695
20.440933227539 -77.257598876953 -171.653045654297 1.088066697121
28.602369308472 -76.407112121582 -169.685699462891 2.070126295090
22.277881622314 -72.504760742188 -174.019515991211 3.422554492950
-27.726081848145 -73.115112304688 -174.947250366211 2.935414552689
17.131406784058 -75.691436767578 -176.942169189453 1.478293895721
17.952621459961 -73.713577270508 -179.884277343750 1.604488730431
-58.459693908691 -75.934127807617 -176.804214477539 1.700002312660
107.780502319336 -75.547569274902 -182.733154296875 0.671110391617
15.160325050354 -75.339485168457 -181.166625976563 0.636547684669
28.411899566650 -73.532066345215 -178.986694335938 1.496698975563
-30.001968383789 -74.923622131348 -187.315338134766 0.184270188212
-46.111591339111 -74.047554016113 -188.739654541016 3.336320161819
15.572685241699 -78.172073364258 -189.700424194336 2.230107545853
-52.044490814209 -75.746711730957 -187.751983642578 1.822445392609
103.482299804688 -76.208206176758 -189.279357910156 1.310010671616
-49.671188354492 -72.149757385254 -192.849624633789 4.397391319275
-146.720214843750 -74.175872802734 -189.944732666016 2.267923116684
15.255567550659 -74.255332946777 -193.699066162109 2.799762248993
-40.857242584229 -75.146400451660 -200.271575927734 1.412703514099
16.710828781128 -75.510948181152 -196.377960205078 2.471879243851
-15.504707336426 -73.642143249512 -196.473800659180 1.021751999855
15.883540153503 -74.139343261719 -197.894119262695 3.175440311432
-135.660476684570 -73.479064941406 -194.971023559570 2.757354974747
17.879981994629 -76.538619995117 -198.040542602539 1.821673750877
-135.149505615234 -73.313011169434 -200.460174560547 0.938446164131
-140.396301269531 -75.937126159668 -201.946044921875 0.537870049477
-34.424781799316 -77.461997985840 -203.901153564453 1.052695751190
98.700477600098 -75.697235107422 -204.492340087891 1.337082386017
-155.190994262695 -73.721549987793 -201.580749511719 2.889280557632
-12.814662933350 -77.734725952148 -206.607727050781 0.736075222492
-32.200515747070 -77.638244628906 -203.646499633789 1.188517808914
-38.643722534180 -79.590957641602 -206.005142211914 1.730945348740
9.054286956787 -76.440887451172 -209.589370727539 1.425918817520
93.781120300293 -74.415077209473 -208.476242065430 1.177111387253
-73.911026000977 -76.149223327637 -209.892837524414 1.346904635429
-33.251514434814 -75.961219787598 -208.784591674805 1.442060232162
-8.063503265381 -74.426757812500 -215.927017211914 2.858149290085
-70.554328918457 -76.590087890625 -212.892410278320 1.492164015770
-35.674919128418 -75.678199768066 -212.934524536133 2.696690797806
-18.434661865234 -78.549346923828 -215.531845092773 3.302113056183
-25.754373550415 -73.642211914063 -214.500244140625 2.340077161789
95.274085998535 -77.364982604980 -217.164596557617 3.486664056778
-74.938461303711 -75.204780578613 -212.523818969727 1.560723423958
17.486034393311 -76.540824890137 -221.522644042969 1.311436533928
6.075040817261 -75.505256652832 -215.732986450195 1.025671243668
-4.858899116516 -73.505157470703 -220.471054077148 2.436708211899
-92.635650634766 -77.623283386230 -218.759033203125 2.535754203796
4.536672115326 -73.450744628906 -225.886169433594 1.389201045036
-17.305885314941 -76.202278137207 -221.257003784180 2.555314064026
19.514600753784 -75.374595642090 -221.933364868164 0.645687639713
81.212234497070 -77.246009826660 -223.796447753906 2.351702690125
-152.867691040039 -77.466651916504 -223.799819946289 1.526068210602
-13.553088188171 -76.695457458496 -223.262466430664 1.529959797859
83.740951538086 -75.482009887695 -226.793518066406 2.371116876602
-141.917907714844 -75.016654968262 -227.489944458008 2.239742755890
17.054759979248 -71.036491394043 -227.441390991211 2.757422208786
-6.074962139130 -75.502891540527 -224.999465942383 2.019191741943
7.054930210114 -77.356475830078 -225.246002197266 1.857990264893
21.630558013916 -76.456115722656 -230.898864746094 3.656539916992
69.615760803223 -74.617042541504 -236.409866333008 1.588373780251
78.119956970215 -75.730224609375 -236.552566528320 4.463012695313
7.964341163635 -76.900482177734 -237.199035644531 1.222136735916
2.318356037140 -72.611900329590 -237.827957153320 2.373992919922
0.044525999576 -74.528350830078 -239.397109985352 1.655423164368
2.883014917374 -76.670082092285 -239.520538330078 1.238431453705
-44.347713470459 -78.668075561523 -237.742050170898 3.659028291702
5.286740779877 -75.641304016113 -239.903518676758 0.673514187336
-36.187065124512 -72.489318847656 -246.516647338867 4.328216552734
8.209136009216 -72.707763671875 -245.565872192383 1.886260032654
9.179138183594 -76.717552185059 -248.317565917969 2.464866399765
18.446455001831 -75.331085205078 -251.043609619141 2.638585329056
18.848924636841 -71.681343078613 -250.681442260742 1.040026664734
-79.367767333984 -77.438453674316 -249.733810424805 2.903295993805
19.381484985352 -75.967559814453 -250.952392578125 2.935563087463
-74.344322204590 -75.444824218750 -254.775695800781 1.872841477394
-143.365844726563 -73.230514526367 -257.619934082031 2.145890474319
-128.884811401367 -73.865280151367 -260.029418945313 2.176606416702
-136.563400268555 -73.750442504883 -261.972686767578 1.199920892715
-133.152999877930 -75.770156860352 -261.047332763672 1.939715147018
-152.199874877930 -79.113594055176 -266.442047119141 2.496195316315
-146.983383178711 -78.001937866211 -273.758331298828 2.190490245819
-148.546585083008 -77.055198669434 -266.702270507813 1.950219631195
-151.809799194336 -74.652351379395 -280.002014160156 2.732597112656
-164.051223754883 -71.572135925293 -284.471313476563 2.501958847046
-130.402465820313 -74.299964904785 -284.632263183594 1.166713714600
-49.447052001953 -76.855476379395 -286.099456787109 0.861387729645
-62.043235778809 -74.686210632324 -282.639648437500 3.537256240845
-73.451583862305 -73.390846252441 -287.460571289063 3.174264192581
-0.292369008064 -77.532752990723 -285.238922119141 2.146605253220
-125.833755493164 -73.816986083984 -285.842041015625 2.059111356735
2.292593002319 -76.983581542969 -288.245605468750 1.964535117149
-135.618270874023 -75.785285949707 -287.358032226563 0.898813545704
-93.506683349609 -76.823532104492 -288.057891845703 2.347766876221
-81.437355041504 -74.109420776367 -290.491668701172 2.048111438751
-159.329025268555 -75.243515014648 -289.516876220703 2.102943658829
-139.864212036133 -75.927001953125 -291.734222412109 2.327767133713
-116.382949829102 -75.490997314453 -290.057312011719 1.917430639267
-68.633956909180 -77.160346984863 -288.065551757813 1.042077660561
15.894170761108 -74.013854980469 -292.811431884766 1.684069514275
-32.821575164795 -77.621086120605 -292.392791748047 1.992484211922
-18.537593841553 -75.240684509277 -293.022430419922 2.044598579407
-133.283721923828 -74.642326354980 -292.305938720703 2.889595031738
-131.979583740234 -73.815071105957 -294.952301025391 2.714526653290
-144.446243286133 -73.065124511719 -295.729736328125 1.567631006241
-147.367263793945 -74.562561035156 -301.764373779297 1.961404442787
-147.595947265625 -72.827857971191 -309.791473388672 3.134318351746
-56.212982177734 -74.971450805664 -55.159687042236 0.241720065475
-75.349105834961 -72.469367980957 -56.151615142822 4.129242897034
-76.718948364258 -73.606994628906 -56.172008514404 3.408639907837
-24.422239303589 -75.041076660156 -60.764625549316 0.736684083939
-19.096647262573 -73.704330444336 -61.471958160400 3.033897876740
-79.561294555664 -74.202995300293 -66.953491210938 2.801944255829
-85.702827453613 -75.328796386719 -69.600791931152 2.130820751190
86.576110839844 -74.182830810547 -74.555564880371 1.247221231461
92.677658081055 -77.503280639648 -75.875358581543 3.379890441895
-91.436210632324 -73.216400146484 -76.414909362793 1.494520306587
-28.074924468994 -77.209007263184 -75.958206176758 1.866291999817
95.589393615723 -74.561012268066 -81.022232055664 1.968534708023
94.035255432129 -73.933967590332 -87.447914123535 3.083895683289
-91.439178466797 -70.286598205566 -76.701110839844 2.919960021973
-47.701412200928 -72.993057250977 -85.057640075684 2.044914484024
100.305053710938 -73.581039428711 -90.573745727539 2.661048889160
-54.819835662842 -76.922294616699 -89.467056274414 1.631810307503
55.902503967285 -77.170867919922 -94.783546447754 2.814595699310
-57.631267547607 -75.297203063965 -90.529968261719 3.051359415054
51.518318176270 -73.768348693848 -94.120071411133 2.084559202194
46.846126556396 -77.465072631836 -99.330825805664 1.280770301819
54.991176605225 -75.106887817383 -95.838768005371 1.104019641876
54.054244995117 -74.913337707520 -99.779792785645 2.089169263840
44.448333740234 -74.269874572754 -106.782875061035 3.155388832092
109.891380310059 -76.290702819824 -105.918235778809 2.620977878571
-79.995437622070 -73.080123901367 -109.697586059570 4.434549808502
-83.450057983398 -73.343864440918 -108.432647705078 2.157037019730
110.498252868652 -74.923431396484 -113.318191528320 2.431932449341
47.141998291016 -75.704971313477 -116.237724304199 1.539434075356
48.300731658936 -74.020606994629 -121.531295776367 2.648690700531
-87.313598632813 -75.634666442871 -115.451591491699 0.142592146993
111.551155090332 -76.522094726563 -115.544486999512 3.969252347946
113.935333251953 -71.386024475098 -119.616569519043 1.936753749847
44.274078369141 -76.830032348633 -124.149307250977 1.768099904060
112.128227233887 -76.703109741211 -127.349761962891 1.577995896339
109.076469421387 -74.681335449219 -132.034301757813 2.261461019516
28.887523651123 -73.117591857910 -135.281326293945 1.797228217125
115.330871582031 -75.647880554199 -139.514495849609 2.391714811325
110.278793334961 -76.255874633789 -133.251022338867 2.395789861679
-60.056682586670 -73.308197021484 -136.246917724609 3.196347951889
-54.886394500732 -74.847793579102 -138.418380737305 0.891601502895
27.654190063477 -73.139526367188 -143.265686035156 2.209608316422
-52.683708190918 -69.806053161621 -134.503707885742 2.369311094284
-73.669586181641 -71.730964660645 -139.646163940430 0.710300743580
-70.795555114746 -73.098075866699 -144.174758911133 1.760307312012
106.285835266113 -76.993194580078 -141.948074340820 3.638295888901
-54.550270080566 -74.856178283691 -146.495285034180 1.632297635078
-72.509574890137 -73.369018554688 -145.323257446289 1.925780057907
-41.424057006836 -74.603912353516 -145.786956787109 2.762211322784
113.374740600586 -72.950004577637 -154.905792236328 1.802674412727
25.402379989624 -74.005889892578 -154.564971923828 1.451261639595
-74.400878906250 -75.116172790527 -156.173202514648 3.455394268036
-51.089683532715 -75.276855468750 -157.134841918945 0.793659567833
-35.352268218994 -77.488311767578 -154.781661987305 2.375120639801
-38.467235565186 -78.388839721680 -154.619400024414 1.276127099991
-70.263168334961 -76.351196289063 -158.244369506836 1.244237303734
11.242068290710 -74.830039978027 -160.748199462891 1.546318292618
-49.392692565918 -73.619956970215 -158.755401611328 1.081066608429
-45.524227142334 -74.267730712891 -158.471405029297 1.271309256554
30.753030776978 -74.991218566895 -162.847305297852 0.950032889843
-33.384593963623 -75.487342834473 -166.183700561523 1.112509250641
-68.797393798828 -76.537307739258 -165.238754272461 2.700376510620
108.238006591797 -74.928031921387 -162.626937866211 2.003936290741
109.775924682617 -71.669830322266 -166.684783935547 2.524287223816
30.758884429932 -74.472526550293 -166.699508666992 3.070674657822
113.001403808594 -72.600334167480 -168.412277221680 1.470568656921
108.341667175293 -76.361549377441 -169.359771728516 1.624506950378
18.762702941895 -77.265129089355 -176.417877197266 1.195501685143
-27.187881469727 -71.141395568848 -173.417297363281 2.668095350266
-52.448513031006 -76.106552124023 -177.658905029297 0.742471456528
110.786476135254 -75.372322082520 -179.929962158203 1.748215198517
-36.329181671143 -75.271614074707 -178.729476928711 2.657873392105
14.928152084351 -73.985527038574 -178.551589965820 2.043768405914
-33.851409912109 -72.064888000488 -177.266052246094 1.870528221130
-54.101772308350 -73.509086608887 -182.996536254883 1.262372374535
-147.559616088867 -73.129096984863 -182.894958496094 2.894952297211
-148.792160034180 -71.904083251953 -183.215759277344 2.880030632019
107.496437072754 -76.577766418457 -182.023345947266 1.435542583466
20.917934417725 -72.989219665527 -184.983139038086 2.809179544449
-55.426776885986 -73.234245300293 -184.222229003906 2.755429029465
-49.004631042480 -76.575508117676 -193.048522949219 0.785940349102
-47.204132080078 -72.661979675293 -190.883148193359 3.389507532120
-48.001461029053 -76.398811340332 -194.127990722656 1.583572626114
15.979834556580 -74.704399108887 -189.153839111328 0.318121463060
15.786853790283 -75.020393371582 -188.765869140625 0.703480839729
106.212608337402 -73.982345581055 -195.184402465820 1.561141967773
-23.756851196289 -73.406700134277 -196.477645874023 1.397119641304
-44.106994628906 -75.089302062988 -197.454330444336 1.556749343872
22.946418762207 -73.736328125000 -198.123031616211 2.046143770218
-42.319190979004 -73.272781372070 -197.500778198242 2.938673019409
98.968650817871 -76.417701721191 -201.218994140625 1.673744201660
-36.718276977539 -72.363975524902 -202.907043457031 2.475909233093
94.696334838867 -77.994903564453 -202.677246093750 1.596907615662
19.773784637451 -73.401657104492 -203.974441528320 1.106662631035
-37.974494934082 -72.741485595703 -206.353347778320 1.952804684639
17.637371063232 -72.015434265137 -201.741943359375 1.862873435020
-21.495119094849 -75.659217834473 -208.543090820313 1.930645823479
-39.499374389648 -74.751266479492 -205.170211791992 1.701155066490
93.412208557129 -76.147796630859 -209.462402343750 1.653057336807
9.438392639160 -74.309371948242 -207.982910156250 1.056672215462
90.083534240723 -71.584739685059 -218.464050292969 1.110497713089
-7.170710086823 -76.019668579102 -212.629547119141 0.971532642841
-24.115951538086 -74.547050476074 -210.325286865234 1.687883734703
-79.340843200684 -74.394096374512 -213.077880859375 1.404576182365
85.185043334961 -75.213920593262 -219.561614990234 2.282680749893
-19.264247894287 -74.715255737305 -218.384140014648 1.294237375259
18.539266586304 -73.011802673340 -218.559036254883 1.788130640984
-25.747013092041 -76.822257995605 -218.907409667969 1.403338313103
-29.614233016968 -74.116340637207 -216.552871704102 1.315110206604
-98.804077148438 -75.200553894043 -219.580703735352 2.403051853180
-9.397390365601 -72.914199829102 -221.732818603516 1.466759920120
-20.922399520874 -74.252365112305 -222.176025390625 0.996929883957
0.858090996742 -74.299758911133 -225.306579589844 1.575107812881
14.878628730774 -76.846405029297 -223.101791381836 1.574762344360
-14.173815727234 -73.648872375488 -223.494888305664 1.552723526955
-13.591064453125 -79.208740234375 -225.888366699219 2.179882526398
17.959409713745 -75.567802429199 -224.552047729492 0.506029367447
8.504324913025 -75.238647460938 -222.826950073242 0.548788487911
6.938415050507 -76.401092529297 -221.769622802734 1.312829971313
-128.857330322266 -75.225006103516 -229.773849487305 1.106768250465
-12.447439193726 -73.755668640137 -228.123245239258 1.155503749847
78.666015625000 -74.906288146973 -230.144287109375 0.810332477093
-15.989970207214 -75.500259399414 -228.677490234375 0.924172937870
-151.934539794922 -76.925659179688 -229.663940429688 1.870363712311
-128.989532470703 -74.961456298828 -233.247192382813 1.529160380363
-10.520106315613 -73.057357788086 -236.535629272461 1.137637019157
77.089118957520 -76.530227661133 -229.750015258789 2.436076879501
-7.226247787476 -75.383857727051 -231.109252929688 0.848671078682
-2.244205951691 -74.988349914551 -235.498001098633 2.411460638046
67.009841918945 -75.964149475098 -238.877227783203 2.270554065704
1.610391020775 -75.227287292480 -242.102081298828 0.910065293312
67.588409423828 -78.628707885742 -239.080490112305 4.041713714600
-153.830047607422 -72.854515075684 -244.889190673828 2.833007335663
63.295051574707 -72.338943481445 -240.036987304688 2.240907430649
-35.601913452148 -73.861419677734 -241.189620971680 0.504195392132
-37.735816955566 -72.789100646973 -242.654479980469 1.912417531013
13.476811408997 -75.344779968262 -240.185943603516 1.859891891479
-45.456108093262 -76.970130920410 -244.865951538086 2.335790634155
-25.507602691650 -75.091697692871 -243.541580200195 2.110045433044
6.770208835602 -72.433738708496 -243.780670166016 1.640928864479
-46.088077545166 -75.400703430176 -245.543518066406 1.368066906929
-144.665893554688 -71.176490783691 -246.267318725586 3.147690057755
16.194593429565 -73.927955627441 -241.010711669922 2.141762733459
-149.952377319336 -77.181388854980 -241.761383056641 1.776050567627
-71.179100036621 -75.448905944824 -247.730239868164 1.386747956276
-4.804806232452 -77.117385864258 -248.952774047852 1.717977404594
-8.578995704651 -73.192306518555 -250.257064819336 2.228797197342
-81.791213989258 -74.381469726563 -248.502380371094 2.468597650528
-150.920166015625 -72.913650512695 -253.683135986328 1.823262810707
-147.716690063477 -78.953117370605 -252.526794433594 1.064401626587
-87.406158447266 -74.739913940430 -258.324432373047 2.930199384689
-162.239791870117 -74.394119262695 -259.504150390625 1.710667967796
-125.511817932129 -76.841117858887 -255.990249633789 1.903969645500
25.105907440186 -73.362937927246 -259.603912353516 2.158795118332
-155.173294067383 -72.836654663086 -257.379974365234 1.848929762840
-145.348876953125 -71.272850036621 -258.588165283203 2.739143371582
-163.865615844727 -73.361450195313 -259.895477294922 0.867131412029
-135.736251831055 -70.169509887695 -261.017028808594 1.935113549232
-122.977897644043 -74.888336181641 -262.953369140625 1.254698753357
-161.153244018555 -76.639564514160 -266.233062744141 3.404725074768
-144.471862792969 -74.426239013672 -261.198089599609 2.590518236160
-166.451004028320 -73.545722961426 -265.409149169922 2.197202205658
-154.126220703125 -72.824172973633 -261.847229003906 2.593974351883
-160.720306396484 -71.996726989746 -267.065521240234 2.157536983490
-168.040939331055 -73.045478820801 -262.531799316406 2.422734022141
18.452573776245 -79.890609741211 -274.094818115234 1.314840793610
14.052409172058 -75.871101379395 -274.081176757813 4.257032394409
-159.286209106445 -72.925979614258 -275.305603027344 1.811254620552
-158.097610473633 -73.789970397949 -272.963623046875 2.576691627502
-167.235412597656 -70.378692626953 -279.840087890625 3.135020494461
-155.418319702148 -73.561996459961 -272.098754882813 3.174223661423
-152.288330078125 -70.961700439453 -272.539611816406 2.301462650299
-150.663330078125 -72.878242492676 -273.915405273438 1.311202287674
-141.099121093750 -73.114601135254 -280.356109619141 4.317377090454
-162.000732421875 -73.963363647461 -278.566070556641 4.250141620636
-153.895568847656 -71.883789062500 -283.494506835938 2.750785589218
18.539283752441 -74.021865844727 -282.488494873047 1.339512825012
-153.135101318359 -76.371269226074 -282.187774658203 2.187396049500
-160.176284790039 -75.599876403809 -283.493530273438 3.770691156387
-161.988479614258 -73.348648071289 -281.990783691406 4.050832271576
-127.581565856934 -73.541351318359 -287.065704345703 2.888448715210
-30.888584136963 -75.287956237793 -286.559204101563 2.102156400681
-43.480457305908 -73.432487487793 -284.904357910156 2.778940439224
-67.920021057129 -72.303527832031 -289.566528320313 1.552585840225
-14.930835723877 -71.957069396973 -287.658447265625 1.457205414772
11.520327568054 -75.775222778320 -286.495483398438 2.564498662949
-2.271889925003 -76.380325317383 -290.106842041016 1.448389530182
-111.455986022949 -75.357452392578 -290.019622802734 2.683342456818
-96.293373107910 -73.194625854492 -287.339202880859 2.343750238419
-113.560951232910 -74.245170593262 -292.076385498047 1.269350171089
-103.157318115234 -74.516769409180 -289.054565429688 1.314848065376
-92.700454711914 -76.095817565918 -291.115722656250 2.070350170135
-48.274375915527 -73.974304199219 -288.768280029297 2.285161018372
-118.585182189941 -74.754898071289 -289.976806640625 1.974279999733
-86.637725830078 -73.153259277344 -292.182373046875 1.461301445961
-116.223777770996 -73.784149169922 -293.402557373047 1.005649089813
-135.264907836914 -74.929519653320 -291.484039306641 1.426469326019
-11.146027565002 -72.857162475586 -294.208435058594 3.455476522446
11.561716079712 -75.129325866699 -294.584075927734 1.565103888512
-153.254257202148 -74.037933349609 -295.266540527344 1.969237327576
-158.084609985352 -76.426795959473 -310.629394531250 3.809940814972
-64.648284912109 -71.713020324707 -54.777164459229 3.004546642303
-59.136867523193 -72.973060607910 -53.606578826904 3.688912153244
-53.668910980225 -77.061775207520 -57.773674011230 1.428605794907
-72.784118652344 -73.860801696777 -55.411758422852 3.213953495026
-41.056121826172 -77.522682189941 -57.958404541016 2.347827672958
-77.299697875977 -73.942481994629 -58.584079742432 2.867841243744
-80.601036071777 -73.580146789551 -62.991271972656 1.796284914017
-17.649265289307 -76.072158813477 -72.490020751953 1.662274599075
-16.742115020752 -75.904350280762 -72.963302612305 2.519380092621
75.856208801270 -74.958503723145 -76.099395751953 2.191200494766
-36.007282257080 -73.533973693848 -80.816902160645 3.391724348068
-34.489479064941 -75.035697937012 -76.679855346680 2.222786188126
69.628570556641 -71.390556335449 -81.767646789551 0.999374210835
98.863548278809 -77.197608947754 -87.951782226563 3.335256099701
-54.529598236084 -73.520515441895 -92.734481811523 2.591557502747
60.854793548584 -75.012672424316 -97.332626342773 3.268642902374
48.786956787109 -72.674560546875 -96.729568481445 1.854989290237
50.297508239746 -73.929527282715 -99.692283630371 2.404185295105
41.010105133057 -72.754364013672 -102.207588195801 2.521538972855
109.900688171387 -75.094802856445 -99.584266662598 3.480608224869
60.453758239746 -71.689651489258 -93.958435058594 1.282269001007
-95.182632446289 -74.862701416016 -102.233222961426 3.494800329208
-74.224380493164 -70.715270996094 -102.055320739746 2.041007995605
57.253570556641 -72.949172973633 -100.566444396973 1.814812302589
44.443340301514 -70.492210388184 -103.873992919922 0.291258126497
43.615715026855 -72.398590087891 -106.264114379883 1.952203035355
-92.976631164551 -72.925453186035 -113.003341674805 1.124461770058
37.406238555908 -73.172172546387 -110.638755798340 1.040537595749
52.553249359131 -72.667259216309 -113.551002502441 3.631424903870
44.131641387939 -74.406097412109 -119.279548645020 2.318691730499
46.694084167480 -72.596229553223 -123.668869018555 2.969678640366
115.879608154297 -73.171264648438 -129.975814819336 1.625426173210
-55.367816925049 -72.770462036133 -131.714935302734 2.018367528915
38.872241973877 -75.368209838867 -137.053283691406 2.989178657532
38.212787628174 -74.121742248535 -136.023635864258 2.410731077194
114.693305969238 -75.661102294922 -139.856124877930 2.083825588226
-73.352378845215 -72.093856811523 -133.836761474609 2.560448408127
-54.898941040039 -73.613281250000 -139.737411499023 0.674717783928
120.295097351074 -72.816085815430 -138.255996704102 3.684554338455
-72.670852661133 -73.284332275391 -140.866897583008 0.531496226788
-47.968364715576 -72.254783630371 -145.693283081055 1.954919338226
-60.210315704346 -70.330078125000 -144.442977905273 2.372453927994
109.585845947266 -73.858940124512 -141.007202148438 1.793429851532
22.280122756958 -76.864799499512 -150.851882934570 1.961217403412
31.789981842041 -73.249351501465 -147.163650512695 1.339952707291
-43.038940429688 -72.798507690430 -152.378143310547 2.376385450363
-65.215141296387 -72.930793762207 -152.962158203125 1.218272566795
25.511934280396 -77.050094604492 -151.916656494141 2.499675273895
-72.078636169434 -72.767517089844 -152.366699218750 1.846281409264
31.881278991699 -74.597305297852 -150.368286132813 2.037514448166
-36.062156677246 -73.664916992188 -156.427078247070 2.740346908569
24.238704681396 -73.980560302734 -153.959167480469 0.449149280787
10.838865280151 -74.913719177246 -156.245452880859 1.723378777504
-70.524475097656 -73.182754516602 -161.732162475586 1.881269335747
-48.310512542725 -76.710655212402 -158.330795288086 1.482599377632
-60.165695190430 -75.352951049805 -159.325027465820 3.412401199341
-49.093456268311 -74.726882934570 -159.282638549805 0.774647355080
5.919236183167 -74.271987915039 -162.155914306641 2.173339843750
-33.669868469238 -74.763916015625 -168.038101196289 2.314954519272
-41.532321929932 -75.549736022949 -166.349487304688 2.986787080765
21.156188964844 -73.322624206543 -167.728164672852 1.454630494118
-41.102790832520 -75.919067382813 -168.249298095703 3.006261587143
26.894958496094 -72.587257385254 -167.562316894531 1.040257692337
116.639282226563 -71.870170593262 -167.613876342773 2.360693693161
-31.314161300659 -74.399688720703 -172.320892333984 2.121157407761
28.350585937500 -76.468177795410 -172.802383422852 1.245440602303
-65.878974914551 -74.061981201172 -170.865707397461 1.138758540154
-58.366703033447 -72.425163269043 -171.225189208984 1.747722268105
-42.232440948486 -70.728332519531 -171.514907836914 2.135435342789
-60.600460052490 -74.618293762207 -175.609619140625 2.004144668579
109.073036193848 -74.793861389160 -176.522598266602 0.841787636280
-147.153289794922 -72.106384277344 -175.752487182617 1.254367351532
-143.746627807617 -74.199684143066 -177.356781005859 1.363744497299
-56.745960235596 -73.174240112305 -177.868667602539 1.248010158539
105.268913269043 -74.749267578125 -178.116058349609 2.426913976669
109.674484252930 -73.342048645020 -179.080688476563 2.642053127289
107.559944152832 -73.093894958496 -182.201049804688 0.815104246140
24.370426177979 -75.549720764160 -188.243118286133 1.950291752815
-34.952522277832 -75.045387268066 -181.364868164063 2.397359132767
-137.785339355469 -72.687858581543 -184.846466064453 5.058902263641
107.438514709473 -72.521102905273 -185.087005615234 0.950226068497
21.742618560791 -73.393699645996 -194.899887084961 2.339046239853
106.258377075195 -72.690711975098 -194.448806762695 0.944301605225
104.074066162109 -69.849395751953 -194.635574340820 4.417867660522
10.082386970520 -80.592590332031 -197.634216308594 3.355298995972
-130.810638427734 -73.298423767090 -197.503021240234 1.218899369240
-123.303474426270 -70.761016845703 -197.377960205078 0.922431588173
-144.800003051758 -77.680709838867 -200.668792724609 1.952591180801
-131.202743530273 -72.427787780762 -200.001953125000 0.613954603672
-122.023017883301 -73.977775573730 -201.338226318359 1.424435496330
-21.354246139526 -75.162178039551 -203.220214843750 1.345670580864
-24.381467819214 -74.917022705078 -202.767227172852 1.436235785484
-129.621917724609 -74.006401062012 -200.727264404297 2.056102037430
-140.549285888672 -74.392883300781 -201.975418090820 1.718303084373
-12.682044982910 -73.937660217285 -210.971176147461 3.895550251007
96.642234802246 -73.697807312012 -202.091400146484 2.662022352219
-19.829113006592 -75.556694030762 -204.683746337891 1.830917954445
89.404563903809 -70.904891967773 -211.551956176758 1.879915595055
17.770736694336 -73.200202941895 -208.641326904297 1.079326629639
-5.666917800903 -73.621360778809 -214.817077636719 2.028635978699
18.441106796265 -74.574302673340 -211.014190673828 1.896136522293
-30.337829589844 -71.626884460449 -209.785614013672 2.330881118774
-84.661735534668 -75.805366516113 -215.961074829102 2.198966264725
-92.483039855957 -75.402809143066 -216.051071166992 1.920267701149
-12.069204330444 -76.612472534180 -218.241729736328 1.695591449738
-94.495788574219 -73.557701110840 -216.668823242188 1.502557873726
-95.828239440918 -72.715583801270 -217.611236572266 1.363016009331
84.771003723145 -72.209091186523 -220.993011474609 1.402133345604
-24.037605285645 -75.347457885742 -223.568359375000 0.703704297543
-22.335977554321 -70.579261779785 -225.351211547852 2.420961618423
-22.946809768677 -73.163612365723 -220.571640014648 1.716752648354
-19.057640075684 -72.955924987793 -223.832458496094 1.632588982582
-18.518611907959 -73.154098510742 -222.560928344727 0.872830271721
14.941656112671 -74.690818786621 -223.078231811523 2.004809379578
-138.988021850586 -72.892509460449 -227.457931518555 2.435325622559
76.679069519043 -74.516098022461 -226.158599853516 2.224844694138
-3.891002893448 -75.102531433105 -229.831405639648 1.372580528259
10.317213058472 -76.302459716797 -233.674743652344 1.313651800156
79.655479431152 -73.455490112305 -230.603897094727 1.748959541321
-124.212768554688 -74.369880676270 -230.849960327148 1.355786204338
-160.270080566406 -72.883735656738 -235.373672485352 1.072376966476
-135.779388427734 -74.592231750488 -231.722732543945 1.440793871880
14.501774787903 -76.313644409180 -231.478302001953 2.059544086456
7.852540016174 -73.307708740234 -231.857009887695 1.752367615700
-125.265823364258 -75.291275024414 -233.223861694336 1.012582063675
-1.550351977348 -76.131820678711 -237.588409423828 0.703139603138
-147.030822753906 -71.846443176270 -236.132110595703 2.411133766174
-3.569925069809 -78.366294860840 -235.420410156250 3.111630439758
10.887698173523 -73.012016296387 -237.042297363281 0.795260012150
-3.071124076843 -73.608078002930 -236.902587890625 1.975592255592
-3.393985033035 -75.844093322754 -243.205795288086 2.712700128555
7.059493064880 -77.183059692383 -238.788986206055 0.669842898846
-162.080688476563 -75.855285644531 -241.176071166992 1.585324645042
-155.975219726563 -74.520095825195 -238.400314331055 2.202365159988
19.501995086670 -72.535308837891 -242.951538085938 2.117271900177
-2.393997907639 -75.718093872070 -240.128585815430 2.242523908615
65.521171569824 -74.945259094238 -242.937454223633 2.679348707199
62.157752990723 -72.521080017090 -241.129104614258 1.169815778732
-164.812698364258 -72.053237915039 -243.828323364258 2.514408588409
-160.446807861328 -70.995964050293 -245.545333862305 2.001255750656
-151.523117065430 -73.356605529785 -242.198074340820 2.431515693665
-56.784267425537 -72.984458923340 -242.700668334961 2.942927122116
-7.313571929932 -71.044677734375 -244.430587768555 1.363648056984
-53.049991607666 -75.118965148926 -243.608322143555 1.722906231880
-153.910568237305 -75.986679077148 -249.615951538086 2.950757503510
-58.379867553711 -71.395973205566 -245.706970214844 0.933819353580
16.727186203003 -69.934562683105 -247.817703247070 1.741847276688
-9.841791152954 -74.430397033691 -247.331802368164 1.249825716019
-7.792867183685 -72.782295227051 -252.126617431641 2.730945825577
-159.342147827148 -72.096466064453 -249.447006225586 1.189611792564
-164.794570922852 -72.753089904785 -250.312820434570 2.395823240280
-84.684593200684 -71.973182678223 -247.403030395508 2.080584049225
-163.882705688477 -74.074028015137 -252.350936889648 1.515208482742
-146.640869140625 -73.989791870117 -254.312469482422 1.857204794884
-73.851783752441 -72.496612548828 -253.954788208008 1.401326775551
-95.559089660645 -72.910202026367 -257.252471923828 1.250801205635
-85.951522827148 -73.846801757813 -253.207595825195 1.930093884468
-134.471923828125 -74.107116699219 -257.497589111328 1.721276640892
21.882965087891 -73.860649108887 -255.674255371094 1.262536287308
-97.625549316406 -70.706451416016 -257.746246337891 1.318142771721
-101.056648254395 -70.628517150879 -260.499420166016 0.570171654224
-102.705177307129 -69.478385925293 -259.486450195313 1.798427820206
-114.904205322266 -73.760055541992 -260.392272949219 1.265092730522
-109.167037963867 -74.036239624023 -261.555999755859 1.490581870079
-115.749626159668 -73.901504516602 -261.622802734375 0.925257027149
-144.449539184570 -75.384796142578 -264.893920898438 2.157884836197
-130.676422119141 -72.928070068359 -263.333435058594 1.201326251030
-152.462066650391 -71.155220031738 -263.993988037109 0.907766878605
-146.608825683594 -73.494056701660 -271.083343505859 3.993987321854
-166.457321166992 -73.446533203125 -276.038360595703 1.561707139015
-9.824063301086 -75.066551208496 -279.293701171875 3.040077447891
-128.982070922852 -74.890068054199 -284.328155517578 1.659052133560
-138.973815917969 -74.651290893555 -286.762115478516 2.509081125259
-44.361621856689 -73.056549072266 -288.572326660156 1.425439834595
-88.022651672363 -72.703788757324 -289.018646240234 2.382642507553
-27.889942169189 -74.798660278320 -289.796691894531 2.045426607132
-33.487010955811 -72.442344665527 -290.327575683594 2.583766937256
-117.603973388672 -75.866516113281 -285.842071533203 1.232620239258
-18.428087234497 -74.016952514648 -289.165130615234 2.714430570602
13.883157730103 -73.166152954102 -291.058227539063 1.199102759361
-52.966926574707 -73.216407775879 -287.984252929688 2.044208288193
-117.540969848633 -72.717559814453 -293.575836181641 1.508772253990
-77.980049133301 -70.517631530762 -290.775878906250 1.445410609245
-69.763748168945 -70.574050903320 -291.139434814453 1.850355148315
-30.588403701782 -74.116363525391 -291.011199951172 2.802344799042
-100.496238708496 -73.039489746094 -290.824310302734 1.669605374336
-112.868370056152 -72.982727050781 -291.927673339844 1.237851142883
-10.787530899048 -71.307746887207 -296.815368652344 5.838650703430
-161.813934326172 -70.720809936523 -292.122589111328 1.692044258118
-151.573669433594 -75.212471008301 -300.634704589844 2.069906711578
-152.452896118164 -73.874465942383 -313.849945068359 2.061772823334
31.825447082520 -74.750785827637 -17.546779632568 1.674659609795
26.880741119385 -75.505393981934 -18.663888931274 3.052487850189
28.135063171387 -72.350479125977 -22.141975402832 1.834192991257
23.365343093872 -71.308944702148 -27.130735397339 2.380370378494
25.410923004150 -74.400352478027 -33.933063507080 3.051790237427
33.234989166260 -71.275947570801 -39.506881713867 0.882661640644
24.714860916138 -75.224555969238 -41.965911865234 5.536870956421
-54.968452453613 -73.085159301758 -52.002494812012 3.561405420303
-29.922210693359 -68.324035644531 -53.338325500488 1.673801898956
86.951103210449 -70.555694580078 -70.395133972168 2.997480630875
-89.477951049805 -73.038925170898 -73.537811279297 1.489933609962
72.841911315918 -73.457923889160 -76.433372497559 1.746636271477
-37.851779937744 -76.334007263184 -81.305191040039 1.748923420906
-92.673820495605 -71.839279174805 -83.155937194824 1.819457411766
-47.407279968262 -76.234504699707 -82.859336853027 2.977169513702
102.200950622559 -74.552612304688 -90.141838073730 3.314591884613
-92.586280822754 -73.001579284668 -92.374282836914 2.744671583176
68.522598266602 -73.121086120605 -93.493034362793 3.229932069778
-95.725646972656 -70.716552734375 -92.283599853516 2.003766059875
58.065567016602 -77.649932861328 -95.781578063965 4.215886116028
106.080879211426 -71.083045959473 -96.642822265625 1.399454712868
-69.585327148438 -73.567962646484 -101.519615173340 1.586266398430
44.281921386719 -70.640373229980 -99.084411621094 0.829646468163
78.889030456543 -72.541854858398 -104.527122497559 3.022461652756
85.921714782715 -72.954734802246 -101.897323608398 2.181127309799
44.190990447998 -71.867607116699 -102.607658386230 0.675438582897
108.784957885742 -76.939071655273 -104.606796264648 1.278370141983
-93.807998657227 -73.662483215332 -113.416358947754 1.816035151482
107.480392456055 -71.386199951172 -106.051460266113 0.999857366085
108.108276367188 -72.887115478516 -111.849952697754 1.427888751030
36.177463531494 -73.723045349121 -118.068107604980 2.346662521362
47.234863281250 -74.453216552734 -114.285034179688 1.063222289085
45.554164886475 -76.612823486328 -120.709266662598 1.341124892235
35.664356231689 -73.996528625488 -120.093246459961 1.717588543892
43.946163177490 -73.620536804199 -119.392120361328 2.050525903702
47.039012908936 -71.644073486328 -122.700057983398 3.300405979156
108.279083251953 -74.608016967773 -124.840408325195 2.376292705536
114.237998962402 -72.683990478516 -127.105522155762 1.229449748993
32.226371765137 -75.098266601563 -130.765167236328 2.896567344666
31.032829284668 -74.185951232910 -135.332122802734 2.777231931686
-71.165084838867 -72.205696105957 -136.064041137695 3.262604475021
-53.201877593994 -72.611457824707 -129.193923950195 3.034868001938
113.601402282715 -74.726310729980 -140.890457153320 1.508360624313
29.078159332275 -72.627372741699 -135.365310668945 1.386629104614
38.463439941406 -70.139678955078 -137.219650268555 2.103500843048
-78.575897216797 -72.375511169434 -140.543014526367 2.705210924149
28.168909072876 -74.044113159180 -138.721725463867 1.089258909225
24.819576263428 -75.513481140137 -142.939559936523 1.582061767578
-45.468441009521 -72.251182556152 -145.099960327148 1.455049514771
-71.988517761230 -72.039115905762 -145.925415039063 1.411758899689
-53.398246765137 -73.161231994629 -147.469772338867 2.063201665878
32.645229339600 -72.029701232910 -148.319946289063 0.727236211300
-53.378044128418 -73.810218811035 -153.877700805664 2.239135742188
36.180793762207 -72.439964294434 -156.637252807617 2.600285768509
30.232315063477 -69.654663085938 -162.445999145508 2.006946325302
110.998397827148 -72.041259765625 -155.451934814453 1.406001567841
25.068506240845 -74.577613830566 -156.757980346680 3.019084215164
15.551178932190 -73.823196411133 -157.753967285156 1.344802737236
-39.048946380615 -77.792213439941 -155.270996093750 1.485676169395
-72.006301879883 -70.666442871094 -156.581741333008 1.495801687241
-46.292076110840 -71.773773193359 -159.507614135742 2.818807601929
109.380722045898 -71.915534973145 -160.125228881836 1.016685247421
35.221744537354 -73.815849304199 -161.757492065430 2.956719875336
112.825683593750 -74.729011535645 -164.967666625977 2.379426717758
-34.962688446045 -73.425323486328 -162.948715209961 2.629690647125
19.170104980469 -68.963310241699 -170.443588256836 2.358901977539
1.206509947777 -72.163665771484 -165.270004272461 1.544937849045
-31.498907089233 -70.696434020996 -165.100952148438 2.293668031693
-60.937801361084 -70.749732971191 -167.076202392578 1.194412469864
-30.881561279297 -73.601684570313 -166.774673461914 1.257758498192
-58.455184936523 -74.488372802734 -172.329376220703 1.151124715805
-34.170578002930 -69.896644592285 -174.696258544922 1.673890829086
24.941110610962 -74.488716125488 -172.404769897461 3.158900737762
-38.852146148682 -74.157348632813 -176.337905883789 1.810444116592
-150.366729736328 -73.106803894043 -178.208480834961 2.770370721817
114.210365295410 -72.228561401367 -176.888732910156 1.629818558693
-149.700408935547 -70.845848083496 -184.092636108398 2.364316225052
-144.526718139648 -73.946868896484 -183.848968505859 1.554594516754
15.288311004639 -71.954315185547 -184.263992309570 1.704983949661
24.857477188110 -72.920509338379 -184.284408569336 1.977402091026
-37.218723297119 -71.248855590820 -187.107589721680 4.222960472107
-150.361755371094 -69.770912170410 -188.215713500977 1.134406208992
-29.794252395630 -72.408248901367 -188.998397827148 1.355093836784
-144.849609375000 -69.680305480957 -190.908172607422 3.039140939713
-18.359170913696 -72.507881164551 -195.726486206055 1.958961725235
13.960417747498 -75.982360839844 -193.631362915039 2.685486793518
99.241134643555 -73.353965759277 -201.805282592773 0.937185049057
7.877038002014 -78.261398315430 -196.839462280273 4.296819210052
-127.310173034668 -73.546310424805 -193.070892333984 3.449099540710
-131.765945434570 -72.023078918457 -196.731491088867 1.694929599762
-140.662658691406 -73.475646972656 -200.673477172852 1.650948762894
96.617675781250 -70.619125366211 -200.690139770508 1.521239995956
-132.773254394531 -74.345527648926 -203.021438598633 1.068172335625
7.576026916504 -73.367950439453 -205.986267089844 2.290647506714
-24.730468750000 -70.799842834473 -204.545425415039 1.947484135628
