-146.266403198242 -70.684051513672 -306.582611083984 2.190352678299
-152.968002319336 -68.682479858398 -310.503143310547 2.523471117020
42.038482666016 -68.004150390625 -22.068197250366 1.890206933022
51.634414672852 -70.246009826660 -24.339982986450 1.921598672867
47.670047760010 -70.126602172852 -32.460781097412 1.651392817497
-49.827136993408 -68.887420654297 -48.781948089600 1.896760702133
-71.854125976563 -70.584060668945 -45.169910430908 2.686236143112
-32.179271697998 -73.186614990234 -48.592964172363 4.163699150085
-87.270355224609 -72.356361389160 -62.450290679932 2.742890357971
82.621833801270 -69.515800476074 -62.120250701904 2.042329072952
87.504852294922 -74.120346069336 -65.998146057129 1.865000844002
-13.208129882813 -69.889961242676 -68.276863098145 2.297339916229
95.863365173340 -69.671440124512 -72.588233947754 2.443277835846
68.145133972168 -74.126564025879 -70.053092956543 5.634556770325
-38.876277923584 -67.111114501953 -77.292037963867 1.963255167007
-43.415843963623 -71.925621032715 -78.242416381836 2.606922864914
62.073860168457 -71.125305175781 -84.072067260742 2.214192390442
63.952381134033 -72.636360168457 -89.519165039063 2.832840681076
102.804847717285 -73.622673034668 -89.209442138672 3.048689126968
-58.916831970215 -70.880111694336 -86.198997497559 4.708056926727
-95.831054687500 -70.274597167969 -90.439933776855 1.562871098518
47.622093200684 -74.841918945313 -96.687263488770 1.728279948235
103.234748840332 -72.648414611816 -93.321228027344 3.672492980957
107.318115234375 -72.499290466309 -99.361877441406 1.755069136620
73.768310546875 -70.413101196289 -99.469818115234 1.372821807861
51.736656188965 -67.056282043457 -101.969398498535 0.864871382713
-96.109901428223 -70.023849487305 -102.288352966309 2.829653501511
48.785839080811 -68.885330200195 -101.447761535645 0.893748462200
53.727920532227 -69.774009704590 -102.556579589844 1.704427480698
81.684211730957 -69.686065673828 -102.309486389160 1.630331635475
85.549819946289 -70.853713989258 -105.635025024414 1.920352458954
-96.464965820313 -71.399169921875 -102.735710144043 2.826383352280
39.076042175293 -75.449180603027 -106.193962097168 2.021544933319
48.286918640137 -70.639404296875 -109.122703552246 1.095718502998
104.267646789551 -71.766586303711 -105.229980468750 1.776873946190
39.952342987061 -73.762199401855 -111.204605102539 1.999730348587
38.199974060059 -73.117225646973 -107.873207092285 2.152021646500
113.278823852539 -72.898010253906 -109.964599609375 1.544920682907
35.337188720703 -75.529449462891 -113.005065917969 2.889987468719
108.519645690918 -74.417541503906 -116.030364990234 3.249172925949
-76.603561401367 -68.813934326172 -111.959144592285 1.798667073250
-84.841583251953 -71.467658996582 -119.810607910156 2.366715669632
109.148681640625 -72.865341186523 -123.855140686035 1.787365555763
36.729606628418 -73.983291625977 -128.389984130859 3.022612094879
-61.299980163574 -70.291679382324 -126.151199340820 3.834189891815
-87.462951660156 -67.119537353516 -123.925186157227 1.137077927589
-58.396537780762 -74.534530639648 -130.719589233398 2.485694646835
-86.424087524414 -69.165130615234 -126.620475769043 1.566005825996
-71.988052368164 -69.973129272461 -129.816085815430 2.443577289581
-48.785518646240 -73.223609924316 -136.872955322266 0.333585888147
-88.095420837402 -70.264648437500 -133.377975463867 1.453988909721
-75.523071289063 -69.871124267578 -134.170120239258 0.460416913033
-76.682640075684 -66.695693969727 -133.181823730469 0.799771666527
-45.235202789307 -73.483650207520 -132.797729492188 4.258602619171
-76.815696716309 -71.122871398926 -137.744506835938 2.231300592422
-77.253242492676 -68.491165161133 -135.583145141602 1.198695540428
110.136024475098 -73.492965698242 -142.699768066406 1.745005011559
27.599742889404 -73.210060119629 -142.849990844727 1.787254810333
-42.876026153564 -69.659591674805 -146.206466674805 1.333074808121
114.617088317871 -71.050369262695 -143.063735961914 1.868658900261
-55.341873168945 -70.981262207031 -145.004394531250 1.516317963600
-52.835998535156 -66.460731506348 -142.828002929688 0.714896321297
32.023624420166 -72.167915344238 -149.549484252930 1.830591559410
27.046436309814 -71.007888793945 -149.342758178711 0.991735875607
117.030021667480 -75.857490539551 -150.151245117188 2.644701004028
-46.309276580811 -69.270317077637 -149.029571533203 0.242542609572
10.109490394592 -67.166564941406 -153.210144042969 0.440057843924
-48.244651794434 -70.080223083496 -156.414474487305 1.519103169441
30.076694488525 -71.784240722656 -152.410903930664 1.977305054665
110.284133911133 -69.965759277344 -152.117309570313 1.790558934212
114.713203430176 -71.715568542480 -157.459747314453 1.525865077972
32.116443634033 -68.885086059570 -155.895233154297 1.599515438080
112.115699768066 -73.118865966797 -156.568847656250 0.429609447718
24.525115966797 -73.143135070801 -162.831436157227 3.126230955124
111.658241271973 -74.444389343262 -158.539703369141 2.157033443451
26.155086517334 -71.160934448242 -161.121414184570 2.472561359406
25.627504348755 -70.893196105957 -164.029251098633 2.038377523422
111.156944274902 -71.065933227539 -165.644958496094 1.627323627472
-29.228969573975 -70.440185546875 -166.968826293945 2.140715122223
-40.239910125732 -69.048789978027 -168.847946166992 1.705424785614
26.963859558105 -72.318572998047 -173.354141235352 1.545673251152
-140.881805419922 -68.767547607422 -173.781936645508 2.507082939148
-35.841522216797 -70.019676208496 -176.324218750000 0.901595711708
-108.731887817383 -70.521690368652 -180.388183593750 2.526422977448
26.501947402954 -69.415061950684 -178.262802124023 2.838111877441
-152.268417358398 -70.036445617676 -178.981857299805 1.481933593750
-24.404645919800 -70.377784729004 -176.999053955078 1.916305065155
-33.715156555176 -76.986991882324 -182.541213989258 2.019830226898
-145.364501953125 -72.161445617676 -182.141204833984 1.905488371849
-111.969375610352 -69.818611145020 -183.382247924805 2.634437799454
-33.026386260986 -70.026779174805 -185.458679199219 1.662701249123
-108.661384582520 -69.181396484375 -186.117584228516 1.605590939522
106.900390625000 -70.632728576660 -188.635955810547 0.937704741955
19.193788528442 -70.816741943359 -185.156005859375 1.188146710396
-26.843116760254 -68.614646911621 -189.144668579102 1.362010240555
15.213271141052 -68.939376831055 -184.710891723633 1.252666711807
-20.684574127197 -70.763542175293 -193.807479858398 1.356196641922
-25.887395858765 -69.331108093262 -190.927001953125 1.506694078445
14.952354431152 -70.627471923828 -192.874069213867 2.538604974747
20.971179962158 -73.170814514160 -191.698699951172 2.697217464447
-21.697635650635 -71.775955200195 -195.260589599609 3.030901908875
-108.851409912109 -71.679183959961 -195.166061401367 2.782809734344
-161.439727783203 -69.070259094238 -197.979248046875 1.952744603157
-13.248685836792 -71.793548583984 -195.502136230469 1.670104742050
-13.979267120361 -74.967842102051 -197.536880493164 1.761832237244
19.952783584595 -70.255966186523 -198.778198242188 1.822858214378
-14.778265953064 -69.790657043457 -200.272247314453 1.926104307175
14.452765464783 -70.551315307617 -200.026596069336 2.538872480392
-114.137199401855 -71.440803527832 -198.977844238281 1.251678824425
-120.000991821289 -67.379302978516 -201.566070556641 3.268724203110
-23.491409301758 -71.535316467285 -205.056304931641 2.183510780334
18.104360580444 -72.231086730957 -203.907516479492 0.954947769642
-128.787414550781 -70.464950561523 -202.759399414063 2.430341720581
-143.924697875977 -69.502174377441 -202.919921875000 1.107699513435
13.384082794189 -71.447662353516 -207.480453491211 2.691960334778
16.545734405518 -68.017211914063 -208.765090942383 2.102174043655
-16.509286880493 -68.596366882324 -205.862930297852 1.884620308876
-8.878929138184 -72.127944946289 -211.541885375977 0.801143944263
7.449392795563 -67.763565063477 -210.698501586914 2.331752538681
93.441703796387 -69.638557434082 -208.223022460938 1.992535471916
-13.771922111511 -70.240379333496 -212.769927978516 1.873790860176
13.680055618286 -69.294700622559 -210.410324096680 2.656306028366
15.828201293945 -67.583435058594 -211.393966674805 2.403310537338
-12.977997779846 -65.997528076172 -215.643600463867 1.939077138901
-101.631034851074 -68.923843383789 -217.854904174805 2.375242233276
-3.715725898743 -72.251487731934 -219.575012207031 2.265824079514
-104.177444458008 -72.382026672363 -221.540954589844 1.388621568680
14.041791915894 -70.936515808105 -222.654891967773 1.571073174477
-1.325256943703 -71.013999938965 -223.092300415039 2.246845245361
82.442230224609 -69.721893310547 -224.612487792969 0.571372568607
-109.502288818359 -70.937667846680 -223.093933105469 0.870146036148
-133.466415405273 -71.582702636719 -223.029754638672 1.757175683975
-15.698478698730 -70.394004821777 -224.883209228516 2.407159566879
5.215927124023 -72.895294189453 -228.232254028320 1.808918833733
7.052471160889 -73.690917968750 -231.059173583984 1.499353885651
9.703714370728 -68.990501403809 -230.299606323242 2.792963504791
-2.928078889847 -70.161270141602 -232.329193115234 0.790190994740
-125.438552856445 -68.758728027344 -231.869735717773 3.264841079712
-139.940261840820 -69.822685241699 -227.628555297852 2.744261741638
16.842500686646 -71.568832397461 -236.092895507813 2.076244592667
-13.047933578491 -70.324089050293 -229.766159057617 1.962775588036
-156.535079956055 -69.479431152344 -232.788177490234 2.385648965836
-151.476821899414 -70.531158447266 -244.333938598633 2.675857067108
-150.231018066406 -68.181304931641 -244.581787109375 2.314715147018
1.197136998177 -71.824432373047 -233.367416381836 1.619963884354
-153.544845581055 -70.294898986816 -239.767929077148 2.464364290237
56.748222351074 -69.833274841309 -238.358657836914 2.622765064240
4.714546203613 -71.886734008789 -240.523391723633 1.542147278786
62.925392150879 -67.739990234375 -242.231124877930 2.073354959488
52.751800537109 -71.315681457520 -243.158172607422 1.609008073807
56.694652557373 -70.276191711426 -243.913864135742 1.932069420815
55.924365997314 -71.020774841309 -246.057388305664 0.649037957191
-12.413230895996 -68.261505126953 -244.093032836914 2.083531379700
-153.229522705078 -69.348060607910 -246.761642456055 1.732800364494
-155.796417236328 -67.895721435547 -247.104415893555 2.608385801315
-77.289688110352 -68.550636291504 -249.058563232422 2.496935606003
-89.281326293945 -74.300849914551 -251.680526733398 2.024274110794
-88.175781250000 -70.711914062500 -250.708572387695 2.093822717667
-88.153869628906 -67.830406188965 -252.257461547852 2.438491106033
-161.860946655273 -65.094886779785 -254.229324340820 4.831514835358
-126.060211181641 -70.859130859375 -254.093383789063 1.962690591812
45.508205413818 -69.701843261719 -254.041595458984 2.343995809555
-105.683570861816 -67.089805603027 -254.245361328125 1.985762119293
-124.840431213379 -68.521736145020 -253.461624145508 2.092315435410
-155.019577026367 -69.662681579590 -255.751815795898 1.385642886162
-169.779586791992 -68.644767761230 -259.073394775391 2.825486183167
36.255668640137 -70.430084228516 -258.139282226563 1.396036624908
32.853233337402 -72.777381896973 -259.153625488281 2.598158597946
-160.984970092773 -71.217338562012 -261.222198486328 2.950314521790
-136.472503662109 -69.353454589844 -259.201385498047 2.150983095169
-158.558898925781 -65.714012145996 -264.641052246094 3.288653135300
-167.493026733398 -69.517303466797 -274.122497558594 1.328180670738
22.303020477295 -67.921478271484 -267.967803955078 3.519623994827
-163.842575073242 -67.905342102051 -270.522796630859 2.821880578995
-161.461761474609 -69.070983886719 -268.399200439453 2.285166740417
-164.325881958008 -69.189270019531 -275.196380615234 1.461053848267
-9.487978935242 -69.069656372070 -276.293182373047 2.200122594833
-146.001937866211 -68.623626708984 -278.438018798828 2.646812677383
-162.726150512695 -69.711814880371 -283.146942138672 2.426310300827
-133.557968139648 -71.034912109375 -281.907806396484 1.811395645142
-135.173965454102 -68.154167175293 -282.825012207031 2.460066318512
-163.387893676758 -67.184043884277 -282.472442626953 2.811959981918
-95.055679321289 -68.770385742188 -282.022216796875 6.487711906433
-73.855453491211 -69.477310180664 -288.156097412109 1.232793450356
-84.338500976563 -66.385772705078 -288.515808105469 2.841839075089
-71.989631652832 -71.356674194336 -289.190765380859 1.517282605171
-150.015960693359 -67.923889160156 -289.944763183594 1.484442830086
-76.700080871582 -69.013549804688 -287.663513183594 1.900141596794
-126.705009460449 -70.490829467773 -292.306274414063 1.705189704895
-138.602828979492 -68.264518737793 -289.145935058594 1.937771916389
-145.686172485352 -67.191215515137 -294.130187988281 1.374258756638
-145.080932617188 -70.775451660156 -304.283355712891 1.706771850586
35.243133544922 -70.568878173828 -11.958553314209 1.168845057487
25.868452072144 -73.616363525391 -14.637295722961 2.751143693924
48.389465332031 -71.466934204102 -27.647729873657 1.234607696533
46.975063323975 -70.284957885742 -31.894765853882 1.328672409058
35.082935333252 -68.053947448730 -34.940525054932 1.694006919861
32.396190643311 -70.868919372559 -41.116218566895 1.983660340309
-58.602745056152 -66.445518493652 -46.447620391846 2.938453912735
-35.331832885742 -70.046386718750 -48.304359436035 1.739299297333
-81.691963195801 -68.633628845215 -54.828773498535 2.392553329468
-89.479751586914 -75.208381652832 -63.866859436035 4.386747360229
83.320060729980 -68.693962097168 -63.129062652588 1.359032154083
-13.324548721313 -69.068023681641 -66.855270385742 1.936883568764
-23.213888168335 -69.789894104004 -71.262702941895 1.801724076271
-24.589429855347 -68.701538085938 -72.975585937500 2.337646961212
-34.970756530762 -70.251998901367 -73.404464721680 2.478027582169
70.621665954590 -71.802665710449 -77.664306640625 1.929127573967
101.973983764648 -70.653724670410 -83.817932128906 2.452173471451
66.537185668945 -71.009422302246 -83.552780151367 1.368074774742
61.148101806641 -71.390220642090 -87.514701843262 1.228968381882
63.568237304688 -71.371353149414 -87.575859069824 1.048779129982
55.949432373047 -70.491455078125 -86.544250488281 2.272527933121
101.667076110840 -68.680641174316 -95.296257019043 1.115841269493
50.828456878662 -70.863380432129 -93.567863464355 1.074776649475
63.319446563721 -73.705017089844 -90.386886596680 2.891897916794
-96.916107177734 -69.180641174316 -93.543792724609 3.119120597839
44.792507171631 -71.328369140625 -97.679908752441 1.774042129517
100.986694335938 -66.877868652344 -98.318679809570 1.390532374382
-74.399353027344 -69.328002929688 -96.842666625977 2.674280881882
44.506790161133 -68.117454528809 -98.465721130371 1.792586088181
75.947608947754 -68.153366088867 -104.430374145508 2.297666072845
-78.957458496094 -73.929008483887 -101.875015258789 1.856557726860
42.991970062256 -72.353149414063 -105.193809509277 2.100643634796
52.132858276367 -69.609100341797 -106.124816894531 2.648325204849
-83.347610473633 -68.505264282227 -109.147964477539 2.266728639603
108.001525878906 -70.217224121094 -116.854537963867 1.997024893761
35.865695953369 -72.761230468750 -116.124191284180 2.096684455872
39.799579620361 -69.328239440918 -115.085800170898 0.780981302261
-91.569595336914 -69.695594787598 -119.889991760254 1.884318232536
37.366664886475 -72.950836181641 -119.243812561035 2.572416543961
37.578456878662 -73.398155212402 -118.007583618164 2.724700450897
111.247184753418 -71.113815307617 -120.115890502930 0.297986745834
-77.558181762695 -67.607765197754 -127.459487915039 1.406554460526
-56.336380004883 -69.218528747559 -126.062522888184 1.900507330894
-57.448680877686 -66.961456298828 -124.841651916504 1.013213515282
111.022155761719 -70.141616821289 -125.308616638184 1.663359165192
-77.967506408691 -68.772148132324 -126.736587524414 1.642096042633
109.757316589355 -71.157760620117 -135.574859619141 1.633797168732
-73.419631958008 -70.900222778320 -131.591537475586 1.068348646164
115.390846252441 -71.220993041992 -130.555969238281 1.191329121590
29.737800598145 -74.573768615723 -124.971931457520 2.255677700043
112.805122375488 -73.273933410645 -134.615280151367 1.534322261810
-77.737518310547 -67.596282958984 -131.471099853516 1.596933603287
-51.373699188232 -67.992919921875 -133.304031372070 1.818687677383
33.577251434326 -71.269622802734 -133.388442993164 2.540298461914
-60.007122039795 -70.785369873047 -134.708450317383 2.910898208618
-57.359485626221 -71.596862792969 -139.525543212891 1.805432558060
27.442722320557 -69.378807067871 -142.952529907227 1.571093916893
29.021921157837 -71.443885803223 -139.324661254883 0.847240984440
112.769317626953 -73.350715637207 -140.586273193359 1.041722655296
31.223836898804 -70.374511718750 -141.768905639648 0.413085490465
-78.910034179688 -70.509414672852 -136.247039794922 2.105224370956
-91.014396667480 -68.996910095215 -138.267898559570 1.865853428841
-57.374210357666 -69.301216125488 -140.733444213867 1.864601969719
-59.065826416016 -66.663192749023 -143.153213500977 1.900576233864
19.978672027588 -70.351791381836 -144.134582519531 2.780672311783
31.401733398438 -67.894851684570 -146.985748291016 1.292075276375
-42.658367156982 -70.288879394531 -146.068405151367 1.148969888687
-72.385147094727 -70.718460083008 -145.774475097656 1.978684186935
19.685485839844 -72.368637084961 -148.003097534180 2.894748210907
27.811910629272 -68.681480407715 -154.289779663086 0.805858612061
-44.559230804443 -69.722923278809 -152.989929199219 1.078499078751
29.084472656250 -69.650283813477 -150.729354858398 1.906226515770
-40.846626281738 -68.612091064453 -152.347076416016 3.004634857178
-97.150550842285 -67.105018615723 -153.574676513672 2.697233200073
-101.204193115234 -69.431365966797 -159.061645507813 1.381919384003
19.636295318604 -73.609687805176 -160.924911499023 2.238528490067
-45.200088500977 -71.620658874512 -159.858078002930 2.734636545181
-102.519149780273 -69.925064086914 -160.982681274414 1.827919840813
-100.148101806641 -69.287399291992 -164.424850463867 2.112855195999
-99.311058044434 -69.089408874512 -165.009384155273 2.179780960083
-33.719829559326 -68.649887084961 -161.934753417969 2.630340814590
-103.747947692871 -67.542953491211 -162.492965698242 1.821868658066
-33.307601928711 -68.916900634766 -168.951980590820 3.710733413696
-105.120513916016 -69.809555053711 -171.559707641602 1.931472897530
-32.275878906250 -71.228134155273 -171.918380737305 1.384494423866
-30.320348739624 -69.284721374512 -168.861282348633 1.152616143227
-107.604141235352 -71.134193420410 -175.444107055664 2.925631523132
18.860612869263 -69.143585205078 -171.688842773438 1.866617560387
-36.267688751221 -68.753890991211 -174.685897827148 0.373782902956
23.055164337158 -69.770629882813 -176.727935791016 2.677581548691
-34.208854675293 -69.126182556152 -172.555572509766 2.487225770950
-28.999464035034 -70.014869689941 -173.571792602539 1.191272497177
-32.079509735107 -69.965248107910 -175.227813720703 1.752372384071
-106.163635253906 -68.906433105469 -177.575973510742 0.620526790619
-26.900644302368 -68.016014099121 -180.039733886719 2.940999269485
-29.993881225586 -69.485916137695 -179.594207763672 0.886025190353
-140.168518066406 -68.025733947754 -176.533752441406 1.421566963196
-112.676620483398 -68.987373352051 -187.079772949219 0.423082679510
-106.031394958496 -69.307792663574 -184.508682250977 1.863328576088
-110.396720886230 -68.542465209961 -187.879898071289 1.788708686829
14.668352127075 -68.568237304688 -187.594879150391 2.670622110367
-24.247077941895 -67.626602172852 -187.288452148438 1.623249769211
15.693260192871 -71.234039306641 -190.767868041992 2.990879535675
-153.107437133789 -66.552482604980 -191.536331176758 3.108720302582
21.708946228027 -70.691444396973 -192.577835083008 1.761717200279
15.641321182251 -67.771980285645 -194.295852661133 1.622333288193
-119.746009826660 -67.335990905762 -191.649169921875 4.124914169312
-110.051635742188 -72.315109252930 -195.468597412109 3.786586284637
-19.670804977417 -70.511062622070 -195.698348999023 1.953867912292
-169.351440429688 -67.705177307129 -197.175903320313 5.367972850800
-165.315155029297 -68.999610900879 -204.292251586914 1.560874938965
-111.700035095215 -68.049926757813 -202.197326660156 1.766685605049
-12.471482276917 -72.249656677246 -205.725692749023 1.146639108658
-136.885421752930 -69.105033874512 -201.452987670898 3.127177715302
-8.466419219971 -68.098602294922 -209.537338256836 2.994324207306
16.711835861206 -67.853179931641 -207.196151733398 2.843760251999
-158.099075317383 -67.236503601074 -208.693618774414 1.588232874870
11.676521301270 -71.914428710938 -213.847259521484 1.012694001198
-159.411941528320 -67.797973632813 -213.626464843750 1.954366683960
-5.680016994476 -70.143585205078 -209.824188232422 3.178461074829
12.766650199890 -68.443405151367 -219.266601562500 1.698801636696
10.990135192871 -71.352279663086 -218.926254272461 1.005972027779
-1.987553954124 -69.908424377441 -216.868118286133 1.948991894722
-143.621917724609 -70.943031311035 -218.932189941406 2.245221138000
-157.002731323242 -69.115814208984 -217.485183715820 2.415645360947
-159.556945800781 -65.270133972168 -219.579452514648 2.136737823486
86.407859802246 -72.890701293945 -217.079421997070 0.782855629921
-4.033556938171 -69.875144958496 -223.046951293945 2.761747598648
-151.052520751953 -69.960128784180 -223.597839355469 1.242378354073
-133.289810180664 -65.176002502441 -221.022567749023 4.520582675934
80.667930603027 -69.045852661133 -226.506622314453 1.939210176468
73.740592956543 -73.000389099121 -228.106750488281 0.926892399788
76.790557861328 -67.013420104980 -225.494644165039 2.056035518646
-13.948574066162 -71.523933410645 -226.075668334961 1.899629712105
-154.390792846680 -70.629676818848 -227.882431030273 1.549985170364
-13.644621849060 -68.648681640625 -225.674362182617 1.838541269302
82.114486694336 -68.344627380371 -226.519439697266 2.311808109283
-108.657669067383 -68.265403747559 -228.584106445313 2.141199827194
0.091944001615 -73.147872924805 -231.635528564453 2.711759090424
-166.575881958008 -69.767280578613 -224.853363037109 2.392621517181
-11.046534538269 -70.073867797852 -235.917388916016 1.920433521271
-0.430588006973 -71.372383117676 -234.127487182617 1.213257908821
-159.437774658203 -65.357292175293 -235.473312377930 2.728820323944
64.529998779297 -68.155021667480 -238.114318847656 1.590480804443
9.829086303711 -71.301055908203 -239.168273925781 1.077508807182
5.798254013062 -71.140434265137 -240.695281982422 1.896839499474
-157.917526245117 -73.078971862793 -235.151809692383 1.698246002197
-10.963295936584 -70.634712219238 -240.552215576172 1.285464525223
-160.785491943359 -67.234199523926 -242.486602783203 1.011620521545
-161.020904541016 -66.627197265625 -240.407531738281 1.690773487091
-162.290924072266 -72.250473022461 -242.276412963867 3.108754873276
49.910396575928 -69.603492736816 -245.619506835938 2.263504266739
53.465965270996 -72.061668395996 -246.266983032227 1.662914991379
-158.926177978516 -70.284019470215 -244.612915039063 2.633985757828
-162.941070556641 -66.355545043945 -247.661407470703 2.878292560577
-164.704147338867 -66.644493103027 -246.087921142578 2.267084836960
45.783042907715 -71.068595886230 -247.814315795898 2.411061763763
43.115142822266 -68.014694213867 -251.070968627930 1.895065784454
-160.110198974609 -67.853851318359 -250.464050292969 1.876907229424
36.365917205811 -70.615234375000 -253.441818237305 0.537904620171
-97.735343933105 -66.436286926270 -252.200393676758 0.765946745872
-81.677947998047 -70.514923095703 -253.077285766602 1.733091711998
-161.244613647461 -68.296745300293 -252.853012084961 1.695010781288
-137.163192749023 -66.433624267578 -255.113723754883 2.807136774063
-106.704071044922 -67.179161071777 -254.069976806641 1.545503854752
37.027935028076 -69.061973571777 -253.952362060547 1.723028779030
-139.381057739258 -67.524734497070 -252.206787109375 4.422985553741
26.385496139526 -71.286811828613 -257.278137207031 2.770093441010
46.278820037842 -71.861968994141 -255.318389892578 2.848297119141
-97.511260986328 -67.198776245117 -255.866119384766 2.944542407990
-99.922134399414 -68.639335632324 -257.400756835938 1.871490359306
-161.459793090820 -70.448074340820 -261.131713867188 2.242750644684
-112.042762756348 -67.310119628906 -260.841033935547 1.487493991852
-140.740036010742 -69.612937927246 -259.677490234375 2.493459939957
-164.792495727539 -66.045143127441 -259.950317382813 3.112070798874
29.944883346558 -69.088294982910 -262.074645996094 1.639253497124
-127.061233520508 -70.615486145020 -260.551330566406 2.395327329636
-10.344373703003 -67.852912902832 -263.015228271484 1.766327261925
-150.319107055664 -69.578186035156 -274.054870605469 3.726285219193
-11.814910888672 -71.314018249512 -265.661285400391 2.070358276367
-8.165055274963 -72.418365478516 -271.455810546875 5.246422290802
-15.007132530212 -67.146369934082 -272.821350097656 3.090509176254
-10.257204055786 -68.617340087891 -275.421630859375 2.940557718277
-153.734466552734 -70.736862182617 -280.335998535156 0.489349961281
-127.119880676270 -69.520591735840 -283.344696044922 2.094183921814
-7.923778057098 -68.320404052734 -286.167022705078 1.011672973633
-7.961359977722 -72.582061767578 -286.497497558594 2.575291872025
-113.755500793457 -66.318031311035 -286.904602050781 3.203873872757
-98.951828002930 -63.344043731689 -287.298065185547 5.759800910950
-109.466400146484 -67.144477844238 -286.010559082031 2.833184957504
-157.093521118164 -65.868026733398 -288.155731201172 2.138360261917
-98.872657775879 -70.224304199219 -289.505920410156 1.391259789467
-138.963241577148 -66.391273498535 -290.413543701172 1.422330021858
-118.969657897949 -65.464904785156 -290.780975341797 1.647605180740
3.262223958969 -69.179069519043 -289.739959716797 3.273327589035
-153.473083496094 -67.470069885254 -294.988433837891 1.694727659225
-154.764160156250 -65.183631896973 -306.494781494141 2.849998950958
-149.704788208008 -70.074073791504 -309.991333007813 3.267680168152
35.679851531982 -66.581398010254 -10.211520195007 4.073483943939
33.715076446533 -69.342361450195 -16.101388931274 1.529463648796
43.285236358643 -67.019485473633 -22.557741165161 2.309190511703
24.219829559326 -70.095283508301 -28.383298873901 1.185786843300
22.370410919189 -69.015426635742 -31.200216293335 2.929931879044
42.396518707275 -73.117813110352 -33.842178344727 2.341810464859
-52.405704498291 -71.075370788574 -42.631065368652 5.247659206390
-39.782012939453 -71.381980895996 -47.260139465332 2.285140752792
-34.010597229004 -71.938117980957 -50.723709106445 2.374391555786
-80.902130126953 -69.943092346191 -52.167781829834 3.305650234222
-16.415880203247 -71.155456542969 -56.166362762451 2.083529710770
-18.091388702393 -67.182655334473 -59.458389282227 0.873651742935
88.211654663086 -68.240905761719 -60.994472503662 3.387949943542
-13.418670654297 -74.624450683594 -68.870414733887 2.854985237122
-95.195976257324 -70.065948486328 -72.018257141113 1.193487405777
100.781997680664 -72.234451293945 -72.320030212402 3.637181520462
-25.688852310181 -71.882873535156 -75.348167419434 1.909571528435
-45.048648834229 -69.464790344238 -81.560836791992 3.352234125137
106.684875488281 -68.737678527832 -81.483818054199 4.386461734772
103.787338256836 -70.902404785156 -86.393943786621 2.296221017838
66.393646240234 -71.554161071777 -87.038414001465 2.652086734772
104.041221618652 -68.406814575195 -93.522613525391 2.006698846817
65.039283752441 -66.683807373047 -96.894020080566 2.072522163391
-65.910202026367 -73.783592224121 -94.987129211426 1.373549103737
108.581512451172 -69.801765441895 -98.524757385254 1.894306659698
48.092937469482 -69.097297668457 -101.447525024414 1.121625423431
71.849777221680 -67.377395629883 -100.047409057617 1.865472555161
-74.610641479492 -67.760932922363 -103.256278991699 2.061247587204
75.550537109375 -70.325561523438 -105.664047241211 2.221625804901
84.811912536621 -66.199401855469 -105.326423645020 2.214127540588
41.394336700439 -68.666641235352 -104.273017883301 1.461262464523
-73.040420532227 -68.818733215332 -106.401397705078 2.324424266815
106.384086608887 -67.337455749512 -108.406402587891 0.656494557858
113.227691650391 -68.906883239746 -113.776832580566 3.049135446548
45.591712951660 -70.443038940430 -110.194450378418 1.422709107399
-90.159217834473 -71.597373962402 -112.265098571777 3.189435005188
109.494567871094 -69.102783203125 -122.436386108398 2.023155927658
-78.662689208984 -69.046020507813 -113.121047973633 0.745037674904
-90.674934387207 -71.346374511719 -116.732643127441 0.958522915840
-78.205406188965 -72.577217102051 -122.098983764648 3.686344861984
-63.594779968262 -67.182708740234 -119.693786621094 2.256120443344
-53.255760192871 -68.506271362305 -126.643791198730 2.811736583710
-73.706169128418 -70.703277587891 -130.377288818359 1.631703615189
-79.298477172852 -71.602203369141 -130.541900634766 1.483445048332
-60.862239837646 -68.823806762695 -128.448623657227 1.745854854584
-77.185386657715 -68.012565612793 -130.378524780273 1.941279530525
-75.939498901367 -65.282135009766 -134.341201782227 1.444317221642
-47.125171661377 -71.135414123535 -134.937927246094 1.500795125961
-50.456962585449 -67.203681945801 -137.197647094727 1.684078574181
23.737300872803 -68.216629028320 -141.031112670898 1.945892930031
-93.415542602539 -67.081329345703 -140.640563964844 2.124488830566
19.930492401123 -69.516616821289 -142.041854858398 3.113949060440
-68.167747497559 -72.081672668457 -144.515975952148 2.332245588303
28.274639129639 -70.352714538574 -145.276443481445 0.951138496399
-99.500747680664 -66.688545227051 -147.099929809570 2.098804950714
16.976747512817 -65.976837158203 -144.677627563477 1.481677651405
-94.350540161133 -71.171989440918 -148.878967285156 2.751991987228
-42.977870941162 -69.259231567383 -148.198501586914 0.981801092625
10.847331047058 -69.849891662598 -152.812332153320 2.065737962723
8.894162178040 -65.562576293945 -149.450119018555 4.266424655914
10.447767257690 -68.674331665039 -155.384628295898 0.984860837460
30.774906158447 -71.310478210449 -153.210113525391 0.996337652206
27.976209640503 -68.500289916992 -160.594314575195 2.283010959625
23.964405059814 -68.381401062012 -158.850601196289 0.964864671230
21.178705215454 -69.167137145996 -161.678955078125 1.200106143951
22.347330093384 -66.402450561523 -166.075927734375 2.226987123489
-104.298263549805 -71.277503967285 -164.582443237305 2.669230222702
31.221433639526 -69.904151916504 -170.987991333008 3.336939573288
-104.382377624512 -71.490287780762 -173.189926147461 3.260390281677
-109.095314025879 -69.070114135742 -176.461135864258 2.659631967545
-107.273689270020 -68.828918457031 -178.366806030273 1.136566042900
18.381341934204 -67.930641174316 -181.515441894531 2.171092987061
21.427869796753 -68.737266540527 -184.573303222656 1.667006373405
-26.756965637207 -68.755554199219 -186.503936767578 1.924407720566
19.877092361450 -67.733650207520 -187.774398803711 2.743940353394
-24.061491012573 -71.619209289551 -191.161102294922 1.499289751053
-112.832290649414 -66.301490783691 -191.210571289063 2.068837165833
-24.186990737915 -71.139701843262 -197.736770629883 1.294035792351
-162.663619995117 -66.109039306641 -194.399826049805 3.837542533875
-115.611961364746 -66.491432189941 -195.458770751953 2.031884908676
-19.956604003906 -68.829559326172 -196.717025756836 1.120166540146
11.149958610535 -67.620605468750 -199.363204956055 1.325088977814
19.809644699097 -70.875198364258 -200.639236450195 0.946528136730
-157.363784790039 -69.166244506836 -200.681961059570 1.417268395424
-10.432112693787 -67.061759948730 -202.511352539063 3.391965866089
-155.179931640625 -68.894050598145 -201.242156982422 1.337608218193
-158.716033935547 -67.331520080566 -202.821014404297 2.552863359451
9.704871177673 -66.394165039063 -205.065612792969 3.043121814728
18.694812774658 -66.571952819824 -209.378143310547 2.233861207962
-154.234344482422 -68.170074462891 -204.747726440430 2.216976165771
-145.533279418945 -65.756584167480 -205.034255981445 1.116987586021
13.475399971008 -68.601226806641 -207.916687011719 2.203770637512
-13.465365409851 -67.370727539063 -212.229385375977 1.654929399490
-8.654700279236 -68.421821594238 -217.475021362305 1.401833534241
-164.307052612305 -67.063247680664 -211.446670532227 1.040971040726
-9.109266281128 -66.606460571289 -214.983001708984 0.583416819572
-156.994125366211 -67.771972656250 -212.121414184570 1.654440164566
-151.044586181641 -66.963233947754 -208.771560668945 1.651278376579
-4.634662151337 -71.448562622070 -213.062210083008 2.294193029404
-145.404190063477 -70.286933898926 -220.954147338867 1.380434632301
-14.651394844055 -70.872955322266 -219.567733764648 2.469583034515
-160.128479003906 -67.004890441895 -219.214309692383 1.555997133255
-166.113296508789 -68.500968933105 -223.369537353516 0.601681947708
0.248040005565 -69.461364746094 -226.606658935547 1.690209150314
-159.381805419922 -68.692359924316 -222.312820434570 1.897548198700
-111.989738464355 -69.701614379883 -221.866775512695 2.841812849045
-134.169723510742 -68.622459411621 -223.243698120117 0.639881193638
-142.283111572266 -66.850288391113 -224.844360351563 2.221091508865
-119.009002685547 -65.909355163574 -226.777832031250 3.607333421707
-153.845031738281 -69.624374389648 -228.382369995117 1.131314992905
-148.112411499023 -60.791156768799 -228.821716308594 1.864890217781
-160.711532592773 -69.041587829590 -227.579956054688 2.879963874817
-114.148674011230 -65.223434448242 -231.715408325195 1.535216689110
-157.398468017578 -71.578742980957 -231.034469604492 2.528863191605
-143.662353515625 -66.054580688477 -233.565261840820 2.341152906418
-163.372833251953 -70.333580017090 -232.814910888672 2.573331594467
-117.407402038574 -67.422622680664 -231.481903076172 2.851052284241
-164.290710449219 -65.934394836426 -232.692916870117 2.254710435867
76.631179809570 -70.182884216309 -232.453048706055 3.140055894852
-1.101086974144 -66.424781799316 -236.206207275391 1.286072850227
-144.273361206055 -65.722419738770 -232.047851562500 1.939393997192
2.721987009048 -67.867195129395 -232.938323974609 0.790413737297
0.260039001703 -68.417068481445 -234.860305786133 1.247610688210
-10.791981697083 -68.992691040039 -235.968704223633 2.027264595032
-0.632569015026 -65.910705566406 -240.580276489258 1.239127278328
-167.129653930664 -66.566215515137 -241.259124755859 2.706617116928
61.849937438965 -65.426223754883 -235.270599365234 3.246112346649
-151.684631347656 -67.015434265137 -239.985275268555 4.393947124481
51.516616821289 -66.986717224121 -241.669021606445 2.955538034439
48.617439270020 -67.148628234863 -243.584716796875 2.444668054581
46.376296997070 -68.897415161133 -247.149871826172 1.617968440056
-143.845993041992 -69.969039916992 -248.514328002930 1.695239901543
46.794544219971 -67.214920043945 -246.993499755859 1.367367625237
46.496566772461 -68.340332031250 -251.208053588867 0.895554542542
-154.647293090820 -66.158508300781 -250.817703247070 3.391414403915
46.859493255615 -70.694084167480 -251.702835083008 2.493502616882
-127.373802185059 -65.679801940918 -250.449645996094 3.976865530014
42.876655578613 -72.087371826172 -254.760452270508 2.483072996140
32.525302886963 -66.182205200195 -255.666046142578 1.416966438293
-137.440261840820 -70.012908935547 -253.957870483398 3.320762395859
-120.333229064941 -69.651817321777 -255.701431274414 2.466935873032
46.181907653809 -69.997879028320 -255.851806640625 2.888380765915
34.013439178467 -66.587760925293 -256.519714355469 1.357711672783
-6.626608848572 -72.104133605957 -260.102172851563 4.375642776489
33.661354064941 -70.214096069336 -258.271759033203 1.804354071617
-113.361068725586 -65.754684448242 -261.435882568359 0.711402177811
29.499227523804 -68.359458923340 -259.714721679688 1.721410393715
-115.437843322754 -67.920768737793 -261.421936035156 1.693865418434
-149.367950439453 -66.736137390137 -262.479827880859 1.857980251312
26.162408828735 -66.543457031250 -265.401763916016 0.308826595545
-6.050134181976 -69.828025817871 -264.569854736328 3.519383192062
-10.687110900879 -68.709953308105 -272.515167236328 2.826052904129
-145.889007568359 -65.893920898438 -274.769348144531 2.319251775742
20.600084304810 -66.501983642578 -276.016418457031 1.898213863373
-130.773666381836 -66.509963989258 -285.042510986328 1.646967411041
-154.830169677734 -66.128196716309 -287.882415771484 2.931440830231
-123.419090270996 -67.287010192871 -283.514648437500 3.466865777969
-111.853813171387 -69.366439819336 -283.796997070313 4.116284370422
-142.223312377930 -65.731521606445 -288.943695068359 1.136442303658
-133.721099853516 -66.758087158203 -288.601837158203 1.554246068001
-133.303878784180 -64.833580017090 -291.417053222656 2.277772188187
-152.088516235352 -67.132659912109 -296.931701660156 1.613303542137
-148.230300903320 -65.571197509766 -305.463317871094 2.106420040131
-145.501861572266 -64.688949584961 -305.161163330078 2.663095712662
32.922279357910 -68.289077758789 -13.166881561279 1.724159836769
27.305076599121 -68.484504699707 -13.854991912842 3.482066154480
42.348308563232 -70.170616149902 -21.197217941284 1.370132803917
53.391365051270 -66.118621826172 -26.023429870605 4.707682132721
19.831937789917 -71.357719421387 -29.858106613159 1.386974453926
-63.464183807373 -68.976692199707 -41.787605285645 2.967636346817
-57.843608856201 -68.992164611816 -46.017501831055 2.115972280502
-68.929084777832 -69.879890441895 -44.330997467041 2.632015466690
-80.061347961426 -68.039718627930 -43.963920593262 5.274912357330
-19.684226989746 -69.106536865234 -51.591167449951 4.321560859680
-86.747413635254 -70.197097778320 -53.133083343506 3.462691307068
-93.484626770020 -63.433769226074 -57.861598968506 3.773646354675
80.370529174805 -72.642440795898 -62.043811798096 4.307762622833
-12.833698272705 -68.220672607422 -64.072158813477 1.284026861191
-95.372192382813 -66.673324584961 -70.854690551758 2.360862493515
103.761543273926 -72.854782104492 -77.688919067383 3.952188253403
104.852439880371 -67.276840209961 -79.746299743652 1.512070417404
-95.781677246094 -71.903823852539 -81.392173767090 1.818206667900
-46.380535125732 -69.847480773926 -82.011695861816 2.394780635834
-53.751380920410 -67.993232727051 -85.569236755371 2.864523649216
-97.191123962402 -66.693725585938 -87.322624206543 3.174619197845
-96.228729248047 -70.555183410645 -96.927169799805 1.751978158951
63.455642700195 -69.972183227539 -91.910919189453 1.952723860741
51.280918121338 -65.088294982910 -94.291877746582 1.025338768959
-67.539405822754 -66.069648742676 -98.791122436523 1.040259480476
56.980907440186 -72.494033813477 -97.433464050293 1.716547608376
54.440277099609 -68.403114318848 -98.803520202637 1.953487634659
100.808776855469 -69.357933044434 -97.823333740234 1.864680767059
-68.922584533691 -70.218132019043 -98.788574218750 1.784411907196
67.798538208008 -68.195526123047 -102.305702209473 2.984966516495
-79.304916381836 -68.717430114746 -101.602088928223 2.115055799484
110.642677307129 -66.502609252930 -104.233436584473 2.636521816254
-72.582641601563 -66.974044799805 -105.141426086426 0.988374888897
86.077110290527 -67.110633850098 -106.430572509766 1.090217351913
105.465339660645 -69.062370300293 -105.152893066406 1.458818912506
-80.564208984375 -68.975418090820 -108.309585571289 2.313339233398
-85.396865844727 -66.946128845215 -113.904708862305 1.505925178528
-82.088142395020 -71.423866271973 -117.899192810059 1.125764608383
-82.543823242188 -69.375770568848 -115.765190124512 2.996142387390
-75.046600341797 -65.822769165039 -121.237113952637 2.497569322586
-96.525222778320 -68.864692687988 -118.152297973633 1.015259981155
-60.525440216064 -64.806587219238 -120.651000976563 1.767677664757
-80.402412414551 -66.883880615234 -125.978660583496 1.731094121933
-76.838584899902 -68.128631591797 -125.742256164551 1.613126039505
-90.230323791504 -67.575935363770 -128.544189453125 1.470237970352
-52.924625396729 -66.544631958008 -129.437911987305 1.698532938957
-52.663612365723 -66.703392028809 -130.616424560547 1.841508626938
-75.042945861816 -69.315315246582 -133.321182250977 1.551007032394
-59.114559173584 -66.759262084961 -133.034683227539 1.954995512962
-71.925765991211 -67.819816589355 -133.259017944336 1.488640666008
-56.658748626709 -69.301223754883 -138.312652587891 1.865658879280
-45.079811096191 -67.040039062500 -141.299392700195 1.430517196655
-73.537483215332 -67.579673767090 -139.421539306641 1.202149748802
24.774229049683 -65.107543945313 -144.295715332031 1.268919706345
-48.879154205322 -67.932212829590 -147.061218261719 1.317342758179
-95.226119995117 -68.200469970703 -149.762329101563 2.111515283585
-96.011672973633 -66.871688842773 -149.856918334961 2.649276256561
-108.837921142578 -66.303070068359 -166.934066772461 0.788295805454
-106.081428527832 -64.460876464844 -172.021530151367 2.260230779648
-145.687454223633 -68.826606750488 -173.497451782227 2.607571125031
19.421289443970 -66.532386779785 -178.079986572266 2.171213865280
-111.666023254395 -68.076965332031 -182.147567749023 1.826678872108
-141.167816162109 -69.000244140625 -183.045349121094 1.140827894211
16.246347427368 -66.008071899414 -190.756484985352 1.263610839844
-151.333023071289 -65.428276062012 -189.974273681641 2.485928535461
16.225223541260 -64.568367004395 -191.396194458008 2.466817378998
15.824948310852 -66.088890075684 -185.091888427734 1.791915416718
-152.376052856445 -67.700569152832 -192.435653686523 2.485831975937
-124.450698852539 -67.162384033203 -191.254257202148 3.744210004807
-136.083068847656 -66.573997497559 -195.586410522461 2.446570634842
-157.060729980469 -68.037551879883 -196.658523559570 2.852416753769
-21.016263961792 -66.279838562012 -196.677062988281 2.173544645309
-156.323394775391 -67.011489868164 -197.890182495117 2.646605968475
15.055438041687 -65.194412231445 -195.571121215820 1.778307914734
13.853595733643 -69.737030029297 -200.600006103516 1.984649538994
-163.961303710938 -68.118461608887 -201.406555175781 2.051479339600
-115.691200256348 -68.804817199707 -201.966659545898 2.639422416687
-134.577087402344 -68.116844177246 -200.726608276367 2.236456394196
-120.703758239746 -68.120086669922 -201.449981689453 3.067068099976
-159.843093872070 -64.731605529785 -207.307769775391 2.531466484070
-12.757349014282 -67.349121093750 -210.168624877930 0.656855046749
-161.008880615234 -66.402336120605 -208.313064575195 1.527141571045
-14.751132965088 -70.005661010742 -206.373138427734 2.136221408844
-8.845914840698 -68.537307739258 -207.492858886719 2.408219575882
-166.590774536133 -66.810066223145 -211.633621215820 2.282737255096
-2.668760061264 -63.856891632080 -221.916946411133 2.314437150955
-106.740638732910 -69.536148071289 -221.008590698242 2.106633663177
-107.144348144531 -68.208694458008 -223.244155883789 2.162047863007
-105.496559143066 -67.422363281250 -222.137283325195 1.429599523544
-124.897918701172 -66.293510437012 -225.722885131836 0.788277745247
-143.410186767578 -66.686058044434 -222.103179931641 2.025726556778
0.611669003963 -70.207038879395 -228.638275146484 1.865405321121
-3.189109086990 -64.223281860352 -223.761840820313 2.020321607590
7.508790969849 -68.996681213379 -227.712142944336 1.439921259880
3.635042905807 -64.481025695801 -229.955230712891 1.883584976196
-4.863334178925 -69.258110046387 -229.337081909180 0.803495287895
-7.159463882446 -64.484970092773 -235.930221557617 0.395736783743
-5.805442810059 -69.923408508301 -233.329666137695 0.839154362679
60.212745666504 -69.484779357910 -238.770950317383 2.978440046310
-6.863920211792 -67.293815612793 -240.576934814453 1.765905261040
6.356432914734 -68.067718505859 -238.872879028320 1.522227168083
13.028749465942 -68.980056762695 -245.440399169922 1.587658762932
51.980979919434 -64.782524108887 -242.058151245117 2.708541631699
59.186096191406 -67.587753295898 -243.669738769531 1.182265996933
40.409324645996 -67.540100097656 -256.268035888672 2.173341751099
45.922405242920 -68.044258117676 -254.134735107422 1.044700860977
-9.329456329346 -69.682250976563 -249.861984252930 2.539189338684
-134.102005004883 -66.846542358398 -254.474838256836 1.444997668266
32.308624267578 -65.462249755859 -252.292083740234 3.633727550507
-102.477546691895 -66.655754089355 -254.922286987305 2.206061840057
-137.682464599609 -61.566829681396 -258.170349121094 4.480539321899
-112.977462768555 -66.135307312012 -257.178527832031 1.646634697914
-110.565689086914 -68.231903076172 -257.596221923828 0.990618884563
-112.937576293945 -68.346160888672 -257.921203613281 1.369997262955
-118.366073608398 -63.039134979248 -258.842803955078 3.442178964615
-118.483879089355 -64.466766357422 -260.142669677734 2.187157392502
-140.478973388672 -69.479454040527 -260.797424316406 1.917416691780
-117.852867126465 -70.929458618164 -261.027465820313 2.202765941620
-131.336135864258 -67.999183654785 -260.500274658203 3.286106348038
27.739988327026 -65.622894287109 -264.206481933594 1.025442600250
-143.367828369141 -66.436584472656 -262.574035644531 0.779459118843
-6.535620212555 -68.200828552246 -265.687591552734 1.671028017998
-152.177276611328 -65.579200744629 -265.350830078125 0.846471369267
-5.422749996185 -69.417762756348 -279.306762695313 3.084205389023
22.322271347046 -63.042785644531 -281.383117675781 2.644972085953
-5.677163124084 -67.201026916504 -284.529113769531 1.265431404114
-135.779342651367 -65.726745605469 -284.735260009766 3.291198253632
-147.652313232422 -66.443191528320 -291.042999267578 1.908466577530
-132.400848388672 -67.133460998535 -292.203857421875 1.442957878113
-149.633956909180 -63.377429962158 -291.660339355469 1.726850748062
-147.982620239258 -66.293525695801 -302.132354736328 1.992336392403
-152.740341186523 -68.640037536621 -307.826843261719 0.776258051395
33.624156951904 -67.059783935547 -12.449874877930 1.316344022751
21.428407669067 -61.550491333008 -15.615213394165 3.523964881897
43.192195892334 -67.352409362793 -17.572759628296 2.673759937286
44.826770782471 -59.990180969238 -28.891124725342 1.521332859993
41.682659149170 -70.017890930176 -32.343173980713 1.836704850197
37.368713378906 -67.578033447266 -36.980327606201 2.861848115921
33.253990173340 -65.520225524902 -37.880374908447 1.232001304626
39.988590240479 -63.562770843506 -42.264251708984 2.461471557617
-45.732948303223 -71.335800170898 -46.647262573242 2.818726778030
-78.419006347656 -68.559791564941 -47.723751068115 3.448832511902
79.914131164551 -66.535491943359 -59.061058044434 3.263861894608
79.011329650879 -70.545845031738 -64.091636657715 3.284857749939
98.068374633789 -66.544921875000 -65.766563415527 0.585271179676
-92.154586791992 -66.677261352539 -62.040260314941 2.033896684647
96.894660949707 -67.871749877930 -69.493125915527 1.444174170494
-19.416456222534 -64.189819335938 -68.227142333984 4.145593643188
-95.462760925293 -68.086433410645 -68.269912719727 3.359448432922
-26.965606689453 -68.499259948730 -72.129653930664 2.660596847534
-37.870193481445 -66.015838623047 -79.014968872070 2.489539861679
-39.935394287109 -65.732681274414 -78.995025634766 1.980501770973
-97.188621520996 -66.584037780762 -75.753150939941 1.525081515312
-95.809326171875 -69.973548889160 -83.738044738770 2.328769445419
63.232307434082 -66.479621887207 -83.672950744629 2.126558065414
52.319217681885 -68.953521728516 -89.293037414551 1.519935488701
-64.196022033691 -68.076080322266 -89.857078552246 2.353820323944
50.069236755371 -70.877212524414 -93.077934265137 1.638931393623
51.724277496338 -69.539154052734 -93.568527221680 1.633305191994
67.317131042480 -63.334789276123 -98.320968627930 2.356361627579
49.269889831543 -65.458251953125 -100.376106262207 2.072132587433
44.036613464355 -64.765243530273 -101.011665344238 2.558314323425
-78.437133789063 -68.563163757324 -107.440551757813 1.249510288239
-86.744941711426 -66.698989868164 -105.833740234375 0.967115223408
-85.012161254883 -63.274497985840 -108.574005126953 2.532687187195
