82.609718322754 -76.716865539551 -93.816131591797 1.636216878891
84.300720214844 -76.103660583496 -97.380928039551 1.731467604637
86.300163269043 -72.804260253906 -95.063430786133 2.937787771225
51.263393402100 -76.079605102539 -102.478294372559 1.912784218788
-80.914649963379 -74.601486206055 -107.261787414551 2.255494356155
48.273036956787 -75.043357849121 -109.374023437500 1.217117190361
44.959560394287 -72.674934387207 -115.286666870117 2.110705375671
46.119640350342 -76.891235351563 -118.436744689941 1.362537860870
39.201679229736 -75.793937683105 -121.205734252930 2.957299709320
25.083425521851 -73.964912414551 -123.538078308105 4.807598590851
27.989856719971 -74.065467834473 -129.962341308594 1.195104598999
26.806100845337 -73.465385437012 -134.273696899414 2.515484333038
23.868564605713 -74.811500549316 -142.350982666016 0.966659188271
33.103557586670 -74.736679077148 -143.325195312500 2.388310194016
113.057052612305 -67.748794555664 -139.415786743164 1.487887501717
23.309696197510 -76.138099670410 -141.841476440430 2.405437469482
113.476127624512 -73.038124084473 -141.904617309570 1.098446607590
-54.365322113037 -75.495178222656 -140.922409057617 2.406542301178
-55.160041809082 -76.938667297363 -144.797943115234 2.026369333267
112.696647644043 -72.370964050293 -147.083282470703 1.379914045334
109.692886352539 -70.522933959961 -149.656692504883 3.023421049118
22.353168487549 -73.051719665527 -152.948837280273 1.751802325249
-55.792694091797 -77.287010192871 -153.138565063477 4.881380081177
-51.860057830811 -76.888740539551 -151.389480590820 1.070832490921
32.452404022217 -74.161758422852 -152.377883911133 0.980971336365
30.340480804443 -71.957008361816 -156.679611206055 1.290670037270
27.783071517944 -73.028907775879 -158.651428222656 3.276965856552
23.663387298584 -73.991195678711 -154.838577270508 0.974621057510
-47.838874816895 -72.863517761230 -161.375564575195 1.838945150375
20.036725997925 -76.605072021484 -156.517166137695 1.063820123672
-2.324656963348 -73.649765014648 -157.106079101563 5.392922401428
-5.369387149811 -75.875312805176 -164.928070068359 2.166774034500
4.354506015778 -73.843605041504 -163.236526489258 0.581064164639
21.239292144775 -74.616943359375 -168.212936401367 1.993308901787
-33.804996490479 -75.935386657715 -169.654617309570 2.437622547150
25.656154632568 -75.275032043457 -170.416931152344 2.190416097641
107.727485656738 -70.874244689941 -165.450027465820 2.106723308563
17.954175949097 -74.741683959961 -174.315277099609 1.613278031349
-10.698628425598 -75.680282592773 -172.633911132813 1.310412049294
-31.898973464966 -76.202842712402 -174.875808715820 3.808470249176
-10.910335540771 -72.895202636719 -177.849792480469 2.622189760208
18.810861587524 -76.609222412109 -174.178024291992 2.304252147675
-59.893859863281 -74.885910034180 -178.067581176758 2.502679347992
-57.465522766113 -78.549285888672 -179.345855712891 0.936343610287
16.364072799683 -76.024856567383 -180.790832519531 1.460828065872
109.694358825684 -73.551429748535 -180.583084106445 2.361383914948
12.604970932007 -75.409027099609 -181.991653442383 2.505394458771
16.968296051025 -75.472030639648 -181.728500366211 1.390801072121
104.279388427734 -69.790420532227 -181.064285278320 1.923154115677
-58.512603759766 -78.710357666016 -185.778930664063 2.723309278488
28.644916534424 -74.309265136719 -189.337173461914 3.087721586227
-21.150159835815 -76.315467834473 -183.928100585938 2.216102600098
-47.989738464355 -75.988136291504 -190.733184814453 1.103026270866
-146.205688476563 -84.715782165527 -190.932723999023 1.641370773315
101.180282592773 -71.871780395508 -186.850585937500 2.988011598587
-151.052536010742 -81.198211669922 -198.909988403320 0.806835770607
21.944623947144 -76.439468383789 -196.725326538086 2.858822822571
-33.814315795898 -75.831993103027 -192.161514282227 3.368381500244
-50.825424194336 -76.516365051270 -197.002838134766 2.852806091309
-26.257429122925 -76.544822692871 -198.780242919922 2.383184671402
94.823852539063 -71.368453979492 -196.785644531250 2.919406175613
-38.658638000488 -75.193649291992 -202.485565185547 1.697550892830
6.405819892883 -75.664207458496 -204.876342773438 1.978375196457
95.287368774414 -71.505012512207 -199.763397216797 2.168982028961
9.883872032166 -75.525817871094 -206.344238281250 1.972429394722
19.547252655029 -74.428565979004 -203.610443115234 0.200904637575
-12.313862800598 -76.101577758789 -207.990356445313 1.876135706902
16.074338912964 -76.731895446777 -201.565811157227 1.823686003685
-39.301364898682 -75.471366882324 -212.689804077148 4.869703292847
-11.253774642944 -77.163139343262 -206.426376342773 1.191126823425
-21.221477508545 -74.646446228027 -209.381149291992 0.689703524113
-76.718742370605 -76.824653625488 -212.116958618164 1.741322278976
-34.585071563721 -74.507461547852 -212.460891723633 1.592433214188
8.040533065796 -77.321121215820 -208.120437622070 0.813210368156
-12.232147216797 -75.958427429199 -210.508468627930 2.640540838242
93.049163818359 -70.854820251465 -218.684631347656 1.982695698738
-13.104978561401 -72.981338500977 -217.799270629883 1.121783971786
-20.549192428589 -76.826606750488 -218.336212158203 0.712740600109
-81.431846618652 -76.046394348145 -221.217010498047 5.107560634613
-149.423141479492 -77.606811523438 -221.677474975586 2.295069217682
15.889234542847 -72.561729431152 -217.373977661133 1.210658311844
-4.920485019684 -72.901260375977 -217.915649414063 2.338093519211
-20.416358947754 -76.115150451660 -220.000915527344 2.085990667343
-13.366253852844 -75.672554016113 -219.518524169922 1.766134977341
-21.384439468384 -75.709510803223 -224.048629760742 1.402240157127
1.851011037827 -73.119560241699 -220.987319946289 2.454713821411
-149.806732177734 -80.879211425781 -222.257446289063 2.535530328751
-20.130121231079 -76.398887634277 -227.447952270508 2.416456699371
81.474639892578 -73.242034912109 -224.363281250000 2.457523584366
-13.123578071594 -73.063499450684 -226.526824951172 1.080835819244
-5.964941024780 -76.889175415039 -229.435592651367 0.402682662010
-25.323791503906 -76.684066772461 -230.141418457031 6.059011459351
-156.640579223633 -79.771919250488 -233.236450195313 3.519905328751
77.690933227539 -73.456588745117 -232.302001953125 2.005965471268
-11.356852531433 -77.327049255371 -229.630935668945 1.909227132797
-139.078598022461 -75.087585449219 -234.119567871094 2.774744749069
-148.121612548828 -77.821701049805 -236.932067871094 2.467056989670
-138.978942871094 -82.100799560547 -234.327285766602 3.705474138260
-0.846612989902 -74.757499694824 -234.829116821289 2.494408845901
-147.259109497070 -78.702270507813 -237.910064697266 3.070804357529
3.116379976273 -72.487678527832 -235.844848632813 2.995139122009
19.026781082153 -73.570198059082 -242.445175170898 1.420498728752
-3.468040943146 -72.214897155762 -243.924575805664 2.004154682159
-48.267810821533 -71.159317016602 -244.140670776367 2.296501159668
-49.162261962891 -76.170562744141 -242.797943115234 1.273504614830
-27.024848937988 -76.229415893555 -245.018173217773 2.201579570770
-147.050262451172 -75.718643188477 -246.150817871094 1.205751538277
-39.480136871338 -75.924514770508 -245.598358154297 0.530718803406
-68.364143371582 -79.081962585449 -252.091934204102 2.195091724396
-51.997493743896 -72.771232604980 -249.938598632813 3.752772331238
-61.511795043945 -74.530784606934 -253.449020385742 3.549579381943
-73.668052673340 -77.043151855469 -252.801559448242 0.781324446201
-142.815383911133 -74.666397094727 -260.209289550781 1.305929899216
18.964679718018 -75.574790954590 -261.573913574219 2.353691816330
-129.123519897461 -77.435646057129 -264.972320556641 3.648935079575
-9.885064125061 -79.245979309082 -270.825103759766 1.373656988144
-14.595743179321 -71.413307189941 -272.179260253906 1.750907540321
18.755672454834 -72.740005493164 -277.044555664063 1.838349461555
-148.278732299805 -76.413696289063 -284.013732910156 1.896482229233
-3.202300071716 -72.693656921387 -284.592926025391 2.298366308212
-155.667953491211 -78.509086608887 -287.367584228516 2.054750204086
-132.478851318359 -79.229240417480 -293.636901855469 3.481641292572
-27.939350128174 -73.408027648926 -288.632446289063 1.888929843903
-135.346511840820 -79.485565185547 -292.634185791016 2.833945512772
-66.005599975586 -77.121948242188 -289.715576171875 3.043632745743
-138.634307861328 -76.916587829590 -290.822631835938 2.122536659241
8.805900573730 -73.178253173828 -291.551177978516 1.779145359993
-120.476463317871 -78.609176635742 -295.783081054688 6.412487506866
-65.982978820801 -76.856246948242 -290.953369140625 2.794428586960
-141.999145507813 -78.416442871094 -295.033874511719 3.847418785095
-56.652103424072 -74.786872863770 -292.308807373047 1.800604104996
-32.456882476807 -74.162864685059 -289.944793701172 3.002815723419
-5.182382106781 -74.296630859375 -292.565856933594 2.487494707108
-142.963958740234 -76.492210388184 -301.281188964844 3.105854034424
-157.371170043945 -76.225746154785 -298.465667724609 3.924901247025
-152.223861694336 -78.597656250000 -298.498413085938 1.643480658531
-145.608963012695 -79.068847656250 -303.692535400391 2.395368099213
-143.033630371094 -76.223541259766 -306.965270996094 1.245983362198
-48.436763763428 -74.917457580566 -58.746009826660 1.734049320221
-65.281196594238 -74.422325134277 -58.011920928955 1.941494107246
-64.796882629395 -77.930854797363 -59.441207885742 0.970727443695
-46.908252716064 -78.316940307617 -61.785781860352 1.909695029259
-39.451263427734 -77.441864013672 -62.971797943115 1.699733376503
-37.460540771484 -75.317291259766 -61.229656219482 1.829673171043
-30.233259201050 -75.548706054688 -65.673515319824 2.797252416611
-31.436750411987 -74.930061340332 -67.318214416504 3.098018407822
-26.639652252197 -77.403129577637 -75.362815856934 1.565620422363
88.439979553223 -72.021987915039 -76.941535949707 3.625883340836
72.148330688477 -73.587425231934 -76.893638610840 1.174305558205
68.941238403320 -71.185951232910 -74.165061950684 2.112714529037
-40.104377746582 -78.171707153320 -82.576713562012 2.420219898224
-47.585418701172 -72.381042480469 -86.373832702637 2.367517709732
-52.747451782227 -74.111404418945 -90.491516113281 2.192408800125
-53.664665222168 -77.637763977051 -90.584335327148 1.977594137192
-92.582511901855 -82.882553100586 -98.550033569336 6.284418582916
68.593070983887 -72.837860107422 -97.911735534668 2.688937664032
92.037796020508 -72.258781433105 -96.402000427246 2.412634372711
73.830276489258 -73.803298950195 -96.483398437500 1.407087087631
-94.683944702148 -77.694000244141 -105.248397827148 4.205941200256
75.957771301270 -71.700279235840 -96.026313781738 3.589923858643
47.303134918213 -74.220977783203 -99.189865112305 0.752736210823
51.526603698730 -73.494743347168 -101.317405700684 3.542013168335
39.694229125977 -72.613967895508 -105.545280456543 1.413585543633
41.617851257324 -71.223678588867 -100.614151000977 1.547802329063
42.182262420654 -72.368545532227 -104.574157714844 1.985196232796
-93.664451599121 -76.791259765625 -108.812377929688 3.386023998260
43.990978240967 -76.720771789551 -113.788101196289 1.547186613083
32.478260040283 -76.732788085938 -117.167587280273 1.356031537056
28.842536926270 -72.182647705078 -127.877899169922 3.109248638153
107.452201843262 -70.504051208496 -123.896850585938 1.274539589882
107.455650329590 -71.256736755371 -124.445266723633 2.135281324387
105.652610778809 -70.957603454590 -125.247459411621 2.771796941757
109.627220153809 -72.745323181152 -129.613967895508 1.126440048218
37.298675537109 -73.810913085938 -134.937667846680 2.106412172318
38.273235321045 -72.282119750977 -139.829238891602 0.636685013771
26.377557754517 -72.999732971191 -137.495849609375 1.796534299850
20.755132675171 -73.231224060059 -144.497024536133 3.065431594849
107.665382385254 -72.134330749512 -143.927597045898 2.709123849869
109.076499938965 -71.868766784668 -149.026306152344 2.311473846436
-49.950237274170 -72.500167846680 -151.627883911133 1.946245193481
20.340293884277 -72.578910827637 -147.834197998047 2.497608900070
-69.571884155273 -76.756095886230 -156.111770629883 1.276030659676
-74.544281005859 -73.385139465332 -154.705444335938 2.963752508163
107.096839904785 -73.404129028320 -155.475250244141 3.547916650772
112.862510681152 -71.724624633789 -156.334304809570 0.937489330769
29.404880523682 -73.184844970703 -157.577575683594 3.013335943222
-72.435028076172 -76.020950317383 -157.974731445313 2.256984472275
1.268030047417 -72.053924560547 -160.739868164063 1.760189056396
1.166687011719 -72.478843688965 -160.461044311523 2.070967197418
-67.433181762695 -72.967437744141 -164.994628906250 0.519641578197
-46.169090270996 -75.936012268066 -167.255966186523 2.153489112854
20.553094863892 -75.538108825684 -169.258071899414 2.132962703705
105.758621215820 -75.501220703125 -159.570846557617 2.474976778030
29.554368972778 -71.937805175781 -164.474700927734 2.829865217209
-1.202607989311 -73.292823791504 -168.041854858398 0.640864908695
16.635961532593 -76.948341369629 -168.031326293945 2.496723175049
-65.301727294922 -76.557533264160 -169.829132080078 1.407189846039
-63.609809875488 -75.876159667969 -171.859817504883 1.512299537659
-45.164741516113 -74.864891052246 -172.284072875977 2.906588315964
24.612667083740 -73.239067077637 -172.787155151367 3.159632205963
17.767192840576 -75.407379150391 -172.291076660156 1.543157935143
25.849578857422 -74.326629638672 -170.120864868164 2.122007608414
19.515417098999 -70.583076477051 -174.578857421875 0.645824611187
-30.410444259644 -72.692970275879 -176.720703125000 3.499533176422
14.539471626282 -73.900588989258 -177.647583007813 2.298415660858
15.370650291443 -71.876060485840 -180.554946899414 1.398837089539
-60.991111755371 -76.422447204590 -179.340728759766 2.084910631180
105.255332946777 -70.979728698730 -181.241958618164 0.917486310005
12.660479545593 -73.575370788574 -181.915924072266 2.390256404877
25.795089721680 -71.386398315430 -179.403244018555 1.508149266243
-32.333259582520 -74.473022460938 -189.152694702148 1.966394066811
-48.423259735107 -74.071823120117 -190.960250854492 2.007317066193
13.363017082214 -76.327796936035 -190.457000732422 0.933325409889
-54.323894500732 -75.956642150879 -190.128448486328 1.980774283409
101.137329101563 -71.718688964844 -187.894760131836 3.368762254715
-51.939193725586 -72.250274658203 -195.141677856445 5.872204303741
-148.923950195313 -77.222908020020 -194.600616455078 1.425317645073
13.023264884949 -72.391426086426 -194.434432983398 0.748593628407
-42.863025665283 -74.922111511230 -202.369094848633 2.143728494644
14.579734802246 -73.581741333008 -197.086105346680 2.336171627045
-17.666093826294 -72.684028625488 -197.948379516602 2.454657554626
13.747832298279 -72.223937988281 -198.612136840820 1.799623727798
-137.773086547852 -76.154029846191 -199.352752685547 1.990852475166
15.819033622742 -74.560745239258 -198.727111816406 2.410749197006
-137.135910034180 -75.929977416992 -204.826614379883 2.898445367813
-142.263610839844 -78.699394226074 -206.457489013672 2.333275079727
-36.278144836426 -77.014495849609 -205.858169555664 1.429617762566
96.708335876465 -71.233787536621 -203.215026855469 1.870990633965
-157.123168945313 -76.933631896973 -206.434738159180 4.917439937592
-14.611009597778 -76.614753723145 -208.042831420898 2.256552457809
-34.056304931641 -77.125610351563 -205.551010131836 0.946069896221
-40.378948211670 -79.253227233887 -208.078582763672 2.402930974960
7.273867130280 -74.639259338379 -210.485168457031 2.034791946411
91.849296569824 -70.069534301758 -207.307678222656 1.647886991501
-75.631034851074 -76.845825195313 -212.794281005859 1.556708097458
-35.034168243408 -75.441116333008 -210.701095581055 3.156127452850
-9.740243911743 -73.092727661133 -217.220870971680 3.024039268494
-72.191558837891 -77.161987304688 -215.714782714844 2.547400474548
-37.364841461182 -75.198997497559 -214.906341552734 4.585837364197
-19.988145828247 -77.528961181641 -217.105850219727 1.401979207993
-27.475893020630 -72.852828979492 -216.217147827148 2.607619524002
93.638900756836 -72.905464172363 -215.977951049805 3.041963815689
-76.623260498047 -75.912353515625 -215.442642211914 1.947095870972
15.988462448120 -74.392234802246 -222.211303710938 2.131612777710
4.415782928467 -73.746101379395 -216.692337036133 1.976602077484
-6.457025051117 -72.039657592773 -221.679412841797 3.673055648804
-94.084396362305 -78.814567565918 -222.121200561523 3.500104665756
3.059711933136 -71.659996032715 -226.865036010742 1.340201258659
-18.794099807739 -75.104499816895 -222.785339355469 1.455756783485
17.990003585815 -73.162239074707 -222.564590454102 2.248590469360
79.742958068848 -73.158782958984 -222.947158813477 1.854616403580
-154.155349731445 -80.434120178223 -228.616928100586 1.162158608437
-14.981071472168 -75.468734741211 -224.702819824219 1.139110922813
82.288162231445 -71.296119689941 -225.869644165039 1.128249406815
-143.199539184570 -77.626609802246 -232.023620605469 2.091942787170
15.532543182373 -68.857543945313 -228.099822998047 2.431500911713
-7.503038883209 -74.037864685059 -226.249908447266 1.308922171593
5.679151058197 -75.492912292480 -226.191665649414 1.831208944321
20.352128982544 -74.109748840332 -231.483642578125 2.930418491364
68.377861022949 -70.782508850098 -235.818664550781 1.134119391441
76.912872314453 -71.637741088867 -235.763366699219 0.633591353893
6.860647201538 -74.916793823242 -238.115676879883 1.528899073601
1.103942990303 -70.795555114746 -238.850830078125 1.922017931938
-1.072464942932 -72.767410278320 -240.488006591797 0.682200789452
1.831794023514 -74.821601867676 -240.557800292969 1.473618149757
-45.345718383789 -78.255920410156 -239.936950683594 2.618672847748
4.211717128754 -73.717895507813 -240.875228881836 1.782123446465
-37.168109893799 -71.765975952148 -248.467727661133 5.858519554138
7.178753852844 -70.653663635254 -246.444381713867 3.933623075485
8.335574150085 -74.610885620117 -249.199996948242 4.146365642548
17.619293212891 -72.924583435059 -251.691131591797 1.883704543114
17.902130126953 -69.267295837402 -251.293609619141 3.606337070465
-80.089378356934 -77.989105224609 -252.763748168945 1.577823877335
18.570734024048 -73.533287048340 -251.581787109375 1.370785355568
-75.009239196777 -75.805831909180 -257.668395996094 3.900440454483
-143.978134155273 -75.650688171387 -262.166503906250 2.422877311707
-129.430908203125 -75.829971313477 -264.229248046875 1.938390493393
-137.060653686523 -75.931503295898 -266.356903076172 4.201770782471
-133.613754272461 -77.854644775391 -265.363555908203 4.278106689453
-152.415679931641 -81.728569030762 -271.241058349609 2.224497079849
-147.061386108398 -80.403343200684 -278.420959472656 0.477430909872
-148.821289062500 -79.559043884277 -271.398284912109 1.012549757957
-151.836044311523 -77.152290344238 -284.755859375000 2.178888082504
-164.054534912109 -74.407752990723 -289.498260498047 1.217847108841
-130.344360351563 -76.118881225586 -288.864074707031 1.954867601395
-49.336769104004 -76.221870422363 -288.389648437500 2.441326141357
-62.072261810303 -74.460189819336 -285.220489501953 1.286883473396
-73.395774841309 -73.471794128418 -290.306854248047 2.187211036682
-0.218905001879 -75.424057006836 -286.344573974609 0.879744648933
-125.764694213867 -75.489036560059 -289.959472656250 1.460081934929
2.419565916061 -74.773864746094 -289.283905029297 2.052416324615
-135.445892333984 -77.739486694336 -291.725646972656 1.960596919060
-93.317497253418 -77.502609252930 -291.413513183594 3.587029457092
-81.281120300293 -74.407135009766 -293.535278320313 3.189802169800
-159.103576660156 -77.895797729492 -294.453826904297 4.942248821259
-139.579421997070 -77.975074768066 -296.204223632813 5.226537227631
-116.169136047363 -76.844619750977 -293.956512451172 3.354710817337
-68.452957153320 -77.089569091797 -290.821594238281 2.241257667542
16.030420303345 -71.360137939453 -293.498168945313 2.987641334534
-32.549606323242 -76.437103271484 -294.284027099609 3.680652141571
-18.333368301392 -73.622459411621 -294.550994873047 3.767603397369
-133.029098510742 -76.488250732422 -296.607421875000 3.567973613739
-131.687576293945 -75.601509094238 -299.215576171875 6.415325641632
-144.149002075195 -75.221611022949 -300.289184570313 2.183412075043
-146.877761840820 -76.759429931641 -306.403137207031 1.415989398956
-146.966400146484 -74.970046997070 -314.421020507813 2.454797029495
-61.691856384277 -76.338401794434 -57.673664093018 0.898320674896
-80.865753173828 -74.406547546387 -59.110744476318 2.294669151306
-82.199592590332 -75.584754943848 -59.172298431396 2.827214241028
-29.788364410400 -75.406280517578 -62.507957458496 3.277498722076
-24.490316390991 -73.904174804688 -63.076763153076 2.308424472809
-84.763252258301 -76.182296752930 -70.023345947266 2.592329502106
-90.802589416504 -77.472061157227 -72.826370239258 3.346078395844
81.431701660156 -71.095886230469 -73.602256774902 3.554401397705
87.661003112793 -74.220573425293 -74.797370910645 1.936622977257
-96.432357788086 -75.480506896973 -79.762191772461 4.977365493774
-33.008308410645 -77.565109252930 -77.800392150879 2.639919519424
90.604766845703 -71.151954650879 -79.851417541504 5.296754360199
89.186843872070 -70.522087097168 -86.308242797852 7.074540138245
-96.517280578613 -72.549980163574 -80.027717590332 2.682004451752
-52.529777526855 -73.871955871582 -87.342201232910 1.529289484024
95.516204833984 -69.956062316895 -89.278861999512 4.427645206451
-59.418037414551 -77.979545593262 -91.950172424316 1.737588644028
51.356594085693 -74.849647521973 -94.587196350098 1.863177776337
-62.251155853271 -76.431709289551 -93.069328308105 3.036730289459
46.856620788574 -71.586067199707 -94.006042480469 1.523315072060
42.424930572510 -75.381301879883 -99.354270935059 3.328281164169
50.408676147461 -72.805923461914 -95.649589538574 2.642493963242
49.561065673828 -72.610069274902 -99.610671997070 2.718578577042
40.110729217529 -72.201965332031 -106.839462280273 1.451830267906
105.545425415039 -72.256187438965 -104.405586242676 1.378321170807
-84.206260681152 -74.740684509277 -112.756462097168 1.968407750130
-87.680641174316 -75.118255615234 -111.577384948730 1.988919496536
106.287811279297 -70.813743591309 -111.778869628906 1.974029898643
43.072582244873 -73.481666564941 -116.236236572266 1.634637236595
44.306304931641 -71.722030639648 -121.488212585449 1.716252684593
-91.303550720215 -77.469810485840 -118.703742980957 2.536909103394
107.441780090332 -72.362586975098 -113.990242004395 0.939287006855
109.766098022461 -67.125480651855 -117.967140197754 3.196720600128
40.430603027344 -74.631095886230 -124.222640991211 1.413067817688
108.306953430176 -72.434326171875 -125.779083251953 1.850849032402
105.308502197266 -70.469085693359 -130.521743774414 4.324087142944
25.209899902344 -71.297630310059 -135.697311401367 1.985635995865
111.766876220703 -71.188499450684 -137.855010986328 0.990702807903
106.586837768555 -71.997161865234 -131.720077514648 3.249533891678
-63.638935089111 -74.161285400391 -138.816436767578 5.352105140686
-58.373767852783 -75.527420043945 -140.872940063477 1.126008510590
24.169588088989 -71.294639587402 -143.709152221680 1.969625949860
-56.419437408447 -70.452178955078 -136.870666503906 1.675564885139
-77.207977294922 -72.968658447266 -142.532928466797 1.437260389328
-74.186073303223 -74.213272094727 -147.000167846680 1.001425623894
102.827735900879 -72.786834716797 -140.516189575195 5.930701255798
-57.843986511230 -75.462867736816 -148.939208984375 2.893578767776
-75.863059997559 -74.526809692383 -148.191696166992 2.566572189331
-44.752208709717 -74.820625305176 -147.911666870117 1.288525342941
110.099449157715 -68.431198120117 -153.269744873047 2.525765180588
22.216642379761 -72.140586853027 -155.065444946289 1.096814870834
-77.439842224121 -76.245750427246 -159.096282958984 5.947090148926
-54.118133544922 -75.696311950684 -159.494598388672 3.944136381149
-38.381847381592 -77.450698852539 -156.776901245117 1.818368673325
-41.471076965332 -78.445930480957 -156.696411132813 2.137472391129
-73.218124389648 -77.339370727539 -161.075363159180 3.627491474152
8.240145683289 -73.343025207520 -161.595199584961 0.999767661095
-52.433788299561 -73.976470947266 -161.061904907227 3.195695877075
-48.555381774902 -74.509552001953 -160.688949584961 1.888458013535
27.791748046875 -72.899772644043 -163.222595214844 0.657034993172
-36.202926635742 -75.302734375000 -168.113601684570 3.120324134827
-71.580101013184 -77.426826477051 -168.033370971680 4.479327201843
105.211639404297 -70.503051757813 -161.126693725586 4.103759288788
106.746925354004 -67.168525695801 -165.123077392578 3.790128231049
27.874233245850 -72.351203918457 -167.069793701172 0.814788162708
110.039619445801 -67.987930297852 -166.778503417969 1.501899242401
105.520111083984 -71.880393981934 -167.864974975586 2.133602857590
16.204689025879 -75.428436279297 -177.095062255859 2.045999050140
-29.969167709351 -70.715881347656 -175.164306640625 1.071946978569
-54.958702087402 -76.406967163086 -180.050888061523 2.396694898605
108.186538696289 -70.735771179199 -178.365676879883 2.605259895325
-38.851055145264 -75.078300476074 -180.725128173828 2.840272903442
12.324731826782 -72.249397277832 -179.297790527344 3.423933029175
-36.507438659668 -71.809829711914 -179.179611206055 1.707303404808
-56.561496734619 -73.819084167480 -185.408523559570 3.723177671432
-149.963470458984 -76.256759643555 -187.566024780273 1.603111028671
-151.224548339844 -75.066986083984 -187.907913208008 3.239225864410
104.985702514648 -72.023513793945 -180.546508789063 0.805951058865
18.434040069580 -71.023040771484 -185.575317382813 1.964659929276
-57.864456176758 -73.574783325195 -186.663955688477 5.132113456726
-51.134189605713 -76.652236938477 -195.355575561523 2.771449804306
-49.505599975586 -72.703186035156 -193.119735717773 3.973571062088
-50.111240386963 -76.437004089355 -196.409179687500 1.972498297691
13.651626586914 -72.853782653809 -189.876281738281 1.667509317398
13.459067344666 -73.178459167480 -189.495330810547 1.698319792747
103.939697265625 -69.365699768066 -193.716171264648 3.987331151962
-25.919118881226 -72.697372436523 -198.150268554688 1.221489906311
-46.179630279541 -74.984886169434 -199.630996704102 2.912194252014
20.798706054688 -71.606475830078 -198.667205810547 1.394245028496
-44.447120666504 -73.115005493164 -199.621353149414 1.523579120636
96.919662475586 -71.971282958984 -199.941314697266 2.691653966904
-38.748321533203 -71.995796203613 -204.883956909180 1.214642405510
92.733329772949 -73.665145874023 -201.513610839844 1.901769518852
17.758590698242 -71.322082519531 -204.591186523438 1.217243194580
-39.909526824951 -72.384185791016 -208.362213134766 3.525391340256
15.528219223022 -70.018280029297 -202.401321411133 1.599685788155
-23.301500320435 -74.786811828613 -210.173019409180 2.316855192184
-41.400699615479 -74.448158264160 -207.230529785156 3.065937042236
91.556846618652 -71.804862976074 -208.314682006836 1.148036360741
7.554547786713 -72.509689331055 -208.854888916016 1.036104083061
88.308143615723 -67.274345397949 -217.361862182617 2.012526035309
-8.878886222839 -74.683601379395 -213.914062500000 2.012209653854
-25.911363601685 -73.740318298340 -212.010238647461 1.332803964615
-81.033645629883 -75.230430603027 -216.097351074219 1.191333651543
83.549652099609 -71.040870666504 -218.603195190430 1.347711801529
-20.864963531494 -73.699554443359 -219.950302124023 1.444991946220
16.862859725952 -70.856224060059 -219.198287963867 1.772418618202
-27.266460418701 -75.996849060059 -220.645141601563 1.914012551308
-31.269279479980 -73.427101135254 -218.365875244141 1.695795536041
-100.301971435547 -76.572532653809 -223.074813842773 2.590149402618
-10.979789733887 -71.575958251953 -223.046447753906 1.310575723648
-22.444992065430 -73.257377624512 -223.777862548828 1.948327541351
-0.604278028011 -72.623970031738 -226.380661010742 1.492114782333
13.430130958557 -74.763969421387 -223.855194091797 2.495588302612
-15.688125610352 -72.440528869629 -224.928710937500 1.792665362358
-14.879863739014 -77.961524963379 -227.346527099609 2.610967159271
16.504617691040 -73.381858825684 -225.221420288086 1.733243584633
7.005257129669 -73.351242065430 -223.723388671875 2.306992530823
5.450407981873 -74.568542480469 -222.712478637695 0.493366658688
-130.087631225586 -77.423469543457 -233.992187500000 4.273602008820
-13.848830223083 -72.459259033203 -229.514587402344 1.362279534340
77.279899597168 -70.847572326660 -229.338104248047 1.158420562744
-17.322534561157 -74.305458068848 -230.166687011719 2.303535699844
-153.098693847656 -79.819671630859 -234.452789306641 2.614849805832
-130.144454956055 -77.137031555176 -237.465774536133 5.699090003967
-11.742409706116 -71.637786865234 -237.872741699219 1.296981096268
75.743965148926 -72.521316528320 -228.993560791016 1.281728148460
-8.510583877563 -73.906082153320 -232.384765625000 1.616157412529
-3.439028978348 -73.326484680176 -236.648757934570 1.772327184677
65.873886108398 -72.188316345215 -238.357818603516 0.832755267620
0.578275024891 -73.397781372070 -243.159149169922 2.314347028732
66.537681579590 -74.832565307617 -238.565780639648 1.549552440643
-154.751159667969 -75.689239501953 -249.690383911133 2.634868383408
62.079772949219 -68.667808532715 -239.581558227539 2.038881063461
-36.669517517090 -73.161201477051 -243.137908935547 1.953934907913
-38.799213409424 -72.142318725586 -244.646392822266 3.139313220978
12.393450737000 -73.172477722168 -240.957275390625 1.238940954208
-46.333961486816 -76.536804199219 -247.073455810547 1.176930427551
-26.489057540894 -74.068367004395 -245.253494262695 3.497383117676
5.689792156219 -70.437019348145 -244.692642211914 3.156522750854
-46.996791839600 -74.981918334961 -247.755035400391 1.248477458954
-145.611679077148 -73.725112915039 -250.834472656250 1.360922098160
15.086023330688 -71.668014526367 -241.706024169922 1.818239331245
-150.820190429688 -79.921470642090 -246.500228881836 1.540912747383
-72.015174865723 -75.769302368164 -250.548629760742 1.624926567078
-5.610571861267 -75.427040100098 -250.176239013672 2.565015316010
-9.469668388367 -71.607467651367 -251.543792724609 2.518471002579
-82.633216857910 -75.016212463379 -251.569824218750 1.754684448242
-151.630813598633 -75.592262268066 -258.411529541016 2.513095617294
-148.274337768555 -81.541252136230 -257.220581054688 1.156199216843
-87.997596740723 -75.467338562012 -261.527160644531 5.387310981750
-162.757522583008 -77.367912292480 -264.515075683594 2.668374776840
-126.067054748535 -78.734123229980 -260.130706787109 1.639462232590
24.419347763062 -70.690124511719 -260.073669433594 2.251173257828
-155.794448852539 -75.614738464355 -262.209594726563 0.953954756260
-145.995819091797 -73.746208190918 -263.168609619141 1.654501676559
-164.404067993164 -76.381698608398 -264.938354492188 1.758168578148
-136.365600585938 -72.334808349609 -265.356292724609 2.822517156601
-123.427284240723 -76.651771545410 -267.016510009766 3.857514858246
-161.442382812500 -79.527198791504 -271.231384277344 5.390343189240
-144.961288452148 -76.851341247559 -265.778717041016 2.049954414368
-166.849731445313 -76.600929260254 -270.514129638672 1.991776466370
-154.641433715820 -75.535972595215 -266.649993896484 2.536776542664
-161.130569458008 -74.867088317871 -272.020355224609 3.471780538559
-168.522628784180 -76.171218872070 -267.672637939453 3.825906515121
18.316324234009 -77.302474975586 -274.766998291016 1.438803553581
13.797259330750 -73.417640686035 -274.831542968750 5.590991020203
-159.471801757813 -75.688598632813 -280.229705810547 5.076183319092
-158.314056396484 -76.534561157227 -277.865753173828 3.276279926300
-167.383575439453 -73.346855163574 -284.937164306641 1.441571950912
-155.664398193359 -76.232673645020 -276.934722900391 4.544352054596
-152.605026245117 -73.535865783691 -277.281372070313 2.503700494766
-150.890136718750 -75.391807556152 -278.630889892578 2.134477615356
-141.171493530273 -75.289726257324 -284.839782714844 2.224362850189
-162.074676513672 -76.781944274902 -283.562103271484 2.649583101273
-153.920440673828 -74.420768737793 -288.278198242188 2.657815217972
18.426294326782 -71.368698120117 -283.114562988281 1.511897683144
-153.055831909180 -78.893325805664 -286.985107421875 2.096640348434
-160.083831787109 -78.324356079102 -288.455413818359 3.550137758255
-161.998962402344 -76.140525817871 -286.981140136719 1.891173124313
-127.490226745605 -75.256690979004 -291.223144531250 1.706021189690
-30.828662872314 -74.092201232910 -288.389068603516 1.609462261200
-43.507061004639 -72.630004882813 -287.026397705078 1.681161880493
-67.850814819336 -72.201911926270 -292.270599365234 1.814703226089
-14.957464218140 -70.273437500000 -289.078308105469 0.827854514122
11.561812400818 -73.301582336426 -287.302490234375 2.169863939285
-2.115170955658 -74.293991088867 -291.250732421875 1.681254386902
-111.250801086426 -76.562950134277 -293.798645019531 4.361276149750
-96.229362487793 -73.965026855469 -290.736907958984 1.942699909210
-113.338607788086 -75.498649597168 -295.897857666016 4.190921306610
-103.006965637207 -75.480064392090 -292.627136230469 2.687269687653
-92.460617065430 -76.727165222168 -294.445709228516 4.435587882996
-48.188327789307 -73.285995483398 -291.008941650391 2.921420097351
-118.393966674805 -76.175880432129 -293.924133300781 2.996441602707
-86.466056823730 -73.595016479492 -295.344573974609 4.021543502808
-115.981620788574 -75.107795715332 -297.284790039063 4.834874153137
-135.019805908203 -76.841400146484 -295.835784912109 2.105166912079
-10.991148948669 -71.008094787598 -295.540985107422 5.065984249115
11.777523040771 -72.591865539551 -295.382965087891 2.705472707748
-152.932052612305 -76.463005065918 -300.046142578125 1.552462577820
-157.318023681641 -78.876838684082 -315.537841796875 5.867886543274
-70.228813171387 -73.338752746582 -57.472434997559 2.572334766388
-64.711380004883 -74.441177368164 -56.177722930908 1.470197319984
-59.023635864258 -78.330711364746 -60.239982604980 1.138022780418
-78.278244018555 -75.725761413574 -58.318855285645 3.618687868118
-46.401866912842 -78.409828186035 -60.122665405273 2.410340547562
-82.711906433105 -75.918830871582 -61.600025177002 2.358380556107
-85.916091918945 -75.621894836426 -66.083160400391 3.546308994293
-22.708057403564 -76.141563415527 -74.072990417480 1.733105182648
-21.795324325562 -75.942817687988 -74.522987365723 2.600255012512
70.780342102051 -72.182258605957 -75.410491943359 2.131324052811
-40.929660797119 -74.093147277832 -82.823616027832 2.592548131943
-39.466655731201 -75.580566406250 -78.661727905273 1.808979153633
64.585090637207 -68.759658813477 -81.202507019043 2.311700582504
94.122558593750 -73.634719848633 -86.718109130859 2.735162258148
-59.152809143066 -74.545257568359 -95.185562133789 4.879635334015
56.300872802734 -72.523422241211 -97.000404357910 1.040670990944
44.156707763672 -70.554840087891 -96.673110961914 1.442248940468
45.775211334229 -71.740638732910 -99.607170104980 1.259468317032
36.519424438477 -70.826385498047 -102.338157653809 4.366516113281
105.366600036621 -71.109832763672 -98.064979553223 0.982974290848
55.718490600586 -69.240333557129 -93.613571166992 1.178062677383
-99.507041931152 -77.038162231445 -105.674568176270 6.855978965759
-78.694442749023 -72.262474060059 -104.960289001465 4.384457111359
52.717311859131 -70.544311523438 -100.305809020996 2.358450412750
39.921470642090 -68.448898315430 -103.905006408691 1.818064093590
39.209564208984 -70.360717773438 -106.327827453613 0.773248612881
-97.103187561035 -74.951622009277 -116.374229431152 5.596353530884
33.133068084717 -71.287048339844 -110.856803894043 2.766201972961
48.323276519775 -70.303230285645 -113.398002624512 1.222742438316
40.098026275635 -72.250495910645 -119.340789794922 1.611945867538
42.708927154541 -70.330146789551 -123.653945922852 1.472270011902
112.011413574219 -68.770713806152 -128.288619995117 1.599025964737
-59.078533172607 -73.517730712891 -134.168640136719 2.220338344574
35.297878265381 -73.232452392578 -137.242935180664 0.644438743591
34.576438903809 -72.014465332031 -136.220809936523 1.200925111771
111.138381958008 -71.218269348145 -138.212051391602 1.158357501030
-77.019294738770 -73.366981506348 -136.720260620117 2.449342727661
-58.392105102539 -74.283630371094 -142.183166503906 1.228467464447
116.611366271973 -68.218246459961 -136.456817626953 1.947751283646
-76.133636474609 -74.481681823730 -143.740051269531 2.228990316391
-51.365093231201 -72.670600891113 -147.959838867188 2.500205039978
-63.686225891113 -71.125503540039 -146.992630004883 2.902528762817
106.007698059082 -69.561965942383 -139.473663330078 3.577894210815
19.094364166260 -75.121086120605 -151.449249267578 2.925747632980
28.399078369141 -71.249450683594 -147.506561279297 1.378009557724
-46.262588500977 -73.013511657715 -154.527114868164 2.257061719894
-68.404205322266 -73.809562683105 -155.648559570313 0.702929079533
22.354907989502 -75.200614929199 -152.436767578125 0.888216137886
-75.281806945801 -73.857841491699 -155.218231201172 3.694884777069
28.608009338379 -72.569084167480 -150.717468261719 2.860262155533
-39.167671203613 -73.637748718262 -158.412033081055 0.913456559181
21.038541793823 -72.155052185059 -154.487823486328 0.463724344969
7.731821060181 -73.473831176758 -157.104248046875 2.155846357346
-73.491668701172 -74.153221130371 -164.546035766602 5.136676788330
-51.268894195557 -77.036361694336 -160.633026123047 3.136091232300
-63.132545471191 -76.028884887695 -161.904266357422 1.974431753159
-52.088573455811 -75.069747924805 -161.589523315430 3.289287567139
2.938122034073 -72.934722900391 -163.127349853516 1.464892983437
-36.465461730957 -74.573837280273 -169.969223022461 2.877038478851
-44.338703155518 -75.609367370605 -168.476959228516 2.179930925369
18.268512725830 -71.483268737793 -168.322418212891 0.668370366096
-43.852745056152 -75.950805664063 -170.368377685547 3.385780096054
23.976726531982 -70.576591491699 -168.012542724609 2.332358837128
113.633506774902 -67.154685974121 -165.887191772461 2.741577386856
-34.019870758057 -74.105484008789 -174.191070556641 2.779309988022
25.674560546875 -74.371025085449 -173.243072509766 2.079230070114
-68.603988647461 -74.820983886719 -173.570449829102 4.751179695129
-61.138336181641 -72.955757141113 -173.736480712891 2.508912324905
-45.060623168945 -70.771232604980 -173.623703002930 4.213423728943
-63.198810577393 -75.181060791016 -178.189041137695 3.959383964539
106.375144958496 -70.235725402832 -174.996780395508 2.036992311478
-149.759704589844 -75.277832031250 -180.408782958984 1.564892172813
-146.253662109375 -77.254966735840 -181.944869995117 1.592438936234
-59.336807250977 -73.603965759277 -180.343917846680 1.179463744164
102.610717773438 -70.293411254883 -176.681488037109 2.618715047836
106.993461608887 -68.746597290039 -177.529281616211 3.063386678696
104.947792053223 -68.538024902344 -180.698074340820 3.186250925064
22.039741516113 -73.452903747559 -188.768753051758 1.575146079063
-37.419097900391 -74.790199279785 -183.324783325195 3.478152036667
-140.163085937500 -75.505973815918 -189.277252197266 3.965559005737
104.878280639648 -67.946731567383 -183.582015991211 3.090257167816
19.508138656616 -71.325355529785 -195.471817016602 1.639031410217
103.928627014160 -68.079032897949 -192.970596313477 4.595625400543
101.664291381836 -65.303474426270 -193.190155029297 6.556081771851
8.140426635742 -78.850929260254 -198.538192749023 3.459642887115
-132.871627807617 -75.807624816895 -201.765304565430 1.772093892097
-125.450004577637 -73.046157836914 -201.440734863281 1.021996974945
-146.641784667969 -80.584793090820 -205.299514770508 2.441262483597
-133.229919433594 -74.929794311523 -204.266799926758 2.475455999374
-123.978019714355 -76.191978454590 -205.391418457031 4.208323955536
-23.303424835205 -74.327156066895 -204.844924926758 2.216456890106
-26.346679687500 -74.176879882813 -204.463607788086 2.864469528198
-131.585037231445 -76.454360961914 -204.964752197266 4.005329132080
-142.462600708008 -77.160285949707 -206.479675292969 2.248886823654
-14.488986968994 -72.781600952148 -212.374923706055 1.597478032112
94.533447265625 -69.316032409668 -200.850570678711 1.938866972923
-21.732381820679 -74.664138793945 -206.273864746094 2.550723075867
87.443344116211 -66.669036865234 -210.463607788086 4.820971012115
15.862827301025 -71.144813537598 -209.303649902344 1.898525714874
-7.396479129791 -72.224121093750 -216.047607421875 2.405193805695
16.631246566772 -72.479591369629 -211.669204711914 2.005993127823
-32.230064392090 -71.013275146484 -211.600723266602 3.471739530563
-86.238647460938 -76.778968811035 -219.118347167969 1.694745898247
-94.064147949219 -76.611625671387 -219.394744873047 1.570495843887
-13.621190071106 -75.380111694336 -219.647186279297 1.981672525406
-96.116523742676 -74.823272705078 -220.048004150391 1.617778778076
-97.450912475586 -74.014389038086 -221.016448974609 1.909142374992
83.079147338867 -68.038841247559 -220.022994995117 2.811755657196
-25.491289138794 -74.434997558594 -225.252853393555 2.187412023544
-23.892744064331 -69.603965759277 -226.960357666016 4.036849975586
-24.539367675781 -72.242637634277 -222.215301513672 1.467498779297
-20.581216812134 -71.892486572266 -225.379501342773 1.045370817184
-20.067070007324 -72.084197998047 -224.096710205078 1.950199723244
13.427194595337 -72.607711791992 -223.814941406250 1.275592207909
-140.337005615234 -75.415435791016 -231.905746459961 1.728155016899
75.187049865723 -70.548446655273 -225.399017333984 2.205678462982
-5.216997146606 -73.534309387207 -231.024627685547 1.740357518196
9.109132766724 -74.275550842285 -234.531341552734 2.164710760117
78.235664367676 -69.364082336426 -229.763397216797 0.890702664852
-125.446670532227 -76.420417785645 -234.949539184570 2.832272768021
-161.413635253906 -75.986526489258 -240.333938598633 1.391176462173
-136.976974487305 -76.984474182129 -236.103530883789 5.189286231995
13.238245010376 -74.177696228027 -232.234420776367 3.141445398331
6.511926174164 -71.370666503906 -232.752731323242 0.380749225616
-126.414085388184 -77.354644775391 -237.354660034180 5.327948570251
-2.660904884338 -74.432235717773 -238.729782104492 2.146765708923
-148.197540283203 -74.544830322266 -240.764434814453 1.340569615364
-4.663207054138 -76.743347167969 -236.627090454102 3.134538888931
9.660176277161 -70.943328857422 -237.860855102539 1.671335101128
-4.273498058319 -71.960876464844 -238.063201904297 1.144220590591
-4.377200126648 -74.156532287598 -244.387969970703 1.944110274315
6.003163814545 -75.214141845703 -239.729019165039 0.639131784439
-162.993682861328 -78.966094970703 -246.199264526367 4.410461425781
-156.999816894531 -77.469123840332 -243.267227172852 5.023324012756
18.395267486572 -70.161277770996 -243.556381225586 2.015260219574
-3.455559015274 -74.024383544922 -241.286651611328 1.282554984093
64.452796936035 -71.183219909668 -242.445602416992 1.339520692825
60.975032806396 -68.875633239746 -240.702133178711 1.951986908913
-165.775329589844 -75.227600097656 -248.889984130859 1.331548571587
-161.403594970703 -74.025901794434 -250.493362426758 1.672683835030
-152.495254516602 -76.142478942871 -246.947845458984 1.759684443474
-57.826404571533 -72.911315917969 -245.154922485352 0.799551367760
-8.409997940063 -69.468040466309 -245.673400878906 1.873521685600
-54.008441925049 -74.925178527832 -245.986953735352 2.484191656113
-154.623321533203 -78.785560607910 -254.439666748047 2.037729740143
-59.396892547607 -71.348312377930 -248.187683105469 1.832236409187
15.660357475281 -67.607582092285 -248.469818115234 3.399800777435
-10.764121055603 -72.905761718750 -248.658737182617 1.777063131332
-8.651730537415 -71.159423828125 -253.390838623047 2.998494863510
-160.172836303711 -75.062240600586 -254.374801635742 2.371882677078
-165.580535888672 -75.876144409180 -255.376922607422 2.646069765091
-85.623802185059 -72.704841613770 -250.523864746094 1.259037733078
-164.580429077148 -77.153114318848 -257.401641845703 4.540082454681
-147.306991577148 -76.534019470215 -258.944702148438 1.337724208832
-74.626129150391 -72.850585937500 -256.815063476563 2.450451850891
-96.225608825684 -73.892562866211 -260.639923095703 3.200393199921
-86.693809509277 -74.570602416992 -256.370452880859 1.752331376076
-135.067214965820 -76.259765625000 -261.835113525391 1.891256332397
21.119684219360 -71.315284729004 -256.226776123047 2.495711803436
-98.345504760742 -71.748321533203 -261.168060302734 3.265755414963
-101.710395812988 -71.752426147461 -264.002838134766 3.793282270432
-103.416847229004 -70.660408020020 -263.021972656250 2.453372955322
-115.455230712891 -75.300621032715 -264.252899169922 3.256699323654
-109.686073303223 -75.394714355469 -265.279357910156 5.320388317108
-116.266227722168 -75.457916259766 -265.504486083984 4.382831573486
-144.821304321289 -77.780029296875 -269.479583740234 1.920807719231
-131.170364379883 -74.921524047852 -267.568969726563 3.740788459778
-152.977645874023 -73.800979614258 -268.744018554688 2.001811981201
-146.887908935547 -75.907157897949 -275.705963134766 2.016651630402
-166.604202270508 -76.419334411621 -281.139434814453 3.775985717773
-9.960791587830 -73.292549133301 -280.614532470703 2.373960018158
-128.914413452148 -76.668251037598 -288.529846191406 2.419775247574
-138.847595214844 -76.711807250977 -291.203125000000 2.245097875595
-44.311016082764 -72.252281188965 -290.711883544922 2.339791059494
-87.939430236816 -73.212104797363 -292.212188720703 2.672221660614
-27.769474029541 -73.487594604492 -291.549530029297 0.732466101646
-33.421070098877 -71.296981811523 -292.199096679688 2.091472864151
-117.478927612305 -77.289543151855 -289.774780273438 1.160663723946
-18.353528976440 -72.426010131836 -290.683685302734 1.140328168869
13.953175544739 -70.587089538574 -291.788238525391 1.118696451187
-52.919147491455 -72.675987243652 -290.333374023438 1.703233599663
-117.326011657715 -74.080070495605 -297.482391357422 4.774149894714
-77.928474426270 -70.710670471191 -293.710418701172 3.713160753250
-69.707878112793 -70.516609191895 -293.875427246094 2.674851179123
-30.457483291626 -72.877517700195 -292.824157714844 2.042634725571
-100.350219726563 -73.909538269043 -294.321533203125 3.899747371674
-112.688377380371 -74.217102050781 -295.723541259766 3.833884716034
-10.617390632629 -69.428352355957 -298.127471923828 7.613040447235
-161.661285400391 -73.429916381836 -297.086944580078 3.597093343735
-151.088409423828 -77.544586181641 -305.380218505859 2.609401702881
-151.690689086914 -76.130966186523 -318.603088378906 6.381436347961
25.372297286987 -73.756958007813 -17.940568923950 2.142110347748
20.480947494507 -74.651542663574 -19.182306289673 3.391234397888
21.722076416016 -71.433303833008 -22.606698989868 0.634657204151
17.043954849243 -70.497238159180 -27.701965332031 3.188720464706
19.344823837280 -73.472610473633 -34.474414825439 2.106487035751
27.201961517334 -70.070564270020 -39.835098266602 1.473354458809
18.866868972778 -74.254928588867 -42.527366638184 7.698531150818
-60.581138610840 -74.440063476563 -54.474060058594 2.795968770981
-35.665924072266 -68.916000366211 -55.169780731201 3.740219831467
81.596702575684 -67.491554260254 -69.408508300781 4.345883369446
-94.549926757813 -75.266464233398 -76.837356567383 4.234793186188
67.730812072754 -70.770660400391 -75.806732177734 2.026775598526
-42.676185607910 -76.943618774414 -83.376113891602 1.580852270126
-97.549163818359 -74.088928222656 -86.521316528320 3.024510860443
-52.190299987793 -77.120063781738 -85.160316467285 3.768598079681
97.429779052734 -70.873382568359 -88.808059692383 3.230948686600
-97.205429077148 -75.176345825195 -95.742813110352 4.720103740692
63.813541412354 -70.431510925293 -92.963142395020 2.778877735138
-100.413902282715 -72.987747192383 -95.712028503418 5.743176937103
53.556495666504 -75.255531311035 -95.535934448242 0.760568261147
101.357498168945 -67.238006591797 -95.188636779785 1.708998680115
