30.745588302612 -66.931327819824 -259.474182128906 0.594415009022
-126.168113708496 -68.953987121582 -264.911987304688 2.112388134003
-9.466787338257 -65.810073852539 -262.183898925781 1.443460226059
-148.809875488281 -67.855064392090 -279.420379638672 2.950506210327
-10.806831359863 -69.249458312988 -264.925842285156 3.188801050186
-6.900588035583 -70.285560607910 -270.563690185547 3.626919507980
-13.693992614746 -65.021347045898 -272.179382324219 5.180496215820
-8.828663825989 -66.452117919922 -274.581146240234 3.042317152023
-151.940200805664 -68.962326049805 -285.857360839844 2.281298398972
-125.223052978516 -67.635055541992 -287.673950195313 0.528919517994
-6.023618221283 -66.042327880859 -285.209411621094 1.465043425560
-6.031671047211 -70.300621032715 -285.582519531250 1.695654034615
-111.725654602051 -64.356735229492 -290.608032226563 3.829355955124
-96.929534912109 -61.333717346191 -290.317474365234 7.663996696472
-107.477401733398 -65.178802490234 -289.533203125000 2.477064847946
-154.967330932617 -64.027091979980 -293.770446777344 0.768943309784
-96.728820800781 -68.191642761230 -292.586242675781 3.146015167236
-136.753250122070 -64.472595214844 -295.229064941406 5.523609161377
-116.766326904297 -63.481464385986 -294.702789306641 5.169292926788
5.312306880951 -66.831550598145 -288.292205810547 4.333309650421
-151.042846679688 -65.550735473633 -300.451538085938 0.829072237015
-151.832046508789 -63.155158996582 -311.981018066406 3.056743144989
-146.606018066406 -67.995445251465 -315.297607421875 2.767577409744
25.333684921265 -66.885208129883 -7.591453075409 7.656530857086
23.640819549561 -69.594085693359 -13.588952064514 4.164673805237
33.478828430176 -67.178512573242 -19.592849731445 2.667824268341
14.700407981873 -70.255180358887 -26.285560607910 5.251947879791
12.973544120789 -69.153327941895 -29.170925140381 7.409677505493
33.111061096191 -73.168205261230 -30.964141845703 5.479386329651
-61.216587066650 -71.329559326172 -43.917552947998 3.290229082108
-48.399631500244 -71.551971435547 -47.986473083496 1.798662900925
-42.478858947754 -72.056335449219 -51.196598052979 2.474941015244
-89.267410278320 -70.190727233887 -54.693977355957 4.628657817841
-24.663610458374 -71.166305541992 -55.847820281982 2.602080345154
-26.205837249756 -67.166450500488 -59.172065734863 4.869596004486
80.064254760742 -67.884155273438 -56.014778137207 5.316768646240
-21.095706939697 -74.500938415527 -68.439895629883 1.630201816559
-102.669380187988 -70.162010192871 -75.157539367676 7.210016250610
93.136779785156 -71.727577209473 -66.811416625977 2.873103618622
-33.077075958252 -71.733329772949 -75.427162170410 3.199612379074
-52.151679992676 -69.313499450684 -82.466346740723 3.526736497879
99.426681518555 -68.122756958008 -75.670799255371 2.891743421555
96.756584167480 -70.247924804688 -80.725044250488 3.836662054062
59.430427551270 -71.007759094238 -83.029182434082 2.506619691849
97.316589355469 -67.681541442871 -87.810981750488 4.435136795044
58.496009826660 -66.044830322266 -92.887374877930 2.456364870071
-72.384178161621 -73.563819885254 -96.843498229980 4.243966579437
102.078384399414 -69.013313293457 -92.620681762695 1.617301821709
41.776027679443 -68.465263366699 -98.209182739258 3.054186820984
65.441612243652 -66.686515808105 -95.743011474609 1.679143071175
-80.731597900391 -67.486747741699 -105.430625915527 2.080042839050
69.397285461426 -69.567932128906 -101.218765258789 2.278207540512
78.620216369629 -65.416969299316 -100.431838989258 5.762649059296
35.207397460938 -68.027336120605 -101.323905944824 6.752585411072
-79.020210266113 -68.508735656738 -108.513313293457 1.836777687073
100.311286926270 -66.458625793457 -102.565498352051 0.789457619190
107.391014099121 -67.954177856445 -107.642921447754 1.304072141647
39.668582916260 -69.732521057129 -107.070816040039 0.573092758656
-95.853286743164 -71.281936645508 -115.155143737793 3.203420877457
104.045005798340 -68.076293945313 -116.460617065430 3.216334104538
-84.339141845703 -68.687103271484 -115.476966857910 1.959626674652
-96.171905517578 -70.988563537598 -119.638488769531 2.314320802689
-83.473144531250 -72.128372192383 -124.459693908691 2.252596139908
-69.002044677734 -66.713096618652 -121.358398437500 4.034309387207
-58.361377716064 -67.936553955078 -127.856781005859 1.128370881081
-78.618980407715 -70.159309387207 -132.512329101563 1.333719253540
-84.195373535156 -71.073684692383 -132.932846069336 1.622759461403
-65.879493713379 -68.259605407715 -129.999298095703 3.394409656525
-82.104118347168 -67.479370117188 -132.641357421875 1.248362064362
-80.693840026855 -64.706291198730 -136.518402099609 2.802691221237
-51.861026763916 -70.465187072754 -135.896728515625 1.031447649002
-55.103393554688 -66.521629333496 -138.263397216797 2.140749692917
19.190881729126 -67.269706726074 -138.820938110352 2.328734874725
-97.867973327637 -66.496894836426 -143.601745605469 2.707793712616
15.437032699585 -68.571334838867 -140.011642456055 4.478731632233
-72.456253051758 -71.381561279297 -146.404891967773 1.148524761200
23.918865203857 -69.350021362305 -142.881927490234 2.296939134598
-103.663063049316 -66.059196472168 -150.319839477539 3.495231151581
12.590331077576 -65.014846801758 -142.741027832031 3.777072906494
-98.423629760742 -70.509132385254 -151.912719726563 2.086283206940
-47.138236999512 -68.445930480957 -148.942062377930 1.147898912430
6.840028762817 -68.826416015625 -151.176071166992 3.154564857483
4.725193977356 -64.578384399414 -147.862136840820 7.796270370483
6.550447940826 -67.626831054688 -153.751998901367 3.069888830185
26.770689010620 -70.222023010254 -150.706146240234 2.185008049011
24.291315078735 -67.347885131836 -158.179321289063 0.984929621220
20.205966949463 -67.258445739746 -156.613693237305 3.801327228546
17.550765991211 -68.024833679199 -159.569976806641 3.423154354095
18.902933120728 -65.213455200195 -163.883941650391 5.436321258545
-107.667091369629 -70.490577697754 -168.041122436523 3.335262298584
27.997655868530 -68.639480590820 -168.432403564453 1.362456798553
-107.369926452637 -70.618919372559 -176.645553588867 1.599122047424
-111.942092895508 -68.181106567383 -180.098419189453 1.717569231987
-110.038871765137 -67.915603637695 -181.919204711914 2.183307647705
15.628619194031 -66.601783752441 -179.497879028320 3.170733451843
18.810125350952 -67.368957519531 -182.425659179688 2.418558835983
-29.241922378540 -67.515724182129 -186.485824584961 2.542388677597
17.398857116699 -66.338638305664 -185.682342529297 2.342586994171
-26.333246231079 -70.325157165527 -191.046752929688 1.199076294899
-115.033134460449 -65.278938293457 -194.971176147461 1.686955928802
-26.169651031494 -69.781356811523 -197.616577148438 2.049757957458
-164.675170898438 -65.207641601563 -200.359451293945 2.375335693359
-117.621635437012 -65.435585021973 -199.339813232422 1.997071027756
-21.996566772461 -67.468421936035 -196.388351440430 2.021668672562
9.192143440247 -66.138282775879 -197.644180297852 2.363769054413
17.911081314087 -69.353645324707 -198.567413330078 0.903389692307
-159.092178344727 -68.186653137207 -206.430358886719 1.155892729759
-12.231505393982 -65.614555358887 -201.738311767578 2.755256891251
-156.886672973633 -67.902282714844 -206.890747070313 2.143697977066
-160.354965209961 -66.335121154785 -208.609252929688 1.067337036133
7.996243000031 -64.860221862793 -203.392776489258 5.471837043762
17.168581008911 -64.968055725098 -207.304946899414 3.081757545471
-155.789596557617 -67.140960693359 -210.343872070313 3.562693834305
-147.092849731445 -64.698143005371 -210.221832275391 2.453830003738
11.896791458130 -67.027580261230 -206.095535278320 1.943435549736
-14.831152915955 -65.837173461914 -211.583541870117 1.764108777046
-9.789689064026 -66.821861267090 -216.621185302734 1.333246111870
-165.560165405273 -65.999107360840 -217.470764160156 3.059497594833
-10.360297203064 -65.032516479492 -214.134231567383 2.693296432495
-158.222137451172 -66.678764343262 -217.828201293945 1.820440173149
-152.429336547852 -65.884826660156 -214.210784912109 1.918243050575
-5.958080768585 -69.879562377930 -212.064422607422 2.077603816986
-146.244400024414 -69.071212768555 -226.163619995117 2.893246650696
-15.679424285889 -69.270629882813 -219.000778198242 2.375131607056
-161.042572021484 -65.851531982422 -225.045028686523 0.558676242828
-166.832611083984 -67.324966430664 -229.475219726563 3.078607797623
-0.488449990749 -67.744262695313 -225.359741210938 1.250779867172
-160.153778076172 -67.506134033203 -228.123687744141 1.594558358192
-112.824516296387 -68.374664306641 -225.591629028320 0.867920458317
-134.925582885742 -67.349914550781 -227.937744140625 2.358212471008
-142.966445922852 -65.586921691895 -229.878463745117 1.263306021690
-119.633049011230 -64.555770874023 -230.771347045898 1.381236076355
-154.350921630859 -68.361434936523 -233.951141357422 1.442753314972
-148.635375976563 -59.506813049316 -234.050842285156 0.887317240238
-161.248168945313 -67.807594299316 -233.447631835938 3.369615316391
-114.561653137207 -63.806427001953 -235.482238769531 2.934945821762
-157.776809692383 -70.300483703613 -236.776641845703 1.760102868080
-143.961639404297 -64.709663391113 -238.643707275391 2.614099979401
-163.670959472656 -69.056152343750 -238.807449340820 2.291960239410
-117.819816589355 -66.017768859863 -235.414428710938 2.264180421829
-164.608688354492 -64.661201477051 -238.683532714844 3.732197523117
76.080505371094 -68.174423217773 -227.828506469727 0.394539982080
-1.422551989555 -64.617507934570 -234.979690551758 2.711476802826
-144.640274047852 -64.394317626953 -237.151657104492 2.138675212860
2.257359027863 -66.080299377441 -231.560028076172 2.114063978195
-0.115295000374 -66.618766784668 -233.594268798828 1.493369579315
-11.105443954468 -67.217285156250 -235.195968627930 2.053962230682
-0.762953996658 -64.058990478516 -239.323562622070 2.265562534332
-167.063995361328 -65.217399597168 -247.372650146484 3.559246063232
61.421718597412 -63.435527801514 -231.250885009766 7.278455734253
-151.688903808594 -65.631858825684 -245.421295166016 2.196472406387
51.386829376221 -64.964607238770 -238.114929199219 6.601494312286
48.575740814209 -65.116539001465 -240.158462524414 5.134403228760
46.500492095947 -66.837005615234 -243.836044311523 2.412007093430
-143.470672607422 -68.477386474609 -253.623504638672 0.689692318439
46.905540466309 -65.154861450195 -243.645034790039 3.590333461761
46.798072814941 -66.239662170410 -247.879348754883 1.548680663109
-154.172851562500 -64.677452087402 -256.365356445313 0.823003590107
47.190734863281 -68.587303161621 -248.380386352539 0.900330662727
-126.944122314453 -64.118911743164 -254.786651611328 2.251832485199
43.351825714111 -69.962623596191 -251.624542236328 1.415931701660
33.030055999756 -64.080543518066 -252.929840087891 3.153164625168
-136.830474853516 -68.448081970215 -258.778533935547 1.331657052040
-119.664459228516 -68.017494201660 -259.760131835938 2.904815673828
46.694766998291 -67.852386474609 -252.548324584961 0.676207184792
34.555877685547 -64.473129272461 -253.720718383789 2.350693464279
-5.866588115692 -70.078346252441 -259.150604248047 3.399074316025
34.294246673584 -68.083106994629 -255.521713256836 1.262471914291
-112.459304809570 -64.042808532715 -265.142517089844 4.275296688080
30.193513870239 -66.227111816406 -257.129302978516 1.930600643158
-114.527091979980 -66.215270996094 -265.241455078125 2.788909673691
-148.381195068359 -65.124145507813 -267.787597656250 2.556965351105
27.105005264282 -64.365455627441 -262.940521240234 0.656340837479
-5.101157188416 -67.756637573242 -263.566131591797 2.546620368958
-9.386292457581 -66.574638366699 -271.697570800781 3.437228202820
-144.365417480469 -64.150398254395 -279.902465820313 2.869615554810
22.017179489136 -64.236572265625 -273.789916992188 2.091003656387
-128.808715820313 -64.619064331055 -289.502471923828 1.676020264626
-152.717376708984 -64.283004760742 -293.399841308594 1.704524636269
-121.526191711426 -65.388587951660 -287.658386230469 2.991142272949
-109.952552795410 -67.429733276367 -287.449035644531 2.129724979401
-140.077377319336 -63.837322235107 -293.898559570313 4.621454238892
-131.595062255859 -64.841178894043 -293.190917968750 3.576429128647
-131.060546875000 -62.887790679932 -295.966125488281 5.906777858734
-149.574920654297 -65.189987182617 -302.328308105469 0.471262425184
-145.348861694336 -63.532848358154 -310.665374755859 4.048480033875
-142.639526367188 -62.645267486572 -310.234283447266 5.735077381134
22.715415954590 -68.572158813477 -10.682312011719 6.832384109497
17.134836196899 -68.777992248535 -11.620074272156 9.167065620422
32.493694305420 -70.345726013184 -18.305713653564 1.193884968758
43.725055694580 -66.212661743164 -22.599229812622 1.959180951118
10.386426925659 -71.516471862793 -27.965181350708 9.633842468262
-72.308807373047 -69.273139953613 -43.543758392334 3.409063339233
-66.506736755371 -69.229789733887 -47.520854949951 1.349723696709
-77.652755737305 -70.167991638184 -46.335021972656 4.352292060852
-88.796722412109 -68.365600585938 -46.442893981934 7.739885330200
-28.138124465942 -69.172515869141 -51.402023315430 2.244081497192
-95.063392639160 -70.453109741211 -55.919303894043 7.203208446503
-101.608604431152 -63.664237976074 -60.875408172607 5.925600051880
72.292594909668 -72.299133300781 -57.452545166016 8.148146629333
-20.745761871338 -68.142929077148 -63.558601379395 5.450155258179
-102.908699035645 -66.781555175781 -73.970062255859 5.609052181244
96.352867126465 -72.285934448242 -72.049018859863 0.935235917568
97.514144897461 -66.684707641602 -74.001960754395 3.538775444031
-102.833747863770 -71.909347534180 -84.565559387207 7.227678775787
-53.460987091064 -69.695808410645 -82.979377746582 4.386190414429
-60.673816680908 -67.829216003418 -86.841323852539 2.564983367920
-103.997879028320 -66.645492553711 -90.501762390137 7.397804260254
-102.598411560059 -70.409286499023 -100.091323852539 6.193362236023
56.705158233643 -69.386917114258 -88.011314392090 0.848917007446
44.630584716797 -64.517127990723 -90.881004333496 4.921126365662
-73.870590209961 -65.817840576172 -100.640869140625 0.886940300465
50.489692687988 -71.874114990234 -93.839035034180 1.431493759155
47.997833251953 -67.777702331543 -95.280403137207 1.689274072647
94.280746459961 -68.600189208984 -92.259483337402 5.283715724945
-75.238029479980 -69.970359802246 -100.739723205566 1.701510071754
61.497032165527 -67.494781494141 -98.186111450195 1.937632560730
-85.491027832031 -68.473831176758 -103.995040893555 1.486653804779
104.378326416016 -65.651855468750 -98.200355529785 1.300210833549
-78.625015258789 -66.675140380859 -107.216499328613 0.772192716599
79.936157226563 -66.313407897949 -101.487724304199 4.148651123047
99.255661010742 -68.218269348145 -99.372680664063 1.901153206825
-86.451713562012 -68.669662475586 -110.753852844238 0.931346952915
-91.039398193359 -66.600219726563 -116.537330627441 1.422193646431
-87.541725158691 -71.028289794922 -120.424774169922 3.628657579422
-88.098434448242 -69.002693176270 -118.293258666992 2.767800807953
-80.379142761230 -65.373092651367 -123.393501281738 1.484219074249
-101.962364196777 -68.510955810547 -121.291397094727 5.917912960052
-65.901710510254 -64.318283081055 -122.155830383301 2.151785135269
-85.516395568848 -66.403892517090 -128.377380371094 2.609125375748
-81.962173461914 -67.639991760254 -127.995643615723 0.534022390842
-95.218826293945 -67.100746154785 -131.381698608398 3.312178373337
-57.913917541504 -65.946517944336 -130.614379882813 2.765927553177
-57.600517272949 -66.092872619629 -131.781661987305 2.856974363327
-79.829162597656 -68.746543884277 -135.498870849609 2.430945873260
-63.938034057617 -66.144691467285 -134.483337402344 2.366788387299
-76.723014831543 -67.242195129395 -135.284378051758 0.409595906734
-61.242469787598 -68.627067565918 -139.671890258789 0.708621144295
-49.550804138184 -66.301170349121 -142.121490478516 1.378682494164
-78.061607360840 -66.946357727051 -141.509552001953 2.167008161545
20.360225677490 -64.125488281250 -142.006195068359 1.050360918045
-53.088619232178 -67.148231506348 -148.054107666016 1.604874014854
-99.269676208496 -67.531761169434 -152.805099487305 1.122087717056
-100.054916381836 -66.204521179199 -152.921447753906 1.335345983505
-112.115715026855 -65.507171630859 -170.542907714844 4.508645534515
-109.143501281738 -63.606575012207 -175.485351562500 2.121368885040
-148.630096435547 -68.078773498535 -178.753967285156 3.282093524933
16.510810852051 -65.234230041504 -176.006393432617 3.308135747910
-114.262397766113 -67.139930725098 -185.883087158203 1.361682295799
-143.692276000977 -68.144630432129 -188.093841552734 2.255268812180
13.897466659546 -64.594924926758 -188.805221557617 3.602702140808
-153.553695678711 -64.535781860352 -195.430664062500 2.438095092773
13.899611473083 -63.149066925049 -189.431259155273 4.275623321533
13.226386070251 -64.732765197754 -183.165863037109 4.471521854401
-154.478958129883 -66.786926269531 -197.957672119141 1.563419222832
-126.635177612305 -66.174926757813 -195.537063598633 3.297942399979
-138.066680908203 -65.579551696777 -200.373611450195 1.936235427856
-158.971206665039 -67.096687316895 -202.386703491211 2.732724905014
-23.065856933594 -64.922477722168 -196.370590209961 2.795408964157
-158.183746337891 -66.056304931641 -203.574539184570 3.916533470154
12.917695999146 -63.737579345703 -193.659729003906 3.256244897842
11.955181121826 -68.234153747559 -198.780639648438 1.434489011765
-165.654846191406 -67.151992797852 -207.435882568359 1.619365572929
-117.405059814453 -67.685050964355 -205.866943359375 2.305121183395
-136.329589843750 -67.067123413086 -205.456863403320 3.802568674088
-122.437919616699 -67.020790100098 -205.565887451172 1.692086935043
-161.291687011719 -63.694644927979 -213.116043090820 3.991733312607
-14.214995384216 -65.833671569824 -209.493377685547 2.724596261978
-162.406051635742 -65.358963012695 -214.188064575195 1.895295500755
-16.365303039551 -68.533515930176 -205.815719604492 1.986208200455
-10.421527862549 -67.036155700684 -206.658859252930 3.498795747757
-167.834259033203 -65.751083374023 -217.756072998047 4.229594230652
-3.629244089127 -62.195152282715 -220.749526977539 4.455257892609
-107.619087219238 -68.201591491699 -224.500534057617 1.962262749672
-107.928215026855 -66.853439331055 -226.738800048828 1.125965356827
-106.333717346191 -66.073005676270 -225.552551269531 1.561969041824
-125.561462402344 -64.968315124512 -229.981689453125 0.693715274334
-144.214141845703 -65.453117370605 -227.188354492188 1.942265272141
-0.032776001841 -68.468780517578 -227.380416870117 0.638684511185
-4.066256999969 -62.544960021973 -222.619110107422 3.726952075958
6.812400817871 -67.246498107910 -226.138442993164 1.962820768356
3.025835037231 -62.720867156982 -228.506790161133 4.097065925598
-5.474821090698 -67.529785156250 -228.311492919922 1.390336394310
-7.493945121765 -62.699058532715 -234.953155517578 2.342950582504
-6.237205982208 -68.158653259277 -232.348098754883 1.610388636589
59.955032348633 -67.464439392090 -234.859405517578 2.976901531219
-6.983492851257 -65.461128234863 -239.609252929688 1.648893356323
6.151240825653 -66.211288452148 -237.329681396484 1.421103239059
13.110468864441 -67.038536071777 -243.604171752930 0.709129750729
51.860237121582 -62.755287170410 -238.461761474609 6.419924259186
59.139293670654 -65.522453308105 -239.780181884766 3.257418155670
40.937675476074 -65.408309936523 -253.195617675781 1.659395933151
46.352802276611 -65.916557312012 -250.825561523438 0.986980378628
-9.027857780457 -67.765625000000 -249.016998291016 1.709802269936
-133.483718872070 -65.266586303711 -259.116638183594 1.138664960861
32.661941528320 -63.394493103027 -249.561935424805 5.754291057587
-101.871246337891 -64.974609375000 -258.162933349609 0.939275324345
-136.915756225586 -59.961746215820 -262.915557861328 5.572897911072
-112.262924194336 -64.464126586914 -260.876281738281 1.956596374512
-109.827735900879 -66.549118041992 -261.207183837891 1.519816398621
-112.182525634766 -66.667427062988 -261.637847900391 0.799322783947
-117.583496093750 -61.368232727051 -262.747161865234 4.505849361420
-117.638732910156 -62.783359527588 -264.064758300781 3.388910293579
-139.565750122070 -67.856666564941 -265.740325927734 4.046507835388
-116.946662902832 -69.235076904297 -264.983398437500 2.517720937729
-130.450210571289 -66.351409912109 -265.024719238281 2.938287734985
28.624984741211 -63.451881408691 -261.667755126953 1.365098834038
-142.383865356445 -64.805313110352 -267.613372802734 3.582079887390
-5.542444229126 -66.120010375977 -264.688446044922 1.307350277901
-151.064910888672 -63.947624206543 -270.768676757813 4.543149948120
-3.824444055557 -67.199470520020 -278.256195068359 0.451445698738
23.962799072266 -60.719482421875 -279.041381835938 2.658484458923
-3.855520009995 -64.932243347168 -283.462951660156 1.882819771767
-133.825775146484 -63.854232788086 -289.409362792969 1.562921762466
-145.405776977539 -64.544914245605 -296.242736816406 2.209726810455
-130.115585327148 -65.177040100098 -296.734466552734 4.645796775818
-147.368881225586 -61.479305267334 -296.917358398438 2.997074842453
-145.246124267578 -64.287155151367 -307.333892822266 4.244356155396
-149.739257812500 -66.592079162598 -313.255737304688 2.089020013809
23.380617141724 -67.347839355469 -9.923077583313 7.235659599304
11.317528724670 -61.845016479492 -13.571208953857 11.983750343323
33.166702270508 -67.560752868652 -14.620325088501 2.376367807388
35.274234771729 -60.082542419434 -25.783405303955 6.517055511475
32.320823669434 -70.085380554199 -29.468196868896 5.374314308167
28.207561492920 -67.613227844238 -34.267757415771 2.322913408279
24.129478454590 -65.559265136719 -35.328937530518 2.926198005676
31.044387817383 -63.538169860840 -39.391448974609 2.200217723846
-54.371963500977 -71.530036926270 -47.637001037598 1.940218687057
-86.987991333008 -68.843627929688 -50.131263732910 4.757405281067
71.683471679688 -66.223251342773 -54.433837890625 7.697955131531
71.017921447754 -70.186668395996 -59.538063049316 6.008079051971
90.116287231445 -66.111145019531 -60.329547882080 2.647601366043
-100.083839416504 -66.862365722656 -65.022392272949 4.651184082031
89.113075256348 -67.404823303223 -64.117057800293 1.624756455421
-27.152473449707 -64.091552734375 -67.961418151855 2.451037883759
-103.108489990234 -68.220298767090 -71.405647277832 7.815778732300
-34.506652832031 -68.385467529297 -72.235626220703 4.251448154449
-45.104858398438 -65.867813110352 -79.572135925293 2.982751369476
-47.169895172119 -65.591186523438 -79.640823364258 3.876292943954
-104.507141113281 -66.649635314941 -78.942985534668 6.800483703613
-102.764419555664 -69.956176757813 -86.891532897949 7.211804389954
56.105720520020 -65.976280212402 -79.757820129395 4.338694095612
45.460414886475 -68.428153991699 -85.878837585449 5.701477050781
-70.918373107910 -67.901832580566 -91.587554931641 6.435998916626
43.386661529541 -70.321388244629 -89.778022766113 5.441837787628
45.057083129883 -68.973503112793 -90.181930541992 4.235627174377
60.822994232178 -62.674983978271 -94.179641723633 1.331912636757
42.891754150391 -64.833351135254 -97.051528930664 2.803975820541
37.689296722412 -64.150146484375 -97.911193847656 7.349852561951
-84.366577148438 -68.259475708008 -109.787635803223 2.140185356140
-92.743751525879 -66.436637878418 -108.531875610352 3.774782896042
-90.903511047363 -62.980060577393 -111.159484863281 4.707181930542
-67.329772949219 -66.190780639648 -115.791885375977 3.351287841797
-95.157257080078 -70.239700317383 -121.888542175293 2.185267210007
-61.555225372314 -70.042068481445 -124.332473754883 2.521292924881
-82.647590637207 -65.262680053711 -124.200408935547 1.514936923981
-59.909061431885 -65.845901489258 -126.460861206055 2.414942502975
-87.922706604004 -67.188484191895 -128.745132446289 1.548740863800
-84.073646545410 -67.214546203613 -135.020675659180 2.938826799393
-53.113639831543 -66.528938293457 -134.097106933594 1.740715622902
-79.960861206055 -69.118927001953 -134.208404541016 2.037536859512
-78.496109008789 -64.292190551758 -137.863952636719 1.257898211479
-60.997707366943 -64.932876586914 -138.050796508789 1.336525917053
18.824214935303 -66.113342285156 -141.828781127930 2.109364032745
-52.483100891113 -67.040275573730 -142.499023437500 0.551322221756
-102.191352844238 -61.340778350830 -149.179244995117 4.210804462433
-94.311866760254 -63.190814971924 -148.953994750977 1.906689286232
10.538272857666 -65.072555541992 -149.142547607422 2.682179450989
-107.019966125488 -65.612655639648 -169.454818725586 1.960627436638
-111.770645141602 -65.848419189453 -173.283111572266 3.218256235123
-144.680862426758 -68.411834716797 -178.124252319336 1.458909511566
-154.611007690430 -65.449043273926 -181.589553833008 3.286714792252
-115.430648803711 -67.921745300293 -192.194885253906 1.830606460571
-157.605316162109 -66.820503234863 -191.534896850586 3.067908763885
-145.024459838867 -68.154251098633 -195.288070678711 2.541643381119
-156.377975463867 -65.675926208496 -203.053039550781 3.422704458237
-138.541030883789 -64.762451171875 -199.022811889648 1.893867611885
-148.599624633789 -60.624950408936 -201.287429809570 0.727635622025
-141.184326171875 -65.741554260254 -204.780502319336 1.946677207947
-127.526031494141 -68.521751403809 -208.957946777344 4.387457847595
-147.610534667969 -64.006515502930 -216.563171386719 3.145146369934
-145.723831176758 -62.628482818604 -227.993103027344 1.540824055672
-109.512504577637 -64.029632568359 -228.363342285156 2.837466478348
-107.003593444824 -68.139472961426 -231.649765014648 2.847369432449
-141.928146362305 -66.559242248535 -231.679611206055 0.628872871399
-138.210342407227 -63.069679260254 -234.472045898438 4.672065734863
-0.672329008579 -64.193252563477 -226.579269409180 4.045709609985
3.096996068954 -61.624874114990 -236.545333862305 2.528739452362
-123.258460998535 -67.476585388184 -238.980606079102 4.100820541382
-151.365570068359 -63.052085876465 -240.628417968750 1.242274045944
2.697565078735 -67.533279418945 -229.826324462891 0.662270307541
-7.124075889587 -64.568824768066 -238.578521728516 2.385730743408
17.077455520630 -63.588989257813 -239.881240844727 1.419583916664
60.168582916260 -66.001701354980 -235.928558349609 3.228309154510
59.032123565674 -61.953563690186 -240.861160278320 3.924844026566
49.644569396973 -63.663726806641 -243.758224487305 3.530189275742
-149.257980346680 -61.657043457031 -256.116668701172 1.438007116318
38.030754089355 -64.122268676758 -253.150085449219 0.920436024666
-121.902801513672 -65.521087646484 -261.766723632813 2.923895835876
31.535781860352 -68.450744628906 -255.077255249023 1.937900543213
-149.592559814453 -65.444473266602 -262.131408691406 1.198484420776
-143.825988769531 -65.298377990723 -263.299530029297 1.754538059235
-123.377555847168 -62.414031982422 -265.058929443359 3.382232427597
0.025472000241 -64.946586608887 -260.699279785156 1.679084181786
0.872784972191 -66.178138732910 -275.372985839844 3.207336902618
-148.033630371094 -65.753852844238 -279.953399658203 1.711768507957
-2.734863996506 -63.549190521240 -276.335083007813 4.096123218536
-150.900924682617 -64.127868652344 -285.410919189453 1.896223902702
-128.016891479492 -63.416110992432 -288.921386718750 1.991685748100
-124.988098144531 -65.169967651367 -292.479400634766 2.386786699295
13.228079795837 -59.990268707275 -285.913696289063 2.514947414398
-120.313552856445 -62.019515991211 -294.622985839844 5.976501941681
-128.020706176758 -64.238540649414 -294.520538330078 3.122536897659
-130.869064331055 -60.691364288330 -288.836181640625 4.944155693054
10.818104743958 -69.759399414063 -286.595184326172 1.697650671005
2.026884078979 -62.100097656250 -285.644958496094 2.552824020386
-144.995162963867 -62.647327423096 -295.472045898438 1.982199788094
26.030849456787 -69.823570251465 -14.724239349365 2.714292287827
40.665679931641 -67.644996643066 -14.577158927917 2.092784404755
33.987850189209 -62.994033813477 -26.837459564209 7.710057258606
-59.642971038818 -69.723083496094 -42.896835327148 3.769976854324
-56.325492858887 -62.974651336670 -43.934085845947 2.210447549820
-58.316539764404 -69.098167419434 -44.306060791016 2.777611970901
-43.515804290771 -68.177902221680 -46.304679870605 1.723204374313
-93.787689208984 -66.726402282715 -53.418296813965 4.633202552795
-24.732460021973 -66.122177124023 -51.551078796387 2.847933292389
-22.940395355225 -65.365913391113 -53.847690582275 3.729196786880
-97.836730957031 -62.976585388184 -62.577823638916 2.438458681107
-100.695755004883 -65.167556762695 -66.965744018555 4.406012058258
83.269752502441 -67.694664001465 -59.216621398926 3.049762725830
-19.860120773315 -67.930046081543 -65.079818725586 4.451867103577
61.684505462646 -66.580146789551 -58.222869873047 10.261593818665
-36.130470275879 -66.087905883789 -69.716285705566 6.832661151886
-102.510215759277 -65.725738525391 -76.248802185059 4.105667114258
-46.502834320068 -61.831718444824 -78.456970214844 1.347923278809
-106.303688049316 -65.285850524902 -77.885093688965 7.524755001068
-64.511726379395 -66.799171447754 -85.016716003418 4.961547374725
99.720848083496 -65.307373046875 -84.186317443848 2.619281291962
54.349475860596 -62.745628356934 -82.996376037598 4.726602554321
-104.806297302246 -65.318580627441 -99.284645080566 6.643621921539
-71.375297546387 -61.928615570068 -99.022087097168 2.343570709229
42.520690917969 -68.570701599121 -95.742568969727 2.464618921280
39.764663696289 -65.312072753906 -92.992889404297 6.276090621948
94.265853881836 -70.442390441895 -93.632713317871 3.498506546021
92.077003479004 -63.802749633789 -96.982620239258 7.245477199554
-89.098907470703 -63.847991943359 -106.216430664063 4.656715869904
87.795120239258 -63.970867156982 -102.369834899902 5.382732868195
81.155410766602 -66.579719543457 -100.084571838379 3.369841337204
-92.531021118164 -63.654258728027 -116.574378967285 2.979228973389
-66.109786987305 -64.808509826660 -118.691070556641 1.543663144112
-70.054489135742 -66.273475646973 -116.579406738281 4.460163116455
-90.631645202637 -64.294509887695 -123.755378723145 2.898376941681
-65.552116394043 -66.105567932129 -122.551330566406 2.673743963242
-91.104003906250 -66.477355957031 -126.679573059082 3.603250980377
-69.920410156250 -66.934143066406 -127.213554382324 4.097295761108
-93.208694458008 -64.713516235352 -127.721984863281 4.453829288483
-92.002601623535 -66.664749145508 -131.894210815430 0.920950949192
-54.970748901367 -67.683044433594 -131.770370483398 2.482883691788
-78.820617675781 -63.910259246826 -133.252059936523 1.104198575020
-60.727783203125 -65.879562377930 -134.115020751953 1.893209576607
21.955554962158 -65.945777893066 -136.469589233398 1.812046170235
-99.212608337402 -66.349449157715 -143.923233032227 3.989285945892
9.574951171875 -63.757930755615 -139.836822509766 6.890098094940
15.808318138123 -63.878280639648 -149.114944458008 1.520425319672
-101.968238830566 -65.592742919922 -161.206481933594 2.164613962173
-113.318336486816 -65.847526550293 -182.045654296875 1.222523927689
-155.180831909180 -66.027091979980 -189.172424316406 2.306813478470
-116.267509460449 -64.481185913086 -191.390777587891 3.020794391632
-154.042205810547 -63.657592773438 -194.311569213867 2.741385698318
-156.382568359375 -62.176979064941 -199.118438720703 1.882834315300
-143.306488037109 -63.888881683350 -202.193710327148 1.682876348495
-144.559936523438 -65.243843078613 -200.847702026367 1.810781002045
-122.433807373047 -66.122871398926 -201.737762451172 2.081916093826
-117.587196350098 -67.963035583496 -201.090850830078 2.987396717072
-139.314834594727 -63.145408630371 -204.709991455078 3.630549430847
-122.610168457031 -61.336109161377 -204.964996337891 1.715290188789
-124.777259826660 -65.005348205566 -203.277954101563 2.308301448822
-153.316452026367 -66.802452087402 -212.385604858398 2.028158664703
-148.759078979492 -62.120105743408 -219.941223144531 1.715432047844
-131.820465087891 -61.949161529541 -229.688125610352 2.428043842316
-125.820610046387 -65.309997558594 -231.873703002930 0.599615395069
-122.916442871094 -64.439193725586 -231.400085449219 2.230908155441
-117.098464965820 -66.127326965332 -232.141189575195 1.604105472565
-127.364181518555 -64.948684692383 -236.927627563477 3.326010465622
-151.867523193359 -63.473812103271 -238.306243896484 2.682540416718
1.376067042351 -62.968025207520 -236.200424194336 0.560414552689
17.432710647583 -63.589855194092 -238.879226684570 1.630409598351
-5.424510002136 -62.963790893555 -241.904449462891 1.814782977104
-6.553243160248 -63.462200164795 -245.491012573242 1.552267909050
-11.680614471436 -63.291370391846 -245.387817382813 3.878989458084
52.559776306152 -65.085723876953 -243.702087402344 1.142485976219
47.976730346680 -62.882583618164 -247.856491088867 2.020789146423
21.613641738892 -69.241493225098 -248.056915283203 1.899710536003
-5.146213054657 -60.277381896973 -251.035400390625 2.918290853500
39.801540374756 -65.388313293457 -248.896972656250 1.702687859535
-5.620721817017 -60.796409606934 -250.915435791016 2.598615169525
32.212657928467 -64.815696716309 -251.558319091797 3.985377311707
43.827861785889 -66.990509033203 -251.706375122070 2.307081460953
0.873754978180 -65.105491638184 -256.427337646484 2.433746576309
-130.430130004883 -64.061058044434 -260.455017089844 3.198244571686
-125.377479553223 -63.152557373047 -259.364135742188 1.764778256416
-123.012939453125 -64.378021240234 -263.514801025391 2.098540782928
32.059520721436 -66.421432495117 -256.567260742188 1.777945041656
-0.209815993905 -59.995800018311 -260.696868896484 4.567439079285
29.942546844482 -62.288951873779 -260.504882812500 1.631735682487
5.181767940521 -61.246345520020 -264.119293212891 1.831287145615
0.685590028763 -65.842224121094 -264.885192871094 1.341837882996
-142.579406738281 -66.137596130371 -273.260009765625 3.883999586105
1.248332977295 -64.021095275879 -280.175903320313 0.721643567085
1.237102031708 -60.882293701172 -284.448333740234 3.083545207977
-149.170806884766 -64.057777404785 -290.201782226563 1.959124684334
-146.242156982422 -59.200977325439 -296.969451904297 4.788291931152
-145.014938354492 -63.922813415527 -292.934967041016 1.113709449768
-147.907028198242 -61.544677734375 -296.619018554688 2.497667074203
17.595859527588 -62.016921997070 -8.292794227600 9.620498657227
29.191925048828 -67.336715698242 -12.106753349304 2.860193490982
36.647151947021 -68.526481628418 -15.694005012512 3.002853870392
40.152172088623 -65.135726928711 -18.251747131348 0.432063013315
12.472859382629 -70.656372070313 -22.052019119263 8.444373130798
12.772560119629 -63.045516967773 -29.417484283447 6.379455566406
14.142350196838 -70.825065612793 -31.228239059448 5.756110668182
26.955862045288 -69.329292297363 -33.758331298828 1.769973874092
-52.684017181396 -65.229202270508 -43.682758331299 3.082374095917
-89.371398925781 -67.243133544922 -51.589466094971 4.462590694427
-94.848220825195 -64.262191772461 -55.358428955078 4.035933017731
-99.981048583984 -62.502559661865 -53.144580841064 7.343910694122
64.227607727051 -70.227096557617 -59.563327789307 8.678485870361
64.440200805664 -65.121429443359 -60.812950134277 6.599530220032
-31.907800674438 -66.291198730469 -66.242904663086 6.330694198608
-35.261447906494 -69.286262512207 -69.913314819336 5.900745868683
96.873107910156 -64.813217163086 -75.465888977051 5.479464530945
-46.466514587402 -64.010253906250 -77.032554626465 3.552076816559
-64.546264648438 -62.288879394531 -83.747230529785 1.635127425194
99.198181152344 -64.932426452637 -76.911453247070 4.008316516876
-105.710838317871 -67.045288085938 -89.110931396484 8.551872253418
-68.282150268555 -65.829528808594 -87.216438293457 6.037065029144
-67.756828308105 -64.558593750000 -87.431610107422 5.515477180481
46.706348419189 -66.791488647461 -81.993186950684 8.455530166626
54.282726287842 -63.446369171143 -87.315101623535 1.899629235268
52.634647369385 -65.433731079102 -91.253837585449 1.645288467407
-73.234481811523 -65.004074096680 -99.102897644043 2.242660284042
-73.897308349609 -65.252792358398 -99.095748901367 1.831580877304
-75.308174133301 -63.297290802002 -104.609329223633 1.380986094475
91.590667724609 -68.202865600586 -99.425994873047 4.056273937225
87.662666320801 -65.719581604004 -105.102600097656 3.301033735275
-83.912086486816 -65.190818786621 -113.614677429199 2.433713197708
-84.141052246094 -66.325691223145 -111.211944580078 2.951007127762
-88.627235412598 -67.039726257324 -117.298965454102 0.776709496975
-83.335479736328 -62.149097442627 -117.637130737305 1.661243438721
-65.921165466309 -61.880966186523 -121.635467529297 1.035556912422
-82.210128784180 -63.002014160156 -122.348449707031 1.860667109489
-86.746566772461 -66.988983154297 -125.016319274902 1.570753931999
-81.278709411621 -67.207305908203 -128.973693847656 0.793223917484
-58.257492065430 -64.887390136719 -133.518371582031 2.226994752884
-82.555015563965 -62.388774871826 -132.038208007813 3.915907382965
-96.934219360352 -63.465881347656 -137.278442382813 3.622502088547
-54.054187774658 -61.079971313477 -138.493041992188 1.956745028496
25.185493469238 -62.336700439453 -136.065826416016 2.404895544052
-93.934440612793 -61.552139282227 -144.365219116211 2.214312314987
-99.679382324219 -64.195106506348 -143.193069458008 4.643963813782
-101.103393554688 -66.862724304199 -142.937088012695 5.626335620880
9.347622871399 -66.735397338867 -144.468475341797 5.800670146942
-100.277709960938 -64.230209350586 -155.458816528320 1.484873890877
-96.141433715820 -63.976921081543 -152.471679687500 1.121140360832
-107.330535888672 -66.393066406250 -162.196701049805 2.015218496323
-105.759857177734 -63.451183319092 -168.208831787109 1.526907205582
-109.891334533691 -65.932952880859 -169.983520507813 3.765381336212
-111.768569946289 -64.425445556641 -177.075836181641 2.400811433792
-149.492523193359 -64.875915527344 -180.323944091797 2.484879732132
-107.600105285645 -63.200561523438 -182.286926269531 1.980424404144
-112.760475158691 -66.148223876953 -180.111007690430 2.519414663315
-151.604812622070 -66.452140808105 -185.465332031250 2.321933031082
-111.093559265137 -64.431831359863 -187.836730957031 2.197931051254
-152.376144409180 -62.925651550293 -192.615798950195 2.624319314957
-115.089134216309 -68.933433532715 -194.588470458984 2.215023279190
-145.298492431641 -65.184959411621 -197.047714233398 2.138678073883
-146.964477539063 -63.895496368408 -202.448059082031 2.428222179413
-116.681320190430 -62.236347198486 -201.587539672852 0.899384677410
-120.576805114746 -63.955131530762 -203.616973876953 1.938453078270
-125.932647705078 -60.632110595703 -203.670318603516 2.278197526932
-126.292190551758 -63.922046661377 -209.832229614258 4.964190483093
-150.988403320313 -63.298530578613 -211.010681152344 1.273473143578
-154.168411254883 -62.998008728027 -228.056304931641 0.656847417355
-126.973358154297 -61.543445587158 -231.185195922852 3.218171358109
-157.208755493164 -64.535125732422 -233.074142456055 1.636293649673
-131.958297729492 -61.463088989258 -234.024826049805 4.544363498688
-157.051589965820 -61.074039459229 -239.024719238281 6.148956775665
-0.142002001405 -61.594062805176 -233.702789306641 3.366041898727
17.791381835938 -64.513565063477 -240.301971435547 1.537699460983
-150.992935180664 -65.184219360352 -252.292449951172 2.707354068756
-7.030945777893 -65.826194763184 -246.635620117188 2.548264503479
21.411912918091 -61.674980163574 -249.876113891602 1.393671751022
-3.010904073715 -62.281429290771 -254.914459228516 2.165946722031
-152.572937011719 -60.486999511719 -259.739196777344 2.650784015656
-156.625747680664 -62.045314788818 -260.382141113281 2.747687339783
-154.441925048828 -62.460990905762 -259.614624023438 2.131984233856
-147.606735229492 -63.804000854492 -265.208648681641 0.620083510876
-0.304650008678 -61.591651916504 -267.953887939453 3.412976264954
-145.765457153320 -59.086349487305 -274.608489990234 6.225803375244
-152.580520629883 -59.372821807861 -282.609649658203 4.334692478180
3.029840946198 -63.069580078125 -273.011413574219 1.374387741089
-143.810592651367 -62.208278656006 -289.640319824219 1.887220501900
-144.076049804688 -63.452800750732 -290.892639160156 0.596946418285
-0.236708998680 -63.232105255127 -283.811614990234 1.264044284821
-145.712066650391 -63.939067840576 -291.449951171875 0.730898618698
-150.780654907227 -63.863037109375 -298.251495361328 2.392667770386
-144.245834350586 -61.089443206787 -295.129058837891 3.387456417084
23.116088867188 -67.502899169922 -9.582782745361 7.461808204651
35.821884155273 -65.229179382324 -10.954287528992 3.268471240997
31.502275466919 -64.468139648438 -14.824940681458 2.255958795547
9.940309524536 -65.794105529785 -21.863147735596 10.105867385864
39.735088348389 -62.333156585693 -20.962732315063 2.303694009781
10.698308944702 -71.401466369629 -24.173704147339 9.549246788025
39.273555755615 -65.104537963867 -21.725614547729 3.434148311615
40.436134338379 -61.820697784424 -28.801664352417 3.498844146729
17.351270675659 -71.116058349609 -27.204879760742 2.957881689072
15.223599433899 -69.410934448242 -33.449420928955 5.363112449646
-63.629783630371 -63.061595916748 -42.829433441162 2.258826017380
-77.715980529785 -67.884452819824 -43.922466278076 5.047094821930
-46.249290466309 -63.810382843018 -47.343460083008 2.891795635223
-29.375089645386 -62.282966613770 -46.662544250488 2.605361938477
66.602561950684 -63.389122009277 -57.539024353027 5.939321041107
-104.741485595703 -61.532501220703 -65.304389953613 6.538040161133
-24.044975280762 -65.253288269043 -63.241275787354 3.836884498596
59.972705841064 -62.858520507813 -61.897071838379 9.194621086121
94.453239440918 -64.036666870117 -66.250846862793 3.826442956924
-61.682670593262 -65.844573974609 -81.078514099121 4.183142662048
55.553440093994 -67.868827819824 -81.954002380371 3.622128009796
46.397262573242 -64.451049804688 -84.188255310059 7.634968280792
48.224929809570 -63.662940979004 -87.377426147461 4.533362865448
-70.978477478027 -62.915252685547 -94.429809570313 3.028012037277
52.902847290039 -64.652786254883 -89.199470520020 1.994694948196
45.754302978516 -66.295433044434 -87.765434265137 5.782531261444
-103.407958984375 -67.210128784180 -96.467994689941 5.793545722961
50.893013000488 -66.131317138672 -89.517349243164 1.710322856903
-78.011993408203 -68.741561889648 -107.074104309082 1.547592043877
66.035171508789 -63.249557495117 -103.029365539551 2.326215028763
87.374397277832 -66.494834899902 -101.666755676270 4.722756862640
-92.951927185059 -63.683853149414 -113.008483886719 5.149489879608
-82.219947814941 -65.764930725098 -113.480934143066 0.801846623421
-91.171157836914 -63.761188507080 -117.070487976074 2.245785474777
-81.196388244629 -64.405311584473 -115.100402832031 2.689440727234
-68.110214233398 -63.259918212891 -120.095954895020 2.208015441895
-68.246078491211 -63.419418334961 -121.124168395996 3.240903615952
-88.847473144531 -63.902072906494 -122.420249938965 2.367991209030
-70.030502319336 -63.726242065430 -123.379013061523 4.199474334717
-70.689193725586 -61.641288757324 -125.779853820801 4.352768421173
-56.558460235596 -63.266082763672 -130.259918212891 1.305332660675
-83.814628601074 -61.707923889160 -128.910888671875 3.652887821198
-64.017204284668 -60.963230133057 -130.381668090820 1.060503721237
18.843458175659 -67.875267028809 -135.941467285156 5.073240756989
-59.579597473145 -64.374893188477 -134.966644287109 0.880290567875
-53.347347259521 -66.576339721680 -145.339935302734 0.871700286865
-97.695457458496 -61.868213653564 -139.875595092773 3.835277795792
18.941265106201 -63.529422760010 -139.074249267578 2.386761903763
17.681732177734 -61.376018524170 -143.925613403320 2.842824697495
-100.261062622070 -63.785034179688 -153.370376586914 1.263196706772
-101.037254333496 -62.582469940186 -159.380447387695 1.968372464180
-108.371650695801 -62.741806030273 -168.779830932617 2.580060005188
-105.099098205566 -65.504783630371 -166.902832031250 1.732957243919
-109.655235290527 -62.056915283203 -176.031997680664 2.471372842789
-155.389190673828 -65.381347656250 -187.334487915039 2.820232152939
-145.015335083008 -60.895347595215 -186.780960083008 1.627891898155
-131.035095214844 -61.866340637207 -202.779663085938 2.399567127228
-132.364822387695 -59.215103149414 -200.680572509766 2.939802885056
-130.572631835938 -63.940704345703 -201.782073974609 1.334229826927
-146.502685546875 -63.464035034180 -208.424163818359 3.101592302322
-152.627792358398 -63.998458862305 -219.523544311523 3.114952564240
-155.518051147461 -60.688766479492 -226.109222412109 1.839268326759
-144.910949707031 -63.144081115723 -232.325988769531 1.446357131004
-149.629714965820 -65.524452209473 -240.996536254883 3.329707622528
-5.274905204773 -61.784702301025 -233.787399291992 4.023667335510
-0.243307992816 -63.643131256104 -242.563323974609 2.835616827011
7.798903942108 -58.806049346924 -241.703231811523 1.476425886154
-146.427139282227 -62.861217498779 -246.210113525391 1.610641002655
-5.409214019775 -62.311061859131 -250.578460693359 1.719249367714
4.389774799347 -59.107894897461 -250.706527709961 1.273487091064
-153.609954833984 -61.698337554932 -260.223236083984 2.162087917328
-149.597854614258 -62.001472473145 -258.459716796875 2.404783010483
-140.710296630859 -61.597122192383 -263.054168701172 2.844820737839
-148.162536621094 -61.533836364746 -264.065979003906 1.297560572624
-150.893142700195 -63.152091979980 -263.322052001953 0.524592041969
26.637733459473 -63.114368438721 -257.011169433594 1.746568560600
-148.075592041016 -61.456787109375 -267.573425292969 2.295243024826
-145.831008911133 -59.485336303711 -264.976928710938 2.990736961365
-150.261840820313 -61.193408966064 -272.811889648438 4.638727664948
7.086342811584 -57.983406066895 -266.380432128906 4.302224636078
-151.074249267578 -58.131568908691 -274.553375244141 7.389373779297
-150.973236083984 -63.445774078369 -280.281921386719 2.256132841110
-147.423995971680 -57.737621307373 -280.615783691406 4.939310550690
5.289793014526 -62.251884460449 -277.028137207031 2.339573144913
-150.740402221680 -62.237529754639 -289.381286621094 0.977505683899
3.524683952332 -65.252151489258 -289.939361572266 3.286791563034
12.800915718079 -66.415763854980 -11.281751632690 12.147008895874
26.502025604248 -64.665473937988 -12.693351745605 3.189351797104
34.663482666016 -65.335075378418 -17.925716400146 1.571698784828
39.152080535889 -65.104499816895 -18.956130981445 1.333479166031
18.127090454102 -68.959106445313 -25.334659576416 1.895897865295
18.696735382080 -64.812744140625 -30.658128738403 4.293119907379
35.105926513672 -68.881156921387 -35.666687011719 0.620898246765
-72.210708618164 -63.096469879150 -42.138835906982 1.954410076141
-51.542720794678 -61.800292968750 -46.204792022705 2.352650403976
-96.115242004395 -61.565612792969 -52.490447998047 4.125305175781
-20.025737762451 -66.201004028320 -55.043415069580 2.372146606445
87.247825622559 -65.144042968750 -52.939514160156 8.410651206970
-17.487174987793 -66.001426696777 -64.245155334473 4.202530860901
60.056766510010 -65.985038757324 -60.311634063721 10.466216087341
-38.572303771973 -62.494102478027 -69.850982666016 6.090691566467
-37.984580993652 -65.958091735840 -75.718513488770 2.388828754425
-50.616680145264 -64.462936401367 -80.212608337402 1.582224130630
-63.291313171387 -61.529827117920 -80.189918518066 3.948875188828
52.786563873291 -62.298526763916 -76.957290649414 8.693248748779
53.673625946045 -65.920196533203 -80.365585327148 6.120264530182
50.374744415283 -65.097564697266 -88.141670227051 2.805023431778
56.717815399170 -64.959671020508 -84.628753662109 2.474934339523
51.534832000732 -61.958957672119 -90.590576171875 2.617604494095
-68.689147949219 -65.268173217773 -97.193237304688 1.768483638763
-74.003936767578 -62.735683441162 -99.281616210938 2.754346370697
-77.485420227051 -64.195198059082 -100.243484497070 2.442446470261
