-31.912969589233 -83.216613769531 -207.214584350586 3.758197784424
20.457948684692 -77.685379028320 -209.015197753906 3.165850639343
-78.796714782715 -77.146469116211 -206.966278076172 3.402894496918
-147.170593261719 -76.594383239746 -210.669052124023 1.353705048561
9.550701141357 -79.348388671875 -204.552062988281 2.671213865280
-82.989501953125 -77.801620483398 -212.423919677734 2.499819040298
-74.428543090820 -79.892700195313 -210.371673583984 1.209892511368
-9.260906219482 -77.670257568359 -218.166168212891 2.312288761139
-7.447563171387 -79.957420349121 -217.549530029297 1.830394268036
-26.786834716797 -77.641265869141 -216.883255004883 1.931315898895
-145.193832397461 -77.869987487793 -215.160125732422 2.500680923462
-22.626260757446 -82.294120788574 -216.940979003906 3.163239479065
-150.253295898438 -77.748123168945 -215.403381347656 1.816983342171
-7.540839195251 -80.655075073242 -221.579132080078 1.857938408852
13.969597816467 -79.282524108887 -223.541961669922 0.708096981049
18.868255615234 -81.121154785156 -223.291152954102 4.088532924652
18.255636215210 -77.021644592285 -228.815078735352 2.425145387650
9.151292800903 -78.192665100098 -225.688140869141 2.389899492264
3.887347936630 -80.862937927246 -225.801879882813 3.494076728821
-148.624420166016 -73.158584594727 -226.855743408203 2.009106874466
0.403322994709 -78.776069641113 -230.430892944336 1.674964427948
18.779687881470 -77.356552124023 -233.496032714844 0.644148945808
-144.066818237305 -80.637680053711 -230.739837646484 1.677586436272
-147.076522827148 -81.943054199219 -229.285491943359 0.806970894337
0.052657000721 -80.265991210938 -235.964401245117 2.485911607742
-22.471643447876 -79.349212646484 -239.620925903320 1.680077314377
-148.977905273438 -78.197914123535 -234.439208984375 0.375532180071
24.188638687134 -76.374595642090 -245.329940795898 2.133623123169
-51.939014434814 -77.256050109863 -241.269302368164 2.905394792557
9.282789230347 -81.621582031250 -246.171539306641 1.315498828888
-151.635787963867 -79.771446228027 -243.670806884766 3.157009601593
-7.881795883179 -79.653190612793 -252.567947387695 1.493982315063
-136.756759643555 -80.696655273438 -253.883224487305 3.276504755020
-152.010101318359 -73.524353027344 -255.024368286133 2.108717679977
-147.349273681641 -81.675750732422 -256.761718750000 1.657942533493
-142.455352783203 -78.907234191895 -260.323425292969 1.758307337761
-7.845680236816 -80.137435913086 -271.075256347656 1.430727005005
13.945451736450 -77.791511535645 -276.542785644531 1.868500113487
9.787672996521 -79.841224670410 -282.553588867188 2.591861248016
-142.134719848633 -78.476112365723 -284.243011474609 2.296945810318
-141.823242187500 -80.537460327148 -285.793121337891 1.733045220375
-153.226211547852 -80.227111816406 -298.317108154297 0.606733500957
-62.245918273926 -78.353950500488 -60.955589294434 2.589779853821
-64.568153381348 -77.552253723145 -60.042831420898 1.179580211639
-67.269271850586 -75.847618103027 -61.086410522461 1.412212848663
-30.202926635742 -77.479293823242 -66.358451843262 0.989733278751
-74.360923767090 -77.638526916504 -62.787830352783 2.544775962830
-21.985986709595 -77.200798034668 -72.601547241211 1.347281098366
-42.588485717773 -78.783668518066 -84.465057373047 1.331442832947
-83.280944824219 -78.667549133301 -86.918586730957 2.944794654846
-85.721115112305 -77.206245422363 -91.307151794434 3.951374530792
-68.513862609863 -79.948234558105 -96.813026428223 4.182347774506
-74.491195678711 -76.827041625977 -96.707412719727 3.943004369736
-76.413955688477 -76.507583618164 -100.496498107910 1.141222596169
-85.350585937500 -80.292633056641 -103.712875366211 2.058881044388
49.016647338867 -77.407897949219 -107.375053405762 0.296512514353
51.062175750732 -79.397613525391 -116.760139465332 4.656295299530
37.792621612549 -75.947967529297 -119.477394104004 2.835791110992
44.355884552002 -76.732566833496 -117.774665832520 1.697738051414
39.020298004150 -78.119552612305 -121.592338562012 1.995084643364
34.772182464600 -80.063598632813 -124.994667053223 1.165185928345
42.545833587646 -77.911735534668 -124.002197265625 1.273641109467
34.502876281738 -78.448081970215 -130.510681152344 1.531312346458
43.056190490723 -74.997474670410 -134.835754394531 3.247428417206
30.434103012085 -77.179664611816 -137.059494018555 2.490370988846
39.581096649170 -79.100440979004 -135.343292236328 2.725665330887
34.495468139648 -79.488296508789 -141.802124023438 2.398239850998
28.723392486572 -79.705734252930 -145.875701904297 2.106878757477
31.395471572876 -77.158332824707 -145.601654052734 1.550611376762
25.640893936157 -80.254730224609 -150.703918457031 0.909571826458
-47.101097106934 -76.392883300781 -145.128173828125 1.351640224457
32.116909027100 -80.730079650879 -152.224304199219 1.508481621742
-41.457752227783 -79.017547607422 -149.549285888672 0.865218281746
-41.188983917236 -77.324989318848 -153.567108154297 1.231103897095
31.968515396118 -80.953292846680 -159.457031250000 3.101512908936
-38.822433471680 -76.395416259766 -157.562042236328 1.389477968216
-66.207099914551 -76.602516174316 -156.725646972656 0.959032177925
21.688560485840 -78.866317749023 -162.750305175781 1.491921186447
-61.733860015869 -78.706794738770 -160.738723754883 1.810294389725
-36.617511749268 -77.267501831055 -162.765579223633 1.350205183029
-2.074640989304 -78.126701354980 -166.703842163086 2.168076515198
-29.502229690552 -79.952636718750 -162.502380371094 4.357820510864
-35.358943939209 -80.758956909180 -163.627395629883 1.594528555870
25.239204406738 -77.844772338867 -169.752868652344 1.272603988647
-2.079297065735 -77.360511779785 -165.268661499023 1.429328083992
-41.039684295654 -81.207084655762 -166.177047729492 2.675394058228
-37.356273651123 -78.801719665527 -168.728439331055 1.920907020569
22.908651351929 -77.962463378906 -176.225769042969 0.851377189159
-30.003116607666 -79.182266235352 -170.220001220703 2.116688489914
-29.492498397827 -77.784713745117 -169.051910400391 1.755229830742
-35.299247741699 -76.332885742188 -170.770233154297 2.215541362762
-37.312057495117 -75.618377685547 -177.666915893555 2.387363910675
31.331312179565 -78.151725769043 -170.876831054688 2.976338624954
-34.589878082275 -77.181015014648 -167.843353271484 1.398872494698
28.742956161499 -77.965332031250 -175.464553833008 2.723085165024
-27.987005233765 -80.741653442383 -181.628372192383 1.519994616508
-15.428791046143 -77.050041198730 -176.318618774414 1.541655540466
-16.684274673462 -80.456146240234 -179.366531372070 1.036927819252
-22.441879272461 -77.756416320801 -178.693145751953 1.662142038345
-18.197721481323 -74.417892456055 -178.610427856445 1.876737475395
-23.191682815552 -75.279014587402 -180.493087768555 1.793773174286
-22.561487197876 -76.019294738770 -184.004302978516 2.590173959732
-29.519052505493 -79.359527587891 -184.547134399414 1.354365587234
-17.826831817627 -76.752120971680 -185.012100219727 1.077242136002
-29.967216491699 -76.842002868652 -184.994094848633 2.083207368851
24.718303680420 -77.017127990723 -185.863342285156 2.319684743881
-38.753723144531 -77.375915527344 -192.099716186523 2.320276021957
-141.262039184570 -79.955055236816 -185.517150878906 3.837319374084
-147.151489257813 -77.427871704102 -186.722351074219 1.489313364029
-50.483177185059 -78.628616333008 -194.936340332031 1.450042486191
-146.909378051758 -74.684127807617 -193.121658325195 1.953272581100
-19.760799407959 -79.436058044434 -196.514648437500 1.540880560875
-148.039520263672 -78.758094787598 -198.035537719727 1.218024373055
12.926403999329 -79.193878173828 -202.743804931641 1.202162742615
-21.886079788208 -76.929237365723 -200.348907470703 2.219536066055
-15.213442802429 -77.397186279297 -199.835479736328 1.247339248657
-24.414340972900 -77.484428405762 -208.435516357422 3.404642581940
-34.492214202881 -77.054344177246 -202.339553833008 1.497699379921
11.393618583679 -78.465652465820 -204.180267333984 2.267838001251
-61.671192169189 -77.360206604004 -209.100784301758 1.811310410500
-64.740966796875 -79.154319763184 -210.254455566406 1.921799659729
-16.373805999756 -76.595153808594 -213.103363037109 1.684269666672
-24.916763305664 -77.942802429199 -213.245864868164 1.532336950302
-80.218978881836 -78.485412597656 -210.534088134766 0.879248201847
-78.166206359863 -76.600120544434 -214.059906005859 2.252473115921
11.553124427795 -79.129364013672 -210.935211181641 1.632632017136
-26.811330795288 -83.093544006348 -211.717453002930 4.015893459320
-11.363389015198 -78.590332031250 -218.655197143555 1.219095826149
-22.729000091553 -79.830589294434 -212.271072387695 3.164617061615
11.352581024170 -78.378494262695 -217.838165283203 1.616095304489
-18.806632995605 -79.489601135254 -220.060272216797 1.168736934662
-23.076988220215 -78.274406433105 -219.818405151367 1.162386298180
-10.348802566528 -79.451316833496 -221.614044189453 1.802630782127
17.732107162476 -78.113296508789 -219.761825561523 1.916659712791
2.696022987366 -76.289703369141 -222.638442993164 2.433157205582
1.685022950172 -79.393760681152 -223.758834838867 2.436946392059
16.242740631104 -77.431182861328 -228.505676269531 1.996404767036
-133.239471435547 -76.891876220703 -223.213500976563 2.351080656052
-149.610839843750 -76.354522705078 -224.133956909180 0.937159836292
8.729070663452 -74.939941406250 -228.788146972656 1.229577064514
15.123440742493 -78.262718200684 -229.289459228516 1.206706762314
8.289546012878 -78.412025451660 -236.716598510742 2.176952838898
-2.190576076508 -78.341217041016 -234.766967773438 2.808905601501
1.242457985878 -79.515022277832 -235.753997802734 1.253642797470
-24.082092285156 -78.123352050781 -240.548416137695 1.005151152611
11.364109992981 -77.378128051758 -243.710052490234 2.342001199722
-35.251823425293 -80.037780761719 -239.200302124023 2.516349554062
-48.904373168945 -78.019081115723 -239.623443603516 2.956976890564
-25.793273925781 -78.374229431152 -242.104187011719 1.877818703651
-58.078678131104 -76.981994628906 -244.224700927734 1.475499272346
-55.679836273193 -77.598991394043 -246.228271484375 1.972362518311
-50.746780395508 -78.262145996094 -244.052459716797 1.464099168777
-50.154426574707 -74.687477111816 -245.291046142578 1.859024167061
-8.137845039368 -76.940948486328 -251.906112670898 1.087645173073
-148.145477294922 -82.274467468262 -243.918502807617 3.154090166092
-139.357192993164 -78.229820251465 -250.027236938477 5.443585872650
16.725421905518 -78.714401245117 -255.886764526367 3.117338895798
-157.343032836914 -77.097908020020 -256.509643554688 3.739647865295
-146.008300781250 -81.358367919922 -256.640960693359 2.131953716278
-153.774749755859 -74.062599182129 -258.657135009766 1.632453083992
-150.889068603516 -79.492469787598 -263.280761718750 1.351327300072
-6.896193981171 -77.832664489746 -270.918579101563 3.013121128082
-151.025482177734 -77.289642333984 -273.630157470703 2.127418756485
-1.682822942734 -78.396507263184 -280.344116210938 2.279632091522
7.017330169678 -77.664787292480 -281.385314941406 2.960567474365
2.154411077499 -76.029586791992 -284.922576904297 1.688391447067
-141.872711181641 -79.490295410156 -285.024780273438 2.768323898315
-28.842870712280 -77.149238586426 -290.775604248047 2.804602861404
-25.394485473633 -76.615104675293 -289.002593994141 2.011349678040
10.946571350098 -80.475151062012 -290.472808837891 2.313447713852
-151.426208496094 -78.028266906738 -301.515136718750 1.442037343979
-146.585540771484 -79.483535766602 -302.092010498047 2.061003446579
-150.486160278320 -79.808502197266 -306.439971923828 2.205440521240
-48.349662780762 -75.685401916504 -56.377655029297 1.358538746834
-43.893459320068 -75.471954345703 -55.407897949219 3.301617622375
-53.073532104492 -77.042381286621 -57.897396087646 1.213483452797
-44.085414886475 -77.717582702637 -55.895061492920 3.057758092880
-73.186561584473 -77.301216125488 -58.614803314209 2.093938112259
-36.389678955078 -75.972465515137 -58.011981964111 1.637903332710
-27.985748291016 -76.068786621094 -63.113925933838 1.580355048180
-29.416090011597 -75.949966430664 -63.424865722656 2.953768253326
-76.827476501465 -78.287330627441 -68.794380187988 2.033120870590
-78.700317382813 -75.954399108887 -66.804458618164 2.577601432800
-20.756343841553 -72.994964599609 -65.724266052246 1.633671402931
-22.335493087769 -74.925628662109 -77.724273681641 3.311151742935
78.192581176758 -76.851562500000 -84.134071350098 1.399435281754
-35.999927520752 -80.325103759766 -84.040023803711 1.401175141335
92.757034301758 -78.247085571289 -86.298149108887 1.143494486809
92.798629760742 -76.774559020996 -87.934951782227 1.521184325218
79.897132873535 -74.539009094238 -85.909149169922 3.399120092392
77.524765014648 -77.170089721680 -87.281837463379 1.434017896652
81.884170532227 -76.874252319336 -88.192352294922 2.617678165436
90.969978332520 -76.951095581055 -91.308547973633 1.650305628777
-88.042747497559 -76.836212158203 -88.466835021973 4.778470993042
-58.393894195557 -76.249038696289 -94.083557128906 3.317680358887
-59.379695892334 -77.757781982422 -94.703781127930 2.059931755066
-64.977935791016 -77.598190307617 -98.764739990234 1.822374701500
-72.653182983398 -74.629470825195 -97.535102844238 4.260674953461
-76.302551269531 -77.870841979980 -97.828758239746 3.138383626938
45.279720306396 -75.568542480469 -103.867774963379 1.520167827606
47.313411712646 -75.947395324707 -105.871520996094 2.294031381607
40.086688995361 -77.052932739258 -106.704589843750 0.717940151691
-85.507438659668 -74.188621520996 -107.100303649902 3.084035158157
-88.787506103516 -72.992797851563 -110.791458129883 3.126714229584
-84.496826171875 -73.890838623047 -108.111778259277 2.567442417145
40.365146636963 -75.713249206543 -117.618927001953 2.696704864502
36.731513977051 -75.471588134766 -120.486457824707 1.971250414848
34.222290039063 -79.693649291992 -125.680648803711 1.704280972481
41.730556488037 -76.973358154297 -128.202438354492 2.309938907623
29.574571609497 -78.767890930176 -132.790374755859 2.446414709091
-47.236278533936 -74.987716674805 -130.832412719727 3.899208545685
-43.959117889404 -76.046974182129 -140.069366455078 2.532793283463
-39.885643005371 -72.628471374512 -143.854461669922 4.242928981781
-41.860103607178 -82.590202331543 -150.228195190430 2.900778293610
-49.667182922363 -78.228721618652 -145.928924560547 1.506291270256
-45.884475708008 -76.657623291016 -149.847518920898 1.466301798820
-53.744079589844 -72.791290283203 -142.925231933594 2.464028120041
-69.638626098633 -79.481964111328 -147.464004516602 4.527775287628
22.693050384521 -76.539451599121 -156.693176269531 2.014820814133
-64.252029418945 -77.514823913574 -155.521850585938 1.730791926384
-66.894180297852 -73.974388122559 -148.949188232422 1.369379162788
35.006351470947 -77.535820007324 -155.982116699219 1.766614437103
27.966674804688 -78.389343261719 -156.036682128906 1.725721478462
-67.305755615234 -79.955276489258 -155.610412597656 2.272175312042
-37.248508453369 -77.402442932129 -156.172958374023 1.892142534256
30.001174926758 -75.531219482422 -160.546234130859 2.550460577011
-42.443481445313 -76.475028991699 -153.233810424805 1.877432823181
114.234115600586 -77.870094299316 -157.042617797852 1.331739664078
31.099569320679 -80.064582824707 -163.806152343750 0.943086326122
-39.462627410889 -75.439926147461 -168.044204711914 2.591936588287
112.945503234863 -78.365898132324 -168.372909545898 0.858248054981
-56.156337738037 -76.492256164551 -163.837860107422 2.713038206100
28.973373413086 -76.726142883301 -158.754577636719 0.549256205559
-40.309070587158 -75.101417541504 -164.007644653320 3.234456777573
33.873523712158 -77.700592041016 -164.948410034180 2.459448814392
112.857734680176 -74.167022705078 -167.244857788086 2.177586078644
24.405162811279 -77.739822387695 -172.151672363281 1.632512569427
-56.978401184082 -75.886932373047 -169.564636230469 2.671864271164
30.087961196899 -77.269012451172 -171.770217895508 1.871839046478
22.616216659546 -79.930030822754 -170.163879394531 1.104672551155
-5.892769813538 -79.047416687012 -173.422729492188 2.645336389542
-11.610181808472 -77.839363098145 -176.060775756836 2.645781278610
-59.122604370117 -76.594139099121 -177.528488159180 1.784917831421
112.118667602539 -79.215408325195 -177.920623779297 2.421329259872
-26.895410537720 -77.428565979004 -179.534713745117 1.703142881393
109.652381896973 -75.861099243164 -180.955200195313 1.443204045296
22.349847793579 -77.877578735352 -178.403732299805 2.740622282028
-22.168159484863 -77.642555236816 -181.424118041992 1.404813885689
17.804786682129 -78.167739868164 -183.127899169922 1.334680676460
-27.006021499634 -75.351936340332 -183.832092285156 3.351833343506
104.820899963379 -75.426795959473 -187.819076538086 1.375992536545
-52.647823333740 -76.799285888672 -182.600799560547 0.804065585136
106.422676086426 -80.052986145020 -187.794799804688 3.351828336716
-46.443675994873 -76.266624450684 -189.249893188477 1.773259043694
25.326248168945 -75.098068237305 -188.562576293945 1.700063467026
20.592330932617 -78.739021301270 -188.841033935547 1.610785603523
-24.322942733765 -80.275718688965 -190.820953369141 1.469692707062
106.036712646484 -77.716583251953 -190.220947265625 1.521029472351
-43.879886627197 -77.426574707031 -184.957229614258 2.773964643478
101.178146362305 -77.275619506836 -199.351318359375 1.194813609123
-16.167589187622 -79.029914855957 -194.264846801758 2.151361703873
-21.819692611694 -76.887580871582 -194.484024047852 1.590302109718
-15.598535537720 -76.037231445313 -191.039001464844 1.599016547203
-25.697498321533 -77.986129760742 -196.615280151367 1.664984464645
-23.827121734619 -74.623344421387 -196.390625000000 0.664220333099
100.364585876465 -72.767463684082 -196.252593994141 1.959579944611
-132.277297973633 -75.026710510254 -194.808242797852 2.343961238861
-41.217144012451 -75.757476806641 -200.302520751953 1.686277508736
-40.236186981201 -77.491142272949 -198.163024902344 1.244919061661
-147.521667480469 -79.359344482422 -198.091918945313 0.945149064064
-40.060203552246 -80.387237548828 -194.021606445313 1.425305128098
17.038162231445 -77.842887878418 -198.196609497070 1.082018494606
95.508491516113 -76.978622436523 -204.927413940430 1.226466298103
101.511466979980 -78.297744750977 -204.178878784180 2.259483814240
14.657366752625 -77.661445617676 -198.869079589844 2.042080402374
-36.158138275146 -77.562110900879 -205.255004882813 1.047643065453
15.622668266296 -78.378715515137 -202.902099609375 0.664851248264
18.753328323364 -76.120086669922 -205.283676147461 1.040728449821
99.298385620117 -82.178298950195 -203.602081298828 5.265478610992
16.732774734497 -75.575012207031 -209.021453857422 1.319212794304
-33.259460449219 -74.814079284668 -206.359375000000 1.302356481552
12.498360633850 -78.443183898926 -206.346420288086 2.287040948868
97.827659606934 -75.940986633301 -208.933517456055 1.898627519608
-143.669342041016 -77.031684875488 -207.083297729492 2.843023538589
-16.247726440430 -77.836601257324 -206.286285400391 1.564592003822
7.702847003937 -79.595130920410 -210.927520751953 2.385689973831
-3.396539926529 -78.063301086426 -213.615829467773 3.492523193359
-6.569861888885 -80.348800659180 -215.204101562500 2.089112997055
17.121694564819 -77.076400756836 -210.421081542969 2.325528621674
-23.499879837036 -73.552886962891 -211.745330810547 2.260313034058
-90.017494201660 -77.362670898438 -210.873184204102 3.721681356430
-150.570632934570 -77.335296630859 -214.116058349609 3.051800251007
9.772831916809 -74.827911376953 -215.016052246094 2.638046979904
-26.594274520874 -75.566558837891 -218.922103881836 1.580530762672
-10.593121528625 -77.457504272461 -219.479064941406 2.501847267151
-142.927551269531 -78.560012817383 -221.516769409180 2.780189990997
-7.826497077942 -75.244117736816 -221.684814453125 2.703261375427
11.535369873047 -76.855850219727 -215.884689331055 1.635097742081
7.341111183167 -78.402770996094 -228.809799194336 1.887774348259
-1.081212043762 -75.236724853516 -222.125473022461 1.907417535782
-5.316720008850 -76.780441284180 -227.207427978516 1.334090590477
1.568614006042 -76.298660278320 -232.581832885742 2.248450756073
19.195644378662 -76.612327575684 -233.177902221680 0.761747419834
-150.371917724609 -77.765304565430 -230.815933227539 1.731115221977
6.350666999817 -77.332763671875 -233.263473510742 0.272777110338
-28.133045196533 -76.679130554199 -235.827728271484 3.262977838516
14.177549362183 -77.314285278320 -235.608978271484 3.162337064743
9.194260597229 -78.154769897461 -238.821136474609 2.009799480438
-50.988727569580 -77.135879516602 -240.086776733398 2.886870145798
-22.655559539795 -77.031692504883 -237.406173706055 2.375513315201
-150.378173828125 -76.609634399414 -241.937301635742 2.281805992126
23.703437805176 -75.480133056641 -243.061172485352 3.366668939590
-44.605884552002 -78.908767700195 -244.411666870117 1.781997919083
-51.870128631592 -78.413032531738 -243.450134277344 1.545638203621
-58.155620574951 -78.064849853516 -245.889343261719 1.563388466835
-146.765792846680 -77.048080444336 -247.576690673828 1.025188565254
-9.873630523682 -76.692787170410 -250.973236083984 0.988394796848
-152.861328125000 -77.232978820801 -248.136123657227 2.547815084457
-153.637451171875 -74.737541198730 -249.324264526367 1.831254839897
-133.778320312500 -78.006263732910 -255.186981201172 2.750392675400
-153.406997680664 -80.132667541504 -259.329620361328 1.354856014252
-13.037714958191 -75.002082824707 -264.913970947266 1.597092151642
18.467613220215 -77.795959472656 -274.707000732422 0.935754716396
18.399364471436 -78.760238647461 -270.671112060547 1.065046787262
10.793983459473 -77.452278137207 -281.495574951172 1.686180591583
7.845304965973 -75.611183166504 -284.003753662109 2.071145772934
-31.716556549072 -77.124977111816 -282.482971191406 3.767705440521
-40.476001739502 -77.979415893555 -283.379455566406 3.804767370224
-40.934490203857 -78.748664855957 -286.135345458984 2.283959388733
-15.732999801636 -76.203224182129 -288.646179199219 2.980428695679
-38.024955749512 -79.879417419434 -283.681396484375 4.682097434998
-53.238471984863 -76.687973022461 -285.891387939453 1.534130930901
-1.391260027885 -80.629913330078 -289.156311035156 3.793582677841
-131.970382690430 -76.791145324707 -287.957794189453 1.233537793159
2.119256019592 -79.059135437012 -287.106933593750 3.614465713501
7.791869163513 -74.937309265137 -287.770080566406 1.414919734001
-46.633167266846 -77.691177368164 -290.367156982422 2.291751623154
15.491464614868 -77.755538940430 -288.445281982422 0.721808910370
-21.785448074341 -78.247138977051 -289.659820556641 0.868560016155
-127.063804626465 -77.562988281250 -287.368225097656 2.155039072037
-30.828584671021 -79.092094421387 -288.660095214844 1.309647917747
-19.771432876587 -77.672721862793 -289.863800048828 0.704888224602
5.550374031067 -75.732032775879 -291.245269775391 1.746905088425
-146.216262817383 -77.855239868164 -288.764801025391 2.740987300873
-157.134674072266 -76.829719543457 -301.510559082031 2.666795730591
-145.864395141602 -76.309455871582 -306.444763183594 1.397377014160
-53.640678405762 -74.485221862793 -53.016418457031 3.286604642868
-64.035964965820 -75.907691955566 -53.586177825928 1.429305553436
-68.870437622070 -75.475326538086 -58.165729522705 0.531095802784
-30.530454635620 -75.444808959961 -57.604129791260 3.031289577484
-28.520027160645 -75.533126831055 -60.891071319580 1.705979824066
-85.210212707520 -74.134887695313 -70.094322204590 1.780470967293
-85.996276855469 -77.018959045410 -74.413215637207 1.890792489052
84.788452148438 -74.407150268555 -75.032730102539 1.048244953156
86.901588439941 -75.373664855957 -78.719490051270 1.622361660004
-30.077281951904 -78.877044677734 -75.932792663574 2.225778341293
80.614418029785 -74.330718994141 -83.125244140625 3.208987236023
91.145256042480 -75.724662780762 -83.355979919434 2.328266143799
-83.523597717285 -77.282684326172 -81.287452697754 3.366841554642
-83.530296325684 -79.845169067383 -82.429611206055 2.210009574890
96.183990478516 -76.457649230957 -88.002128601074 2.654301404953
-50.633510589600 -74.305473327637 -89.331512451172 1.447017431259
89.321449279785 -78.975624084473 -93.671989440918 2.406581640244
90.897415161133 -78.459938049316 -97.304298400879 4.155741691589
93.074150085449 -75.189331054688 -95.108947753906 1.914712667465
57.709594726563 -77.541854858398 -101.199661254883 2.675471067429
-74.458412170410 -72.277664184570 -101.206054687500 1.242480039597
54.499210357666 -76.511741638184 -107.996673583984 4.311967372894
51.040248870850 -74.127502441406 -113.818946838379 2.009545087814
51.962829589844 -78.417778015137 -116.947563171387 5.408568382263
44.982208251953 -77.156723022461 -119.479393005371 0.784098684788
30.846055984497 -74.948646545410 -121.324325561523 1.560636162758
33.510822296143 -75.220214843750 -127.847656250000 1.794458985329
32.187385559082 -74.643928527832 -132.121490478516 2.211018562317
28.918224334717 -76.012374877930 -140.066528320313 2.699584245682
38.109622955322 -76.219757080078 -141.376083374023 2.044015884399
118.319938659668 -71.512443542480 -140.471374511719 3.100789070129
28.340677261353 -77.315155029297 -139.517883300781 2.838935375214
118.495857238770 -76.844726562500 -142.896804809570 3.633413791656
-49.198085784912 -74.397048950195 -135.791107177734 1.523493409157
-50.175418853760 -75.868759155273 -139.613922119141 2.500252246857
117.546371459961 -76.224830627441 -148.052917480469 3.098515272141
114.504371643066 -74.324836730957 -150.542205810547 0.915822386742
27.066122055054 -74.351844787598 -150.626831054688 3.571504831314
-51.123287200928 -76.310638427734 -147.920181274414 1.708508968353
-47.119354248047 -76.003639221191 -146.320861816406 2.314836025238
37.143585205078 -75.747894287109 -150.406570434570 2.933557987213
34.939273834229 -73.540588378906 -154.660369873047 2.231840372086
32.281627655029 -74.563934326172 -156.522369384766 1.860169887543
28.278711318970 -75.354431152344 -152.549026489258 3.043875455856
-43.353588104248 -72.231925964355 -156.503570556641 2.727406024933
24.519584655762 -77.883857727051 -154.056869506836 1.023789882660
2.245420932770 -74.286468505859 -153.877014160156 4.949409961700
-1.146628022194 -76.527336120605 -161.550308227539 2.092111587524
8.686937332153 -74.757247924805 -160.242263793945 1.454961299896
25.348760604858 -76.089057922363 -165.816177368164 2.485644102097
-29.726524353027 -75.822433471680 -165.240844726563 1.419553399086
29.661159515381 -76.905136108398 -168.169174194336 3.275602340698
111.951751708984 -74.831069946289 -166.247085571289 2.084816694260
21.839801788330 -76.200073242188 -171.792877197266 1.782089948654
-6.747160911560 -76.280746459961 -169.059768676758 1.419051647186
-28.021732330322 -76.215492248535 -170.523315429688 1.078467726707
-7.070230007172 -73.561065673828 -174.304382324219 1.770718097687
22.647132873535 -78.089767456055 -171.659729003906 0.752362668514
-56.065670013428 -74.126487731934 -172.716217041016 2.445409297943
-53.791717529297 -77.875923156738 -174.028472900391 1.205853223801
19.977167129517 -77.523330688477 -178.187194824219 2.533519029617
113.284774780273 -77.767669677734 -181.401123046875 3.478900909424
16.195720672607 -76.814437866211 -179.259658813477 2.443805217743
20.562168121338 -77.000999450684 -179.154083251953 2.898375749588
107.965682983398 -73.857292175293 -181.740051269531 1.692709684372
-55.078235626221 -78.092895507813 -180.416320800781 1.359497308731
31.980340957642 -76.281349182129 -187.197387695313 6.283968448639
-17.619821548462 -76.762962341309 -179.956985473633 2.377935409546
-44.670562744141 -75.745292663574 -185.787994384766 2.586453676224
-143.037277221680 -81.609489440918 -182.297943115234 5.488975048065
104.598121643066 -75.925094604492 -187.379333496094 1.719489336014
-148.070800781250 -78.059776306152 -190.144302368164 2.312775611877
24.955329895020 -78.314590454102 -194.305953979492 1.669209361076
-30.558420181274 -76.021453857422 -187.731719970703 1.103552103043
-47.748268127441 -76.274932861328 -191.942321777344 1.601957201958
-23.272895812988 -77.043090820313 -194.609191894531 0.563381671906
97.898567199707 -75.370414733887 -197.083511352539 0.762564778328
-35.757904052734 -75.381118774414 -197.881423950195 2.504932880402
9.156576156616 -77.196586608887 -201.898300170898 0.530612111092
98.248451232910 -75.560447692871 -200.073822021484 1.115814328194
12.580980300903 -77.179344177246 -203.493255615234 2.048461198807
22.365577697754 -76.327445983887 -201.128005981445 1.812731981277
-9.669569969177 -77.130180358887 -204.324508666992 2.548633575439
18.905487060547 -78.500907897949 -198.925552368164 1.853983521461
-36.782173156738 -75.777175903320 -208.050521850586 2.037736415863
-8.583651542664 -78.201049804688 -202.784790039063 3.342970848083
-18.576894760132 -75.434974670410 -205.412216186523 1.314458847046
-74.176750183105 -76.031867980957 -206.101135253906 3.399465322495
-32.034999847412 -74.948097229004 -208.006835937500 0.901857674122
10.623094558716 -78.943893432617 -205.175186157227 1.979895591736
-9.676207542419 -77.023345947266 -206.845748901367 1.160158038139
95.337249755859 -75.099800109863 -218.908843994141 4.283885478973
-10.730297088623 -74.120399475098 -214.142486572266 3.352762222290
-18.296216964722 -77.754005432129 -214.353210449219 2.736741781235
-79.196258544922 -75.239044189453 -215.034545898438 0.959372878075
-147.175460815430 -74.823852539063 -213.005599975586 2.112679004669
18.260120391846 -74.540069580078 -214.775390625000 1.682708382607
-2.556644916534 -74.280387878418 -214.556838989258 1.601408720016
-18.204221725464 -77.069168090820 -216.031784057617 2.622200727463
-11.131388664246 -76.825721740723 -215.811920166016 1.556821942329
-19.308111190796 -76.689964294434 -220.047164916992 2.045538187027
4.088597774506 -74.737174987793 -217.868637084961 2.711361885071
-147.673583984375 -78.091186523438 -213.523757934570 1.273447513580
-18.199571609497 -77.461242675781 -223.479415893555 1.300035595894
83.498641967773 -77.224906921387 -224.128677368164 2.150890350342
-11.071352005005 -74.319328308105 -222.861511230469 2.480857610703
-4.136675834656 -78.390716552734 -225.972274780273 1.095530390739
-23.494573593140 -77.631164550781 -225.978271484375 2.577632427216
-154.871032714844 -76.932983398438 -224.262527465820 2.209053277969
79.421699523926 -77.435852050781 -231.920959472656 0.922775566578
-9.542448997498 -78.673896789551 -225.965530395508 2.521619081497
-137.226379394531 -72.774620056152 -225.849975585938 3.178283691406
-146.441024780273 -75.281669616699 -228.292648315430 1.415556311607
-137.335205078125 -79.789916992188 -225.959457397461 2.056904315948
0.839295029640 -76.481788635254 -231.578262329102 2.373484134674
-145.640533447266 -76.200065612793 -229.288421630859 0.587522387505
4.825715065002 -74.342269897461 -232.769897460938 0.690787971020
20.445793151855 -75.976547241211 -239.926651000977 1.045770406723
-2.040127038956 -73.986419677734 -240.608551025391 0.570006132126
-46.769073486328 -71.628997802734 -239.214630126953 2.853792428970
-47.756763458252 -76.593551635742 -237.767822265625 3.115584135056
-25.726449966431 -77.327224731445 -240.788543701172 2.263930559158
-145.648757934570 -73.334869384766 -237.573715209961 3.046021699905
-38.180797576904 -76.667381286621 -240.920898437500 2.353207826614
-67.362083435059 -79.068946838379 -246.315933227539 2.218960046768
-50.753532409668 -73.209373474121 -244.849472045898 1.930265307426
-60.436653137207 -74.738021850586 -247.986557006836 1.469636797905
-72.627914428711 -76.886192321777 -246.862182617188 2.754329919815
-141.904022216797 -72.595581054688 -251.790328979492 3.169763565063
19.624740600586 -78.235511779785 -259.009460449219 0.815235137939
-128.480972290039 -75.826377868652 -257.006256103516 2.435467958450
-9.638175010681 -81.188629150391 -267.153808593750 1.899772167206
-14.169201850891 -73.240951538086 -268.449615478516 1.920048117638
18.929649353027 -75.604118347168 -274.501831054688 3.027775287628
-148.284606933594 -74.502883911133 -275.353088378906 3.021248817444
-3.280081033707 -75.019523620605 -281.248535156250 1.514022707939
-155.848815917969 -76.427001953125 -278.405944824219 5.186728954315
-132.935424804688 -77.906730651855 -285.501220703125 2.754375219345
-28.158952713013 -75.067100524902 -284.377258300781 1.439125180244
-135.770538330078 -78.065887451172 -284.391540527344 3.109942436218
-66.330017089844 -77.684562683105 -284.024810791016 3.350586652756
-138.914764404297 -75.378074645996 -282.499328613281 4.620286941528
8.446011543274 -75.947303771973 -288.630065917969 1.653321385384
-121.007003784180 -77.665542602539 -288.090148925781 2.382830142975
-66.345207214355 -77.436309814453 -285.266326904297 2.560719490051
-142.473373413086 -76.835746765137 -286.563537597656 1.332205533981
-57.014923095703 -75.658088684082 -286.989227294922 2.101097106934
-32.741336822510 -75.707572937012 -285.513793945313 1.270657896996
-5.596351146698 -76.671188354492 -289.120330810547 0.620928645134
-143.611206054688 -74.968399047852 -292.798980712891 1.680920004845
-157.891906738281 -74.244445800781 -289.466857910156 1.658548951149
-152.819274902344 -76.765541076660 -289.651916503906 3.187550067902
-146.415542602539 -77.499069213867 -295.075195312500 1.337261795998
-143.881591796875 -74.774269104004 -298.480133056641 2.809427022934
-40.245204925537 -72.887390136719 -53.900905609131 2.164901256561
-57.030296325684 -71.891860961914 -52.563507080078 3.241347789764
-56.699363708496 -75.431915283203 -53.958396911621 1.216081261635
-38.927162170410 -76.370529174805 -56.944507598877 2.692508935928
-31.496704101563 -75.729118347168 -58.412815093994 2.086930751801
-29.383415222168 -73.640213012695 -56.775028228760 3.356335163116
-22.333589553833 -74.141845703125 -61.474315643311 1.028713345528
-23.578393936157 -73.510566711426 -63.083072662354 2.707944631577
-19.152359008789 -76.230300903320 -71.259689331055 1.707519173622
95.898742675781 -74.226135253906 -77.089851379395 0.966513931751
79.581695556641 -75.315452575684 -76.428291320801 0.531317532063
76.546897888184 -72.785079956055 -73.620285034180 1.353329658508
-32.889102935791 -76.703170776367 -77.968490600586 3.092438459396
-40.335556030273 -70.748580932617 -81.575294494629 2.486243486404
-45.692565917969 -72.383018493652 -85.477485656738 2.245592832565
-46.713138580322 -75.882087707520 -85.485824584961 2.354371786118
-86.031143188477 -80.097366333008 -91.957611083984 1.986856937408
75.280799865723 -74.745300292969 -97.312248229980 1.980371713638
98.772087097168 -74.829307556152 -96.662544250488 2.167495250702
80.537086486816 -75.843627929688 -96.060981750488 1.255450844765
-88.227462768555 -74.940330505371 -98.649871826172 3.038476228714
82.739242553711 -73.797531127930 -95.711921691895 2.679278612137
53.927452087402 -75.524589538574 -97.797035217285 1.171513319016
58.089096069336 -74.950386047363 -100.086692810059 2.870841264725
46.139678955078 -73.782165527344 -103.894874572754 2.247376203537
48.281887054443 -72.382331848145 -99.057449340820 1.402202129364
48.667659759521 -73.596305847168 -103.018310546875 2.898545742035
-87.313964843750 -74.115676879883 -102.261192321777 5.983865261078
50.011863708496 -78.122879028320 -112.227722167969 1.442782282829
38.387313842773 -77.844902038574 -115.186813354492 1.128894925117
34.492931365967 -73.335182189941 -125.823043823242 1.822891473770
113.211517333984 -73.894302368164 -124.721008300781 1.692543506622
113.173301696777 -74.654075622559 -125.258216857910 1.959252357483
111.351356506348 -74.313354492188 -125.998725891113 1.800577759743
115.110321044922 -76.274665832520 -130.480163574219 1.347998857498
42.634349822998 -75.303924560547 -133.160568237305 2.277105569839
43.472198486328 -73.870079040527 -138.105926513672 4.426903247833
31.654449462891 -74.209358215332 -135.332382202148 3.130269289017
25.774686813354 -74.371055603027 -142.120895385742 1.908572196960
112.643081665039 -75.799301147461 -144.720550537109 2.446497678757
113.873245239258 -75.643547058105 -149.870407104492 1.615162372589
-45.094718933105 -71.676177978516 -146.692001342773 1.751135468483
25.256565093994 -73.751861572266 -145.449935913086 0.609037756920
-64.981407165527 -75.418502807617 -150.398956298828 2.071213006973
-69.800338745117 -71.885498046875 -148.862213134766 0.982511281967
111.615242004395 -77.207145690918 -156.220367431641 1.479176282883
117.391227722168 -75.708045959473 -157.312271118164 1.730895161629
33.936603546143 -74.752601623535 -155.505905151367 2.100211858749
-67.888748168945 -74.625366210938 -152.167297363281 1.239314675331
5.746613025665 -72.844993591309 -157.661499023438 1.682204723358
5.643443107605 -73.262992858887 -157.373046875000 1.987241744995
-63.062389373779 -71.813552856445 -159.407562255859 0.730138480663
-41.989261627197 -75.430557250977 -162.395507812500 2.275116682053
24.598604202271 -77.003807067871 -166.822250366211 2.294484138489
110.068214416504 -79.319244384766 -160.233871459961 2.847300052643
33.868640899658 -73.603302001953 -162.421279907227 1.857988834381
2.975351095200 -74.109451293945 -164.850326538086 2.233020544052
20.690341949463 -78.282691955566 -165.433898925781 3.476527452469
-61.213348388672 -75.528907775879 -164.263641357422 2.277141809464
-59.578239440918 -74.924484252930 -166.364028930664 0.863916456699
-41.139762878418 -74.456863403320 -167.471740722656 2.823752641678
28.590145111084 -74.871688842773 -170.529251098633 1.359427809715
21.708211898804 -76.832763671875 -169.753784179688 0.753871083260
29.892383575439 -75.958877563477 -167.894088745117 2.953646659851
23.508728027344 -72.092643737793 -172.173187255859 2.642439365387
-26.502012252808 -72.775604248047 -172.471694946289 2.029709339142
18.330646514893 -75.304733276367 -175.010955810547 1.088118314743
19.112237930298 -73.344558715820 -177.975601196289 2.320273637772
-57.252414703369 -75.647384643555 -173.926300048828 1.495808839798
108.900009155273 -75.076812744141 -181.935745239258 1.349298119545
16.306436538696 -74.982330322266 -179.212585449219 1.726292610168
29.581645965576 -73.143386840820 -177.210037231445 3.527371406555
-28.929704666138 -74.665878295898 -184.798645019531 2.541738986969
-45.057086944580 -73.820388793945 -186.026947021484 3.507812261581
16.616138458252 -77.868652343750 -187.732711791992 2.005740404129
-50.974777221680 -75.521133422852 -184.954406738281 2.077653884888
104.521293640137 -75.784866333008 -188.423370361328 1.784679174423
-48.670440673828 -71.953559875488 -190.104049682617 3.953560590744
-145.672637939453 -74.090599060059 -185.973098754883 1.718473076820
16.243545532227 -73.977890014648 -191.751876831055 2.187153816223
-39.945693969727 -74.985656738281 -197.616439819336 1.467215895653
17.666992187500 -75.248596191406 -194.440719604492 3.177723169327
-14.549835205078 -73.423423767090 -194.145614624023 1.566950678825
16.818885803223 -73.887779235840 -195.955093383789 2.617330312729
-134.677566528320 -73.411064147949 -191.141601562500 4.854427814484
18.816732406616 -76.285270690918 -196.111236572266 1.581114530563
-134.235443115234 -73.279296875000 -196.637649536133 1.360687732697
-139.496704101563 -75.919815063477 -198.041107177734 0.984884262085
-33.555820465088 -77.315734863281 -201.311386108398 1.409648895264
99.549034118652 -75.377174377441 -203.578308105469 1.636835217476
-154.288772583008 -73.721702575684 -197.504943847656 1.856078982353
-11.980843544006 -77.576873779297 -204.286193847656 1.326903939247
-31.328300476074 -77.487396240234 -201.083450317383 3.053662776947
-37.797710418701 -79.463684082031 -203.348892211914 1.050123572350
9.847292900085 -76.272872924805 -207.549194335938 1.473695278168
94.578475952148 -74.126983642578 -207.508453369141 1.939121484756
-73.115661621094 -76.093826293945 -206.817092895508 2.502308845520
-32.445789337158 -75.844528198242 -206.218566894531 1.665768742561
-7.351181030273 -74.321983337402 -213.684982299805 1.259320259094
-69.796089172363 -76.549308776855 -209.855545043945 0.909066617489
-34.921253204346 -75.591171264648 -210.339569091797 3.144676685333
-17.710754394531 -78.455802917480 -213.133972167969 2.164793729782
-25.023933410645 -73.551963806152 -212.042114257813 1.431888341904
95.966926574707 -77.130172729492 -216.195892333984 3.898979902267
-74.177230834961 -75.167533874512 -209.440963745117 1.253520011902
18.129409790039 -76.437561035156 -219.586090087891 0.409299761057
6.790194988251 -75.380363464355 -213.660903930664 0.992509722710
-4.204911231995 -73.425071716309 -218.274490356445 1.886487364769
-91.947509765625 -77.649307250977 -215.438934326172 0.745022177696
5.122179031372 -73.392616271973 -223.806884765625 1.440644741058
-16.656921386719 -76.143745422363 -218.887588500977 1.758451581001
20.151033401489 -75.271263122559 -220.029541015625 2.073804378510
81.823158264160 -77.072196960449 -222.652023315430 1.320088624954
-152.238006591797 -77.605133056641 -219.727081298828 3.318615913391
-12.928782463074 -76.644676208496 -220.936645507813 2.423256635666
84.311729431152 -75.323951721191 -225.691619873047 1.961892127991
-141.338653564453 -75.164085388184 -223.569320678711 1.689279317856
17.616430282593 -70.971618652344 -225.533828735352 1.831184983253
-5.474637031555 -75.453231811523 -222.774566650391 1.985742568970
7.653758049011 -77.290824890137 -223.173477172852 1.082043528557
22.156326293945 -76.407035827637 -229.013748168945 4.229874134064
70.066276550293 -74.539093017578 -235.135879516602 1.625586032867
78.569587707520 -75.641815185547 -235.377838134766 3.580965042114
8.413097381592 -76.909751892090 -235.139602661133 1.818372964859
2.753638029099 -72.632797241211 -235.725112915039 3.099136590958
0.463090002537 -74.562240600586 -237.253494262695 1.024444341660
3.302839994431 -76.700927734375 -237.398803710938 1.711538553238
-43.899108886719 -78.750556945801 -235.017227172852 5.598536968231
5.700137138367 -75.671401977539 -237.818328857422 1.612653970718
-35.857479095459 -72.616928100586 -243.932250976563 2.808070659637
8.547401428223 -72.770088195801 -243.535293579102 0.998838484287
9.488613128662 -76.796020507813 -246.273391723633 0.997600376606
18.719173431396 -75.414581298828 -249.123855590820 2.452301502228
19.120979309082 -71.762077331543 -248.789932250977 1.884318232536
-79.067977905273 -77.644058227539 -246.577743530273 4.324524879456
19.656169891357 -76.049217224121 -249.040283203125 2.443447589874
-74.110740661621 -75.675880432129 -251.694595336914 1.445743083954
-143.165481567383 -73.571815490723 -253.689590454102 1.666118383408
-128.714797973633 -74.202590942383 -256.275878906250 2.529125452042
-136.417221069336 -74.110374450684 -258.123657226563 1.080236554146
-132.992675781250 -76.119598388672 -257.228210449219 1.178261518478
-152.100723266602 -79.522743225098 -262.363006591797 1.882847666740
-146.977645874023 -78.450744628906 -269.750885009766 0.985665202141
-148.453887939453 -77.461174011230 -262.681976318359 1.714744687080
-151.886428833008 -75.147430419922 -275.954864501953 1.071597456932
-164.187072753906 -72.112083435059 -280.290222167969 3.404853820801
-130.539123535156 -74.795989990234 -280.854553222656 2.792499303818
-49.604839324951 -77.252784729004 -283.317657470703 2.732131004333
-62.159862518311 -75.078338623047 -279.714447021484 6.390966892242
-73.629379272461 -73.828918457031 -284.400482177734 2.859217882156
-0.442330002785 -77.858993530273 -283.067504882813 3.291151523590
-125.986579895020 -74.314628601074 -282.124420166016 2.620350360870
2.104083061218 -77.325538635254 -286.109710693359 2.258062839508
-135.786483764648 -76.305595397949 -283.505401611328 3.424902439117
-93.685501098633 -77.292098999023 -284.725158691406 3.479251146317
-81.651374816895 -74.577445983887 -287.326873779297 1.780526995659
-159.523101806641 -75.809211730957 -285.371002197266 3.754952669144
-140.086563110352 -76.480842590332 -287.827178955078 2.445725679398
-116.586822509766 -76.002838134766 -286.446807861328 1.115034580231
-68.814361572266 -77.595771789551 -285.041687011719 1.507857799530
15.643337249756 -74.366798400879 -290.864013671875 1.519398808479
-33.058227539063 -78.036285400391 -289.813385009766 1.120471358299
-18.786607742310 -75.640892028809 -290.636657714844 1.330605506897
-133.515548706055 -75.191062927246 -288.489257812500 2.121211051941
-132.245773315430 -74.378929138184 -291.156951904297 3.214581727982
-144.722213745117 -73.650588989258 -291.783172607422 0.979326128960
-147.716278076172 -75.190315246582 -297.771209716797 1.244952201843
-148.047714233398 -73.507087707520 -305.805664062500 4.726330280304
-53.487281799316 -73.906982421875 -52.327930450439 3.718254804611
-72.637817382813 -71.436798095703 -53.096378326416 2.516632318497
-74.006202697754 -72.576354980469 -53.092411041260 2.377832174301
-21.768985748291 -73.969886779785 -58.329380035400 2.356351375580
-16.454542160034 -72.630569458008 -59.111724853516 3.892434597015
-76.982200622559 -73.244804382324 -63.833507537842 3.125061273575
-83.154731750488 -74.395637512207 -66.396606445313 2.262925863266
89.047058105469 -73.051422119141 -73.512321472168 2.292548894882
95.136322021484 -76.372062683105 -74.887184143066 2.939680099487
-88.975791931152 -72.334335327148 -73.151786804199 1.977916598320
-25.608161926270 -76.239418029785 -73.462028503418 2.149371623993
97.979362487793 -73.458755493164 -80.088653564453 1.315645575523
96.344169616699 -72.874717712402 -86.498252868652 2.272930622101
-88.986480712891 -69.406417846680 -73.456527709961 3.753208398819
-45.352756500244 -72.107688903809 -82.341941833496 2.179058313370
102.573921203613 -72.533340454102 -89.704414367676 3.141770839691
-52.520160675049 -76.074424743652 -86.636955261230 2.559441804886
58.127349853516 -76.209144592285 -93.335800170898 2.176514387131
-55.346950531006 -74.459892272949 -87.674934387207 3.485306262970
53.746990203857 -72.808319091797 -92.639175415039 1.926821112633
49.015285491943 -76.544387817383 -97.767524719238 2.201519250870
57.199993133545 -74.153137207031 -94.392631530762 2.307000160217
56.213619232178 -73.985954284668 -98.322784423828 1.833380579948
46.520050048828 -73.399909973145 -105.209152221680 3.510039091110
111.971580505371 -75.327888488770 -105.150054931641 3.521938323975
-77.951980590820 -72.394775390625 -106.575111389160 4.088231086731
-81.390159606934 -72.655059814453 -105.265419006348 3.005908727646
112.484008789063 -74.006965637207 -112.565551757813 1.599469900131
49.097389221191 -74.891601562500 -114.687637329102 1.705516695976
50.187507629395 -73.239440917969 -120.005874633789 3.230580568314
-85.337852478027 -74.995674133301 -112.220817565918 0.776746630669
113.511276245117 -75.618370056152 -114.794639587402 3.612559556961
115.837127685547 -70.505157470703 -118.928756713867 2.089961767197
46.132431030273 -76.070854187012 -122.555442810059 1.949581027031
113.941047668457 -75.873794555664 -126.604820251465 2.920766115189
110.828140258789 -73.885978698730 -131.263580322266 1.683468461037
30.602750778198 -72.449928283691 -133.517547607422 2.070446491241
116.989944458008 -74.891799926758 -138.815109252930 3.441787481308
112.017395019531 -75.466621398926 -132.485214233398 1.276342868805
-58.346221923828 -72.765335083008 -133.369689941406 1.138923048973
-53.201297760010 -74.311828613281 -135.595809936523 0.992817819118
29.269781112671 -72.524353027344 -141.485565185547 2.116940736771
-50.956996917725 -69.242324829102 -131.741088867188 1.732208251953
-72.002746582031 -71.227943420410 -136.608413696289 2.454893589020
-69.183601379395 -72.620033264160 -141.163803100586 1.032440543175
107.917121887207 -76.264648437500 -141.126800537109 1.866977453232
-52.966110229492 -74.371208190918 -143.676071166992 1.554296731949
-70.911453247070 -72.900573730469 -142.289047241211 2.011860847473
-39.832439422607 -74.096923828125 -143.133544921875 3.979405879974
114.837844848633 -72.294609069824 -154.197570800781 2.195511102676
26.878187179565 -73.465667724609 -152.750076293945 2.497390270233
-72.935707092285 -74.719314575195 -153.103179931641 1.204510092735
-49.638145446777 -74.855018615723 -154.355178833008 1.868684411049
