-50.477287292480 -74.893028259277 -155.263916015625 1.747583389282
-34.724826812744 -77.089706420898 -152.999221801758 2.849065780640
-37.838130950928 -77.992294311523 -152.817626953125 1.070776343346
-69.656089782715 -75.982971191406 -156.260528564453 1.498645663261
11.832056045532 -74.405441284180 -159.240112304688 1.862297296524
-48.790969848633 -73.237121582031 -156.896591186523 1.478915452957
-44.920440673828 -73.881668090820 -156.634201049805 2.117448568344
31.330602645874 -74.555183410645 -161.452346801758 1.327510714531
-32.824928283691 -75.102973937988 -164.415252685547 1.947558045387
-68.230850219727 -76.177627563477 -163.263061523438 1.322912573814
108.815460205078 -74.434837341309 -161.682418823242 1.905627608299
110.327362060547 -71.181091308594 -165.753601074219 2.106909751892
31.313684463501 -74.041793823242 -165.305236816406 1.513831734657
113.543434143066 -72.111595153809 -167.498519897461 1.556101441383
108.881065368652 -75.877532958984 -168.413757324219 1.803803920746
19.263311386108 -76.856559753418 -174.949874877930 1.815046310425
-26.673583984375 -70.762428283691 -171.690689086914 3.216820001602
-51.954742431641 -75.751953125000 -175.778594970703 2.019095420837
111.263679504395 -74.901054382324 -178.999343872070 2.441206216812
-35.842533111572 -74.906661987305 -176.943969726563 2.917995452881
15.413993835449 -73.582710266113 -177.065765380859 1.602688550949
-33.358676910400 -71.696105957031 -175.499374389648 1.230907320976
-53.640914916992 -73.163047790527 -181.110076904297 1.020083904266
-147.096832275391 -72.851509094238 -180.465850830078 2.305603981018
-148.332122802734 -71.627838134766 -180.781158447266 2.373221874237
107.962425231934 -76.111785888672 -181.071899414063 1.920716285706
21.365558624268 -72.590858459473 -183.533370971680 3.048508882523
-54.973224639893 -72.890861511230 -182.328414916992 1.181750655174
-48.600002288818 -76.239547729492 -191.187301635742 0.744241714478
-46.789852142334 -72.321723937988 -189.037796020508 4.140285015106
-47.603248596191 -76.063606262207 -192.272827148438 1.732720851898
16.404582977295 -74.315391540527 -187.672943115234 1.377163290977
16.214094161987 -74.630996704102 -187.283432006836 1.742146134377
106.600212097168 -73.535408020020 -194.228820800781 0.490362942219
-23.374935150146 -73.056930541992 -194.767456054688 1.934441804886
-43.729148864746 -74.755805969238 -195.623550415039 2.374752521515
23.318208694458 -73.354545593262 -196.683792114258 1.100095629692
-41.942996978760 -72.938041687012 -195.682861328125 3.664817094803
99.323120117188 -75.984382629395 -200.217864990234 1.589292168617
-36.374271392822 -72.032562255859 -201.122833251953 3.255636215210
95.043579101563 -77.566726684570 -201.649108886719 2.170312166214
20.111377716064 -73.030250549316 -202.517120361328 2.017779588699
-37.650215148926 -72.415733337402 -204.561248779297 1.821217656136
17.986946105957 -71.642524719238 -200.274139404297 2.203632116318
-21.181682586670 -75.324378967285 -206.842742919922 2.324764966965
-39.166698455811 -74.425010681152 -203.366531372070 1.241437196732
93.718673706055 -75.729888916016 -208.429214477539 1.512855172157
9.753546714783 -73.951065063477 -206.464202880859 1.979291796684
90.334365844727 -71.181663513184 -217.417602539063 1.740483880043
-6.881000995636 -75.679939270020 -211.011871337891 1.432536363602
-23.813652038574 -74.216590881348 -208.611190795898 3.158947944641
-79.053695678711 -74.107948303223 -211.042984008789 1.201216578484
85.432266235352 -74.815940856934 -218.481704711914 1.850383281708
-19.008737564087 -74.392318725586 -216.697860717773 2.409741640091
18.791841506958 -72.661369323730 -217.094818115234 2.508308410645
-25.492868423462 -76.504791259766 -217.180572509766 1.661861300468
-29.348344802856 -73.798477172852 -214.807312011719 1.738775372505
-98.553779602051 -74.937637329102 -217.431457519531 2.518365383148
-9.162845611572 -72.588623046875 -220.106307983398 1.938189387321
-20.689237594604 -73.935859680176 -220.480697631836 1.363284111023
1.072718977928 -73.971572875977 -223.737716674805 1.415078401566
15.107714653015 -76.504890441895 -221.610946655273 1.467010498047
-13.948882102966 -73.329231262207 -221.839569091797 0.790080130100
-13.375925064087 -78.891952514648 -224.228775024414 2.773908853531
18.179065704346 -75.226020812988 -223.080841064453 1.200484037399
8.733925819397 -74.901443481445 -221.301284790039 1.182046294212
7.175048828125 -76.063575744629 -220.233276367188 0.529559969902
-128.665725708008 -74.998161315918 -227.449722290039 2.632462501526
-12.249352455139 -73.441123962402 -226.477737426758 1.025505900383
78.851631164551 -74.527656555176 -229.026702880859 1.356776714325
-15.793747901917 -75.189079284668 -227.008987426758 1.042753219604
-151.740631103516 -76.715599060059 -227.203369140625 2.352628946304
-128.818313598633 -74.739486694336 -230.922592163086 0.823963701725
-10.371454238892 -72.752967834473 -234.902130126953 2.067101955414
77.278259277344 -76.152206420898 -228.621047973633 1.281729459763
-7.044394969940 -75.069587707520 -229.491806030273 2.121815204620
-2.088236093521 -74.676452636719 -233.909973144531 1.768295645714
67.145698547363 -75.606079101563 -237.690307617188 1.528345823288
1.728096008301 -74.921646118164 -240.536010742188 1.553195357323
67.725051879883 -78.270484924316 -237.893264770508 4.133624553680
-153.727600097656 -72.666793823242 -242.422912597656 4.145051479340
63.421543121338 -71.985198974609 -238.833419799805 1.670149683952
-35.479274749756 -73.581840515137 -239.409164428711 1.674557328224
-37.622447967529 -72.513099670410 -240.863067626953 2.132167816162
13.605531692505 -75.027793884277 -238.688720703125 1.509127736092
-45.352355957031 -76.702835083008 -243.023895263672 2.223538875580
-25.397891998291 -74.807945251465 -241.818054199219 1.769427776337
6.875997066498 -72.126625061035 -242.248382568359 1.412813901901
-45.989414215088 -75.134803771973 -243.699920654297 2.995781183243
-144.572860717773 -70.983940124512 -243.856582641602 2.140579223633
16.317422866821 -73.610115051270 -239.531204223633 1.667244195938
-149.828613281250 -76.986511230469 -239.311767578125 2.285315275192
-71.092666625977 -75.204429626465 -245.740722656250 2.214997768402
-4.725397109985 -76.825874328613 -247.346710205078 1.375675320625
-8.510012626648 -72.905364990234 -248.634414672852 1.214447379112
-81.709884643555 -74.145843505859 -246.452636718750 3.119851827621
-150.868835449219 -72.735885620117 -251.233520507813 1.945163607597
-147.654205322266 -78.771400451660 -250.087539672852 1.853332757950
-87.381538391113 -74.521919250488 -256.241394042969 1.232349395752
-162.220977783203 -74.232666015625 -256.986602783203 1.350676178932
-125.471412658691 -76.647872924805 -253.682891845703 2.012835502625
25.120119094849 -73.064125061035 -258.176635742188 2.966512918472
-155.143417358398 -72.667091369629 -254.905685424805 1.771360158920
-145.327362060547 -71.097747802734 -256.173095703125 1.804030060768
-163.849822998047 -73.201728820801 -257.369903564453 3.061065912247
-135.729827880859 -69.990692138672 -258.659301757813 1.966037511826
-122.979454040527 -74.702812194824 -260.663269042969 1.671773314476
-161.171890258789 -76.486564636230 -263.718658447266 2.191673755646
-144.463180541992 -74.254074096680 -258.783752441406 2.323956727982
-166.467056274414 -73.395484924316 -262.868194580078 1.751892089844
-154.122329711914 -72.659988403320 -259.378936767578 2.454888343811
-160.747238159180 -71.844558715820 -264.559967041016 2.606884002686
-168.040618896484 -72.892448425293 -259.982330322266 2.346940755844
18.387537002563 -79.616607666016 -272.619659423828 1.260668635368
13.984545707703 -75.600318908691 -272.585968017578 5.635118484497
-159.360366821289 -72.784088134766 -272.806976318359 1.451908230782
-158.157546997070 -73.643989562988 -270.470733642578 2.779443025589
-167.337661743164 -70.248878479004 -277.298675537109 1.716275572777
-155.473434448242 -73.412857055664 -269.621765136719 2.046714782715
-152.347991943359 -70.810874938965 -270.084381103516 3.841372013092
-150.729583740234 -72.728111267090 -271.466949462891 3.038871765137
-141.202804565430 -72.966308593750 -277.962829589844 3.565815448761
-162.093017578125 -73.827949523926 -276.050170898438 2.923271417618
-154.018173217773 -71.749206542969 -281.028503417969 1.269332647324
18.421115875244 -73.759346008301 -281.021759033203 2.136373758316
-153.246795654297 -76.234329223633 -279.720062255859 3.611253738403
-160.296020507813 -75.469894409180 -280.985931396484 5.446347236633
-162.101135253906 -73.217941284180 -279.475738525391 4.213912010193
-127.724151611328 -73.392364501953 -284.750305175781 2.383008480072
-31.028610229492 -75.067306518555 -284.803375244141 2.032180786133
-43.612022399902 -73.218811035156 -283.077911376953 4.395598888397
-68.079093933105 -72.114196777344 -287.599517822266 2.489727497101
-15.079997062683 -71.726226806641 -285.999908447266 2.899333953857
11.380298614502 -75.523361206055 -284.985473632813 2.375746011734
-2.432216882706 -76.143554687500 -288.515777587891 2.463932752609
-111.614669799805 -75.200698852539 -287.795379638672 1.708604931831
-96.438354492188 -73.023056030273 -285.206085205078 2.595884799957
-113.732376098633 -74.092788696289 -289.841400146484 0.978385746479
-103.311164855957 -74.352592468262 -286.879730224609 0.892311215401
-92.865287780762 -75.926803588867 -288.999450683594 2.208116769791
-48.427909851074 -73.769454956055 -286.913177490234 2.442756414413
-118.743934631348 -74.603317260742 -287.711975097656 0.750989437103
-86.811050415039 -72.981262207031 -290.105346679688 2.067126274109
-116.403198242188 -73.635551452637 -291.152679443359 1.685004711151
-135.432006835938 -74.792251586914 -289.121978759766 1.476967692375
-11.332648277283 -72.632545471191 -292.570556640625 1.999460220337
11.374204635620 -74.888565063477 -293.075042724609 2.234706878662
-153.443679809570 -73.919067382813 -292.801055908203 1.776133775711
-158.361450195313 -76.332611083984 -308.132293701172 4.030505657196
-63.443500518799 -71.198379516602 -52.834167480469 3.200177192688
-57.924438476563 -72.452766418457 -51.693908691406 3.428764104843
-52.477756500244 -76.543190002441 -55.887100219727 2.574998617172
-71.581291198730 -73.352996826172 -53.418518066406 2.529424905777
-39.865921020508 -76.995094299316 -56.144500732422 3.561544418335
-76.115158081055 -73.442359924316 -56.564430236816 3.530857801437
-79.442321777344 -73.088500976563 -60.952854156494 2.047916412354
-16.544988632202 -75.547378540039 -70.813888549805 2.290068387985
-15.640728950500 -75.379554748535 -71.292663574219 2.720010757446
76.937057495117 -74.370063781738 -74.968177795410 1.551833033562
-34.952957153320 -73.034118652344 -79.037406921387 1.861428141594
-33.410026550293 -74.529037475586 -74.907196044922 4.157040596008
70.673950195313 -70.814491271973 -80.605026245117 1.984158277512
99.876792907715 -76.608589172363 -86.951004028320 2.749596595764
-53.544212341309 -73.050643920898 -90.847137451172 3.092693567276
61.812564849854 -74.464447021484 -96.113769531250 3.692200660706
49.746704101563 -72.134361267090 -95.443786621094 2.784419536591
51.240943908691 -73.392295837402 -98.413505554199 1.659483194351
41.938213348389 -72.227409362793 -100.876403808594 2.046669483185
110.844581604004 -74.513679504395 -98.650314331055 3.952057838440
61.428676605225 -71.137084960938 -92.741859436035 1.843453407288
-94.250747680664 -74.435729980469 -100.107589721680 4.765930652618
-73.294898986816 -70.272682189941 -100.057189941406 1.306083083153
58.191078186035 -72.408042907715 -99.329429626465 2.470923900604
45.360027313232 -69.965026855469 -102.565834045410 1.628732800484
44.519943237305 -71.875305175781 -104.948486328125 1.745519995689
-92.108802795410 -72.511680603027 -110.892997741699 1.462733149529
38.285728454590 -72.659454345703 -109.285896301270 0.733343362808
53.415176391602 -72.147430419922 -112.286819458008 4.736514568329
44.961715698242 -73.900329589844 -117.963928222656 1.382246017456
47.497268676758 -72.094619750977 -122.370544433594 3.170315742493
116.645362854004 -72.627555847168 -129.078704833984 2.095422983170
-54.609489440918 -72.354820251465 -129.823043823242 2.432488679886
39.599842071533 -74.890747070313 -135.705459594727 3.697370052338
38.945457458496 -73.643341064453 -134.673721313477 2.827185630798
115.403518676758 -75.131843566895 -138.948516845703 2.596444129944
-72.606567382813 -71.694335937500 -131.841247558594 0.599241554737
-54.186614990234 -73.208328247070 -137.846954345703 1.492585659027
121.012397766113 -72.280525207520 -137.384887695313 3.781764268875
-71.965026855469 -72.893981933594 -138.873565673828 1.066052198410
-47.291774749756 -71.852943420410 -143.844848632813 1.747220635414
-59.527675628662 -69.935501098633 -142.526062011719 0.403100073338
110.288116455078 -73.335021972656 -140.072372436523 1.645697474480
22.928936004639 -76.418487548828 -149.405334472656 2.326973199844
32.457378387451 -72.790992736816 -145.777389526367 1.934973835945
-42.400882720947 -72.402236938477 -150.557510375977 1.857428193092
-64.579994201660 -72.551605224609 -151.012435913086 1.567944526672
26.154640197754 -76.602882385254 -150.488616943359 2.420019149780
-71.440032958984 -72.392539978027 -150.377319335938 1.169209718704
32.531051635742 -74.143287658691 -148.980651855469 0.732325911522
-35.447105407715 -73.269096374512 -154.645736694336 2.850270748138
24.867286682129 -73.537086486816 -152.527908325195 1.728993773460
11.455087661743 -74.483222961426 -154.734985351563 1.535458683968
-69.940010070801 -72.819519042969 -159.751083374023 1.284896612167
-47.704048156738 -76.326431274414 -156.474060058594 1.798704147339
-59.565811157227 -74.978805541992 -157.401214599609 4.417491436005
-48.493984222412 -74.344551086426 -157.424041748047 1.918955445290
6.500720977783 -73.853233337402 -160.617630004883 2.132572174072
-33.121513366699 -74.382308959961 -166.268951416016 1.250992774963
-40.973434448242 -75.171577453613 -164.533584594727 2.617803096771
21.704326629639 -72.900352478027 -166.279647827148 0.966090142727
-40.554676055908 -75.543205261230 -166.435348510742 2.820622682571
27.443414688110 -72.160552978516 -166.148147583008 1.248917937279
117.185348510742 -71.377670288086 -166.722290039063 2.312835931778
-30.791004180908 -74.022239685059 -170.565841674805 2.327961683273
28.871446609497 -76.047607421875 -171.391265869141 1.718341827393
-65.347007751465 -73.707893371582 -168.910263061523 1.150090336800
-57.838172912598 -72.066062927246 -169.315628051758 3.265409231186
-41.707134246826 -70.357788085938 -169.701461791992 1.865368247032
-60.095741271973 -74.266860961914 -173.684005737305 1.939444541931
109.569633483887 -74.319160461426 -175.582870483398 1.171918630600
-146.649765014648 -71.818672180176 -173.327270507813 2.850028753281
-143.250930786133 -73.911674499512 -174.948471069336 1.363580226898
-56.255508422852 -72.823081970215 -175.967391967773 1.054140448570
105.756286621094 -74.279548645020 -177.154235839844 1.402218222618
110.155128479004 -72.870429992676 -178.146392822266 1.787498831749
108.022308349609 -72.628112792969 -181.254745483398 1.677945017815
24.800947189331 -75.153305053711 -186.809844970703 0.998196661472
-34.481376647949 -74.683044433594 -179.587631225586 0.922904551029
-137.334381103516 -72.405776977539 -182.474731445313 4.797649860382
107.883689880371 -72.059379577637 -184.140731811523 1.352737665176
22.132904052734 -73.008369445801 -193.454177856445 2.999297857285
106.649291992188 -72.242736816406 -193.495269775391 1.135372638702
104.461830139160 -69.403282165527 -193.673248291016 3.985245943069
10.462326049805 -80.219573974609 -196.110824584961 3.537278890610
-130.432907104492 -73.028633117676 -195.170761108398 1.116206884384
-122.927024841309 -70.485542297363 -195.092819213867 0.860379159451
-144.437164306641 -77.425537109375 -198.249160766602 1.308648705482
-130.840164184570 -72.161727905273 -197.668563842773 1.461318254471
-121.667213439941 -73.706809997559 -199.056045532227 1.864553093910
-21.010250091553 -74.819915771484 -201.521469116211 2.207706928253
-24.034969329834 -74.576362609863 -201.051223754883 1.390989065170
-129.262420654297 -73.740165710449 -198.400894165039 2.444894075394
-140.196563720703 -74.136390686035 -199.584976196289 1.185628890991
-12.384148597717 -73.599700927734 -209.324356079102 3.270481586456
96.989654541016 -73.267395019531 -201.080459594727 2.133521795273
-19.493356704712 -75.215324401855 -202.993286132813 3.009174108505
89.695068359375 -70.492813110352 -210.502624511719 2.246979475021
18.081096649170 -72.836692810059 -207.172561645508 1.750478863716
-5.391726016998 -73.283538818359 -213.211410522461 2.046915531158
18.738685607910 -74.213554382324 -209.547393798828 0.751399934292
-30.034450531006 -71.300247192383 -208.039367675781 2.895848274231
-84.390205383301 -75.527091979980 -213.893280029297 2.306571245193
-92.212188720703 -75.130393981934 -213.938354492188 1.354010820389
-11.811582565308 -76.284049987793 -216.594680786133 0.994778215885
-94.229858398438 -73.287620544434 -214.546920776367 1.317004203796
-95.568389892578 -72.447769165039 -215.482742309570 1.119671583176
85.007690429688 -71.813392639160 -219.914794921875 1.625887751579
-23.811668395996 -75.035148620605 -221.853393554688 1.680554628372
-22.123968124390 -70.268165588379 -223.652633666992 1.831090450287
-22.705097198486 -72.846382141113 -218.866058349609 1.060571908951
-18.835098266602 -72.640335083008 -222.149703979492 1.592033267021
-18.288543701172 -72.836357116699 -220.881057739258 1.559134006500
15.169278144836 -74.349235534668 -221.590713500977 2.035062074661
-138.784515380859 -72.669921875000 -225.078170776367 1.572903394699
76.887596130371 -74.133438110352 -225.030090332031 1.512145161629
-3.701991081238 -74.784057617188 -228.233749389648 2.490493774414
10.484535217285 -75.978836059570 -232.157943725586 1.480233192444
79.837333679199 -73.076766967773 -229.494049072266 1.480146288872
-124.028137207031 -74.141113281250 -228.553985595703 1.193866014481
-160.112197875977 -72.687652587891 -232.870086669922 2.172582864761
-135.599456787109 -74.373153686523 -229.359222412109 1.816023707390
14.681796073914 -75.983932495117 -229.985855102539 2.760493278503
8.028245925903 -72.983398437500 -230.330032348633 1.162206888199
-125.094276428223 -75.066543579102 -230.920455932617 1.498522758484
-1.405691981316 -75.822288513184 -236.002807617188 1.685471653938
-146.878356933594 -71.641685485840 -233.706893920898 2.713975191116
-3.410974979401 -78.055259704590 -233.820053100586 1.694306731224
11.033000946045 -72.692611694336 -235.533279418945 1.419782400131
-2.924325942993 -73.298721313477 -235.311630249023 1.245576381683
-3.282150030136 -75.543647766113 -241.609771728516 2.388068199158
7.197805881500 -76.868858337402 -237.251968383789 1.148724675179
-161.954299926758 -75.668502807617 -238.657791137695 2.404473781586
-155.833801269531 -74.325019836426 -235.919403076172 3.774855852127
19.612455368042 -72.217712402344 -241.493133544922 1.605593562126
-2.264391899109 -75.412681579590 -238.538604736328 1.730600357056
65.632705688477 -74.593864440918 -241.743209838867 1.906678676605
62.278053283691 -72.169662475586 -239.918655395508 1.569971561432
-164.704498291016 -71.872116088867 -241.299331665039 2.858006477356
-160.349441528320 -70.814002990723 -243.043136596680 2.751529216766
-151.404693603516 -73.163482666016 -239.744567871094 2.030791521072
-56.670692443848 -72.722503662109 -240.798278808594 3.479336500168
-7.212347030640 -70.748794555664 -242.818344116211 2.170509576797
-52.940170288086 -74.855506896973 -241.724685668945 1.626929640770
-153.833267211914 -75.805511474609 -247.144821166992 2.857517242432
-58.284912109375 -71.139320373535 -243.797424316406 2.092398643494
16.807487487793 -69.625701904297 -246.346649169922 1.761294126511
-9.754869461060 -74.140357971191 -245.700180053711 2.588990688324
-7.735064983368 -72.497344970703 -250.509063720703 3.033552885056
-159.266647338867 -71.919059753418 -246.949645996094 2.034859657288
-164.723541259766 -72.580871582031 -247.782852172852 1.394655108452
-84.598609924316 -71.738174438477 -245.339782714844 4.112313747406
-163.822540283203 -73.903938293457 -249.824417114258 2.255502939224
-146.592468261719 -73.809753417969 -251.886245727539 0.698787689209
-73.803672790527 -72.262657165527 -251.953659057617 1.923002481461
-95.529457092285 -72.696716308594 -255.124542236328 1.191704273224
-85.897857666016 -73.620697021484 -251.134307861328 1.837346196175
-134.442153930664 -73.922523498535 -255.141860961914 1.208017110825
21.920436859131 -73.558799743652 -254.227630615234 2.323447227478
-97.600387573242 -70.495162963867 -255.609344482422 1.761222958565
-101.047485351563 -70.423538208008 -258.342651367188 2.021013021469
-102.690948486328 -69.273223876953 -257.321655273438 2.520966768265
-114.891853332520 -73.565086364746 -258.150695800781 0.303989738226
-109.161338806152 -73.838661193848 -259.347381591797 1.626287937164
-115.744300842285 -73.708847045898 -259.376098632813 1.580892801285
-144.461624145508 -75.217697143555 -262.478332519531 2.246387481689
-130.681503295898 -72.748718261719 -261.001281738281 2.794174671173
-152.471923828125 -70.992767333984 -261.537628173828 2.527749061584
-146.658248901367 -73.337059020996 -268.657684326172 1.753627181053
-166.535217285156 -73.310920715332 -273.497314453125 1.494771122932
-9.922398567200 -74.820449829102 -277.660705566406 2.894190788269
-129.107711791992 -74.738342285156 -282.002807617188 2.155230522156
-139.113616943359 -74.510253906250 -284.378967285156 2.719072818756
-44.514766693115 -72.848564147949 -286.741210937500 2.241901397705
-88.177894592285 -72.528457641602 -286.934234619141 1.561198353767
-28.049196243286 -74.580261230469 -288.058898925781 1.616010665894
-33.651000976563 -72.228790283203 -288.560485839844 2.842119216919
-117.737899780273 -75.708526611328 -283.581451416016 3.419669389725
-18.584415435791 -73.790748596191 -287.483428955078 3.751034498215
13.714636802673 -72.918838500977 -289.565460205078 1.114663481712
-53.116386413574 -73.013931274414 -286.102905273438 0.930899977684
-117.722167968750 -72.570167541504 -291.319793701172 2.032538414001
-78.147300720215 -70.337348937988 -288.752807617188 2.112374067307
-69.933212280273 -70.388244628906 -289.164062500000 1.164790511131
-30.755174636841 -73.901626586914 -289.258636474609 1.884526491165
-100.661506652832 -72.875793457031 -288.666931152344 1.932416796684
-113.039878845215 -72.829635620117 -289.698455810547 1.333081603050
-10.990456581116 -71.086456298828 -295.181640625000 4.861449718475
-161.987396240234 -70.603912353516 -289.611968994141 2.351310014725
-151.793457031250 -75.099754333496 -298.177307128906 0.938750803471
-152.750442504883 -73.780570983887 -311.389038085938 2.288737535477
33.247158050537 -74.114128112793 -16.160985946655 1.607697248459
28.296606063843 -74.873908996582 -17.248304367065 2.259597539902
29.528356552124 -71.722854614258 -20.737943649292 1.891912698746
24.728954315186 -70.691688537598 -25.700321197510 1.963720321655
26.737264633179 -73.790946960449 -32.510177612305 1.709212660789
34.526485443115 -70.668464660645 -38.133651733398 1.075338482857
25.995147705078 -74.626708984375 -40.537708282471 4.093832015991
-53.746692657471 -72.559593200684 -50.113925933838 3.115985393524
-28.712181091309 -67.781929016113 -51.601825714111 1.457663059235
88.061645507813 -69.951271057129 -69.334533691406 1.879841566086
-88.380767822266 -72.568305969238 -71.448348999023 2.217127561569
73.919769287109 -72.872161865234 -75.286689758301 2.074743270874
-36.798183441162 -75.836174011230 -79.511123657227 2.042575359344
-91.633361816406 -71.384231567383 -81.049377441406 1.198822021484
-46.362621307373 -75.745826721191 -81.009849548340 3.848054885864
103.199440002441 -73.964149475098 -89.164039611816 3.340709924698
-91.598533630371 -72.559143066406 -90.266471862793 3.628145694733
69.501144409180 -72.561958312988 -92.321403503418 2.006593942642
-94.739013671875 -70.276298522949 -90.160682678223 1.480305194855
59.034355163574 -77.101623535156 -94.542922973633 3.255996227264
107.038955688477 -70.500679016113 -95.692214965820 1.482443928719
-68.650695800781 -73.121223449707 -99.544540405273 3.416324615479
45.226554870605 -70.106727600098 -97.775192260742 1.654336571693
79.802848815918 -71.990287780762 -103.416336059570 1.700122237206
86.850997924805 -72.394393920898 -100.826889038086 1.274031043053
45.116062164307 -71.338874816895 -101.296165466309 1.743053078651
109.701057434082 -76.365669250488 -103.663734436035 2.116388082504
-92.942008972168 -73.249885559082 -111.300163269043 0.620089888573
108.383995056152 -70.815750122070 -105.108398437500 2.226503372192
108.979293823242 -72.324180603027 -110.908386230469 0.965659558773
37.014209747314 -73.221450805664 -116.707214355469 2.364109754562
48.093940734863 -73.938301086426 -112.987480163574 0.951932251453
46.377544403076 -76.107978820801 -119.398864746094 1.144819378853
36.489543914795 -73.498092651367 -118.728965759277 2.616708040237
44.775005340576 -73.115058898926 -118.076499938965 0.963189065456
47.847110748291 -71.140876770020 -121.405067443848 2.923756122589
109.075881958008 -74.062820434570 -123.897239685059 2.756801843643
115.020103454590 -72.137535095215 -126.199584960938 0.428745210171
32.990425109863 -74.617034912109 -129.379211425781 3.454392910004
31.769687652588 -73.711875915527 -133.940399169922 2.323307752609
-70.432174682617 -71.807632446289 -134.081039428711 3.228175163269
-52.429054260254 -72.190757751465 -127.314895629883 3.186584472656
114.304931640625 -74.199279785156 -139.977767944336 0.905626833439
29.813701629639 -72.154777526855 -133.964355468750 2.149307966232
39.186199188232 -69.662750244141 -135.876617431641 2.679345369339
-77.868759155273 -71.989051818848 -138.516632080078 2.328078985214
28.886014938354 -73.576805114746 -137.313491821289 1.509917378426
25.513320922852 -75.054428100586 -141.509765625000 2.111076116562
-44.788452148438 -71.846687316895 -143.266082763672 0.910554468632
-71.313018798828 -71.655220031738 -143.937683105469 2.051089525223
-52.731216430664 -72.765815734863 -145.588516235352 3.166134834290
33.304988861084 -71.572303771973 -146.940322875977 1.225405573845
-52.747768402100 -73.423599243164 -151.995559692383 2.006272792816
36.792465209961 -71.991409301758 -155.277450561523 2.745054721832
30.808269500732 -69.218467712402 -161.055343627930 2.685322523117
111.615356445313 -71.536170959473 -154.527542114258 0.500964581966
25.681255340576 -74.137382507324 -155.330657958984 2.089958429337
16.157745361328 -73.391326904297 -156.272354125977 1.459702372551
-38.424060821533 -77.396987915039 -153.466659545898 0.993670642376
-71.393745422363 -70.297218322754 -154.595596313477 2.099278211594
-45.696147918701 -71.389701843262 -157.669342041016 2.353200435638
109.970466613770 -71.418060302734 -159.191528320313 1.372050046921
35.804698944092 -73.375045776367 -160.390136718750 3.682160854340
113.389312744141 -74.235664367676 -164.050048828125 1.587587833405
-34.385730743408 -73.037666320801 -161.173965454102 1.792257905006
19.699262619019 -68.546234130859 -168.989440917969 0.787967503071
1.768417000771 -71.752655029297 -163.707153320313 0.897003233433
-30.936538696289 -70.309196472168 -163.350036621094 2.492750644684
-60.386360168457 -70.386817932129 -165.154083251953 1.570375919342
-30.326774597168 -73.216293334961 -165.023330688477 2.312502861023
-57.931537628174 -74.130851745605 -170.416458129883 2.127965688705
-33.664512634277 -69.524566650391 -172.930755615234 1.995510101318
25.462871551514 -74.070098876953 -170.976547241211 2.869497537613
-38.352378845215 -73.790954589844 -174.539306640625 2.285384654999
-149.876663208008 -72.824829101563 -175.763168334961 1.776569366455
114.702850341797 -71.750595092773 -175.982376098633 2.135134458542
-149.246231079102 -70.571479797363 -181.654205322266 2.580515146255
-144.068923950195 -73.668365478516 -181.436340332031 0.906805098057
15.739445686340 -71.559097290039 -182.782943725586 1.773057341576
25.309043884277 -72.518295288086 -182.857635498047 1.410294175148
-36.783725738525 -70.896080017090 -185.322280883789 3.443351745605
-149.932327270508 -69.502700805664 -185.774826049805 1.636969804764
-29.369510650635 -72.052619934082 -187.254608154297 1.141135215759
-144.435989379883 -69.411750793457 -188.499404907227 1.790608644485
-17.973649978638 -72.153121948242 -194.048919677734 1.930901646614
14.360130310059 -75.600990295410 -192.136901855469 1.599408030510
99.589920043945 -72.921257019043 -200.809921264648 1.542616248131
8.259903907776 -77.888900756836 -195.306457519531 3.795464992523
-126.906562805176 -73.267852783203 -190.758728027344 4.331863403320
-131.384658813477 -71.752929687500 -194.395446777344 1.614827871323
-140.303039550781 -73.217453002930 -198.283660888672 2.292221784592
96.970954895020 -70.186813354492 -199.683303833008 2.491635560989
-132.426773071289 -74.084762573242 -200.676239013672 1.367480993271
7.902115821838 -73.008262634277 -204.458068847656 2.747560739517
-24.397352218628 -70.461883544922 -202.833007812500 1.927732586861
-135.414474487305 -73.066894531250 -201.106689453125 1.235187649727
-146.659332275391 -72.525100708008 -203.653488159180 2.390335559845
99.017982482910 -75.138107299805 -209.058227539063 3.227446556091
-11.071705818176 -73.060874938965 -202.896835327148 0.286886423826
99.872161865234 -73.443855285645 -200.439086914063 1.369252204895
-6.846758842468 -71.556785583496 -207.800338745117 1.735578536987
95.420906066895 -73.511840820313 -211.015457153320 1.510773420334
-144.758789062500 -71.557960510254 -205.622207641602 1.385146379471
-13.754020690918 -74.730041503906 -210.840606689453 2.842461109161
-152.684875488281 -72.707321166992 -213.245651245117 3.013111352921
-149.614776611328 -71.061340332031 -206.262313842773 1.442453145981
-15.896356582642 -70.979270935059 -214.057006835938 1.105927586555
-87.583702087402 -69.757949829102 -212.759567260742 2.959051132202
-158.885101318359 -71.096588134766 -214.746170043945 2.614439964294
-160.174575805664 -71.253944396973 -207.757873535156 3.214026212692
-153.543533325195 -72.349418640137 -207.204528808594 0.653320372105
-30.019414901733 -72.819099426270 -214.570968627930 2.227478742599
-27.484382629395 -72.440986633301 -217.119995117188 1.875404238701
-14.548360824585 -69.111389160156 -213.882949829102 1.618604063988
-16.276075363159 -76.508346557617 -215.646881103516 2.622459888458
-146.850021362305 -71.821334838867 -218.530471801758 0.620679199696
17.297290802002 -76.746345520020 -221.787811279297 1.183930993080
-150.847427368164 -70.323547363281 -221.808395385742 2.144919872284
-90.207946777344 -70.918174743652 -215.772674560547 0.945347189903
-164.216598510742 -73.179077148438 -223.633972167969 1.234390020370
-25.129766464233 -67.913230895996 -217.457260131836 4.393618106842
-17.632467269897 -73.946281433105 -218.354309082031 1.977869629860
-160.857574462891 -71.339332580566 -213.128265380859 2.100316762924
14.965160369873 -71.254829406738 -220.043518066406 1.343765974045
-157.128143310547 -72.928611755371 -216.024688720703 2.594769239426
6.013953208923 -69.476593017578 -224.069671630859 1.662713646889
-161.958312988281 -70.141242980957 -220.742889404297 2.767821073532
-151.114044189453 -68.174774169922 -221.649169921875 1.471293687820
-104.807060241699 -72.328361511230 -222.744750976563 1.762152910233
7.309065818787 -72.555030822754 -218.973907470703 2.498409271240
-158.459808349609 -71.435165405273 -223.154556274414 2.464020013809
-160.444396972656 -70.406776428223 -221.817535400391 2.328671216965
5.319945812225 -71.274345397949 -223.688934326172 2.947051525116
-113.642471313477 -70.895889282227 -226.786422729492 1.788743972778
-156.128860473633 -72.018646240234 -225.470993041992 1.949717044830
15.695623397827 -72.806213378906 -225.748855590820 2.339040994644
-111.456626892090 -71.534072875977 -227.292709350586 1.782023191452
-115.017051696777 -70.548233032227 -226.614425659180 1.339345812798
-120.571037292480 -71.825782775879 -225.564315795898 2.603048563004
80.513099670410 -72.052360534668 -229.286483764648 1.822744369507
-161.863037109375 -73.588226318359 -225.456253051758 1.824310898781
-157.244796752930 -74.585670471191 -225.887695312500 2.680775165558
-2.125396013260 -72.403930664063 -227.878082275391 2.055196762085
-163.064819335938 -69.942817687988 -229.887359619141 2.993998050690
5.828969955444 -69.947059631348 -229.127136230469 2.285864353180
-163.659362792969 -72.041435241699 -230.177947998047 1.230829358101
-161.829513549805 -71.562339782715 -227.910583496094 1.696946501732
73.818939208984 -71.392433166504 -232.240890502930 1.797478914261
-164.798919677734 -71.616035461426 -231.629348754883 1.836797356606
-166.568756103516 -73.263130187988 -235.926757812500 1.389750719070
6.520913124084 -73.839584350586 -232.721817016602 1.846793532372
-154.951690673828 -70.212989807129 -235.471237182617 2.452683925629
71.959114074707 -72.008460998535 -237.048446655273 1.721498370171
72.483451843262 -71.446212768555 -234.788635253906 0.881024003029
-146.303131103516 -73.717277526855 -238.012115478516 2.931862354279
8.534250259399 -69.272567749023 -239.717330932617 1.545575857162
-11.397157669067 -73.547378540039 -239.797866821289 2.042681932449
65.415435791016 -74.713714599609 -241.709259033203 2.063484191895
-166.320968627930 -71.902481079102 -240.288558959961 1.998949527740
7.790170192719 -74.145919799805 -244.562698364258 1.807880759239
18.962091445923 -74.305709838867 -243.718887329102 2.622480154037
65.882339477539 -72.767425537109 -244.275711059570 2.580071449280
19.927350997925 -75.604034423828 -246.902816772461 0.758894979954
12.224795341492 -74.167602539063 -244.390121459961 1.489593148232
-74.050941467285 -71.048423767090 -245.580993652344 2.885855674744
18.402757644653 -75.068138122559 -244.182922363281 2.402228593826
-13.360331535339 -68.836357116699 -248.621429443359 1.327153801918
-146.253234863281 -73.557418823242 -245.700347900391 3.158266544342
-65.240058898926 -73.891052246094 -252.678955078125 2.924740076065
-143.005569458008 -71.962791442871 -252.532821655273 2.611476182938
-127.831253051758 -71.796798706055 -252.009490966797 1.601403474808
-98.175689697266 -73.981941223145 -253.705917358398 2.209729433060
-134.149688720703 -72.017784118652 -253.533828735352 1.244472742081
-110.242080688477 -71.726509094238 -256.302398681641 1.322700142860
-112.719398498535 -70.264366149902 -256.970977783203 1.332924485207
-95.558807373047 -74.867126464844 -256.555938720703 1.712702393532
-103.036323547363 -70.404548645020 -257.226196289063 2.031560420990
-115.136795043945 -71.997596740723 -262.265533447266 1.021654605865
23.611618041992 -70.267799377441 -265.802764892578 1.880211114883
-14.395724296570 -73.621109008789 -268.534057617188 1.576331615448
-169.920471191406 -72.080543518066 -270.082183837891 2.133436918259
-145.360458374023 -75.246147155762 -271.267364501953 3.629784584045
11.855295181274 -69.005401611328 -285.650177001953 2.014898300171
-129.140167236328 -72.806632995605 -280.406860351563 4.092835903168
-126.259384155273 -66.779907226563 -284.039672851563 2.528785467148
-81.021484375000 -72.147766113281 -284.986175537109 3.347596883774
-53.108356475830 -72.526298522949 -284.859191894531 1.819307684898
-108.217643737793 -70.086425781250 -287.063507080078 2.621216535568
-39.552692413330 -72.686195373535 -285.851501464844 0.926253437996
-30.028167724609 -72.683036804199 -285.039184570313 1.737198948860
-9.926850318909 -74.913734436035 -286.963684082031 0.359832286835
-37.818107604980 -69.550727844238 -290.188568115234 2.746293067932
-59.629207611084 -72.390548706055 -290.273834228516 2.784173727036
-30.491044998169 -75.961669921875 -289.633300781250 2.552256107330
-20.040042877197 -71.578689575195 -289.473632812500 3.321839094162
14.056876182556 -72.559211730957 -292.130493164063 1.223496317863
-114.308219909668 -73.924118041992 -288.581542968750 0.970305800438
-120.686614990234 -71.424491882324 -292.424224853516 2.254583597183
10.800151824951 -73.202690124512 -291.666961669922 2.849716663361
-138.289093017578 -74.068801879883 -291.323120117188 2.517262697220
-147.657302856445 -72.902542114258 -298.099517822266 1.491104483604
-144.474365234375 -73.563056945801 -301.262145996094 1.335251927376
-154.003997802734 -73.001640319824 -310.918151855469 1.356409192085
28.551179885864 -73.113365173340 -15.008785247803 1.956892013550
47.927928924561 -69.255683898926 -16.493469238281 1.243129491806
44.518604278564 -71.380928039551 -19.219596862793 1.389537453651
48.420169830322 -72.761627197266 -23.408069610596 2.184862613678
46.394317626953 -70.562919616699 -26.542646408081 1.591923236847
49.518867492676 -72.771911621094 -22.226501464844 1.844146370888
27.112443923950 -73.212013244629 -25.061548233032 1.578652858734
26.205451965332 -71.269409179688 -28.460744857788 0.642037808895
48.673393249512 -75.709205627441 -30.399044036865 4.237238883972
43.479354858398 -73.206748962402 -34.658973693848 2.501675844193
39.041019439697 -72.813613891602 -37.744232177734 3.013388633728
39.913402557373 -70.717582702637 -40.520404815674 1.386775016785
-58.235721588135 -71.026123046875 -49.502372741699 2.232853889465
-48.039813995361 -72.382354736328 -48.808521270752 2.822142601013
-76.793235778809 -72.008178710938 -49.327510833740 2.119570732117
-71.105796813965 -72.174446105957 -50.806854248047 1.570686578751
-71.931350708008 -72.385902404785 -55.965133666992 4.609670639038
-22.785711288452 -72.468383789063 -57.418098449707 2.641207218170
-20.835786819458 -75.296310424805 -60.533397674561 2.052157402039
-14.546422958374 -71.028121948242 -63.710536956787 1.306687474251
80.098449707031 -72.085884094238 -68.394149780273 1.221383213997
80.396659851074 -72.376708984375 -68.352699279785 1.030392169952
76.580665588379 -71.272056579590 -71.413009643555 2.935245037079
74.714096069336 -73.723754882813 -72.100860595703 1.359815955162
-30.490274429321 -68.997734069824 -74.427238464355 2.000969409943
-46.609569549561 -72.994102478027 -85.174392700195 2.485810756683
100.479965209961 -73.954216003418 -88.559364318848 1.084769010544
53.396568298340 -68.709945678711 -88.117446899414 0.949904799461
-64.040084838867 -67.890121459961 -90.006637573242 2.168242692947
55.039604187012 -70.936309814453 -90.715118408203 1.979513764381
-61.016963958740 -70.607238769531 -93.653045654297 3.121602535248
60.886047363281 -71.001945495605 -97.785240173340 1.610775828362
107.167343139648 -71.634727478027 -98.935714721680 1.121898055077
70.146759033203 -74.467880249023 -96.481674194336 0.867468893528
96.815765380859 -72.178329467773 -101.884643554688 1.875445127487
107.924842834473 -73.189865112305 -106.255371093750 1.517926454544
-92.689041137695 -71.808570861816 -99.106117248535 3.243056297302
56.787990570068 -72.529914855957 -106.229637145996 3.566098213196
41.032752990723 -70.660652160645 -105.684516906738 1.635601997375
46.456939697266 -74.836067199707 -105.198837280273 2.458617687225
-93.897521972656 -69.865844726563 -105.814041137695 1.982554912567
-82.426788330078 -73.923896789551 -112.328941345215 3.484968185425
40.907886505127 -70.895622253418 -115.448837280273 1.863471627235
-95.481506347656 -72.314521789551 -112.910644531250 2.910685539246
46.001361846924 -69.507499694824 -118.004425048828 2.130957126617
110.032859802246 -73.269676208496 -117.246635437012 1.606953024864
114.656402587891 -73.768028259277 -120.466804504395 1.006851673126
109.142845153809 -70.343772888184 -122.642814636230 1.825276255608
113.774223327637 -72.351974487305 -125.213081359863 1.381690859795
43.415058135986 -76.193603515625 -124.339157104492 1.711219191551
36.762512207031 -69.256790161133 -125.823326110840 2.993479967117
44.110923767090 -73.872070312500 -130.566635131836 2.502008914948
36.761497497559 -73.842185974121 -127.934387207031 3.116325378418
-54.600776672363 -69.334449768066 -127.744995117188 1.522797465324
-50.645896911621 -72.955520629883 -131.090515136719 2.241828680038
-55.755496978760 -71.869888305664 -131.178970336914 1.707298040390
-49.783477783203 -70.526084899902 -137.071746826172 1.758315801620
32.372066497803 -71.957969665527 -132.766265869141 1.459382772446
-78.998680114746 -69.435882568359 -133.109527587891 1.518752813339
119.084251403809 -72.270980834961 -147.387802124023 2.722860336304
37.247001647949 -73.820472717285 -138.720581054688 1.730792403221
35.168190002441 -72.750328063965 -144.414962768555 2.711257934570
-64.198631286621 -68.520668029785 -143.362106323242 4.192772388458
-67.246269226074 -71.690139770508 -146.316711425781 1.143210768700
-71.810447692871 -69.989120483398 -146.261032104492 2.561138153076
110.085075378418 -70.498695373535 -149.655441284180 2.811631917953
-65.948326110840 -74.273597717285 -150.887588500977 1.675604462624
-69.705848693848 -71.671928405762 -145.374496459961 2.610018968582
-37.302448272705 -72.735343933105 -153.536376953125 0.869262635708
24.712167739868 -71.508232116699 -154.737869262695 0.645915687084
34.210338592529 -71.007392883301 -151.154083251953 3.317537069321
8.874560356140 -73.003814697266 -154.191070556641 0.884415149689
14.745137214661 -71.615707397461 -156.088226318359 1.034102201462
26.224941253662 -73.683532714844 -152.716598510742 2.522126197815
-34.282470703125 -72.290374755859 -151.511947631836 4.222899436951
-66.522468566895 -68.041763305664 -158.562362670898 2.155311822891
-37.653934478760 -70.558113098145 -156.071136474609 1.123319983482
30.257524490356 -70.456459045410 -162.582870483398 1.716441154480
-64.695823669434 -73.659904479980 -163.726608276367 1.729325175285
-65.085075378418 -72.623680114746 -163.141815185547 0.980263948441
-44.386997222900 -72.947776794434 -158.781494140625 2.785712957382
18.996440887451 -70.272712707520 -163.249130249023 2.887090682983
20.578765869141 -72.402961730957 -168.557357788086 2.540504455566
113.254272460938 -71.617698669434 -169.312988281250 1.595096468925
-26.442672729492 -71.245521545410 -170.860549926758 2.830174207687
112.896202087402 -74.620117187500 -172.444946289063 0.716050207615
-144.901733398438 -69.589492797852 -171.165512084961 3.984052181244
18.636671066284 -71.746437072754 -175.910736083984 1.928989648819
113.074829101563 -70.975219726563 -174.324691772461 2.388409376144
26.135416030884 -70.129302978516 -180.298461914063 0.924155473709
103.365913391113 -72.170791625977 -184.260238647461 1.766452074051
-19.482688903809 -69.388732910156 -182.469848632813 3.084156990051
-30.143320083618 -76.212310791016 -182.753524780273 2.016576766968
12.404317855835 -72.404609680176 -190.272766113281 0.624412477016
-27.801908493042 -75.278442382813 -189.453445434570 2.447955846786
-148.203353881836 -72.346717834473 -186.080490112305 1.538010835648
98.955833435059 -74.696418762207 -193.328079223633 0.843175292015
-132.068801879883 -71.044509887695 -191.687591552734 3.638308286667
21.145925521851 -72.546638488770 -195.903930664063 1.734300732613
104.079803466797 -72.825073242188 -195.972854614258 2.406643867493
-121.169700622559 -71.106948852539 -197.281387329102 1.581028819084
104.326408386230 -74.103622436523 -196.594116210938 1.878615975380
12.890767097473 -72.638847351074 -197.079421997070 1.526300430298
-154.512145996094 -67.676452636719 -197.626678466797 0.761093676090
18.830753326416 -73.083305358887 -199.613662719727 1.869885087013
-157.648925781250 -69.883697509766 -198.473632812500 3.449406862259
9.438949584961 -72.946846008301 -197.247299194336 1.572215795517
-121.316322326660 -69.728103637695 -197.886795043945 0.765375673771
8.268598556519 -70.338623046875 -206.661865234375 2.152799129486
-23.573871612549 -69.058837890625 -198.298934936523 1.469691276550
-161.279830932617 -70.283218383789 -201.389572143555 2.768277168274
-156.646194458008 -73.682319641113 -201.292602539063 4.195307254791
-153.662902832031 -71.942558288574 -204.499450683594 1.917726278305
-23.692834854126 -71.534873962402 -206.552230834961 3.148563385010
-152.973937988281 -70.814491271973 -204.646743774414 1.830915212631
-160.409637451172 -71.996818542480 -202.242782592773 1.937952518463
-150.052352905273 -72.297592163086 -203.267303466797 2.188405513763
5.203341960907 -73.410339355469 -209.588363647461 1.341137290001
19.897474288940 -72.518226623535 -206.849380493164 0.567837297916
99.281898498535 -72.790359497070 -210.506607055664 2.251259565353
-150.159210205078 -75.219261169434 -207.977828979492 2.170005083084
-163.071502685547 -69.543914794922 -212.967102050781 2.743269443512
84.410934448242 -73.858901977539 -215.742752075195 1.724811792374
-145.554260253906 -73.258911132813 -214.668243408203 3.226202011108
-4.501004219055 -69.588569641113 -216.733398437500 1.355238199234
7.593935012817 -71.947761535645 -214.628890991211 2.063879489899
17.379747390747 -68.194587707520 -216.590301513672 2.724555492401
15.726072311401 -69.882026672363 -221.255355834961 1.779304504395
-143.562011718750 -72.860282897949 -218.745513916016 1.352340459824
-16.484876632690 -72.114631652832 -222.629852294922 1.830724000931
-21.574529647827 -71.568809509277 -220.549270629883 1.798063516617
-98.147590637207 -71.697547912598 -218.784011840820 1.449947476387
-0.476709991693 -69.866302490234 -224.995269775391 1.495792031288
81.900657653809 -70.881263732910 -227.985488891602 1.539712786674
77.871223449707 -72.282325744629 -222.521377563477 1.884376764297
-98.807525634766 -69.848289489746 -222.421386718750 1.306804776192
11.823111534119 -70.800605773926 -229.792495727539 2.376649618149
87.114517211914 -73.088912963867 -224.100677490234 0.878670156002
-106.589988708496 -73.633224487305 -224.842453002930 2.899935007095
73.812629699707 -74.755447387695 -223.495605468750 4.235800743103
-3.177058935165 -74.354797363281 -227.202880859375 3.110361576080
-19.288114547729 -71.095649719238 -229.002487182617 2.488010168076
-8.543013572693 -71.214233398438 -231.398376464844 0.591162681580
72.042106628418 -72.499954223633 -234.170578002930 0.853754401207
8.151639938354 -71.199226379395 -235.648269653320 1.173181653023
-124.199432373047 -67.774314880371 -231.146087646484 2.609488725662
-163.041458129883 -71.980346679688 -228.362823486328 2.119488000870
75.112953186035 -72.065238952637 -234.704513549805 2.053226709366
-123.680412292480 -70.679389953613 -235.786514282227 2.064351558685
-7.063363075256 -70.851768493652 -236.026428222656 1.314618349075
74.160797119141 -71.007179260254 -237.331726074219 2.611093997955
10.847378730774 -70.706550598145 -237.788635253906 1.988481402397
-2.807815074921 -72.820465087891 -238.287551879883 2.055801630020
-9.447917938232 -70.680564880371 -240.906860351563 0.827778995037
70.600593566895 -72.485115051270 -240.810043334961 1.912389159203
14.884520530701 -71.093307495117 -237.368301391602 1.839979529381
-145.432998657227 -72.885932922363 -243.886459350586 2.045659780502
52.458057403564 -70.413414001465 -246.107666015625 1.944954991341
-11.842672348022 -71.109489440918 -244.221115112305 1.321475982666
-68.639053344727 -71.483543395996 -246.975570678711 1.288617014885
56.767669677734 -69.710166931152 -247.743347167969 1.656615972519
-67.059394836426 -73.393798828125 -250.219970703125 1.025595664978
50.267330169678 -71.917327880859 -250.813156127930 1.787803292274
-91.048942565918 -71.057861328125 -252.034484863281 2.244656324387
20.298217773438 -71.538681030273 -253.024490356445 2.485434293747
45.498748779297 -72.615089416504 -254.251846313477 1.818987965584
-136.277374267578 -71.453453063965 -253.642166137695 2.531787157059
-167.968124389648 -73.459167480469 -256.787628173828 2.688019514084
-109.118103027344 -74.087120056152 -260.993194580078 1.274359464645
-144.465606689453 -73.063316345215 -260.065917968750 2.384349584579
-144.726516723633 -71.876060485840 -262.359710693359 2.223819971085
-14.876749038696 -70.084068298340 -262.671081542969 0.771857500076
21.802558898926 -69.690383911133 -271.949127197266 2.265853166580
-10.013903617859 -71.760017395020 -278.660064697266 0.685763001442
-157.598709106445 -71.950897216797 -277.554168701172 4.024860858917
-130.301513671875 -72.791549682617 -280.391296386719 3.888664245605
