35.498397827148 -73.330940246582 -93.062141418457 10.279556274414
38.965106964111 -76.097183227539 -102.256500244141 3.918462753296
34.293033599854 -72.656066894531 -102.626350402832 6.549752712250
31.961467742920 -72.184783935547 -105.148895263672 7.018055438995
28.967071533203 -75.711959838867 -106.308631896973 8.529974937439
30.569627761841 -73.382369995117 -115.745452880859 3.135623931885
32.175567626953 -75.177680969238 -123.631736755371 1.757235646248
33.545669555664 -77.819862365723 -130.981002807617 1.737156391144
33.377731323242 -79.377548217773 -127.297966003418 2.716594934464
-43.475715637207 -79.573959350586 -144.246170043945 4.316445827484
-44.867893218994 -78.800018310547 -140.804702758789 2.980727434158
-41.750934600830 -77.852653503418 -147.266387939453 2.105461120605
23.225202560425 -78.848762512207 -135.958023071289 3.735818386078
25.077529907227 -75.472221374512 -136.212158203125 1.735841393471
-42.656021118164 -79.484245300293 -145.143493652344 3.880727529526
-41.428070068359 -78.273277282715 -148.247665405273 1.090258121490
-36.783641815186 -76.619041442871 -147.376922607422 4.516186714172
30.107854843140 -74.997352600098 -140.962615966797 3.343502521515
29.184089660645 -75.981796264648 -150.498764038086 2.044560909271
-60.255352020264 -80.316421508789 -156.104095458984 4.768190860748
25.636928558350 -75.246185302734 -148.908248901367 2.479787111282
20.892866134644 -77.423881530762 -151.079757690430 3.237716913223
-59.522014617920 -80.029220581055 -157.152969360352 5.355536937714
-35.002658843994 -78.169982910156 -158.066116333008 3.286583900452
-28.025758743286 -78.710281372070 -157.621795654297 6.241907596588
-25.414808273315 -80.326309204102 -157.480590820313 9.232423782349
-8.923274993896 -75.614456176758 -160.815719604492 6.138833522797
-29.383844375610 -79.187904357910 -166.020812988281 2.152289867401
-24.674510955811 -78.787345886230 -165.742446899414 5.695186614990
-44.869689941406 -82.845794677734 -169.690139770508 5.118651390076
-20.928520202637 -80.247665405273 -170.930480957031 6.046179294586
-49.958572387695 -81.093948364258 -176.113143920898 2.936526298523
-31.436521530151 -80.471397399902 -176.504776000977 3.178032636642
-47.365268707275 -74.390495300293 -179.314392089844 4.480729103088
-30.431428909302 -80.295104980469 -177.901977539063 1.800853013992
-20.497169494629 -77.244926452637 -181.382690429688 2.328715562820
-136.540756225586 -77.190765380859 -192.353042602539 4.487928867340
-11.168096542358 -78.599861145020 -180.958297729492 2.703079938889
-46.381927490234 -81.780059814453 -186.980987548828 2.126055717468
-48.096508026123 -82.808197021484 -188.717910766602 3.329512596130
-137.589660644531 -81.326461791992 -195.872497558594 2.345088243484
-53.977619171143 -82.749870300293 -187.532699584961 2.646143674850
-10.797335624695 -77.417724609375 -186.251708984375 6.140059947968
-9.475130081177 -80.882949829102 -188.265625000000 8.633572578430
-6.145414829254 -79.951889038086 -187.910522460938 10.976459503174
-51.097206115723 -80.968711853027 -191.203125000000 3.500657320023
19.727552413940 -79.464767456055 -186.439132690430 1.890659213066
-7.172304153442 -78.784896850586 -196.579772949219 7.517548561096
19.914678573608 -77.708122253418 -190.118453979492 2.000558853149
-24.259645462036 -80.873077392578 -191.702102661133 1.653693199158
-28.992116928101 -83.435333251953 -193.241363525391 2.647431612015
-8.073885917664 -80.707710266113 -198.176467895508 7.229559898376
-22.416509628296 -78.278587341309 -202.300430297852 2.176590442657
12.736197471619 -80.629310607910 -201.830184936523 1.280705571175
-4.416753768921 -82.652931213379 -204.247909545898 8.252915382385
16.102426528931 -80.061279296875 -201.892028808594 2.600091457367
3.830563068390 -80.077598571777 -208.487213134766 4.461113929749
-141.304595947266 -84.811218261719 -223.816955566406 3.105235576630
-144.996185302734 -80.601913452148 -223.076599121094 1.887329220772
24.474954605103 -79.907531738281 -214.637054443359 7.543856143951
-131.635528564453 -83.492668151855 -226.480606079102 3.200629234314
22.534221649170 -80.931838989258 -217.500900268555 6.370597362518
19.964683532715 -83.564567565918 -218.428771972656 5.851259708405
-141.271697998047 -82.915039062500 -235.138916015625 3.239948511124
-138.016677856445 -83.970115661621 -235.890075683594 5.336627483368
-29.363830566406 -83.331001281738 -231.213699340820 8.137105941772
-28.783765792847 -80.453521728516 -227.691635131836 6.587179660797
-30.417184829712 -79.668495178223 -228.013427734375 6.983819961548
14.690146446228 -82.376686096191 -223.454757690430 3.359419345856
-32.415863037109 -81.360282897949 -229.044387817383 9.477717399597
11.532390594482 -82.694717407227 -226.877639770508 1.000443577766
17.556243896484 -81.655097961426 -232.861251831055 1.809707403183
0.163710996509 -80.840988159180 -235.953033447266 2.611404895782
-0.484252005816 -80.810554504395 -243.589691162109 4.674654960632
-147.147109985352 -83.467803955078 -257.732727050781 1.047861218452
-137.990402221680 -85.753341674805 -257.180633544922 2.147408723831
2.123162984848 -80.716880798340 -245.279174804688 2.545093059540
3.141963958740 -83.711654663086 -253.531494140625 1.124930739403
27.648237228394 -83.791908264160 -253.753753662109 8.497117042542
21.066642761230 -83.096626281738 -258.918212890625 3.840181112289
17.873956680298 -84.694961547852 -264.651794433594 4.242369174957
-139.446670532227 -84.731140136719 -283.331878662109 3.683649778366
-145.380233764648 -86.756782531738 -284.300140380859 2.418526411057
-130.663146972656 -88.292785644531 -283.140838623047 7.123342037201
-74.743736267090 -71.452049255371 -51.161804199219 0.445477068424
-71.753524780273 -72.494964599609 -52.386943817139 2.084169149399
-61.139743804932 -73.521629333496 -50.756496429443 2.510817766190
-57.548435211182 -71.736396789551 -54.415618896484 3.425315141678
-50.203201293945 -73.821037292480 -54.141281127930 0.763880848885
-46.849685668945 -74.467056274414 -55.868320465088 1.936541080475
-52.029094696045 -72.077255249023 -47.969306945801 2.750043869019
-40.266006469727 -72.684684753418 -58.664901733398 1.536028504372
-36.976947784424 -72.367744445801 -56.653827667236 1.888031959534
-33.749427795410 -72.102432250977 -64.071228027344 5.234615802765
-39.036045074463 -72.284736633301 -65.693344116211 6.120003700256
-90.483566284180 -72.297492980957 -75.584968566895 1.396166801453
-51.603664398193 -73.228134155273 -74.102928161621 8.171450614929
-93.587837219238 -76.426124572754 -93.569564819336 1.051025509834
-75.198150634766 -75.327522277832 -88.863891601563 8.459161758423
44.530357360840 -73.778305053711 -84.133232116699 7.815608501434
35.523475646973 -70.802688598633 -90.456291198730 11.420943260193
-88.024696350098 -73.443405151367 -103.160530090332 5.618215084076
35.895294189453 -69.292961120605 -95.833038330078 8.676894187927
36.278671264648 -75.229583740234 -97.317695617676 8.742219924927
36.285717010498 -73.947074890137 -108.389488220215 1.815088987350
30.106336593628 -72.642944335938 -109.019065856934 5.200508117676
35.465133666992 -71.105842590332 -110.954940795898 2.807599782944
35.786983489990 -77.971611022949 -117.068031311035 1.629645109177
24.607711791992 -74.564056396484 -120.644203186035 6.390812397003
32.928081512451 -72.886054992676 -120.536666870117 2.243244647980
30.101873397827 -73.208923339844 -127.357688903809 3.571785688400
-47.344860076904 -78.475234985352 -137.756835937500 2.739975929260
-40.443992614746 -78.093421936035 -141.105133056641 5.422691822052
-45.076591491699 -80.959533691406 -142.293548583984 4.822657108307
-63.472618103027 -81.007293701172 -148.988723754883 6.223322868347
-61.879375457764 -79.067962646484 -154.708358764648 3.543146610260
-66.354225158691 -76.551979064941 -153.773498535156 0.692007958889
-41.923656463623 -78.039291381836 -152.407958984375 2.248059034348
28.842517852783 -73.086540222168 -151.868179321289 3.340995073318
19.628423690796 -76.254776000977 -158.420822143555 1.246809601784
-51.377464294434 -77.129219055176 -163.116180419922 4.921176433563
-29.154850006104 -78.565406799316 -163.141998291016 3.131420612335
-33.667072296143 -79.874320983887 -164.333374023438 1.219117522240
25.653461456299 -77.689369201660 -154.969192504883 0.902041673660
-50.041183471680 -79.100410461426 -166.885604858398 4.906684398651
-56.182125091553 -81.633018493652 -168.590850830078 3.015243768692
-21.665454864502 -78.650062561035 -167.313796997070 7.277875423431
21.044919967651 -77.314010620117 -164.798553466797 2.833381175995
-47.956794738770 -77.659652709961 -171.547164916992 6.283940792084
-44.669097900391 -81.682388305664 -172.539566040039 4.478695869446
23.802576065063 -79.351455688477 -164.786239624023 1.237092137337
-46.911472320557 -75.989387512207 -176.507415771484 4.283459186554
-18.824886322021 -79.256164550781 -171.669143676758 4.998331069946
-25.726659774780 -80.080596923828 -174.592758178711 2.876026153564
19.186920166016 -78.285430908203 -173.184020996094 1.845407485962
-22.641826629639 -75.678680419922 -179.078277587891 1.293849825859
-16.495262145996 -76.914573669434 -177.986389160156 2.059220552444
-11.763604164124 -80.059425354004 -179.214721679688 1.739515185356
24.140113830566 -77.106452941895 -175.395568847656 1.515168547630
-137.458892822266 -81.287879943848 -189.703338623047 6.472567081451
18.952714920044 -77.091506958008 -182.914901733398 0.539117515087
-145.409683227539 -82.226799011230 -193.652770996094 1.169019341469
23.613086700439 -78.245857238770 -179.957672119141 2.475627183914
-40.023651123047 -79.654235839844 -189.746078491211 2.854209423065
-131.467285156250 -80.343315124512 -194.957824707031 3.394567489624
17.222143173218 -78.831703186035 -185.364974975586 0.916360199451
21.055326461792 -79.129493713379 -184.890777587891 2.537075281143
-54.036979675293 -79.287322998047 -194.024948120117 4.267165184021
24.695394515991 -76.592559814453 -185.662322998047 2.141809940338
-53.939826965332 -79.538909912109 -194.609176635742 4.178099155426
-62.195102691650 -78.585533142090 -200.188705444336 5.028017997742
-13.028450012207 -79.892631530762 -187.652175903320 5.803999423981
-12.097765922546 -79.767753601074 -191.804138183594 5.922695159912
-28.197656631470 -83.590797424316 -194.438949584961 4.056797504425
23.967058181763 -76.883628845215 -191.213272094727 2.570860624313
-74.974830627441 -78.644325256348 -199.174041748047 7.933038711548
-142.618041992188 -79.893585205078 -209.749282836914 2.220445394516
12.698110580444 -78.617492675781 -187.798934936523 1.994382977486
-78.578727722168 -79.631042480469 -204.990646362305 3.336890459061
-70.230712890625 -81.426773071289 -201.997283935547 4.992661476135
-4.664824008942 -77.971168518066 -203.295608520508 6.416740894318
-2.878837108612 -80.185852050781 -202.398406982422 8.803881645203
-22.227659225464 -78.309066772461 -203.782791137695 2.032673120499
-140.171264648438 -81.310691833496 -213.957565307617 4.343352317810
-17.992164611816 -82.858825683594 -203.214416503906 3.536936998367
-145.181381225586 -81.320922851563 -214.713180541992 1.899354219437
-2.549179077148 -81.055885314941 -206.381820678711 6.498775482178
19.018295288086 -79.251174926758 -206.232620239258 1.092851519585
23.901388168335 -80.959220886230 -205.409042358398 6.206916332245
23.771894454956 -77.113685607910 -211.144012451172 6.103315830231
14.422080039978 -78.369491577148 -208.898574829102 0.925523519516
9.250259399414 -81.167945861816 -209.421356201172 3.337152957916
-142.489654541016 -77.183578491211 -226.137283325195 2.007317543030
6.213457107544 -79.363708496094 -214.465545654297 1.869868516922
24.774524688721 -77.634193420410 -215.728988647461 7.092510223389
-137.415634155273 -84.709007263184 -229.206024169922 1.350655078888
-140.531143188477 -86.023475646973 -228.004653930664 2.553984880447
6.455204010010 -81.095054626465 -219.934234619141 2.127517938614
-15.595651626587 -80.875946044922 -225.872772216797 4.263081073761
-141.973083496094 -82.547157287598 -233.485351562500 1.497961759567
31.335620880127 -77.025466918945 -226.991485595703 12.219020843506
-44.779205322266 -79.563552856445 -230.565505981445 10.127860069275
16.697904586792 -82.660224914551 -229.091522216797 3.002347946167
-143.649459838867 -84.574378967285 -242.857803344727 3.079375267029
0.235357001424 -81.378158569336 -237.261734008789 3.053990840912
-127.796012878418 -85.574104309082 -251.471954345703 9.861484527588
-142.992752075195 -78.825416564941 -254.458999633789 0.959387004375
-138.020645141602 -86.928787231445 -255.353622436523 3.187097787857
-132.845962524414 -84.197029113770 -258.525573730469 2.054654121399
2.158063888550 -82.646171569824 -255.631576538086 1.458602070808
24.341125488281 -80.011199951172 -258.981079101563 4.373878002167
20.855531692505 -82.413436889648 -265.281707763672 2.806017637253
-130.109252929688 -84.773559570313 -282.287170410156 8.016735076904
-129.601730346680 -86.890731811523 -283.704559326172 7.569519042969
-139.679412841797 -87.386222839355 -297.312255859375 5.058467388153
-73.299430847168 -73.257698059082 -52.331676483154 2.397216320038
-75.717567443848 -72.474044799805 -51.693580627441 1.584700822830
-78.331825256348 -70.880645751953 -53.078330993652 2.536403417587
-40.897056579590 -71.843055725098 -54.521110534668 3.318892955780
-85.177795410156 -72.912086486816 -55.402069091797 3.194249629974
-32.096294403076 -71.632247924805 -59.913135528564 3.248930215836
-51.354091644287 -74.211822509766 -73.704223632813 7.251985549927
-91.582183837891 -75.178108215332 -80.236877441406 2.622621536255
-93.592834472656 -73.963394165039 -84.909255981445 1.382177114487
-75.865356445313 -76.522087097168 -88.530357360840 7.139414310455
-81.882675170898 -73.543807983398 -89.165313720703 7.863440036774
-83.417076110840 -73.431716918945 -93.138885498047 8.234699249268
-91.905326843262 -77.563537597656 -97.064765930176 1.912041187286
42.057655334473 -71.607673645020 -87.332153320313 7.351246356964
45.083263397217 -73.944030761719 -96.365982055664 1.181034564972
32.092632293701 -70.932746887207 -100.554084777832 9.127495765686
38.463459014893 -71.486404418945 -98.167175292969 5.280738353729
33.570896148682 -73.161979675293 -102.435913085938 7.398743629456
29.728786468506 -75.350173950195 -106.157691955566 7.888261795044
37.317928314209 -72.971900939941 -104.486190795898 3.412312507629
29.988725662231 -73.977088928223 -111.739425659180 3.714433908463
38.867244720459 -70.508476257324 -115.332862854004 0.975978434086
26.581104278564 -73.085830688477 -118.713989257813 5.229978084564
35.542770385742 -74.711631774902 -116.003356933594 2.556063175201
31.147117614746 -75.495300292969 -122.916725158691 2.508671045303
25.823402404785 -76.024063110352 -127.535881042480 2.523849010468
28.403379440308 -73.403831481934 -127.108711242676 3.573496103287
23.257925033569 -76.851348876953 -132.620056152344 5.589437961578
-49.736152648926 -74.506118774414 -134.559692382813 1.533581137657
29.862833023071 -77.234970092773 -133.459289550781 1.473296046257
-43.623035430908 -77.179580688477 -138.269790649414 3.581063747406
-42.981384277344 -75.653045654297 -142.311813354492 1.896857976913
30.453262329102 -77.768356323242 -140.653106689453 1.350883483887
-40.240520477295 -74.837181091309 -146.086212158203 3.123455047607
-67.559410095215 -75.666824340820 -147.997283935547 0.567067146301
20.521408081055 -76.070693969727 -145.052505493164 2.604365348816
-62.661735534668 -77.831336975098 -151.442626953125 3.619839191437
-37.502460479736 -75.875991821289 -150.997726440430 3.138638019562
-2.728113889694 -76.070915222168 -151.402847290039 9.622180938721
-30.399248123169 -78.375732421875 -149.901306152344 8.059800148010
-36.094676971436 -79.369613647461 -151.571990966797 3.139048099518
24.743299484253 -75.262107849121 -151.701446533203 1.469432830811
-2.893361091614 -75.244857788086 -150.011032104492 11.000916481018
-41.477596282959 -80.061935424805 -154.656997680664 1.021689772606
-37.602313995361 -77.679138183594 -156.930175781250 1.761886715889
23.084104537964 -75.710311889648 -158.364028930664 2.561384201050
-30.129743576050 -77.945755004883 -157.656860351563 4.297379493713
-29.767776489258 -76.488029479980 -156.506912231445 4.131728172302
-35.397651672363 -75.250419616699 -158.863098144531 1.667054891586
-36.714153289795 -74.877746582031 -165.952102661133 2.535746812820
30.922838211060 -75.469940185547 -152.192764282227 0.514848649502
-34.972312927246 -75.956306457520 -155.844833374023 2.002947330475
28.810028076172 -75.540634155273 -157.021057128906 2.548924446106
-26.936609268188 -79.938850402832 -168.723861694336 3.336376428604
-15.056659698486 -75.724472045898 -162.349227905273 7.939332962036
-15.929401397705 -79.286026000977 -165.352767944336 6.720455169678
-21.777490615845 -76.699340820313 -165.382507324219 7.922732830048
-17.629968643188 -73.259254455566 -165.022872924805 9.032806396484
-22.389335632324 -74.319274902344 -167.357467651367 6.016422271729
-21.391822814941 -75.192497253418 -170.751037597656 5.900432109833
-28.191526412964 -78.719032287598 -171.840576171875 2.308838367462
-16.565896987915 -75.853393554688 -171.244247436523 4.067845344543
-28.641370773315 -76.234237670898 -172.442230224609 1.311176896095
25.843099594116 -75.131492614746 -167.803527832031 2.678666591644
-36.649620056152 -77.280197143555 -180.363815307617 3.226936340332
-139.226409912109 -82.041107177734 -184.006179809570 6.393717288971
-145.011703491211 -79.709625244141 -185.908660888672 2.765332937241
-48.003978729248 -78.933708190918 -184.305908203125 0.635016322136
-144.175643920898 -77.234840393066 -192.367309570313 2.327076911926
-17.270074844360 -79.068649291992 -182.751586914063 1.833274364471
-144.721328735352 -81.539604187012 -197.183090209961 1.877744078636
15.869295120239 -78.305297851563 -185.669342041016 1.432199120522
-19.044261932373 -76.778572082520 -186.888046264648 0.982190251350
-12.450228691101 -77.063789367676 -185.686370849609 4.469979286194
-20.727832794189 -77.736976623535 -195.154891967773 1.757846951485
-31.378555297852 -77.291015625000 -190.127716064453 1.518874049187
14.476123809814 -77.675735473633 -187.283615112305 0.563077330589
-57.720256805420 -78.536712646484 -199.565277099609 3.188787460327
-60.621360778809 -80.451431274414 -200.940322875977 2.597605943680
-12.274304389954 -76.853523254395 -199.026199340820 2.833412170410
-20.730634689331 -78.410964965820 -199.966094970703 1.338568568230
-76.001304626465 -80.167236328125 -202.803359985352 4.342464923859
-73.638885498047 -78.384445190430 -206.185699462891 2.581706762314
15.332989692688 -78.621414184570 -193.951965332031 2.398004055023
-22.668991088867 -83.536277770996 -198.407394409180 4.928835391998
-6.688391208649 -78.961433410645 -203.951858520508 5.360947132111
-18.616399765015 -80.202568054199 -198.693115234375 2.213319063187
15.818978309631 -78.169136047363 -200.866729736328 1.908909440041
-13.931624412537 -80.098167419434 -206.056198120117 2.258133649826
-18.227512359619 -78.976814270020 -206.299118041992 2.835155487061
-5.362203121185 -79.922538757324 -206.752395629883 4.441555500031
22.354284286499 -77.832511901855 -202.149536132813 1.800353407860
7.654660224915 -76.494575500488 -206.600952148438 1.910159587860
6.823647022247 -79.666778564453 -207.677581787109 2.560253620148
21.746425628662 -77.557991027832 -211.020477294922 4.715759277344
-127.483200073242 -80.388069152832 -220.804595947266 7.834543704987
-143.684127807617 -80.283950805664 -223.388458251953 1.868436694145
14.252717018127 -75.262313842773 -212.167419433594 2.626210927963
20.728940963745 -78.448692321777 -211.874847412109 4.562468051910
14.687917709351 -79.077217102051 -219.936965942383 2.371333360672
4.064733028412 -79.175697326660 -219.055389404297 3.844722747803
7.602553844452 -80.307456970215 -219.639068603516 1.877450108528
-17.127466201782 -79.729606628418 -227.011169433594 2.312519073486
18.435110092163 -78.267356872559 -226.625244140625 0.996668159962
-28.336585998535 -81.853065490723 -226.708145141602 6.715269565582
-41.912776947021 -80.182899475098 -228.590637207031 11.653623580933
-18.666755676270 -80.087333679199 -228.718261718750 2.737660408020
-50.591613769531 -79.562805175781 -234.132141113281 8.519067764282
-47.990268707275 -80.206405639648 -235.854980468750 6.789597034454
-43.291297912598 -80.657875061035 -233.167068481445 7.513812541962
-42.646644592285 -77.125770568848 -234.498199462891 5.806107521057
-0.139694005251 -78.647216796875 -236.750701904297 1.491150379181
-140.103576660156 -87.001029968262 -242.641555786133 6.232082843781
-130.822067260742 -83.009109497070 -248.010742187500 10.339486122131
25.029098510742 -79.989784240723 -238.129760742188 5.651988983154
-148.076339721680 -82.585929870605 -256.311584472656 0.893284678459
-136.705307006836 -86.574424743652 -255.113037109375 2.722375869751
-144.368911743164 -79.559562683105 -258.223052978516 2.664600610733
-140.923080444336 -85.109779357910 -262.286285400391 2.415616035461
3.041337966919 -80.314674377441 -255.483337402344 3.200072050095
-140.052230834961 -83.351951599121 -272.684967041016 7.228923320770
9.193948745728 -81.152427673340 -264.302703857422 3.532868623734
17.938791275024 -80.256614685059 -264.496063232422 1.718546509743
13.428598403931 -78.890335083008 -268.573486328125 3.583980083466
-129.749435424805 -85.813407897949 -282.992584228516 7.782967567444
-16.787118911743 -81.002090454102 -277.455688476563 7.221013069153
-13.547513008118 -80.310485839844 -275.370788574219 4.534878253937
22.823953628540 -83.354736328125 -273.008178710938 6.208757400513
-137.607818603516 -85.282402038574 -300.408172607422 7.136117935181
-132.705963134766 -86.644058227539 -300.430206298828 11.189496040344
-136.138305664063 -87.246879577637 -305.129241943359 10.861949920654
-59.994289398193 -70.064056396484 -46.504306793213 0.943789362907
-55.664485931396 -69.702598571777 -45.102191925049 3.170292615891
-64.512084960938 -71.597450256348 -48.428920745850 2.234998941422
-55.761920928955 -71.970840454102 -45.505451202393 2.976025342941
-84.439620971680 -72.369895935059 -51.151401519775 4.608542442322
-47.926898956299 -70.132614135742 -46.914161682129 2.082274913788
-39.048538208008 -70.243278503418 -51.136432647705 2.477805852890
-40.442016601563 -70.172172546387 -51.594516754150 3.089884996414
-87.009140014648 -73.874252319336 -61.591083526611 3.869944334030
-89.119590759277 -71.504684448242 -59.905548095703 3.292897224426
-31.653381347656 -67.110076904297 -53.141742706299 2.360568761826
-31.968967437744 -69.585533142090 -65.141487121582 7.625810146332
68.709091186523 -69.364616394043 -61.325283050537 4.647406101227
-44.813652038574 -75.575012207031 -72.550941467285 5.608600616455
83.442504882813 -70.500190734863 -61.950496673584 2.809912681580
83.621002197266 -69.097862243652 -63.638927459717 1.972496986389
70.539176940918 -67.089149475098 -63.021549224854 1.530662536621
68.370391845703 -69.832366943359 -64.506843566895 4.693312644958
72.793022155762 -69.470718383789 -64.987007141113 3.058897256851
82.147804260254 -69.461273193359 -67.167930603027 2.864581108093
-96.197402954102 -73.529106140137 -82.335960388184 2.514798164368
-66.149024963379 -72.468223571777 -84.965698242188 8.005281448364
-67.037017822266 -74.025177001953 -85.613861083984 7.959336757660
-72.196510314941 -74.172645568848 -90.219841003418 7.636615753174
-80.013687133789 -71.339790344238 -89.901390075684 9.658647537231
-83.550109863281 -74.677482604980 -90.415275573730 6.598660945892
37.948860168457 -69.711532592773 -84.303733825684 12.311307907104
40.182357788086 -70.126060485840 -86.074073791504 9.516301155090
33.100513458252 -71.439338684082 -87.578887939453 15.012011528015
-91.837562561035 -71.614280700684 -100.719886779785 4.500339508057
-94.749137878418 -70.655334472656 -104.771629333496 0.873072683811
-90.735603332520 -71.335472106934 -101.636978149414 4.410805702209
34.458271026611 -70.557624816895 -98.458869934082 8.289122581482
31.130207061768 -70.525253295898 -101.684913635254 9.697081565857
29.244157791138 -75.022994995117 -106.911277770996 7.863134384155
36.914642333984 -72.232437133789 -108.784767150879 1.676208734512
25.324314117432 -74.511703491211 -114.486228942871 7.798637866974
-51.348278045654 -72.499351501465 -120.426910400391 7.683845996857
-47.130916595459 -73.870468139648 -129.231292724609 4.972223281860
-42.762401580811 -70.518699645996 -132.736724853516 5.643809795380
-43.884239196777 -80.786460876465 -138.825531005859 5.426133632660
-52.171245574951 -76.435432434082 -135.531478881836 1.277089715004
-48.042140960693 -74.941528320313 -139.116363525391 1.454089045525
-56.637733459473 -70.975028991699 -133.198379516602 0.772931814194
-71.855499267578 -78.232383728027 -139.008056640625 4.073292732239
20.860445022583 -73.465461730957 -139.035049438477 4.271314144135
-65.719001770020 -76.479972839355 -146.563613891602 2.880136251450
-69.083198547363 -72.728408813477 -140.454330444336 1.626865267754
33.055282592773 -74.134483337402 -137.046569824219 2.122104406357
26.075569152832 -75.158531188965 -137.770065307617 0.795754849911
-68.699493408203 -78.994689941406 -146.849548339844 3.932812213898
-38.796150207520 -75.746238708496 -144.502456665039 5.281720638275
28.500501632690 -72.446228027344 -142.175430297852 1.914564251900
-44.279659271240 -74.820106506348 -142.144515991211 0.543746829033
111.973175048828 -72.608871459961 -130.124816894531 1.496426939964
30.012672424316 -77.086105346680 -145.102844238281 2.778352260590
-39.832790374756 -74.342941284180 -156.611801147461 2.775121450424
111.850471496582 -73.615768432617 -141.493774414063 1.916054487228
-56.843173980713 -75.616844177246 -154.061386108398 5.285118103027
27.319919586182 -73.588424682617 -140.444564819336 0.719093918800
-41.090793609619 -73.853927612305 -152.699874877930 2.316696405411
32.841243743896 -74.706710815430 -146.064971923828 2.276384353638
111.566329956055 -69.376136779785 -140.568801879883 2.420033693314
24.154983520508 -75.279106140137 -154.174209594727 1.713616371155
-57.091827392578 -75.274978637695 -159.863052368164 4.750760555267
29.759435653687 -74.656074523926 -153.245071411133 2.278037309647
22.216972351074 -77.425376892090 -152.280441284180 2.174591779709
-5.826209068298 -77.367378234863 -158.423553466797 6.384164810181
-11.269145965576 -76.410133361816 -161.674026489258 6.606564521790
-58.402862548828 -76.370765686035 -167.962509155273 0.982777774334
112.013206481934 -74.889228820801 -151.028747558594 1.401030182838
-26.128259658813 -76.514633178711 -166.681106567383 4.075424671173
109.802085876465 -71.726943969727 -154.442474365234 2.262006521225
22.747545242310 -75.731369018555 -160.588714599609 2.239966392517
-21.230455398560 -76.694900512695 -168.074508666992 7.300949096680
18.711696624756 -76.330871582031 -165.727981567383 2.837654590607
-25.843139648438 -74.625457763672 -171.056243896484 2.040919542313
105.684173583984 -71.700508117676 -161.769607543945 2.894342422485
-51.444198608398 -76.635231018066 -172.344314575195 3.327788352966
107.365722656250 -76.281661987305 -161.378021240234 2.381888151169
-44.609260559082 -76.236167907715 -178.353485107422 5.427641391754
26.683914184570 -73.314628601074 -170.510971069336 1.970263242722
22.075046539307 -77.076858520508 -171.100891113281 1.324669599533
-22.368858337402 -79.775405883789 -177.513336181641 2.649866342545
107.182052612305 -74.060256958008 -163.932540893555 1.975671410561
-42.471847534180 -77.150985717773 -173.777450561523 2.333375453949
103.266967773438 -74.123977661133 -173.515426635742 3.121111869812
-13.932272911072 -78.481163024902 -180.172515869141 2.117940187454
-19.573949813843 -76.486541748047 -181.053924560547 2.137288093567
-13.752221107483 -75.341499328613 -177.042633056641 2.261655330658
-23.193256378174 -77.767425537109 -183.512847900391 1.231749415398
-21.421686172485 -74.354148864746 -183.251739501953 1.708036661148
102.054954528809 -69.509277343750 -170.718475341797 5.360921382904
-129.444046020508 -77.296836853027 -192.558135986328 4.540920257568
-38.299579620361 -76.070922851563 -188.836654663086 4.874157905579
-37.506858825684 -77.688171386719 -186.534179687500 5.129868507385
-144.188720703125 -82.130081176758 -197.160263061523 1.372182130814
-37.695049285889 -80.400878906250 -182.270904541016 4.799664497375
19.471284866333 -76.664154052734 -180.796859741211 1.369896650314
98.187438964844 -74.200202941895 -179.640670776367 6.556006908417
104.108253479004 -75.341697692871 -178.234588623047 3.044398546219
17.167882919312 -76.568695068359 -181.712585449219 1.787923574448
-32.729866027832 -77.961921691895 -193.170227050781 2.364770412445
18.551185607910 -77.433013916016 -185.592147827148 1.416244268417
21.862329483032 -75.202857971191 -187.745529174805 1.781470894814
101.924674987793 -79.246360778809 -177.710449218750 4.989810466766
20.221029281616 -74.865585327148 -191.688003540039 2.010451316833
-29.788627624512 -75.194335937500 -194.099304199219 1.954638123512
15.794235229492 -77.718635559082 -189.326629638672 2.102928400040
100.880187988281 -73.278022766113 -183.435760498047 2.750058889389
-139.490661621094 -80.094070434570 -205.813949584961 3.958760738373
-12.816018104553 -77.801231384277 -192.182373046875 3.940063238144
11.511679649353 -79.178855895996 -194.310394287109 3.061381101608
0.714312016964 -78.029716491699 -198.166061401367 8.762310981750
-2.236058950424 -80.456161499023 -199.961532592773 10.017792701721
20.779308319092 -76.415222167969 -192.973052978516 2.195131301880
-19.559709548950 -73.928550720215 -198.528244018555 2.729184627533
-85.735023498535 -79.295761108398 -204.175079345703 7.997552394867
-145.635696411133 -80.861595153809 -213.483963012695 2.511033058167
13.891727447510 -74.541015625000 -198.378952026367 2.526759862900
-21.870044708252 -76.318702697754 -205.882553100586 2.463512659073
-5.860915184021 -77.846389770508 -204.743911743164 5.261294841766
-137.258789062500 -82.215118408203 -220.017150878906 6.432711124420
-2.928802013397 -75.662719726563 -206.757095336914 4.609507560730
15.772750854492 -76.561027526855 -198.974700927734 0.895835220814
12.942354202271 -78.755302429199 -212.173828125000 1.280811667442
3.824938058853 -75.511886596680 -206.517639160156 2.559558868408
0.157883003354 -77.371192932129 -211.925460815430 5.543066978455
7.542063236237 -76.952491760254 -216.596939086914 1.868617653847
25.141378402710 -76.867355346680 -215.404220581055 7.296951293945
-143.735656738281 -81.994842529297 -230.043426513672 1.390345335007
12.387963294983 -77.899337768555 -216.747772216797 1.093299508095
-21.663928985596 -78.184196472168 -222.790618896484 1.970010399818
20.410511016846 -77.792251586914 -218.293441772461 3.129150152206
15.796213150024 -78.887809753418 -221.949325561523 0.998226225376
-43.956314086914 -79.370513916016 -229.300018310547 11.099088668823
-16.048727035522 -78.471641540527 -223.793380737305 2.100533246994
-142.636489868164 -81.312545776367 -241.149581909180 1.853382349014
30.605325698853 -76.047470092773 -224.825149536133 11.883395195007
-37.134136199951 -81.171356201172 -232.878204345703 7.256850242615
-44.466766357422 -80.810028076172 -232.674545288086 8.348970413208
-50.478034973145 -80.716850280762 -235.746078491211 7.799512863159
-138.462799072266 -81.902900695801 -246.372222900391 7.023568630219
-1.965687036514 -78.401496887207 -236.008972167969 2.281011581421
-144.465347290039 -82.257835388184 -247.532501220703 1.050938844681
-145.165771484375 -79.834434509277 -248.902816772461 0.967897236347
-124.754074096680 -82.870628356934 -252.588607788086 7.841979980469
-143.815765380859 -85.642097473145 -258.583526611328 1.853380918503
-3.731954097748 -77.380332946777 -250.258590698242 1.650367140770
28.652959823608 -79.829048156738 -256.701843261719 7.530094623566
28.194627761841 -80.622589111328 -252.654235839844 7.231911659241
21.702247619629 -79.958251953125 -264.235656738281 2.204886198044
18.987625122070 -78.296646118164 -267.107116699219 1.228254079819
-20.487058639526 -80.695106506348 -269.503173828125 8.314774513245
-29.091917037964 -81.797126770020 -271.236236572266 15.610702514648
-29.253311157227 -82.693405151367 -273.987152099609 13.738695144653
-3.981971979141 -79.651725769043 -274.064117431641 1.643698334694
-26.586069107056 -83.648765563965 -271.205261230469 15.148215293884
-41.556644439697 -80.920578002930 -275.072967529297 11.788976669312
10.421651840210 -83.750045776367 -272.932464599609 3.057593107224
-119.655578613281 -83.003875732422 -285.033325195313 6.635194301605
13.674669265747 -82.009796142578 -270.612884521484 0.861091196537
19.303281784058 -77.784652709961 -270.886047363281 0.731825351715
-34.512996673584 -81.953712463379 -278.813140869141 9.135147094727
27.085481643677 -80.443092346191 -270.657684326172 7.354898929596
-9.859089851379 -81.881706237793 -275.588531494141 3.989599704742
-114.819908142090 -83.631835937500 -283.919830322266 8.172632217407
-18.938652038574 -82.900619506836 -275.465789794922 9.931624412537
-7.846438884735 -81.268211364746 -275.614532470703 2.918039083481
17.441886901855 -78.779754638672 -274.529907226563 1.277456641197
-133.722473144531 -84.443389892578 -287.219360351563 2.212306261063
-143.309722900391 -84.222312927246 -301.030700683594 3.380645513535
-131.609466552734 -83.641098022461 -304.825805664063 13.321607589722
-65.621490478516 -68.849884033203 -43.748672485352 1.356364130974
-75.875427246094 -70.544715881348 -45.296005249023 3.952752828598
-80.227996826172 -70.423377990723 -50.352867126465 2.091632127762
-42.150756835938 -69.447441101074 -45.943592071533 2.306086063385
-39.815944671631 -69.626785278320 -49.004653930664 2.465623378754
-95.296661376953 -69.983406066895 -63.910804748535 4.282278537750
-95.583824157715 -73.066177368164 -68.153755187988 4.908297061920
74.298484802246 -66.378417968750 -51.725479125977 8.640881538391
76.793251037598 -67.449401855469 -55.134414672852 6.564858913422
-39.773479461670 -73.642333984375 -63.962387084961 4.196516513824
70.966148376465 -66.745750427246 -60.191745758057 3.426321744919
81.491401672363 -67.894683837891 -59.300712585449 3.236890554428
-92.421920776367 -73.561805725098 -74.726089477539 1.176574349403
-92.262420654297 -76.169860839844 -75.747611999512 3.602657079697
86.988838195801 -68.702804565430 -63.379676818848 1.726356029510
-58.950340270996 -70.138809204102 -79.549446105957 7.707843780518
80.787567138672 -71.623298645020 -69.592315673828 1.025939345360
82.713417053223 -71.224449157715 -73.067268371582 3.671471595764
84.591621398926 -67.812271118164 -70.812500000000 4.382874488831
50.080314636230 -71.270500183105 -80.314743041992 8.191381454468
-81.483055114746 -69.189918518066 -93.836463928223 6.137003898621
47.556339263916 -70.607162475586 -87.439109802246 2.737516403198
44.659667968750 -68.555931091309 -93.680076599121 2.475842952728
45.978878021240 -72.951667785645 -96.505500793457 1.514230728149
39.267673492432 -71.967330932617 -99.779693603516 3.823248624802
25.350971221924 -70.179969787598 -103.132423400879 12.960368156433
28.668497085571 -70.663925170898 -109.336326599121 6.170456886292
27.774345397949 -70.301460266113 -113.742942810059 5.670875072479
25.355442047119 -72.083946228027 -121.907218933105 5.681650638580
34.634559631348 -72.125701904297 -122.276016235352 1.273054242134
114.231445312500 -65.457496643066 -113.527305603027 4.467384338379
24.750907897949 -73.375778198242 -121.361785888672 6.344762325287
114.757110595703 -70.882102966309 -115.682334899902 2.016664743423
-52.808193206787 -72.166923522949 -125.579040527344 3.629821300507
-53.363643646240 -73.822563171387 -129.411178588867 2.764975786209
114.323539733887 -70.504531860352 -120.930252075195 1.625965237617
111.513031005859 -68.785537719727 -123.794921875000 2.672443151474
24.551836013794 -70.917961120605 -132.663726806641 4.366852283478
-53.455226898193 -74.639114379883 -137.742599487305 1.588682889938
-49.640972137451 -74.168380737305 -135.764373779297 1.476424098015
34.580429077148 -72.060752868652 -131.369888305664 1.479292988777
32.776069641113 -70.089538574219 -135.917922973633 2.483065605164
30.341602325439 -71.254554748535 -137.989990234375 1.384357929230
25.972593307495 -71.971755981445 -134.407669067383 2.137755632401
-44.936519622803 -70.742660522461 -145.675308227539 1.274091959000
22.436182022095 -74.652511596680 -136.171188354492 4.071377754211
0.192366003990 -71.587196350098 -138.391128540039 14.419485092163
-2.359205961227 -74.232498168945 -146.258712768555 12.273067474365
7.254305839539 -72.172637939453 -144.049530029297 6.193452358246
24.418489456177 -73.338829040527 -147.855987548828 1.885053157806
-30.425640106201 -74.372016906738 -152.830078125000 5.149023532867
28.962503433228 -74.150100708008 -149.724975585938 3.293197870255
110.577018737793 -70.018844604492 -139.638473510742 1.965511560440
21.536731719971 -73.787635803223 -154.144073486328 1.541720390320
-7.172889232635 -74.439437866211 -154.296386718750 10.211701393127
-28.186431884766 -74.947746276855 -157.891662597656 4.279588699341
-7.015629768372 -71.953269958496 -159.663070678711 6.640283584595
22.363330841064 -75.650024414063 -153.846267700195 2.117813110352
-55.898857116699 -73.628395080566 -162.982406616211 3.547005176544
-53.430366516113 -77.374382019043 -163.890853881836 5.452432155609
20.358644485474 -75.425384521484 -160.627731323242 1.323397397995
113.497703552246 -73.562850952148 -154.435607910156 1.684310078621
16.692306518555 -74.853736877441 -162.105300903320 3.143608808517
21.028337478638 -74.930641174316 -161.553268432617 0.541897475719
108.164695739746 -69.799369812012 -155.481491088867 0.579709649086
-54.057792663574 -77.893043518066 -170.359558105469 2.796872138977
33.187145233154 -74.278633117676 -168.432632446289 3.173049211502
-16.872543334961 -75.644767761230 -166.198501586914 7.116271972656
-43.207027435303 -75.525955200195 -174.757675170898 2.712349653244
-141.286209106445 -83.599662780762 -180.911010742188 7.963025093079
105.427757263184 -72.184913635254 -161.332656860352 3.116400003433
-145.566574096680 -80.508064270020 -189.374023437500 2.061075925827
26.960697174072 -76.779907226563 -176.113220214844 2.003544807434
-28.967826843262 -75.545028686523 -175.259292602539 2.073410987854
-45.633602142334 -76.390060424805 -181.160308837891 4.514414310455
-21.003625869751 -76.682106018066 -181.317398071289 1.654063701630
99.737510681152 -72.203666687012 -171.675949096680 6.365150451660
-33.122524261475 -75.461059570313 -185.898483276367 1.425444602966
11.994672775269 -76.365135192871 -185.296920776367 2.505882978439
100.392570495605 -72.511924743652 -174.604492187500 5.225260734558
15.562194824219 -76.333259582520 -186.538879394531 2.108505964279
25.037788391113 -75.146827697754 -183.242843627930 1.251413226128
-6.485922813416 -76.854286193848 -189.603057861328 9.606582641602
21.415473937988 -77.307434082031 -181.304382324219 1.533815383911
-33.102039337158 -76.312713623047 -196.091171264648 4.446053981781
-5.540977954865 -77.832458496094 -187.915756225586 11.485513687134
-15.268523216248 -75.421363830566 -191.654846191406 1.954638481140
-70.489227294922 -77.383293151855 -197.899673461914 8.133646965027
-28.400978088379 -75.368659973145 -195.607757568359 0.322783559561
13.820031166077 -78.214134216309 -188.328582763672 1.027963399887
-6.238883972168 -76.854713439941 -192.114425659180 8.879874229431
99.398429870605 -72.920928955078 -193.638397216797 1.186380267143
-6.604170799255 -74.290138244629 -199.602447509766 5.077391624451
-14.036901473999 -78.110229492188 -200.409912109375 1.422395467758
-74.591278076172 -77.091094970703 -207.318679809570 2.409463405609
-142.420623779297 -78.224411010742 -212.151184082031 1.548186898232
22.303533554077 -74.039283752441 -197.299789428711 1.301036834717
1.570906996727 -74.271041870117 -199.185836791992 7.265795230865
-13.788577079773 -77.495216369629 -202.099624633789 0.662118315697
-6.780674934387 -77.072715759277 -201.181289672852 4.306978702545
-14.486702919006 -77.313362121582 -206.218521118164 1.205564737320
8.525484085083 -74.708053588867 -201.789443969727 1.500735521317
-142.799392700195 -81.521812438965 -212.570404052734 1.551542043686
-13.020809173584 -78.202690124512 -209.484146118164 2.455939769745
88.194358825684 -75.549545288086 -199.921264648438 6.510818958282
-6.055087089539 -74.866950988770 -208.293991088867 2.582653999329
1.237933039665 -78.898780822754 -210.507339477539 6.494858264923
-18.030668258667 -78.605712890625 -212.492309570313 2.077460289001
-148.891784667969 -80.993614196777 -224.018981933594 2.356120109558
84.933784484863 -76.188850402832 -208.066543579102 5.496653079987
-4.134035110474 -79.311279296875 -211.031173706055 3.298256874084
-131.262145996094 -76.483406066895 -224.009475708008 1.954333662987
-140.130508422852 -79.312614440918 -227.251312255859 2.160081148148
-131.221603393555 -83.497619628906 -223.816085815430 4.787898063660
6.718444824219 -77.110359191895 -215.664566040039 2.519225835800
-139.215270996094 -80.252922058105 -228.119628906250 2.757383346558
10.762406349182 -74.928115844727 -216.543914794922 3.325378417969
27.056913375854 -76.488609313965 -222.014801025391 8.165608406067
4.721433162689 -75.070304870605 -225.040817260742 0.843658864498
-39.955806732178 -73.731750488281 -228.255004882813 12.006896018982
-40.987510681152 -78.652748107910 -226.694595336914 13.375415802002
-18.754291534424 -78.984146118164 -227.450622558594 1.059857964516
-138.439285278320 -77.742858886719 -236.483413696289 5.176383018494
-31.141515731812 -78.630081176758 -228.863052368164 7.681646823883
-59.572246551514 -81.959152221680 -237.050338745117 7.715933322906
-43.316349029541 -75.645095825195 -234.185485839844 6.695230960846
-52.599433898926 -77.537780761719 -238.208282470703 4.792377471924
-64.797332763672 -79.928749084473 -238.219833374023 8.753212928772
-133.287033081055 -77.517608642578 -250.270553588867 6.398366451263
28.220249176025 -79.574256896973 -240.963577270508 7.406011581421
-119.343330383301 -80.643188476563 -253.961898803711 6.933223247528
-0.001973999897 -83.572830200195 -251.867095947266 2.860439062119
-4.533319950104 -75.798500061035 -253.965103149414 4.227040290833
29.048686981201 -77.620002746582 -256.549316406250 6.871662616730
-137.205947875977 -80.575721740723 -274.246429443359 9.425593376160
7.630690097809 -77.856224060059 -265.512878417969 5.903584957123
-144.382247924805 -82.808898925781 -277.954956054688 1.925385236740
-120.842727661133 -84.037101745605 -282.638824462891 8.992785453796
-16.796743392944 -78.634529113770 -271.120361328125 4.380599975586
-123.772102355957 -84.217140197754 -281.813598632813 8.755221366882
-54.747898101807 -82.151489257813 -274.488677978516 11.970777511597
-127.144210815430 -81.527824401855 -280.368804931641 7.032667160034
20.060981750488 -78.814208984375 -271.629974365234 1.012184858322
-108.720275878906 -83.619308471680 -284.024230957031 10.783210754395
-54.641948699951 -81.956573486328 -275.735290527344 10.876443862915
-130.242904663086 -83.241737365723 -284.700866699219 6.616560459137
-45.221736907959 -80.029281616211 -276.589599609375 10.284092903137
-21.226747512817 -79.432617187500 -272.681854248047 8.957454681396
6.157709121704 -79.895584106445 -273.495971679688 3.454374313354
-130.778808593750 -81.668518066406 -291.096221923828 4.951437950134
-145.335296630859 -81.147338867188 -289.251556396484 1.893962740898
-140.221542358398 -83.551345825195 -288.813232421875 2.397223234177
-133.287582397461 -84.360160827637 -293.527435302734 5.898259639740
-130.475296020508 -81.722152709961 -296.778717041016 7.356430530548
-52.239353179932 -66.969474792480 -43.353126525879 4.175177097321
-69.089813232422 -66.321868896484 -43.754863739014 2.533173084259
-68.549674987793 -69.908935546875 -44.950016021729 1.991765379906
-50.551265716553 -70.545921325684 -46.090358734131 1.802825093269
-43.024227142334 -69.788955688477 -46.831775665283 2.188687801361
-41.129379272461 -67.582244873047 -45.084815979004 2.878855943680
-33.630764007568 -68.113189697266 -49.024848937988 3.715948343277
-34.718116760254 -67.580841064453 -50.777107238770 3.705568552017
-29.432992935181 -70.537857055664 -58.338008880615 3.843959331512
85.554435729980 -66.017822265625 -52.661834716797 7.809738159180
69.278984069824 -67.470001220703 -53.595214843750 10.018990516663
65.925926208496 -64.896453857422 -51.222126007080 12.149343490601
-42.406436920166 -71.625015258789 -66.365310668945 7.061574459076
-49.564064025879 -66.009529113770 -70.964279174805 8.775559425354
-54.464508056641 -67.936355590820 -75.308135986328 6.054303646088
-55.410087585449 -71.456146240234 -75.262779235840 9.455733299255
-93.778465270996 -76.886116027832 -85.457870483398 3.985495567322
67.108268737793 -67.889961242676 -74.810157775879 1.504978418350
90.409584045410 -67.381614685059 -71.800209045410 4.800789833069
72.231063842773 -68.807548522949 -72.989295959473 2.551597356796
-95.385437011719 -72.071945190430 -92.560447692871 2.008222818375
74.345863342285 -66.696136474609 -72.512405395508 4.671202182770
45.933670043945 -69.202186584473 -77.402824401855 12.226307868958
50.294021606445 -68.625778198242 -79.286064147949 8.140279769897
38.771900177002 -67.907760620117 -84.323997497559 11.862927436829
40.384487152100 -66.252861022949 -79.363136291504 14.199453353882
41.193790435791 -67.624160766602 -83.207031250000 10.612767219543
-94.126701354980 -71.379539489746 -96.094894409180 0.771530270576
43.553810119629 -72.503761291504 -92.023483276367 4.380196094513
32.286167144775 -72.631095886230 -96.145088195801 11.528006553650
29.402984619141 -68.671623229980 -107.309448242188 7.991444587708
107.599479675293 -67.291069030762 -98.279411315918 2.543404102325
107.630874633789 -68.073654174805 -98.783287048340 2.082256078720
105.887107849121 -67.808547973633 -99.717590332031 1.551549196243
110.119026184082 -69.867301940918 -103.706596374512 0.641907274723
38.283752441406 -70.753623962402 -113.696540832520 1.751196265221
39.590602874756 -69.511169433594 -118.591735839844 1.543016076088
27.561426162720 -70.016441345215 -117.007324218750 5.557898521423
22.404893875122 -70.607307434082 -124.338256835938 8.065469741821
109.100128173828 -70.055992126465 -118.129776000977 2.647616863251
110.843025207520 -70.089347839355 -123.131759643555 1.786431074142
-47.674472808838 -69.813148498535 -136.122985839844 1.837564349174
22.215070724487 -70.142547607422 -127.726814270020 7.826099395752
-67.005264282227 -74.186332702637 -141.638656616211 1.756043195724
-72.023628234863 -70.708168029785 -140.753143310547 2.127932071686
109.271896362305 -71.974777221680 -129.600296020508 1.478607654572
115.098304748535 -70.384941101074 -130.172119140625 2.045032739639
31.888320922852 -71.360092163086 -136.804977416992 1.009495258331
-69.733230590820 -73.539054870605 -143.723815917969 0.972716391087
4.030402183533 -70.223838806152 -141.865203857422 9.387959480286
3.906729936600 -70.631584167480 -141.570220947266 9.685478210449
-64.253494262695 -70.921752929688 -150.560729980469 2.511431932449
-42.919055938721 -74.154663085938 -151.251647949219 1.687903761864
23.792352676392 -74.313209533691 -148.890502929688 1.646268486977
108.181716918945 -74.291831970215 -133.650650024414 3.362110376358
32.499622344971 -70.507194519043 -143.736541748047 2.025465011597
2.027987003326 -71.858413696289 -149.232467651367 6.946615695953
19.789283752441 -75.625610351563 -147.846191406250 2.523290634155
-61.848838806152 -74.794273376465 -155.035720825195 2.405794143677
-60.021297454834 -74.240379333496 -156.986053466797 4.084324359894
-41.578315734863 -73.377082824707 -156.255203247070 2.461349487305
28.096698760986 -72.244956970215 -152.269134521484 2.526698350906
21.211431503296 -74.336219787598 -152.102325439453 0.691800177097
29.146011352539 -73.187736511230 -149.470565795898 2.629961967468
23.154676437378 -69.661109924316 -154.537734985352 1.246726512909
-26.544734954834 -71.558090209961 -159.829086303711 4.850677490234
18.355205535889 -73.114250183105 -157.735214233398 1.667215943336
19.394855499268 -71.263397216797 -160.690856933594 2.087597846985
